7.552174851298332214e-03 -5.938351526856422424e-02 3.935334831476211548e-02
6.427429616451263428e-05 -4.113443940877914429e-02 4.307343065738677979e-02
5.642629265785217285e-01 -1.585367023944854736e-01 2.369880303740501404e-02
5.316913723945617676e-01 -1.597292423248291016e-01 2.076794952154159546e-02
5.538079142570495605e-01 -1.575658768415451050e-01 3.922984376549720764e-02
5.237160921096801758e-01 -1.620662957429885864e-01 3.251246362924575806e-02
-4.246470928192138672e-01 2.514366209506988525e-01 4.887238517403602600e-02
-4.451923370361328125e-01 2.542226314544677734e-01 4.548525065183639526e-02
-4.338155984878540039e-01 2.475489228963851929e-01 5.796482041478157043e-02
-4.538809061050415039e-01 2.498803585767745972e-01 5.418218299746513367e-02
4.946945980191230774e-02 -1.362853944301605225e-01 7.192828506231307983e-02
2.690097317099571228e-02 -1.319540143013000488e-01 7.102827727794647217e-02
3.386697173118591309e-02 -1.340799480676651001e-01 8.236411213874816895e-02
1.425656303763389587e-02 -1.282387822866439819e-01 8.192858099937438965e-02
4.742091596126556396e-01 1.290377527475357056e-01 -1.403527110815048218e-01
4.515529274940490723e-01 1.360203921794891357e-01 -1.455309987068176270e-01
4.655900299549102783e-01 1.270797848701477051e-01 -1.334276646375656128e-01
4.425026476383209229e-01 1.350320577621459961e-01 -1.387077420949935913e-01
4.558975398540496826e-01 -3.886151686310768127e-02 -7.355785369873046875e-02
4.291111230850219727e-01 -3.174777328968048096e-02 -7.592505961656570435e-02
4.499606192111968994e-01 -4.202477633953094482e-02 -6.255921721458435059e-02
4.241087734699249268e-01 -3.671832382678985596e-02 -6.619139015674591064e-02
-6.581449508666992188e-01 1.237554252147674561e-01 4.849024862051010132e-02
-6.745682954788208008e-01 1.389750093221664429e-01 4.704097285866737366e-02
-6.615329384803771973e-01 1.205400079488754272e-01 5.704506859183311462e-02
-6.776575446128845215e-01 1.357362270355224609e-01 5.574891716241836548e-02
3.543094098567962646e-01 1.384974867105484009e-01 6.469052284955978394e-02
3.439227342605590820e-01 1.598659008741378784e-01 6.647391617298126221e-02
3.421444296836853027e-01 1.288707554340362549e-01 7.756665349006652832e-02
3.322026431560516357e-01 1.518912464380264282e-01 7.931876182556152344e-02
5.209073424339294434e-01 2.856151387095451355e-02 -1.521782279014587402e-01
5.044947266578674316e-01 4.702351614832878113e-02 -1.481772512197494507e-01
5.081556439399719238e-01 3.025899454951286316e-02 -1.438747197389602661e-01
4.916239380836486816e-01 4.756844043731689453e-02 -1.399178802967071533e-01
-6.343458294868469238e-01 1.268221884965896606e-01 4.069509357213973999e-02
-6.478796005249023438e-01 1.412575691938400269e-01 4.044073447585105896e-02
-6.400811672210693359e-01 1.248359680175781250e-01 4.686241224408149719e-02
-6.569505929946899414e-01 1.399679034948348999e-01 4.525760933756828308e-02
-9.509012848138809204e-02 1.615166068077087402e-01 -1.675777137279510498e-01
-1.028009057044982910e-01 1.758859604597091675e-01 -1.656730920076370239e-01
-1.086941361427307129e-01 1.671364903450012207e-01 -1.593476384878158569e-01
-1.146896779537200928e-01 1.829818636178970337e-01 -1.563318222761154175e-01
-2.357622534036636353e-01 9.955624490976333618e-02 -1.869472563266754150e-01
-2.538631260395050049e-01 1.194303706288337708e-01 -1.860007643699645996e-01
-2.483741939067840576e-01 8.425879478454589844e-02 -1.767497509717941284e-01
-2.662943303585052490e-01 1.045414656400680542e-01 -1.763138324022293091e-01
-4.829660654067993164e-01 1.849356293678283691e-01 -1.377625167369842529e-01
-5.058901309967041016e-01 1.846669614315032959e-01 -1.445115208625793457e-01
-4.842059016227722168e-01 1.828775852918624878e-01 -1.282420307397842407e-01
-5.073733925819396973e-01 1.817780137062072754e-01 -1.355427801609039307e-01
-2.561683058738708496e-01 -7.744874060153961182e-02 -5.976714938879013062e-02
-2.742433547973632812e-01 -7.612878084182739258e-02 -6.764432042837142944e-02
-2.595042884349822998e-01 -8.026321232318878174e-02 -4.437058046460151672e-02
-2.775774598121643066e-01 -7.922209054231643677e-02 -5.123579502105712891e-02
2.187910974025726318e-01 -1.620798856019973755e-01 -3.416663408279418945e-02
1.934253573417663574e-01 -1.587386280298233032e-01 -3.523584455251693726e-02
2.181985825300216675e-01 -1.605971455574035645e-01 -2.239852026104927063e-02
1.914362013339996338e-01 -1.604363471269607544e-01 -2.443476766347885132e-02
-6.707557439804077148e-01 -1.239929497241973877e-01 -2.081310153007507324e-01
-6.865186691284179688e-01 -1.032869890332221985e-01 -2.123562097549438477e-01
-6.869579553604125977e-01 -1.314526796340942383e-01 -1.860658228397369385e-01
-7.003914713859558105e-01 -1.093236804008483887e-01 -1.918162554502487183e-01
-3.588562607765197754e-01 2.889862358570098877e-01 -1.816116124391555786e-01
-3.759357631206512451e-01 2.953914105892181396e-01 -1.866406798362731934e-01
-3.643375337123870850e-01 2.956146001815795898e-01 -1.694135963916778564e-01
-3.800679147243499756e-01 3.023855984210968018e-01 -1.742025762796401978e-01
7.478238344192504883e-01 -7.168635725975036621e-02 4.111273959279060364e-02
7.377171516418457031e-01 -5.885564908385276794e-02 4.003953561186790466e-02
7.476418614387512207e-01 -6.897460669279098511e-02 4.793167114257812500e-02
7.358356118202209473e-01 -5.946354195475578308e-02 4.740436002612113953e-02
8.043457865715026855e-01 -2.310281544923782349e-01 3.667660802602767944e-02
7.822502851486206055e-01 -2.348158359527587891e-01 2.915360778570175171e-02
7.988952398300170898e-01 -2.291506379842758179e-01 6.282226741313934326e-02
7.747216820716857910e-01 -2.329989522695541382e-01 5.511409044265747070e-02
1.997392624616622925e-01 -2.969327196478843689e-02 8.265343308448791504e-02
1.897377371788024902e-01 -1.601610891520977020e-02 7.425510138273239136e-02
1.960414350032806396e-01 -4.275624454021453857e-02 9.543847292661666870e-02
1.858529448509216309e-01 -2.770611830055713654e-02 8.717629313468933105e-02
3.916698098182678223e-01 -7.659935951232910156e-02 9.596621990203857422e-02
3.826655447483062744e-01 -5.713107436895370483e-02 9.436993300914764404e-02
3.725250661373138428e-01 -8.854550123214721680e-02 9.532909095287322998e-02
3.646702468395233154e-01 -6.841399520635604858e-02 9.386484324932098389e-02
1.256405413150787354e-01 4.253450408577919006e-02 -1.416558623313903809e-01
1.095264479517936707e-01 6.298659741878509521e-02 -1.462611407041549683e-01
1.248037740588188171e-01 3.149829804897308350e-02 -1.312457025051116943e-01
1.067788898944854736e-01 5.184632539749145508e-02 -1.364069432020187378e-01
2.178610861301422119e-01 -6.947796046733856201e-02 7.203637808561325073e-02
2.122796177864074707e-01 -5.199404060840606689e-02 7.026655226945877075e-02
2.053639590740203857e-01 -8.519613742828369141e-02 7.350965589284896851e-02
1.955559402704238892e-01 -6.161838769912719727e-02 7.146321237087249756e-02
-1.947391033172607422e-01 3.144618868827819824e-01 1.301796175539493561e-02
-2.146417945623397827e-01 3.177611231803894043e-01 4.687025211751461029e-03
-2.016121298074722290e-01 3.085120320320129395e-01 3.143680095672607422e-02
-2.221273630857467651e-01 3.125547766685485840e-01 2.230637893080711365e-02
-1.032634675502777100e-01 -1.653234958648681641e-01 5.882330238819122314e-02
-1.197787821292877197e-01 -1.563278734683990479e-01 5.337789654731750488e-02
-1.101911813020706177e-01 -1.611040532588958740e-01 7.872894406318664551e-02
-1.274645775556564331e-01 -1.491916477680206299e-01 7.515292614698410034e-02
7.856386899948120117e-01 2.338933348655700684e-01 -8.719194680452346802e-02
7.647007703781127930e-01 2.362795025110244751e-01 -9.489782154560089111e-02
7.838674187660217285e-01 2.330648452043533325e-01 -7.016665488481521606e-02
7.631396651268005371e-01 2.337161898612976074e-01 -7.777328044176101685e-02
-3.854544460773468018e-01 3.303316831588745117e-01 2.950509265065193176e-02
-4.095859229564666748e-01 3.344655334949493408e-01 1.923729106783866882e-02
-3.935649394989013672e-01 3.279328346252441406e-01 5.052922666072845459e-02
-4.167495369911193848e-01 3.312258422374725342e-01 4.109980165958404541e-02
-6.300146877765655518e-02 -1.703287363052368164e-01 -1.849930584430694580e-01
-7.116714119911193848e-02 -1.538903415203094482e-01 -1.892841309309005737e-01
-7.503494620323181152e-02 -1.863715946674346924e-01 -1.793285012245178223e-01
-8.595294505357742310e-02 -1.722756624221801758e-01 -1.845866143703460693e-01
-4.896133542060852051e-01 3.625085577368736267e-02 5.863475054502487183e-02
-5.015196204185485840e-01 5.156606063246726990e-02 6.131961196660995483e-02
-5.062574744224548340e-01 2.858265861868858337e-02 6.236281618475914001e-02
-5.182095170021057129e-01 4.427152499556541443e-02 6.593766808509826660e-02
-1.959944963455200195e-01 1.136964112520217896e-01 -1.783393621444702148e-01
-2.132247090339660645e-01 1.310076564550399780e-01 -1.754337400197982788e-01
-2.034071683883666992e-01 1.001034975051879883e-01 -1.649961620569229126e-01
-2.209160178899765015e-01 1.184678673744201660e-01 -1.628295928239822388e-01
7.559880018234252930e-01 -1.266686469316482544e-01 2.234321832656860352e-02
7.363663911819458008e-01 -1.237892284989356995e-01 1.857385225594043732e-02
7.548271417617797852e-01 -1.302495151758193970e-01 3.254283592104911804e-02
7.331404089927673340e-01 -1.285164058208465576e-01 2.771130204200744629e-02
-3.580026626586914062e-01 1.418606340885162354e-01 -1.718854457139968872e-01
-3.709046840667724609e-01 1.528722345829010010e-01 -1.725276261568069458e-01
-3.744140863418579102e-01 1.361265182495117188e-01 -1.679034829139709473e-01
-3.839386701583862305e-01 1.495347172021865845e-01 -1.693384200334548950e-01
1.928332000970840454e-01 -1.583163738250732422e-01 -3.199043497443199158e-02
1.627838462591171265e-01 -1.585612744092941284e-01 -3.289983421564102173e-02
1.868086755275726318e-01 -1.570304930210113525e-01 -2.061310783028602600e-02
1.569850295782089233e-01 -1.585449874401092529e-01 -2.146123349666595459e-02
1.636773645877838135e-01 -1.969040036201477051e-01 4.416887462139129639e-02
1.383990496397018433e-01 -1.876810789108276367e-01 4.640706628561019897e-02
1.482549458742141724e-01 -1.893738359212875366e-01 5.584419146180152893e-02
1.242309361696243286e-01 -1.795397251844406128e-01 5.832188576459884644e-02
-5.406158566474914551e-01 7.774589955806732178e-02 3.361047059297561646e-02
-5.639735460281372070e-01 8.571092784404754639e-02 3.436819091439247131e-02
-5.559984445571899414e-01 7.824502140283584595e-02 3.670472651720046997e-02
-5.785549283027648926e-01 8.637831360101699829e-02 3.724796697497367859e-02
5.990825295448303223e-01 -2.180908918380737305e-01 -1.179613992571830750e-01
5.715348124504089355e-01 -2.184177339076995850e-01 -1.226642206311225891e-01
5.883842706680297852e-01 -2.204337716102600098e-01 -1.012675836682319641e-01
5.627823472023010254e-01 -2.209556251764297485e-01 -1.075119674205780029e-01
4.058156609535217285e-01 9.456709027290344238e-02 -1.476914435625076294e-01
3.767706453800201416e-01 1.074848026037216187e-01 -1.496033817529678345e-01
3.929854333400726318e-01 9.279768913984298706e-02 -1.406488269567489624e-01
3.655446469783782959e-01 1.047782674431800842e-01 -1.421237885951995850e-01
-5.753344893455505371e-01 2.086389511823654175e-01 -1.943110674619674683e-01
-5.863543748855590820e-01 2.179941385984420776e-01 -1.948631405830383301e-01
-5.850647091865539551e-01 2.021741569042205811e-01 -1.882893145084381104e-01
-5.961201190948486328e-01 2.116278707981109619e-01 -1.887020021677017212e-01
1.713505387306213379e-01 1.360056996345520020e-01 -1.611225605010986328e-01
1.582644134759902954e-01 1.450965702533721924e-01 -1.617912948131561279e-01
1.600537151098251343e-01 1.395445913076400757e-01 -1.506892889738082886e-01
1.479928493499755859e-01 1.517445296049118042e-01 -1.515663564205169678e-01
5.895840525627136230e-01 -1.142540797591209412e-01 -9.715690463781356812e-02
5.744990706443786621e-01 -9.348754584789276123e-02 -9.880028665065765381e-02
5.816916227340698242e-01 -1.192105263471603394e-01 -8.643054217100143433e-02
5.660617947578430176e-01 -9.776330739259719849e-02 -8.822810649871826172e-02
4.532716870307922363e-01 1.086079422384500504e-02 9.985205531120300293e-02
4.388358891010284424e-01 2.310178056359291077e-02 9.760995954275131226e-02
4.413758814334869385e-01 1.400229521095752716e-03 1.051741465926170349e-01
4.267456829547882080e-01 1.324096415191888809e-02 1.032745987176895142e-01
1.380568742752075195e-01 2.506684064865112305e-01 9.462362155318260193e-03
1.153491064906120300e-01 2.518154084682464600e-01 1.512202434241771698e-03
1.273264884948730469e-01 2.452506422996520996e-01 2.922868728637695312e-02
1.038647368550300598e-01 2.470075190067291260e-01 2.106731384992599487e-02
-2.134958952665328979e-01 -6.093308795243501663e-03 -1.140764579176902771e-01
-2.325861454010009766e-01 7.792143151164054871e-05 -1.119513139128684998e-01
-2.227191925048828125e-01 -9.114215150475502014e-03 -1.046809256076812744e-01
-2.449901103973388672e-01 -3.171262796968221664e-03 -1.022043079137802124e-01
-5.475732684135437012e-01 -1.361195892095565796e-01 1.177678257226943970e-02
-5.683904886245727539e-01 -1.288606524467468262e-01 7.907143794000148773e-03
-5.499386191368103027e-01 -1.357696950435638428e-01 3.050712868571281433e-02
-5.687167048454284668e-01 -1.275555789470672607e-01 2.668791264295578003e-02
6.955074071884155273e-01 -1.478492915630340576e-01 -1.078475266695022583e-01
6.798292398452758789e-01 -1.347026675939559937e-01 -1.027335003018379211e-01
6.888082623481750488e-01 -1.529496461153030396e-01 -9.292708337306976318e-02
6.690620779991149902e-01 -1.431957334280014038e-01 -9.235541522502899170e-02
1.791739761829376221e-01 8.044505119323730469e-02 -3.034343570470809937e-02
1.608457714319229126e-01 8.915638178586959839e-02 -3.294305503368377686e-02
1.742008924484252930e-01 7.495997846126556396e-02 -2.303817868232727051e-02
1.559874415397644043e-01 8.410296589136123657e-02 -2.567709982395172119e-02
4.517630338668823242e-01 2.618905603885650635e-01 -4.286253824830055237e-02
4.396201968193054199e-01 2.673735022544860840e-01 -5.224213376641273499e-02
4.439823031425476074e-01 2.551117837429046631e-01 -2.599423378705978394e-02
4.297722876071929932e-01 2.593201100826263428e-01 -3.582172468304634094e-02
-8.478122204542160034e-02 -3.054389171302318573e-02 8.604153990745544434e-03
-1.020907014608383179e-01 -1.416766457259654999e-02 1.051745377480983734e-02
-9.105520695447921753e-02 -2.833214215934276581e-02 2.120995149016380310e-02
-1.084307804703712463e-01 -1.152524817734956741e-02 2.347076311707496643e-02
1.959003508090972900e-01 1.965815871953964233e-01 -1.465827971696853638e-01
1.855097562074661255e-01 2.112826406955718994e-01 -1.444551497697830200e-01
1.821324229240417480e-01 1.986780464649200439e-01 -1.430480480194091797e-01
1.683395802974700928e-01 2.109258323907852173e-01 -1.412878632545471191e-01
2.236960679292678833e-01 2.657079696655273438e-01 -1.520498842000961304e-01
2.010411471128463745e-01 2.724715769290924072e-01 -1.510595530271530151e-01
2.090730220079421997e-01 2.705920934677124023e-01 -1.387222260236740112e-01
1.866770982742309570e-01 2.774823307991027832e-01 -1.372655183076858521e-01
-3.628561496734619141e-01 9.538199007511138916e-02 -1.767622828483581543e-01
-3.711631298065185547e-01 1.066086292266845703e-01 -1.783662140369415283e-01
-3.719106018543243408e-01 8.505694568157196045e-02 -1.705778390169143677e-01
-3.790623843669891357e-01 9.718310087919235229e-02 -1.713793426752090454e-01
1.367355287075042725e-01 -1.392688155174255371e-01 -1.635863333940505981e-01
1.163364648818969727e-01 -1.326723992824554443e-01 -1.681639105081558228e-01
1.360609531402587891e-01 -1.451256871223449707e-01 -1.514888256788253784e-01
1.147103756666183472e-01 -1.408637315034866333e-01 -1.558985412120819092e-01
6.348461508750915527e-01 1.422880589962005615e-02 -1.430523991584777832e-01
6.171362400054931641e-01 2.344581112265586853e-02 -1.423010081052780151e-01
6.210383176803588867e-01 1.559188682585954666e-02 -1.335617750883102417e-01
6.033672690391540527e-01 2.448346279561519623e-02 -1.331259757280349731e-01
-7.140822410583496094e-01 -1.243446469306945801e-01 1.223404426127672195e-03
-7.251080870628356934e-01 -1.125757172703742981e-01 -6.179323885589838028e-03
-7.171521186828613281e-01 -1.240184381604194641e-01 1.841143146157264709e-02
-7.301397919654846191e-01 -1.113935112953186035e-01 1.368357613682746887e-02
7.451673150062561035e-01 4.869232326745986938e-02 -1.204222440719604492e-01
7.305327653884887695e-01 6.733669340610504150e-02 -1.195686310529708862e-01
7.294058799743652344e-01 3.972037509083747864e-02 -1.135258302092552185e-01
7.201481461524963379e-01 5.782128497958183289e-02 -1.145047992467880249e-01
5.822387933731079102e-01 -5.702804774045944214e-02 -1.303389668464660645e-02
5.704423785209655762e-01 -4.463662952184677124e-02 -1.093388814479112625e-02
5.767076611518859863e-01 -5.159796774387359619e-02 -1.578399562276899815e-03
5.659189820289611816e-01 -3.973900526762008667e-02 1.183079904876649380e-03
-5.220023393630981445e-01 -1.605531722307205200e-01 2.885413542389869690e-02
-5.399554967880249023e-01 -1.555960029363632202e-01 2.540871128439903259e-02
-5.230401158332824707e-01 -1.604287922382354736e-01 5.216345936059951782e-02
-5.412260890007019043e-01 -1.546259075403213501e-01 4.681217297911643982e-02
-3.561294376850128174e-01 3.163044750690460205e-01 -9.147904813289642334e-02
-3.842197656631469727e-01 3.218510150909423828e-01 -9.927514195442199707e-02
-3.576340079307556152e-01 3.153271973133087158e-01 -7.811454683542251587e-02
-3.846675753593444824e-01 3.197690546512603760e-01 -8.771287649869918823e-02
1.048659719526767731e-02 5.572230368852615356e-02 -6.380465626716613770e-02
-4.058610647916793823e-03 7.099115103483200073e-02 -6.527695804834365845e-02
3.972760401666164398e-03 4.732356220483779907e-02 -5.135098844766616821e-02
-1.107547152787446976e-02 5.898779258131980896e-02 -5.255659297108650208e-02
7.514215111732482910e-01 2.282010316848754883e-01 -1.244839513674378395e-03
7.322019934654235840e-01 2.309763133525848389e-01 -9.461951442062854767e-03
7.417186498641967773e-01 2.241864800453186035e-01 1.298246439546346664e-02
7.222492694854736328e-01 2.266139090061187744e-01 4.534510895609855652e-03
-6.080179810523986816e-01 -2.776171313598752022e-03 -1.883797645568847656e-01
-6.265960335731506348e-01 2.038727980107069016e-03 -1.904891431331634521e-01
-6.122903823852539062e-01 2.733202418312430382e-04 -1.767442971467971802e-01
-6.312433481216430664e-01 4.859542008489370346e-03 -1.786343157291412354e-01
-2.505553364753723145e-01 2.327359914779663086e-01 -7.049886137247085571e-02
-2.639073133468627930e-01 2.404235154390335083e-01 -7.089509814977645874e-02
-2.627982497215270996e-01 2.315098941326141357e-01 -5.922966077923774719e-02
-2.772043943405151367e-01 2.391405850648880005e-01 -5.880168825387954712e-02
4.107713997364044189e-01 -1.422037780284881592e-01 8.689393103122711182e-02
4.008435606956481934e-01 -1.251926571130752563e-01 8.743078261613845825e-02
3.903414011001586914e-01 -1.467530876398086548e-01 8.683171868324279785e-02
3.797114193439483643e-01 -1.309874206781387329e-01 8.835013955831527710e-02
-4.602197110652923584e-01 1.549291014671325684e-01 -1.457812935113906860e-01
-4.777457416057586670e-01 1.606868058443069458e-01 -1.501437723636627197e-01
-4.629895091056823730e-01 1.477240175008773804e-01 -1.405264139175415039e-01
-4.805302917957305908e-01 1.537579447031021118e-01 -1.449019610881805420e-01
2.827787697315216064e-01 1.849081516265869141e-01 2.699280716478824615e-02
2.571287453174591064e-01 1.827996522188186646e-01 2.014275267720222473e-02
2.698243260383605957e-01 1.765093058347702026e-01 4.407168552279472351e-02
2.449986338615417480e-01 1.746012419462203979e-01 3.574002534151077271e-02
-8.410567417740821838e-03 1.191873848438262939e-01 -2.662455104291439056e-02
-3.094397671520709991e-02 1.274601966142654419e-01 -2.909156307578086853e-02
-2.058087848126888275e-02 1.205689460039138794e-01 -1.339285261929035187e-02
-4.132781177759170532e-02 1.285968273878097534e-01 -1.458564121276140213e-02
-1.446805447340011597e-01 1.074122935533523560e-01 -9.080108255147933960e-02
-1.698031425476074219e-01 1.068514138460159302e-01 -1.022652462124824524e-01
-1.522345393896102905e-01 1.046325564384460449e-01 -7.413307577371597290e-02
-1.762638837099075317e-01 1.044978722929954529e-01 -8.491845428943634033e-02
-7.020822167396545410e-01 -7.040008157491683960e-02 -1.076918095350265503e-01
-7.082254886627197266e-01 -4.995447397232055664e-02 -1.124197095632553101e-01
-7.114383578300476074e-01 -7.556780427694320679e-02 -8.238224685192108154e-02
-7.111083865165710449e-01 -5.639085173606872559e-02 -8.636210113763809204e-02
-6.007526516914367676e-01 9.831383824348449707e-02 4.603029415011405945e-02
-6.151615381240844727e-01 1.067737638950347900e-01 4.716192930936813354e-02
-6.170008182525634766e-01 9.945557266473770142e-02 4.725740104913711548e-02
-6.284039616584777832e-01 1.114893555641174316e-01 4.841361194849014282e-02
4.386288523674011230e-01 2.077878862619400024e-01 1.050397604703903198e-01
4.217250049114227295e-01 2.211417257785797119e-01 9.944882988929748535e-02
4.203533530235290527e-01 1.973327249288558960e-01 1.150425970554351807e-01
4.038394689559936523e-01 2.106163799762725830e-01 1.112646907567977905e-01
2.856307625770568848e-01 -2.301619201898574829e-01 7.780104875564575195e-02
2.705753147602081299e-01 -2.221097052097320557e-01 7.765631377696990967e-02
2.740595936775207520e-01 -2.262220680713653564e-01 8.365964144468307495e-02
2.598154842853546143e-01 -2.183498144149780273e-01 8.404284715652465820e-02
-1.435021013021469116e-01 -1.701197177171707153e-01 -1.106663234531879425e-02
-1.621639132499694824e-01 -1.574867516756057739e-01 -1.387349888682365417e-02
-1.581868976354598999e-01 -1.731659173965454102e-01 5.884427111595869064e-03
-1.794222891330718994e-01 -1.596859097480773926e-01 2.755424939095973969e-03
6.544224619865417480e-01 4.492376372218132019e-02 -3.073391690850257874e-02
6.335505843162536621e-01 5.365361645817756653e-02 -3.472773730754852295e-02
6.568303704261779785e-01 4.606010764837265015e-02 -2.047599665820598602e-02
6.341897249221801758e-01 5.353326350450515747e-02 -2.362586930394172668e-02
6.707355976104736328e-01 1.332134604454040527e-01 -8.635411411523818970e-02
6.463575959205627441e-01 1.402521282434463501e-01 -9.426479041576385498e-02
6.686332225799560547e-01 1.317206621170043945e-01 -7.074271887540817261e-02
6.471850872039794922e-01 1.405430883169174194e-01 -7.697916030883789062e-02
6.213143467903137207e-01 -1.796565800905227661e-01 -1.477406471967697144e-01
5.979900360107421875e-01 -1.709018796682357788e-01 -1.463420540094375610e-01
6.136221885681152344e-01 -1.851173490285873413e-01 -1.370875835418701172e-01
5.896346569061279297e-01 -1.788086593151092529e-01 -1.364130675792694092e-01
8.070877790451049805e-01 1.704112589359283447e-01 1.214820817112922668e-01
7.935841083526611328e-01 1.866438835859298706e-01 1.141628324985504150e-01
7.915119528770446777e-01 1.505636870861053467e-01 1.347533017396926880e-01
7.784382700920104980e-01 1.677210628986358643e-01 1.286290436983108521e-01
-5.305314064025878906e-01 -5.793923884630203247e-02 3.292568400502204895e-02
-5.463553071022033691e-01 -4.811280593276023865e-02 3.221780061721801758e-02
-5.474554896354675293e-01 -6.442560255527496338e-02 3.473320975899696350e-02
-5.628756880760192871e-01 -5.329614877700805664e-02 3.506217151880264282e-02
5.796467661857604980e-01 1.681496948003768921e-01 6.413150578737258911e-02
5.581779479980468750e-01 1.712715625762939453e-01 6.437014788389205933e-02
5.774587988853454590e-01 1.666553020477294922e-01 8.008103817701339722e-02
5.528438091278076172e-01 1.704922616481781006e-01 7.857411354780197144e-02
1.569067835807800293e-01 3.035421110689640045e-02 -1.642962545156478882e-01
1.374931633472442627e-01 3.956217691302299500e-02 -1.679469794034957886e-01
1.497094035148620605e-01 2.475481107831001282e-02 -1.563164442777633667e-01
1.316858679056167603e-01 3.826312720775604248e-02 -1.595075726509094238e-01
4.620849341154098511e-02 1.306441575288772583e-01 7.740084826946258545e-02
2.782727032899856567e-02 1.443338692188262939e-01 7.860452681779861450e-02
3.068830072879791260e-02 1.256394386291503906e-01 8.265087753534317017e-02
1.201712898910045624e-02 1.388636380434036255e-01 8.341643959283828735e-02
-3.695255517959594727e-01 -1.445708982646465302e-02 6.554520875215530396e-02
-3.791358768939971924e-01 5.495168734341859818e-04 6.531372666358947754e-02
-3.868141472339630127e-01 -2.032016776502132416e-02 6.497208029031753540e-02
-4.006599187850952148e-01 -8.051435463130474091e-03 6.537931412458419800e-02
-4.133328199386596680e-01 2.992220968008041382e-02 -1.489722877740859985e-01
-4.234738945960998535e-01 4.071719199419021606e-02 -1.523394137620925903e-01
-4.173120260238647461e-01 2.839078754186630249e-02 -1.391968578100204468e-01
-4.298273921012878418e-01 3.667211532592773438e-02 -1.433294862508773804e-01
-3.434475958347320557e-01 2.434963434934616089e-01 -7.584253698587417603e-02
-3.618163764476776123e-01 2.540603578090667725e-01 -7.967747002840042114e-02
-3.478495776653289795e-01 2.362765967845916748e-01 -6.565453112125396729e-02
-3.668899834156036377e-01 2.463081479072570801e-01 -6.991833448410034180e-02
8.047824501991271973e-01 -2.608244717121124268e-01 4.165742546319961548e-02
7.804454565048217773e-01 -2.653976082801818848e-01 3.331575542688369751e-02
7.898460626602172852e-01 -2.578746378421783447e-01 6.512492150068283081e-02
7.667428255081176758e-01 -2.611804008483886719e-01 5.731076002120971680e-02
6.597672104835510254e-01 -3.655920177698135376e-02 -5.743453651666641235e-02
6.314530372619628906e-01 -3.224715963006019592e-02 -6.620977073907852173e-02
6.510661244392395020e-01 -4.529031366109848022e-02 -4.135363921523094177e-02
6.247625946998596191e-01 -3.960516303777694702e-02 -4.835911095142364502e-02
2.978864610195159912e-01 -1.968759149312973022e-01 -7.019181549549102783e-02
2.824212014675140381e-01 -1.951811760663986206e-01 -7.513993978500366211e-02
2.960956096649169922e-01 -1.927710622549057007e-01 -5.286471173167228699e-02
2.803727686405181885e-01 -1.914708912372589111e-01 -5.752950161695480347e-02
-4.353163242340087891e-01 3.171287178993225098e-01 -1.206403039395809174e-02
-4.570239484310150146e-01 3.203342556953430176e-01 -1.625859923660755157e-02
-4.478275477886199951e-01 3.155748248100280762e-01 3.419511951506137848e-03
-4.685760438442230225e-01 3.183877170085906982e-01 -3.195276949554681778e-03
6.243892908096313477e-01 1.188157424330711365e-01 1.162806153297424316e-01
6.199390292167663574e-01 1.364304274320602417e-01 1.164677813649177551e-01
6.036402583122253418e-01 1.081161424517631531e-01 1.165945902466773987e-01
5.976296067237854004e-01 1.236948519945144653e-01 1.154810935258865356e-01
1.697597205638885498e-01 -7.253986597061157227e-02 -6.992782652378082275e-02
1.513839960098266602e-01 -6.262210011482238770e-02 -7.768687605857849121e-02
1.677236407995223999e-01 -7.926232367753982544e-02 -6.305896490812301636e-02
1.496327668428421021e-01 -6.881513446569442749e-02 -7.072663307189941406e-02
1.135284230113029480e-01 2.554439902305603027e-01 -1.184375211596488953e-01
9.190797060728073120e-02 2.594994902610778809e-01 -1.227446720004081726e-01
1.120634824037551880e-01 2.649240791797637939e-01 -1.020598113536834717e-01
9.071786701679229736e-02 2.696425914764404297e-01 -1.056622937321662903e-01
-3.192498087882995605e-01 1.012819036841392517e-01 3.914913907647132874e-02
-3.348635137081146240e-01 1.153887882828712463e-01 4.093769565224647522e-02
-3.401758372783660889e-01 9.799305349588394165e-02 4.672512412071228027e-02
-3.583211898803710938e-01 1.085443496704101562e-01 4.473829641938209534e-02
-1.393601000308990479e-01 3.094081580638885498e-01 4.424180835485458374e-03
-1.558308303356170654e-01 3.124759197235107422e-01 -7.855398580431938171e-04
-1.556949168443679810e-01 3.063749074935913086e-01 2.459426969289779663e-02
-1.715020835399627686e-01 3.084792494773864746e-01 1.785342209041118622e-02
-5.480744242668151855e-01 2.471411973237991333e-01 -1.868350058794021606e-01
-5.632932186126708984e-01 2.631880342960357666e-01 -1.820515692234039307e-01
-5.656777024269104004e-01 2.486508041620254517e-01 -1.815919727087020874e-01
-5.811133384704589844e-01 2.647556662559509277e-01 -1.767209023237228394e-01
6.962730288505554199e-01 2.271412163972854614e-01 -5.001341179013252258e-02
6.746590137481689453e-01 2.278828769922256470e-01 -6.179069355130195618e-02
6.959421038627624512e-01 2.282897531986236572e-01 -3.249143809080123901e-02
6.731812357902526855e-01 2.296617776155471802e-01 -4.553835839033126831e-02
-6.810492835938930511e-03 -1.724883913993835449e-01 5.849952250719070435e-02
-2.707543037831783295e-02 -1.679974347352981567e-01 5.699600651860237122e-02
-1.578952185809612274e-02 -1.655936241149902344e-01 7.219696044921875000e-02
-3.442154824733734131e-02 -1.610278785228729248e-01 7.081619650125503540e-02
5.120073556900024414e-01 -1.444415003061294556e-02 2.359385043382644653e-02
4.921633005142211914e-01 -4.298293031752109528e-03 2.319416776299476624e-02
5.009911060333251953e-01 -1.166883111000061035e-02 3.339876979589462280e-02
4.811885058879852295e-01 -2.127758227288722992e-03 3.308568894863128662e-02
3.528657555580139160e-01 1.370943188667297363e-01 7.244993746280670166e-02
3.432177603244781494e-01 1.599297523498535156e-01 7.448983192443847656e-02
3.408054709434509277e-01 1.281031221151351929e-01 8.421937376260757446e-02
3.317553699016571045e-01 1.505058705806732178e-01 8.574988692998886108e-02
-2.191916853189468384e-01 2.703232765197753906e-01 -1.655363142490386963e-01
-2.313715517520904541e-01 2.879987359046936035e-01 -1.601104289293289185e-01
-2.325259298086166382e-01 2.678748071193695068e-01 -1.605306863784790039e-01
-2.485733926296234131e-01 2.851034998893737793e-01 -1.540625393390655518e-01
1.398178189992904663e-01 2.215868532657623291e-01 -1.594896912574768066e-01
1.180199757218360901e-01 2.282352894544601440e-01 -1.635610014200210571e-01
1.364852488040924072e-01 2.300436347723007202e-01 -1.452769488096237183e-01
1.139564067125320435e-01 2.363368123769760132e-01 -1.501846760511398315e-01
9.375991821289062500e-01 -1.755427941679954529e-02 1.189592480659484863e-01
9.340159296989440918e-01 1.626933366060256958e-02 1.222499683499336243e-01
9.085476398468017578e-01 -3.993482887744903564e-02 1.204927116632461548e-01
9.040823578834533691e-01 -8.732801303267478943e-03 1.234259381890296936e-01
2.718188166618347168e-01 -1.765226125717163086e-01 8.553436398506164551e-02
2.598562240600585938e-01 -1.663626879453659058e-01 8.576153218746185303e-02
2.590275108814239502e-01 -1.759160906076431274e-01 9.234003722667694092e-02
2.467060089111328125e-01 -1.654501557350158691e-01 9.177731722593307495e-02
-4.795285165309906006e-01 3.452299535274505615e-01 -8.414115756750106812e-02
-4.946980774402618408e-01 3.508257865905761719e-01 -9.280607849359512329e-02
-4.784475266933441162e-01 3.449952006340026855e-01 -6.270942091941833496e-02
-4.919658005237579346e-01 3.503886759281158447e-01 -6.992865353822708130e-02
7.093349099159240723e-01 2.435817196965217590e-02 -1.321554780006408691e-01
7.046748995780944824e-01 3.966399282217025757e-02 -1.334913223981857300e-01
6.956608295440673828e-01 1.445300504565238953e-02 -1.260943859815597534e-01
6.913431286811828613e-01 2.946321293711662292e-02 -1.276073306798934937e-01
-1.239448264241218567e-01 3.043248653411865234e-01 4.802168160676956177e-02
-1.354441493749618530e-01 3.091824352741241455e-01 3.777230158448219299e-02
-1.285235583782196045e-01 2.956027686595916748e-01 6.546658277511596680e-02
-1.409464478492736816e-01 3.000479042530059814e-01 5.585702881217002869e-02
8.136512339115142822e-02 -1.566418260335922241e-01 -1.512912958860397339e-01
6.895256787538528442e-02 -1.393733024597167969e-01 -1.528144329786300659e-01
8.073787391185760498e-02 -1.592459678649902344e-01 -1.399217098951339722e-01
6.684673577547073364e-02 -1.462524831295013428e-01 -1.433926820755004883e-01
5.855521559715270996e-02 -1.159907355904579163e-01 -1.049643829464912415e-01
4.101517423987388611e-02 -1.062414124608039856e-01 -1.037864014506340027e-01
5.007466301321983337e-02 -1.179044842720031738e-01 -9.447555989027023315e-02
3.383069485425949097e-02 -1.092982813715934753e-01 -9.388181567192077637e-02
-2.017943412065505981e-01 1.636521220207214355e-01 -2.507477626204490662e-02
-2.230854332447052002e-01 1.712152659893035889e-01 -2.639917284250259399e-02
-2.075327187776565552e-01 1.630076318979263306e-01 -1.654661819338798523e-02
-2.268548011779785156e-01 1.709633618593215942e-01 -1.588639058172702789e-02
-9.058111160993576050e-02 1.680003404617309570e-01 -3.666145727038383484e-02
-1.160239428281784058e-01 1.750283241271972656e-01 -3.945975750684738159e-02
-1.013332232832908630e-01 1.664016246795654297e-01 -2.551127597689628601e-02
-1.261483132839202881e-01 1.720409989356994629e-01 -2.854021824896335602e-02
-6.478521823883056641e-01 -8.027017116546630859e-02 -1.106527820229530334e-02
-6.652510762214660645e-01 -7.219678163528442383e-02 -1.145069953054189682e-02
-6.550094485282897949e-01 -8.084434270858764648e-02 5.332286236807703972e-04
-6.720024943351745605e-01 -7.081274688243865967e-02 1.130207092501223087e-04
3.131388425827026367e-01 -1.336497217416763306e-01 -1.565500199794769287e-01
3.021813333034515381e-01 -1.170593947172164917e-01 -1.567923426628112793e-01
3.026306331157684326e-01 -1.346973776817321777e-01 -1.531322598457336426e-01
2.917487919330596924e-01 -1.175705790519714355e-01 -1.529227197170257568e-01
-1.456241905689239502e-01 -1.985865086317062378e-01 4.188531264662742615e-02
-1.667091101408004761e-01 -1.846912652254104614e-01 3.988919779658317566e-02
-1.559323519468307495e-01 -1.943320333957672119e-01 5.620200932025909424e-02
-1.755329817533493042e-01 -1.805420666933059692e-01 5.450790748000144958e-02
7.418648004531860352e-01 -1.446568667888641357e-01 9.806867688894271851e-02
7.276588082313537598e-01 -1.288715302944183350e-01 9.758120775222778320e-02
7.309957146644592285e-01 -1.581691354513168335e-01 1.079684048891067505e-01
7.198348641395568848e-01 -1.385610401630401611e-01 1.078788340091705322e-01
-4.495960772037506104e-01 1.618122607469558716e-01 -1.146908570080995560e-02
-4.764494895935058594e-01 1.701277941465377808e-01 -6.372374016791582108e-03
-4.585572779178619385e-01 1.641844660043716431e-01 -2.600728766992688179e-03
-4.855563640594482422e-01 1.740444600582122803e-01 3.051527775824069977e-03
-6.847395300865173340e-01 1.767642647027969360e-01 -1.564527004957199097e-01
-6.837450265884399414e-01 1.974450945854187012e-01 -1.595814675092697144e-01
-6.880921125411987305e-01 1.649495661258697510e-01 -1.401390135288238525e-01
-6.866702437400817871e-01 1.872438788414001465e-01 -1.416755020618438721e-01
-4.343272447586059570e-01 -4.172880575060844421e-02 -1.790522783994674683e-01
-4.604035913944244385e-01 -3.988679498434066772e-02 -1.826224178075790405e-01
-4.430401325225830078e-01 -4.407356679439544678e-02 -1.698161214590072632e-01
-4.691732227802276611e-01 -4.096975550055503845e-02 -1.730415672063827515e-01
4.261171817779541016e-01 1.206534802913665771e-01 -1.227121278643608093e-01
3.974907994270324707e-01 1.331464350223541260e-01 -1.253948509693145752e-01
4.145849943161010742e-01 1.127043142914772034e-01 -1.168067380785942078e-01
3.857031166553497314e-01 1.250056773424148560e-01 -1.197838708758354187e-01
3.174635469913482666e-01 4.985683411359786987e-02 -1.448110938072204590e-01
2.954843640327453613e-01 5.778843536972999573e-02 -1.516162008047103882e-01
3.149833083152770996e-01 4.756909981369972229e-02 -1.294707208871841431e-01
2.942329943180084229e-01 5.768683925271034241e-02 -1.382542699575424194e-01
-2.126136124134063721e-01 5.911998823285102844e-02 -1.612032949924468994e-01
-2.155908346176147461e-01 8.109964430332183838e-02 -1.558620482683181763e-01
-2.268058210611343384e-01 5.154309794306755066e-02 -1.537387371063232422e-01
-2.299011051654815674e-01 7.275563478469848633e-02 -1.481972038745880127e-01
-6.424068808555603027e-01 -1.017052158713340759e-01 -1.496814340353012085e-01
-6.611222028732299805e-01 -8.313687145709991455e-02 -1.530759930610656738e-01
-6.538223624229431152e-01 -1.027149856090545654e-01 -1.324303299188613892e-01
-6.687479615211486816e-01 -8.176365494728088379e-02 -1.364198774099349976e-01
-1.494090259075164795e-01 7.658077776432037354e-02 6.418196111917495728e-02
-1.672924309968948364e-01 9.047780930995941162e-02 6.682527065277099609e-02
-1.640991717576980591e-01 8.260057866573333740e-02 7.217144966125488281e-02
-1.815587133169174194e-01 9.613446146249771118e-02 7.242384552955627441e-02
-4.949647784233093262e-01 6.495241820812225342e-02 -4.013898968696594238e-02
-5.142841339111328125e-01 7.147052139043807983e-02 -4.841713979840278625e-02
-4.887108504772186279e-01 6.413665413856506348e-02 -1.567778177559375763e-02
-5.084641575813293457e-01 7.119998335838317871e-02 -2.562183514237403870e-02
6.150873005390167236e-02 -1.902213245630264282e-01 -8.866465836763381958e-02
4.293110966682434082e-02 -1.859558820724487305e-01 -9.279350936412811279e-02
5.123706534504890442e-02 -1.899792104959487915e-01 -7.405065745115280151e-02
3.130113705992698669e-02 -1.850922405719757080e-01 -7.820147275924682617e-02
7.204681634902954102e-01 -1.326769441366195679e-01 -2.659350074827671051e-02
7.056112289428710938e-01 -1.275878995656967163e-01 -2.995317429304122925e-02
7.183933258056640625e-01 -1.334840208292007446e-01 -1.372245885431766510e-02
7.010713815689086914e-01 -1.297080963850021362e-01 -1.776014454662799835e-02
-6.177974939346313477e-01 -9.537221491336822510e-02 -2.926036342978477478e-02
-6.366026997566223145e-01 -8.933337777853012085e-02 -3.251812607049942017e-02
-6.274705529212951660e-01 -9.963186830282211304e-02 -1.607601158320903778e-02
-6.448182463645935059e-01 -9.325282275676727295e-02 -1.933247596025466919e-02
1.726092845201492310e-01 2.857031524181365967e-01 1.982422778382897377e-03
1.549659222364425659e-01 2.886370122432708740e-01 -4.424115642905235291e-03
1.747149080038070679e-01 2.805341184139251709e-01 1.667973026633262634e-02
1.530544161796569824e-01 2.846027016639709473e-01 7.703020237386226654e-03
1.944161951541900635e-01 8.677469193935394287e-02 8.374526351690292358e-02
1.798465400934219360e-01 1.017022803425788879e-01 8.280216157436370850e-02
1.751741766929626465e-01 8.013233542442321777e-02 8.900551497936248779e-02
1.606903970241546631e-01 9.621380269527435303e-02 8.852691948413848877e-02
-2.748356759548187256e-01 -1.293896138668060303e-01 -1.873396784067153931e-01
-2.966708242893218994e-01 -1.165889054536819458e-01 -1.904790401458740234e-01
-2.849099636077880859e-01 -1.368337422609329224e-01 -1.774526834487915039e-01
-3.065854907035827637e-01 -1.244652271270751953e-01 -1.814861893653869629e-01
-4.138937592506408691e-01 3.199337720870971680e-01 -6.468493491411209106e-02
-4.324294030666351318e-01 3.242847919464111328e-01 -7.007823139429092407e-02
-4.161728322505950928e-01 3.224874138832092285e-01 -4.672859609127044678e-02
-4.350449442863464355e-01 3.272928893566131592e-01 -4.980736970901489258e-02
5.494371652603149414e-01 7.365618646144866943e-02 9.527998976409435272e-03
5.357685685157775879e-01 8.768204599618911743e-02 9.061137214303016663e-03
5.362443923950195312e-01 7.566039264202117920e-02 2.480630390346050262e-02
5.220168828964233398e-01 8.923321962356567383e-02 2.475063316524028778e-02
-2.499781399965286255e-01 -3.384066745638847351e-02 -1.684509366750717163e-01
-2.650527954101562500e-01 -2.092343382537364960e-02 -1.668581068515777588e-01
-2.564353644847869873e-01 -3.170542046427726746e-02 -1.577954590320587158e-01
-2.731935977935791016e-01 -2.170966193079948425e-02 -1.577855050563812256e-01
8.322417140007019043e-01 1.559769958257675171e-01 -1.030496731400489807e-01
8.285359740257263184e-01 1.766381859779357910e-01 -1.013674587011337280e-01
8.254593014717102051e-01 1.455997377634048462e-01 -9.180904179811477661e-02
8.228177428245544434e-01 1.655636280775070190e-01 -8.958340436220169067e-02
-2.867202833294868469e-02 2.923866808414459229e-01 4.199738427996635437e-02
-4.249995946884155273e-02 3.021435141563415527e-01 3.577780351042747498e-02
-3.920648247003555298e-02 2.854440808296203613e-01 5.438390001654624939e-02
-5.089827254414558411e-02 2.955156862735748291e-01 4.872742667794227600e-02
1.025251507759094238e+00 7.543090730905532837e-02 9.147997945547103882e-03
1.022238254547119141e+00 1.100684553384780884e-01 9.014116600155830383e-03
1.023314476013183594e+00 6.405916810035705566e-02 3.671340644359588623e-02
1.016768932342529297e+00 1.002632156014442444e-01 4.818196967244148254e-02
5.336113572120666504e-01 -7.364055514335632324e-02 5.766765028238296509e-02
5.189184546470642090e-01 -6.384745240211486816e-02 5.332733690738677979e-02
5.250782966613769531e-01 -8.553939312696456909e-02 6.996044516563415527e-02
5.118782520294189453e-01 -7.439025491476058960e-02 6.454865634441375732e-02
-3.239601850509643555e-02 1.731378436088562012e-01 -7.038728334009647369e-03
-6.001249700784683228e-02 1.738219708204269409e-01 -1.446145400404930115e-02
-3.408426046371459961e-02 1.698122173547744751e-01 9.080552496016025543e-03
-6.092393398284912109e-02 1.709074378013610840e-01 6.142645142972469330e-04
-2.194658070802688599e-01 3.026434779167175293e-01 -3.042686171829700470e-02
-2.427038550376892090e-01 3.061603605747222900e-01 -3.555347397923469543e-02
-2.306049019098281860e-01 2.999088168144226074e-01 -1.560550183057785034e-02
-2.521373629570007324e-01 3.024317920207977295e-01 -2.327488549053668976e-02
1.966457068920135498e-01 2.837792336940765381e-01 1.124978959560394287e-01
1.797391027212142944e-01 2.959614992141723633e-01 1.021843180060386658e-01
1.801604181528091431e-01 2.700878083705902100e-01 1.276379525661468506e-01
1.637374758720397949e-01 2.831872403621673584e-01 1.172729581594467163e-01
1.276620626449584961e-01 -9.837374836206436157e-02 7.833044230937957764e-02
1.177172511816024780e-01 -7.865779101848602295e-02 7.788257300853729248e-02
1.071578040719032288e-01 -1.096494570374488831e-01 8.033654838800430298e-02
9.943935275077819824e-02 -9.140624105930328369e-02 8.073643594980239868e-02
5.130276083946228027e-01 -9.980454295873641968e-02 2.431004866957664490e-02
4.939791262149810791e-01 -9.153958410024642944e-02 1.948510110378265381e-02
4.990835189819335938e-01 -9.658682346343994141e-02 3.427297994494438171e-02
4.822246432304382324e-01 -8.938059955835342407e-02 2.799829840660095215e-02
-3.254629075527191162e-01 1.548802554607391357e-01 -1.714573055505752563e-01
-3.432502746582031250e-01 1.645472645759582520e-01 -1.722235977649688721e-01
-3.421520888805389404e-01 1.457686275243759155e-01 -1.675990670919418335e-01
-3.569421768188476562e-01 1.557531058788299561e-01 -1.684313118457794189e-01
4.854635894298553467e-01 -8.361909538507461548e-02 -8.074674755334854126e-02
4.555971026420593262e-01 -7.750301063060760498e-02 -8.216161280870437622e-02
4.775995016098022461e-01 -7.914120703935623169e-02 -6.656099110841751099e-02
4.506166875362396240e-01 -7.375495880842208862e-02 -6.941772997379302979e-02
2.856267094612121582e-01 -1.564920544624328613e-01 -1.706526726484298706e-01
2.711097598075866699e-01 -1.431942284107208252e-01 -1.729433238506317139e-01
2.744679749011993408e-01 -1.600188761949539185e-01 -1.659383326768875122e-01
2.607469558715820312e-01 -1.469001770019531250e-01 -1.682492196559906006e-01
4.523270577192306519e-02 -1.352699398994445801e-01 3.488887101411819458e-02
3.419384360313415527e-02 -1.211794614791870117e-01 3.593216836452484131e-02
3.581533208489418030e-02 -1.319240182638168335e-01 4.563689231872558594e-02
1.953677460551261902e-02 -1.216350719332695007e-01 4.643720388412475586e-02
5.624412298202514648e-01 -2.202463895082473755e-02 -8.734172210097312927e-03
5.551140308380126953e-01 -4.848826676607131958e-03 -3.364904550835490227e-03
5.570497512817382812e-01 -2.373885363340377808e-02 8.424865081906318665e-03
5.505454540252685547e-01 -6.357962265610694885e-03 1.326878182590007782e-02
-5.945251509547233582e-02 1.492673158645629883e-01 7.649645954370498657e-02
-7.728356868028640747e-02 1.588199734687805176e-01 7.457072287797927856e-02
-6.633456796407699585e-02 1.555252671241760254e-01 8.573725074529647827e-02
-8.492366969585418701e-02 1.651991158723831177e-01 8.367376029491424561e-02
1.530330032110214233e-01 5.491949245333671570e-02 -1.348467469215393066e-01
1.361490488052368164e-01 6.995163857936859131e-02 -1.385891586542129517e-01
1.430409997701644897e-01 4.097102582454681396e-02 -1.314868330955505371e-01
1.270537078380584717e-01 6.069831922650337219e-02 -1.362191140651702881e-01
7.220730781555175781e-01 2.382137924432754517e-01 -3.944645822048187256e-02
7.034181952476501465e-01 2.414421290159225464e-01 -4.749195650219917297e-02
7.210967540740966797e-01 2.384124398231506348e-01 -2.017238363623619080e-02
7.004438042640686035e-01 2.415440827608108521e-01 -3.042044490575790405e-02
6.556767225265502930e-01 -3.434140235185623169e-04 1.104823425412178040e-01
6.290460824966430664e-01 5.892646964639425278e-03 1.095877513289451599e-01
6.352845430374145508e-01 1.491503790020942688e-03 1.121534705162048340e-01
6.086924672126770020e-01 6.565731950104236603e-03 1.100982427597045898e-01
5.879834890365600586e-01 -1.061854809522628784e-01 9.254220128059387207e-02
5.731590986251831055e-01 -1.023977324366569519e-01 8.716554939746856689e-02
5.722253322601318359e-01 -1.185802817344665527e-01 1.035026982426643372e-01
5.586761832237243652e-01 -1.132918968796730042e-01 9.815268218517303467e-02
2.823629081249237061e-01 2.241851389408111572e-01 -1.164401173591613770e-01
2.603906393051147461e-01 2.281738072633743286e-01 -1.212867423892021179e-01
2.773120999336242676e-01 2.313205897808074951e-01 -1.039778143167495728e-01
2.540974617004394531e-01 2.348423004150390625e-01 -1.090204194188117981e-01
-1.077885702252388000e-01 -6.778348237276077271e-02 7.132326811552047729e-02
-1.204441189765930176e-01 -5.261646211147308350e-02 6.901542842388153076e-02
-1.027555465698242188e-01 -7.911817729473114014e-02 7.562711089849472046e-02
-1.161289066076278687e-01 -6.513400375843048096e-02 7.250070571899414062e-02
-4.595886766910552979e-01 1.382888704538345337e-01 -1.300540007650852203e-02
-4.858697950839996338e-01 1.488126963376998901e-01 -1.000889390707015991e-02
-4.644362032413482666e-01 1.405194401741027832e-01 -1.520535908639431000e-03
-4.894318878650665283e-01 1.535773277282714844e-01 2.785782795399427414e-03
1.388190239667892456e-01 -1.649217903614044189e-01 6.643421202898025513e-02
1.181515380740165710e-01 -1.550063341856002808e-01 6.730843335390090942e-02
1.244514584541320801e-01 -1.630229204893112183e-01 7.537862658500671387e-02
1.029342114925384521e-01 -1.522480100393295288e-01 7.660346478223800659e-02
-6.268554329872131348e-01 6.455252319574356079e-02 -1.744434237480163574e-01
-6.428732275962829590e-01 7.340859621763229370e-02 -1.729440689086914062e-01
-6.368064880371093750e-01 7.034193724393844604e-02 -1.637766063213348389e-01
-6.494759917259216309e-01 8.410298824310302734e-02 -1.597173064947128296e-01
8.280547261238098145e-01 2.125164419412612915e-01 3.993396461009979248e-02
8.160540461540222168e-01 2.279071956872940063e-01 3.155052289366722107e-02
8.222451806068420410e-01 2.032219320535659790e-01 6.415651738643646240e-02
8.099020123481750488e-01 2.195654958486557007e-01 5.591816827654838562e-02
-4.968336522579193115e-01 2.157802730798721313e-01 -1.774109005928039551e-01
-5.147821903228759766e-01 2.245990335941314697e-01 -1.741752624511718750e-01
-5.075264573097229004e-01 2.194216698408126831e-01 -1.720197051763534546e-01
-5.249800086021423340e-01 2.291023433208465576e-01 -1.685173213481903076e-01
2.459461688995361328e-01 -6.338532269001007080e-02 6.848171353340148926e-02
2.406399846076965332e-01 -4.742506891489028931e-02 6.859117001295089722e-02
2.317590713500976562e-01 -7.664214074611663818e-02 7.063003629446029663e-02
2.270504981279373169e-01 -6.048513203859329224e-02 6.956123560667037964e-02
-3.104380965232849121e-01 -5.801676213741302490e-02 -6.731388717889785767e-02
