-6.002579999999999583e-01 -3.033299999999999885e-02 4.483600000000000085e-02
2.865960000000000174e-01 1.353959999999999886e-01 -2.080600000000000158e-02
-5.448410000000000197e-01 -4.585999999999999799e-03 6.416600000000000081e-02
-5.408899999999999819e-01 3.491730000000000111e-01 7.069300000000000583e-02
-3.905109999999999970e-01 1.049159999999999954e-01 1.655000000000000004e-03
-7.164900000000000435e-02 1.559450000000000003e-01 -1.408530000000000060e-01
1.251349999999999962e-01 -1.765700000000000047e-01 -1.555159999999999876e-01
-5.413860000000000339e-01 -9.441499999999999893e-02 5.021599999999999675e-02
6.487100000000000088e-01 6.541600000000000192e-02 -1.000579999999999942e-01
6.378129999999999633e-01 -8.425199999999999356e-02 -1.459330000000000072e-01
-1.518819999999999892e-01 -1.098930000000000046e-01 -1.053599999999999953e-01
7.097440000000000415e-01 -3.210999999999999965e-02 -1.350600000000000134e-01
1.810600000000000057e-02 -8.056299999999999573e-02 -8.288500000000000034e-02
7.098659999999999970e-01 1.517219999999999958e-01 -4.251699999999999924e-02
3.721309999999999896e-01 -1.851200000000000068e-01 -3.536500000000000060e-02
2.030099999999999960e-01 8.499299999999999911e-02 -1.418699999999999961e-01
-4.488400000000000029e-02 2.387019999999999975e-01 6.516099999999999670e-02
2.683519999999999794e-01 -1.729599999999999888e-02 1.004030000000000061e-01
7.986889999999999823e-01 -1.060579999999999995e-01 1.090399999999999980e-01
-5.316929999999999712e-01 1.193209999999999965e-01 5.284699999999999814e-02
2.808350000000000013e-01 5.382300000000000278e-02 -5.019799999999999957e-02
4.205200000000000049e-01 2.743100000000000052e-02 1.099939999999999946e-01
-8.315200000000000369e-02 -2.987100000000000172e-02 -1.845479999999999898e-01
7.147259999999999724e-01 -4.628000000000000169e-03 -1.318550000000000000e-01
7.239919999999999689e-01 2.603700000000000112e-02 3.703800000000000148e-02
-2.083309999999999884e-01 2.631299999999999750e-01 -5.602000000000000209e-03
-9.080199999999999383e-02 -2.259800000000000003e-02 -4.386799999999999727e-02
3.180000000000000101e-03 -1.460099999999999940e-02 7.509000000000000397e-02
5.733340000000000103e-01 6.503599999999999659e-02 -1.454969999999999875e-01
-3.240750000000000020e-01 -1.603980000000000128e-01 -1.179779999999999995e-01
5.208000000000000129e-02 -6.147999999999999819e-03 -7.213400000000000367e-02
-4.908339999999999925e-01 -8.034800000000000275e-02 9.818999999999999603e-03
1.868529999999999913e-01 -1.157399999999999922e-02 5.353200000000000319e-02
-6.370379999999999932e-01 1.532000000000000028e-01 -4.656500000000000222e-02
5.685210000000000541e-01 6.563599999999999990e-02 1.189189999999999969e-01
6.950960000000000472e-01 1.636900000000000160e-02 3.718500000000000277e-02
-3.332700000000000107e-01 -5.204700000000000298e-02 -1.826280000000000125e-01
-2.919200000000000128e-01 -6.676100000000000090e-02 -2.198699999999999960e-02
5.825200000000000378e-01 -4.845000000000000001e-02 -9.140099999999999614e-02
-6.071309999999999762e-01 1.773839999999999861e-01 -4.112400000000000083e-02
6.535809999999999675e-01 -1.538319999999999965e-01 1.102799999999999961e-02
7.080539999999999612e-01 -1.774860000000000049e-01 2.263999999999999953e-03
1.185680000000000067e-01 1.071119999999999989e-01 -8.941100000000000436e-02
5.568950000000000289e-01 -8.533000000000000654e-03 -6.771099999999999342e-02
7.292939999999999978e-01 1.323380000000000112e-01 1.297460000000000002e-01
-6.777079999999999771e-01 -1.776300000000000101e-02 -9.514699999999999547e-02
-2.727459999999999885e-01 1.666009999999999991e-01 -4.287000000000000012e-03
3.671070000000000166e-01 9.013699999999999490e-02 -2.498300000000000173e-02
2.366419999999999912e-01 2.029040000000000010e-01 -3.128800000000000331e-02
-3.004479999999999928e-01 1.517989999999999895e-01 -4.435999999999999666e-02
-6.124140000000000139e-01 9.414899999999999658e-02 -8.580999999999999739e-02
4.860499999999999821e-01 1.985119999999999940e-01 3.816499999999999754e-02
-2.700540000000000163e-01 2.000659999999999938e-01 -3.229999999999999907e-04
3.178750000000000187e-01 2.355109999999999981e-01 1.103920000000000040e-01
6.500449999999999839e-01 -1.888829999999999953e-01 2.455699999999999897e-02
-2.604460000000000108e-01 2.785790000000000211e-01 9.346999999999999753e-02
-2.947130000000000027e-01 2.107410000000000116e-01 -6.189100000000000157e-02
-2.612949999999999995e-01 -1.006159999999999971e-01 -1.562219999999999998e-01
-5.481040000000000356e-01 1.770950000000000024e-01 -1.130720000000000058e-01
-3.821390000000000065e-01 1.359059999999999990e-01 -1.396209999999999951e-01
4.551020000000000065e-01 1.542830000000000035e-01 1.623799999999999896e-02
-2.422700000000000131e-01 1.341839999999999977e-01 -1.318100000000000105e-01
4.601500000000000035e-01 -1.824530000000000041e-01 -1.239269999999999955e-01
3.396000000000000147e-03 -1.946219999999999895e-01 4.007200000000000345e-02
-1.042270000000000002e-01 1.266069999999999973e-01 -9.126900000000000290e-02
2.158920000000000006e-01 2.811130000000000018e-01 -4.730600000000000083e-02
-6.982230000000000381e-01 -1.384120000000000072e-01 4.950100000000000333e-02
-6.010450000000000514e-01 2.588199999999999945e-01 -2.002100000000000060e-02
-4.709579999999999878e-01 -1.620250000000000024e-01 4.008099999999999857e-02
4.487349999999999950e-01 3.871200000000000335e-02 1.032489999999999936e-01
7.470360000000000333e-01 -6.831500000000000072e-02 -3.741599999999999787e-02
-4.759929999999999994e-01 5.106299999999999728e-02 -7.989899999999999780e-02
9.214379999999999793e-01 9.470599999999999852e-02 1.340169999999999972e-01
2.889320000000000221e-01 -1.110479999999999939e-01 9.563900000000000179e-02
2.425130000000000063e-01 2.420059999999999989e-01 -9.386300000000000199e-02
1.716860000000000053e-01 -9.615100000000000036e-02 9.156799999999999662e-02
3.322100000000000053e-02 -1.696030000000000038e-01 4.929000000000000048e-02
1.420750000000000068e-01 -2.106929999999999914e-01 8.364199999999999413e-02
5.920050000000000034e-01 1.232909999999999978e-01 3.564799999999999913e-02
5.932610000000000383e-01 -2.282160000000000022e-01 -4.206700000000000023e-02
-1.595580000000000054e-01 -1.173010000000000025e-01 6.830100000000000060e-02
-7.136160000000000281e-01 -7.365700000000000025e-02 -1.930499999999999924e-02
-4.887130000000000085e-01 2.377900000000000014e-01 -6.584199999999999775e-02
-9.744700000000000584e-02 1.925060000000000104e-01 -1.723999999999999977e-01
-1.636110000000000064e-01 -1.766969999999999930e-01 4.339099999999999902e-02
3.823090000000000099e-01 2.400879999999999959e-01 -8.462699999999999390e-02
1.819639999999999869e-01 -1.082260000000000028e-01 -2.906399999999999956e-02
-2.648969999999999936e-01 3.015109999999999735e-01 8.574600000000000277e-02
-3.328269999999999840e-01 -4.894500000000000239e-02 -1.870189999999999908e-01
6.667469999999999786e-01 -8.337000000000000660e-03 -7.792000000000000315e-03
5.100740000000000274e-01 -1.658570000000000044e-01 6.401600000000000346e-02
-7.028849999999999820e-01 6.763299999999999867e-02 1.299900000000000014e-02
3.134879999999999889e-01 2.796219999999999817e-01 5.285900000000000321e-02
3.214119999999999755e-01 1.638100000000000112e-01 -1.274849999999999872e-01
4.346849999999999881e-01 -1.984430000000000083e-01 9.764899999999999969e-02
1.042140000000000011e-01 2.642680000000000029e-01 -9.720800000000000274e-02
7.749380000000000157e-01 -4.118900000000000339e-02 2.365899999999999948e-02
-6.515339999999999465e-01 1.905000000000000096e-02 6.074800000000000338e-02
2.547519999999999785e-01 1.483319999999999916e-01 9.950299999999999423e-02
-1.447200000000000049e-02 -9.473800000000000276e-02 -1.449999999999999900e-03
-2.023189999999999988e-01 -5.813700000000000118e-02 -1.370260000000000089e-01
7.893679999999999586e-01 -1.994740000000000124e-01 -1.458740000000000037e-01
-1.154899999999999954e-01 6.801899999999999613e-02 6.325899999999999579e-02
-1.333200000000000010e-02 2.425370000000000026e-01 -1.270499999999999928e-02
7.896739999999999871e-01 2.380460000000000076e-01 8.792700000000000515e-02
-3.412680000000000158e-01 -1.914400000000000129e-02 -8.919799999999999951e-02
-1.305040000000000089e-01 -1.455909999999999982e-01 -1.549700000000000036e-02
3.134790000000000076e-01 1.098500000000000032e-01 -4.533100000000000324e-02
4.610360000000000014e-01 1.702369999999999994e-01 1.075979999999999992e-01
2.427819999999999978e-01 2.164540000000000075e-01 1.065389999999999948e-01
6.456900000000000139e-02 1.198810000000000014e-01 -1.151889999999999997e-01
4.033539999999999903e-01 1.593440000000000134e-01 -8.123099999999999765e-02
-4.429770000000000096e-01 1.036740000000000023e-01 -9.136299999999999977e-02
8.007199999999999873e-01 -2.012999999999999859e-02 1.242179999999999951e-01
3.766010000000000191e-01 2.007700000000000040e-01 -2.654600000000000015e-02
-5.116870000000000029e-01 -1.078199999999999992e-02 -2.183799999999999977e-02
-2.270069999999999866e-01 -6.048999999999999690e-03 -1.108559999999999962e-01
1.487800000000000060e-02 2.265620000000000134e-01 -4.981499999999999817e-02
-7.706889999999999574e-01 -3.702500000000000235e-02 -2.075790000000000135e-01
1.674710000000000087e-01 -1.929369999999999974e-01 8.574299999999999977e-02
7.768420000000000325e-01 -4.158300000000000191e-02 -2.410800000000000096e-02
6.688990000000000213e-01 4.028999999999999942e-02 -1.317270000000000107e-01
-3.537500000000000089e-01 1.749070000000000069e-01 -6.560900000000000065e-02
4.018280000000000185e-01 -1.359599999999999975e-01 2.774700000000000083e-02
-5.088770000000000238e-01 7.340000000000000170e-03 -5.302400000000000169e-02
-5.834930000000000394e-01 1.530380000000000074e-01 1.688399999999999970e-02
8.715199999999999336e-02 1.149249999999999994e-01 9.593000000000000832e-03
-3.105029999999999735e-01 1.166599999999999929e-02 -9.096100000000000019e-02
-3.319400000000000128e-02 3.003290000000000126e-01 -9.351900000000000490e-02
5.155269999999999575e-01 -8.525299999999999545e-02 9.898899999999999366e-02
9.239330000000000043e-01 -2.534959999999999991e-01 -8.206800000000000206e-02
3.718449999999999811e-01 2.096999999999999975e-01 1.094620000000000037e-01
6.048069999999999835e-01 -3.163699999999999846e-02 8.641400000000000470e-02
-1.297790000000000055e-01 1.743439999999999990e-01 -5.295300000000000007e-02
5.033050000000000024e-01 4.999900000000000178e-02 -7.398000000000000062e-03
4.538880000000000137e-01 9.387399999999999911e-02 -8.077900000000000358e-02
-6.546779999999999822e-01 2.923529999999999740e-01 -1.120200000000000015e-02
-5.525349999999999984e-01 2.063389999999999946e-01 5.763700000000000073e-02
-2.630620000000000180e-01 -3.416199999999999792e-02 2.700500000000000123e-02
-1.412000000000000061e-03 2.318939999999999890e-01 -1.560130000000000128e-01
9.366269999999999873e-01 6.647999999999999743e-02 1.254210000000000047e-01
2.812500000000000000e-01 -2.177419999999999911e-01 -1.208970000000000045e-01
6.717429999999999790e-01 -2.551309999999999967e-01 4.233699999999999963e-02
-3.377859999999999752e-01 3.127809999999999757e-01 -1.694319999999999993e-01
-1.802749999999999908e-01 2.119600000000000095e-01 -1.128770000000000051e-01
-3.751229999999999842e-01 2.652039999999999953e-01 -4.085500000000000242e-02
6.054019999999999957e-01 -1.257880000000000109e-01 -1.261170000000000069e-01
3.120780000000000221e-01 -1.710199999999999915e-02 1.025029999999999969e-01
-2.336850000000000038e-01 3.081729999999999747e-01 9.633899999999999408e-02
-6.300869999999999527e-01 6.094299999999999717e-02 6.409900000000000320e-02
-1.527169999999999916e-01 2.998330000000000162e-01 8.434899999999999343e-02
-6.569970000000000532e-01 2.058959999999999957e-01 -1.357019999999999893e-01
-1.569190000000000029e-01 1.586599999999999955e-01 -1.087599999999999956e-01
-2.979950000000000099e-01 1.261510000000000131e-01 -1.587449999999999972e-01
-2.011419999999999875e-01 -5.402799999999999964e-02 -1.574010000000000131e-01
1.900370000000000115e-01 -4.984100000000000336e-02 -1.054039999999999977e-01
1.004102000000000050e+00 -7.104000000000000592e-02 8.609899999999999498e-02
9.889310000000000045e-01 3.766599999999999809e-02 -1.014619999999999966e-01
-4.174919999999999742e-01 4.618699999999999889e-02 -1.485279999999999934e-01
2.912339999999999929e-01 4.680100000000000232e-02 9.009899999999999853e-02
4.842130000000000045e-01 1.477970000000000117e-01 -2.312399999999999872e-02
-2.474830000000000085e-01 8.277400000000000035e-02 -1.113159999999999983e-01
-6.178930000000000256e-01 5.013999999999999707e-02 -4.322100000000000247e-02
2.487500000000000128e-02 -3.382299999999999890e-02 -1.515269999999999950e-01
6.393069999999999586e-01 -9.575999999999999443e-03 -2.582100000000000020e-02
6.519099999999999895e-02 -1.959279999999999911e-01 -1.819790000000000019e-01
2.382910000000000028e-01 -1.172559999999999991e-01 -5.281399999999999983e-02
3.493990000000000151e-01 1.790589999999999959e-01 -9.348700000000000065e-02
6.667980000000000018e-01 -7.440800000000000192e-02 -1.478889999999999927e-01
-6.188900000000000512e-01 -8.104200000000000292e-02 -2.118309999999999915e-01
-4.947650000000000103e-01 1.122559999999999947e-01 -1.804570000000000063e-01
-6.051840000000000552e-01 2.382759999999999878e-01 3.883299999999999946e-02
-7.420120000000000049e-01 3.152340000000000142e-01 6.906400000000000039e-02
1.945550000000000057e-01 -3.967000000000000040e-03 -1.203609999999999958e-01
6.410810000000000120e-01 5.125799999999999801e-02 5.826800000000000035e-02
-1.118200000000000027e-01 -8.769999999999999584e-04 -1.719890000000000030e-01
5.020059999999999523e-01 -9.296300000000000396e-02 1.067759999999999959e-01
1.348500000000000046e-02 2.599090000000000011e-01 5.462100000000000288e-02
-4.936559999999999837e-01 2.151629999999999932e-01 8.462000000000000771e-03
-5.400679999999999925e-01 3.266200000000000214e-01 3.039000000000000035e-03
6.749239999999999684e-01 8.179100000000000259e-02 -1.997499999999999970e-02
-5.722239999999999549e-01 -7.113500000000000378e-02 -4.008500000000000257e-02
8.589970000000000105e-01 -1.668759999999999966e-01 -1.394990000000000119e-01
-1.633689999999999864e-01 1.772900000000000031e-01 8.940800000000000136e-02
-2.444769999999999999e-01 1.724970000000000114e-01 -1.699350000000000027e-01
4.291380000000000194e-01 1.135010000000000047e-01 -1.212759999999999949e-01
-1.052329999999999932e-01 2.002839999999999898e-01 8.835899999999999310e-02
7.962019999999999653e-01 -1.351009999999999989e-01 1.093200000000000005e-01
3.069529999999999759e-01 1.034000000000000023e-02 -9.355399999999999827e-02
-7.483640000000000292e-01 3.054189999999999960e-01 -3.832499999999999796e-02
-3.395500000000000185e-01 3.209940000000000015e-01 -1.086690000000000017e-01
4.057100000000000151e-01 2.583099999999999841e-01 6.868399999999999506e-02
-4.757839999999999847e-01 3.411469999999999780e-01 -1.673560000000000048e-01
-2.823990000000000111e-01 -2.796999999999999834e-02 -1.751929999999999876e-01
7.593180000000000485e-01 -4.743399999999999700e-02 1.210679999999999951e-01
7.754499999999999726e-01 -9.777500000000000080e-02 -1.078970000000000068e-01
1.790970000000000062e-01 2.205989999999999895e-01 4.071400000000000019e-02
4.046099999999999697e-02 -7.800200000000000189e-02 6.331199999999999328e-02
-2.992219999999999880e-01 -1.715770000000000073e-01 -8.676599999999999591e-02
-8.583000000000000351e-02 2.585620000000000140e-01 1.002620000000000039e-01
-2.206539999999999890e-01 3.854500000000000287e-02 -1.737879999999999980e-01
-4.282929999999999793e-01 -1.027509999999999951e-01 -1.952389999999999959e-01
-5.715270000000000072e-01 2.536760000000000126e-01 -6.662300000000000166e-02
-5.038460000000000161e-01 1.965399999999999925e-01 7.767699999999999605e-02
7.920390000000000486e-01 -1.447410000000000085e-01 7.628899999999999570e-02
-4.779880000000000240e-01 2.758970000000000034e-01 -1.849800000000000055e-01
-5.299059999999999881e-01 1.062049999999999939e-01 -1.876299999999999843e-02
-5.287119999999999598e-01 1.218390000000000029e-01 -1.534100000000000047e-02
2.033889999999999865e-01 1.735369999999999968e-01 3.488299999999999734e-02
1.967470000000000052e-01 -2.860000000000000129e-04 -1.666600000000000026e-01
-1.213879999999999959e-01 2.357950000000000046e-01 -1.306589999999999974e-01
2.542869999999999853e-01 -1.064579999999999971e-01 8.897700000000000053e-02
7.104599999999999804e-02 -1.250449999999999895e-01 -9.762500000000000344e-02
-4.619199999999999695e-02 1.585840000000000027e-01 9.631299999999999584e-02
-3.014660000000000117e-01 1.629700000000000037e-01 4.192000000000000413e-03
5.389969999999999484e-01 -1.374640000000000029e-01 1.025760000000000005e-01
-7.101499999999999480e-01 -2.609300000000000161e-02 -4.787999999999999722e-03
-3.753480000000000150e-01 -1.245980000000000004e-01 -1.625510000000000010e-01
-2.607829999999999870e-01 -7.488300000000000511e-02 -1.147689999999999960e-01
5.218890000000000473e-01 -7.342799999999999327e-02 -3.302499999999999880e-02
-1.679410000000000069e-01 2.023560000000000081e-01 8.175699999999999634e-02
4.685719999999999885e-01 -7.760499999999999343e-02 -1.112070000000000003e-01
2.866210000000000147e-01 -1.425659999999999983e-01 8.637799999999999645e-02
-6.848450000000000371e-01 -1.126840000000000064e-01 -1.186760000000000037e-01
2.143919999999999992e-01 -2.247199999999999892e-02 4.363600000000000118e-02
6.686739999999999906e-01 -1.017000000000000022e-02 -5.916099999999999831e-02
5.995549999999999491e-01 1.512529999999999986e-01 -9.170200000000000573e-02
-4.829089999999999772e-01 -4.227299999999999808e-02 -1.055539999999999951e-01
-5.070199999999999707e-02 1.222540000000000016e-01 -3.611400000000000027e-02
-4.443070000000000075e-01 3.437649999999999872e-01 2.952199999999999963e-02
5.869889999999999830e-01 5.982999999999999603e-03 -8.717700000000000449e-02
9.077999999999999958e-02 9.184799999999999909e-02 -1.283390000000000086e-01
6.559779999999999500e-01 2.240090000000000137e-01 5.404799999999999882e-02
-5.165980000000000016e-01 -1.395019999999999871e-01 -1.712680000000000036e-01
-2.589159999999999795e-01 -6.685699999999999976e-02 -1.439149999999999874e-01
6.875459999999999905e-01 2.350599999999999912e-01 -9.048000000000000487e-03
6.519709999999999672e-01 1.537459999999999938e-01 5.176000000000000045e-03
-3.951169999999999960e-01 -6.287000000000000054e-03 -1.185009999999999952e-01
-2.383419999999999983e-01 -6.668599999999999528e-02 4.115400000000000308e-02
-6.604139999999999455e-01 -1.080610000000000043e-01 -1.932000000000000037e-02
1.111810000000000020e-01 3.010240000000000138e-01 -2.331099999999999839e-02
-6.444699999999999873e-01 3.285629999999999939e-01 -1.867749999999999966e-01
8.978270000000000417e-01 9.594900000000000651e-02 1.433850000000000124e-01
-9.185899999999999621e-02 -6.932800000000000074e-02 -1.159960000000000019e-01
3.845930000000000182e-01 -4.959399999999999920e-02 -5.777800000000000297e-02
-3.125870000000000037e-01 5.014300000000000007e-02 4.126200000000000007e-02
5.633620000000000294e-01 5.402099999999999957e-02 -9.568599999999999328e-02
2.375539999999999874e-01 -1.440140000000000031e-01 -9.088300000000000545e-02
7.931340000000000057e-01 -2.149000000000000077e-01 -9.813299999999999801e-02
-6.214910000000000156e-01 -3.326799999999999896e-02 -1.297929999999999917e-01
4.259299999999999892e-02 1.973459999999999936e-01 -1.025419999999999943e-01
-5.996669999999999501e-01 2.165710000000000135e-01 -1.427940000000000043e-01
2.170070000000000054e-01 -2.480999999999999872e-02 -2.574299999999999852e-02
6.903580000000000272e-01 -1.073200000000000022e-02 9.704899999999999638e-02
-4.368159999999999821e-01 1.379009999999999958e-01 -1.713389999999999913e-01
-2.311930000000000096e-01 -1.740240000000000120e-01 -1.422690000000000066e-01
7.852499999999999758e-02 2.644500000000000184e-01 -1.554260000000000086e-01
-5.340310000000000334e-01 2.144999999999999962e-01 -1.877340000000000120e-01
3.514829999999999899e-01 2.198400000000000076e-01 -5.917399999999999743e-02
-5.191649999999999876e-01 -9.273000000000000687e-02 -9.688999999999999696e-03
3.754009999999999847e-01 2.090480000000000116e-01 2.044800000000000090e-02
2.127580000000000027e-01 1.972550000000000137e-01 -1.462569999999999981e-01
-1.355429999999999968e-01 1.291370000000000018e-01 -5.833999999999999776e-03
7.848810000000000509e-01 3.908699999999999675e-02 -5.277899999999999953e-02
6.951999999999999846e-02 -1.475269999999999915e-01 -1.072759999999999964e-01
1.803279999999999883e-01 2.541999999999999815e-01 8.097600000000000631e-02
2.838470000000000160e-01 1.480859999999999954e-01 7.363400000000000500e-02
-3.638779999999999792e-01 2.882900000000000046e-02 -1.229139999999999955e-01
-6.222360000000000113e-01 3.683420000000000027e-01 -1.313429999999999875e-01
-5.377290000000000125e-01 -3.050200000000000133e-02 -1.131830000000000058e-01
-3.949520000000000253e-01 1.181679999999999953e-01 -1.787360000000000060e-01
-2.508210000000000162e-01 7.068800000000000083e-02 -5.442600000000000215e-02
4.649119999999999919e-01 9.921299999999999564e-02 1.153990000000000016e-01
4.042990000000000195e-01 -1.034899999999999987e-01 3.507099999999999801e-02
-1.802370000000000083e-01 -1.089019999999999988e-01 -9.618500000000000660e-02
1.797420000000000129e-01 1.839999999999999969e-01 -5.209600000000000342e-02
3.714450000000000252e-01 1.155599999999999961e-01 -7.850200000000000233e-02
-5.691490000000000160e-01 9.446999999999999842e-02 5.904700000000000226e-02
-2.411470000000000002e-01 -1.260340000000000071e-01 -1.440100000000000061e-02
4.103800000000000225e-01 2.733180000000000054e-01 -1.490400000000000058e-02
7.281689999999999552e-01 9.649499999999999744e-02 8.212600000000000455e-02
3.828449999999999909e-01 2.486909999999999954e-01 -7.976400000000000157e-02
4.506009999999999738e-01 -2.013119999999999910e-01 7.185500000000000220e-02
-4.950700000000000239e-02 -1.415399999999999991e-02 -1.821760000000000046e-01
-5.979870000000000463e-01 3.022659999999999791e-01 -4.112000000000000204e-03
-1.222639999999999977e-01 -2.572000000000000067e-03 8.192099999999999382e-02
3.834640000000000271e-01 -1.064670000000000061e-01 -1.494810000000000028e-01
4.579790000000000250e-01 1.847719999999999918e-01 9.386999999999999511e-03
1.799189999999999956e-01 -7.850899999999999546e-02 8.381800000000000361e-02
-3.646329999999999849e-01 2.490300000000000152e-02 6.037300000000000305e-02
8.222639999999999949e-01 1.419860000000000011e-01 -6.622599999999999321e-02
-5.971629999999999994e-01 2.658240000000000047e-01 -1.010240000000000027e-01
-2.402980000000000116e-01 -1.684259999999999924e-01 -1.244330000000000019e-01
-5.211689999999999934e-01 1.841770000000000074e-01 -7.030000000000000138e-02
3.171439999999999815e-01 1.058869999999999950e-01 -1.440059999999999951e-01
-6.269120000000000248e-01 3.165799999999999725e-01 4.712299999999999822e-02
8.143620000000000303e-01 -5.428000000000000186e-02 -1.437640000000000029e-01
-3.021309999999999829e-01 1.276509999999999867e-01 -5.363799999999999818e-02
-3.527520000000000100e-01 -1.287520000000000053e-01 -3.642399999999999805e-02
-7.219039999999999901e-01 3.784319999999999906e-01 -1.613749999999999907e-01
-1.655359999999999887e-01 3.603499999999999759e-02 -1.540239999999999942e-01
4.125750000000000250e-01 2.772439999999999904e-01 -6.078000000000000069e-02
7.804849999999999843e-01 -5.714299999999999935e-02 -1.466300000000000103e-01
-2.353200000000000014e-01 -1.059749999999999998e-01 -1.159079999999999971e-01
9.450100000000000167e-02 -9.730099999999999860e-02 7.436299999999999855e-02
1.203800000000000009e-02 -1.736370000000000136e-01 -1.288799999999999946e-01
7.353640000000000176e-01 1.994299999999999962e-01 1.210949999999999943e-01
7.057200000000000140e-01 1.462690000000000101e-01 4.824599999999999722e-02
-3.705010000000000248e-01 -5.499899999999999928e-02 -1.358000000000000040e-01
-4.852779999999999871e-01 2.317420000000000035e-01 -1.632379999999999942e-01
-4.884399999999999853e-01 9.152399999999999425e-02 7.232399999999999940e-02
5.188540000000000374e-01 2.084719999999999906e-01 -5.770800000000000235e-02
4.618959999999999733e-01 2.649270000000000236e-01 8.127600000000000102e-02
-1.947460000000000024e-01 1.011119999999999935e-01 1.093200000000000074e-02
2.214939999999999964e-01 -1.893699999999999897e-02 -1.240399999999999975e-01
-1.241120000000000001e-01 -6.817199999999999649e-02 -1.037700000000000081e-02
-5.571500000000000341e-01 4.463299999999999906e-02 -1.684380000000000044e-01
6.645830000000000348e-01 -3.826500000000000040e-02 -1.735199999999999937e-02
7.367240000000000455e-01 -1.370149999999999979e-01 7.243900000000000339e-02
1.028631999999999991e+00 -1.976600000000000024e-01 -4.478499999999999842e-02
5.007800000000000029e-01 1.057499999999999968e-01 1.180849999999999955e-01
6.602440000000000531e-01 -1.200279999999999958e-01 -8.219400000000000317e-02
7.415190000000000392e-01 2.211359999999999992e-01 1.496100000000000034e-02
-7.211659999999999737e-01 -1.372639999999999971e-01 3.315300000000000191e-02
-4.113149999999999862e-01 1.456560000000000077e-01 -9.178500000000000547e-02
3.727639999999999842e-01 1.921889999999999987e-01 5.002100000000000296e-02
5.037070000000000158e-01 3.405299999999999994e-02 -5.083100000000000118e-02
5.146789999999999976e-01 1.171999999999999952e-02 1.007920000000000066e-01
8.233420000000000183e-01 2.114840000000000053e-01 -1.197970000000000007e-01
-4.297059999999999769e-01 -9.215399999999999980e-02 -1.381600000000000050e-01
-4.218810000000000060e-01 9.216699999999999893e-02 5.629900000000000182e-02
3.417330000000000090e-01 -1.760619999999999963e-01 4.116500000000000020e-02
2.364459999999999895e-01 1.983459999999999945e-01 -3.602899999999999853e-02
7.449489999999999723e-01 -1.677949999999999997e-01 -1.547910000000000119e-01
1.548470000000000124e-01 2.873519999999999963e-01 8.691799999999999526e-02
-5.363189999999999902e-01 1.987849999999999895e-01 -1.851140000000000008e-01
-5.962939999999999907e-01 -6.281000000000000472e-02 -1.211440000000000017e-01
-2.595350000000000157e-01 -3.102900000000000102e-02 -5.337700000000000083e-02
8.727600000000000635e-02 1.575719999999999898e-01 9.615100000000000036e-02
3.190319999999999823e-01 -1.360530000000000073e-01 -7.058000000000000038e-03
5.374099999999999711e-02 8.885500000000000342e-02 8.657399999999999818e-02
1.732889999999999986e-01 1.126260000000000039e-01 -4.299900000000000250e-02
-4.401399999999999757e-01 1.671050000000000035e-01 -2.801199999999999871e-02
-1.491240000000000065e-01 2.272589999999999888e-01 -1.567719999999999947e-01
1.253340000000000010e-01 -8.872299999999999631e-02 2.416400000000000145e-02
2.783760000000000123e-01 2.256800000000000125e-02 -5.525299999999999656e-02
6.953749999999999654e-01 5.812099999999999905e-02 1.180510000000000032e-01
6.003079999999999528e-01 1.436169999999999947e-01 1.247299999999999937e-01
-6.036880000000000024e-01 1.630300000000000082e-01 -1.561859999999999915e-01
5.987719999999999709e-01 -2.032940000000000025e-01 -1.255489999999999939e-01
-2.820759999999999934e-01 6.937899999999999623e-02 2.140900000000000095e-02
7.022319999999999673e-01 -2.144210000000000005e-01 6.816899999999999349e-02
4.650349999999999762e-01 2.012369999999999992e-01 -1.299609999999999932e-01
-6.989109999999999490e-01 7.163899999999999435e-02 -7.646999999999999631e-02
1.025007999999999919e+00 6.779699999999999616e-02 -3.030400000000000107e-02
-7.567789999999999795e-01 1.725220000000000087e-01 -1.101469999999999949e-01
4.555799999999999850e-01 -1.352980000000000016e-01 8.783100000000000629e-02
-5.451970000000000427e-01 -3.532500000000000223e-02 6.079500000000000182e-02
-1.426779999999999993e-01 7.257800000000000362e-02 5.119200000000000139e-02
5.155300000000000438e-01 2.121230000000000060e-01 3.191499999999999893e-02
-1.497960000000000125e-01 2.550160000000000204e-01 -8.186899999999999733e-02
1.833829999999999905e-01 -2.117259999999999975e-01 1.167900000000000015e-02
1.052280000000000021e-01 2.508079999999999754e-01 -1.504630000000000134e-01
6.923899999999999499e-02 1.618759999999999921e-01 -1.420609999999999928e-01
-6.561050000000000493e-01 2.016699999999999882e-01 -1.665899999999999881e-01
-5.759809999999999652e-01 2.446619999999999906e-01 2.424499999999999919e-02
-2.662539999999999907e-01 -1.105470000000000064e-01 -5.482599999999999973e-02
-1.671040000000000025e-01 3.813799999999999829e-02 -1.109310000000000018e-01
-6.832099999999999840e-01 7.262399999999999411e-02 -1.922149999999999970e-01
-4.924790000000000001e-01 5.926999999999999977e-03 5.861600000000000144e-02
1.058609999999999968e-01 -8.403700000000000059e-02 -1.778389999999999971e-01
-3.010180000000000078e-01 8.166500000000000148e-02 -1.777100000000000068e-01
3.129410000000000247e-01 -1.946460000000000135e-01 1.999000000000000082e-02
2.991249999999999742e-01 -1.189499999999999932e-02 -1.510660000000000058e-01
-8.160199999999999398e-02 3.697500000000000092e-02 -1.454840000000000022e-01
-3.757960000000000189e-01 3.341419999999999946e-01 9.026299999999999601e-02
2.624299999999999966e-01 -2.136480000000000046e-01 -1.585459999999999925e-01
3.726900000000000213e-01 -1.987269999999999870e-01 -7.773599999999999954e-02
-6.854120000000000212e-01 -1.038649999999999990e-01 -8.615299999999999347e-02
-7.526610000000000245e-01 2.136220000000000063e-01 -1.253019999999999967e-01
4.014329999999999843e-01 1.705869999999999886e-01 -1.024699999999999916e-02
-6.588499999999999912e-02 1.292780000000000040e-01 -1.660540000000000072e-01
6.651690000000000103e-01 1.104300000000000073e-02 7.184300000000000408e-02
-1.716219999999999968e-01 3.669499999999999845e-02 -2.596999999999999916e-03
4.640429999999999833e-01 -8.386799999999999811e-02 -1.272799999999999973e-02
3.235290000000000110e-01 2.265129999999999921e-01 -4.792199999999999932e-02
-1.159769999999999968e-01 2.620520000000000072e-01 9.909199999999999953e-02
-6.976099999999999524e-01 1.231850000000000028e-01 -2.200000000000000078e-04
-7.854210000000000358e-01 -1.128019999999999995e-01 -3.641999999999999838e-03
7.391100000000000447e-02 -1.136179999999999968e-01 -1.442519999999999913e-01
3.405489999999999906e-01 -2.246609999999999996e-01 -3.181300000000000100e-02
-1.360230000000000050e-01 1.107130000000000059e-01 -3.272100000000000009e-02
-7.467650000000000121e-01 3.434590000000000143e-01 2.191999999999999938e-03
1.845529999999999948e-01 -6.086099999999999843e-02 6.648000000000000263e-03
-2.965920000000000223e-01 1.415470000000000061e-01 -1.609859999999999902e-01
2.070510000000000128e-01 -1.613149999999999862e-01 -6.717399999999999760e-02
6.602590000000000403e-01 -1.013119999999999993e-01 -4.321900000000000047e-02
-3.538600000000000079e-02 2.586789999999999923e-01 -1.269979999999999998e-01
-6.184760000000000257e-01 2.341199999999999878e-02 -8.502700000000000535e-02
-6.313520000000000243e-01 2.399880000000000069e-01 -4.368999999999999620e-03
-2.372229999999999894e-01 2.378170000000000006e-01 -3.844899999999999707e-02
2.278989999999999905e-01 2.982549999999999923e-01 -1.357430000000000025e-01
-6.137850000000000250e-01 4.419800000000000118e-02 -1.569830000000000114e-01
-6.305629999999999846e-01 2.305949999999999944e-01 -4.355500000000000344e-02
-7.904100000000000015e-02 1.193410000000000026e-01 -3.553400000000000308e-02
-1.615659999999999874e-01 1.396199999999999941e-01 -3.418999999999999817e-02
-2.950429999999999997e-01 1.751250000000000029e-01 -1.285969999999999891e-01
-1.146859999999999963e-01 1.378599999999999964e-02 -7.052899999999999447e-02
-5.463390000000000191e-01 -1.005849999999999939e-01 -4.821399999999999991e-02
4.051629999999999954e-01 2.533099999999999796e-01 7.164299999999999835e-02
-3.936950000000000172e-01 2.285399999999999932e-02 -9.229600000000000304e-02
3.148960000000000092e-01 -2.104419999999999902e-01 -6.140700000000000325e-02
-1.011050000000000004e-01 2.534850000000000159e-01 9.840200000000000335e-02
4.537370000000000014e-01 8.810199999999999976e-02 -8.918299999999999839e-02
-1.596190000000000109e-01 2.065809999999999869e-01 5.850899999999999851e-02
9.836070000000000091e-01 -5.906000000000000139e-02 -1.060490000000000044e-01
-4.153680000000000150e-01 5.823099999999999804e-02 -1.755940000000000001e-01
-5.024340000000000472e-01 1.063719999999999943e-01 -3.755999999999999790e-03
-4.970000000000000112e-02 8.541100000000000081e-02 -1.382369999999999988e-01
-4.058309999999999973e-01 1.948459999999999914e-01 -1.235890000000000044e-01
6.359059999999999713e-01 2.300900000000000167e-02 1.194349999999999995e-01
-6.974930000000000296e-01 6.796599999999999864e-02 -1.192310000000000036e-01
-6.029079999999999995e-01 -8.999799999999999467e-02 -1.522300000000000042e-02
-3.026229999999999754e-01 6.084599999999999731e-02 -1.818919999999999981e-01
-3.346709999999999963e-01 9.008199999999999541e-02 -2.230299999999999991e-02
-2.018179999999999974e-01 1.848799999999999888e-01 7.623699999999999921e-02
-6.998349999999999849e-01 9.345799999999999941e-02 -7.924999999999999753e-03
-6.930790000000000006e-01 8.745899999999999508e-02 -1.870690000000000131e-01
9.524439999999999573e-01 5.939900000000000041e-02 1.185599999999999987e-01
5.161339999999999817e-01 -8.267700000000000049e-02 8.943299999999999861e-02
-2.416240000000000054e-01 2.430309999999999970e-01 8.101700000000000568e-02
-3.520500000000000018e-02 2.447280000000000011e-01 -1.608009999999999995e-01
-7.593239999999999990e-01 1.843730000000000091e-01 -2.249699999999999964e-02
-3.044499999999999984e-01 1.316219999999999890e-01 1.189699999999999959e-02
7.672660000000000036e-01 -1.284540000000000126e-01 1.167839999999999989e-01
2.271199999999999955e-02 2.810099999999999820e-01 -1.285330000000000084e-01
7.068719999999999448e-01 1.048690000000000039e-01 -6.715500000000000635e-02
4.372670000000000168e-01 -1.022310000000000024e-01 8.984100000000000419e-02
7.912930000000000241e-01 2.436369999999999925e-01 -5.218999999999999681e-03
-6.074889999999999457e-01 1.442940000000000056e-01 -1.018509999999999971e-01
-4.259180000000000188e-01 -7.453400000000000303e-02 -1.944970000000000032e-01
3.271700000000000164e-01 -1.079579999999999984e-01 -1.486369999999999914e-01
-3.564149999999999818e-01 1.105740000000000056e-01 -1.351080000000000059e-01
-7.556929999999999481e-01 1.654559999999999920e-01 -1.517739999999999922e-01
7.539130000000000553e-01 -1.323809999999999987e-01 1.159030000000000060e-01
-5.694420000000000037e-01 2.916739999999999888e-01 -3.816399999999999654e-02
2.941610000000000058e-01 1.890539999999999998e-01 -9.455600000000000116e-02
-4.073919999999999764e-01 2.307669999999999999e-01 -9.636000000000000468e-03
-5.381860000000000532e-01 3.368849999999999900e-01 -2.179499999999999840e-02
4.567370000000000041e-01 1.986850000000000005e-01 6.924600000000000199e-02
8.342060000000000031e-01 -8.433400000000000618e-02 1.207389999999999991e-01
-5.503789999999999516e-01 4.198600000000000249e-02 -2.017200000000000104e-01
-4.902130000000000098e-01 2.140160000000000118e-01 -7.881799999999999917e-02
5.843730000000000313e-01 2.299000000000000002e-02 1.303699999999999998e-02
-7.631959999999999855e-01 1.765839999999999910e-01 5.659200000000000341e-02
-3.062570000000000014e-01 1.180490000000000012e-01 2.790799999999999878e-02
-2.035099999999999965e-01 2.991190000000000238e-01 -4.883699999999999847e-02
3.528699999999999892e-02 1.481079999999999897e-01 -2.588199999999999876e-02
7.814649999999999652e-01 4.979399999999999799e-02 5.393300000000000177e-02
-1.438639999999999919e-01 1.898700000000000040e-02 -3.219099999999999739e-02
4.756599999999999717e-02 4.214199999999999890e-02 9.381200000000000649e-02
-6.912439999999999696e-01 1.474939999999999862e-01 -1.061620000000000064e-01
6.043659999999999588e-01 1.898680000000000090e-01 -1.406179999999999930e-01
-4.842480000000000118e-01 -7.646999999999999631e-02 -1.444139999999999868e-01
4.203100000000000169e-01 -9.908999999999999753e-02 -1.656999999999999862e-01
4.623090000000000255e-01 2.492979999999999918e-01 -1.347679999999999989e-01
-2.906630000000000047e-01 2.796629999999999949e-01 -1.689099999999999976e-02
-4.920930000000000026e-01 2.347339999999999982e-01 1.106900000000000071e-02
-4.826600000000000334e-02 -6.962000000000000306e-03 -1.817060000000000064e-01
-1.033000000000000029e-01 1.304450000000000054e-01 -1.060819999999999957e-01
2.965829999999999855e-01 2.761700000000000266e-01 1.185699999999999948e-01
8.051559999999999828e-01 2.135950000000000071e-01 1.381709999999999883e-01
-6.177080000000000348e-01 -9.041999999999999690e-03 -1.721650000000000125e-01
4.119199999999999945e-02 -8.500900000000000123e-02 3.056899999999999895e-02
6.687030000000000474e-01 2.524529999999999830e-01 1.648200000000000012e-02
-6.536110000000000531e-01 2.810469999999999913e-01 -6.126299999999999801e-02
5.690840000000000343e-01 -2.029370000000000063e-01 -8.482699999999999962e-02
-1.379259999999999931e-01 2.916599999999999748e-01 9.979200000000000570e-02
-3.046329999999999871e-01 8.227299999999999891e-02 -8.731400000000000272e-02
-7.098200000000000343e-02 2.452500000000000166e-02 8.543800000000000006e-02
3.971469999999999723e-01 -2.001419999999999866e-01 -1.647760000000000058e-01
5.712639999999999940e-01 2.410219999999999863e-01 1.024919999999999998e-01
1.813710000000000044e-01 2.180840000000000001e-01 -2.063500000000000056e-02
-4.837929999999999731e-01 3.340710000000000068e-01 1.519200000000000064e-02
7.938819999999999766e-01 1.071600000000000052e-01 -1.316110000000000058e-01
-8.018200000000000327e-02 -1.160699999999999926e-02 8.496900000000000286e-02
3.605300000000000171e-01 2.023540000000000061e-01 -1.460140000000000049e-01
3.578609999999999847e-01 -7.998999999999999166e-03 -3.276999999999999965e-03
-4.571000000000000063e-01 2.746449999999999725e-01 -7.582300000000000151e-02
-2.572400000000000242e-01 -1.471899999999999945e-02 -7.568199999999999927e-02
7.773800000000000154e-02 2.694270000000000276e-01 -1.255610000000000059e-01
-7.203009999999999691e-01 4.626199999999999757e-02 -2.045730000000000048e-01
-6.709990000000000121e-01 1.289639999999999953e-01 4.780899999999999733e-02
-9.261400000000000188e-02 2.753309999999999924e-01 -6.503599999999999659e-02
-2.230810000000000015e-01 6.147099999999999786e-02 -6.576500000000000401e-02
-5.995960000000000178e-01 -9.638399999999999745e-02 -1.102910000000000001e-01
4.828859999999999819e-01 1.511740000000000028e-01 1.667300000000000032e-02
-5.521230000000000304e-01 1.095280000000000004e-01 -1.559899999999999898e-01
6.623390000000000111e-01 8.201100000000000056e-02 1.177070000000000061e-01
-6.902800000000000047e-01 1.550880000000000036e-01 -1.138959999999999972e-01
4.694650000000000212e-01 -8.347200000000000453e-02 -1.455510000000000137e-01
-1.746230000000000004e-01 2.683400000000000230e-01 -1.337160000000000015e-01
3.881330000000000058e-01 -3.568700000000000344e-02 -1.158340000000000064e-01
-5.923399999999999777e-01 3.204960000000000031e-01 6.788600000000000190e-02
6.798629999999999951e-01 -1.433450000000000002e-01 7.706599999999999562e-02
-1.731030000000000069e-01 1.702420000000000044e-01 7.608600000000000085e-02
2.890490000000000004e-01 -2.064630000000000076e-01 -1.077779999999999988e-01
-6.517340000000000355e-01 -2.460000000000000164e-04 -6.740000000000000331e-03
-2.961799999999999988e-01 2.266269999999999951e-01 -1.654019999999999935e-01
1.598749999999999893e-01 -9.324999999999999956e-03 3.139800000000000230e-02
1.257969999999999922e-01 -8.879099999999999493e-02 1.261999999999999927e-02
5.754510000000000458e-01 -3.723800000000000027e-02 1.064200000000000007e-01
5.087319999999999620e-01 8.340599999999999403e-02 -7.099199999999999955e-02
5.286229999999999540e-01 -1.437150000000000094e-01 9.729200000000000348e-02
5.384799999999999587e-01 -2.347569999999999935e-01 -8.912799999999999889e-02
-1.378860000000000086e-01 -1.820960000000000079e-01 -1.365490000000000037e-01
7.960089999999999666e-01 1.935979999999999923e-01 -2.409999999999999816e-03
-1.814610000000000112e-01 2.245340000000000114e-01 -5.720900000000000291e-02
-6.758640000000000203e-01 3.294250000000000234e-01 6.998400000000000454e-02
-5.267309999999999492e-01 1.118249999999999938e-01 -8.524800000000000433e-02
-7.115299999999999403e-02 2.353889999999999871e-01 1.388499999999999977e-02
1.260689999999999866e-01 2.827770000000000006e-01 9.483800000000000563e-02
4.853600000000000136e-01 2.041260000000000019e-01 6.697799999999999587e-02
-4.907700000000000257e-02 1.277979999999999949e-01 -6.452600000000000002e-02
7.612830000000000430e-01 5.736999999999999739e-02 -1.245409999999999989e-01
-5.138209999999999722e-01 -5.341599999999999820e-02 -5.883200000000000235e-02
6.526910000000000212e-01 1.828269999999999895e-01 4.855099999999999694e-02
6.360499999999999488e-02 1.974180000000000101e-01 7.152999999999999636e-02
1.691000000000000142e-02 -1.172399999999999970e-01 -1.304750000000000076e-01
4.110599999999999810e-01 2.433680000000000010e-01 -9.463799999999999990e-02
2.268709999999999893e-01 -2.193080000000000029e-01 1.426700000000000017e-02
3.811789999999999901e-01 -7.640900000000000469e-02 -2.996000000000000052e-02
6.914099999999999413e-02 2.579819999999999891e-01 6.230900000000000327e-02
1.610479999999999967e-01 -2.151280000000000137e-01 -1.167999999999999984e-03
-1.007740000000000025e-01 7.822400000000000186e-02 7.587900000000000200e-02
7.288149999999999906e-01 -2.280619999999999870e-01 7.608700000000000185e-02
7.720200000000000673e-02 2.862839999999999829e-01 -7.694399999999999851e-02
-4.834229999999999916e-01 3.023259999999999836e-01 -6.063700000000000340e-02
-1.620999999999999872e-02 -1.811319999999999875e-01 6.849299999999999833e-02
3.757800000000000029e-01 -1.896089999999999998e-01 -1.347720000000000029e-01
1.421499999999999986e-01 1.456649999999999889e-01 1.021780000000000049e-01
-1.801030000000000131e-01 2.775770000000000182e-01 2.079100000000000045e-02
2.109880000000000089e-01 -1.621470000000000133e-01 -1.787539999999999962e-01
-3.199949999999999739e-01 -1.242899999999999977e-01 -1.426749999999999963e-01
1.325299999999999916e-02 -1.580759999999999943e-01 -1.261450000000000071e-01
-2.043480000000000019e-01 -2.409999999999999816e-03 3.009900000000000075e-02
-3.095040000000000013e-01 4.784399999999999764e-02 -3.958300000000000013e-02
3.842249999999999832e-01 -3.980000000000000204e-02 -2.812600000000000169e-02
3.459869999999999890e-01 -1.765990000000000060e-01 -6.484099999999999586e-02
-1.858940000000000037e-01 2.380249999999999866e-01 8.041800000000000337e-02
2.949860000000000260e-01 -9.586500000000000576e-02 -2.171400000000000066e-02
-4.093470000000000164e-01 2.316940000000000111e-01 4.050299999999999734e-02
9.664570000000000105e-01 -5.350300000000000195e-02 -1.144929999999999976e-01
7.764550000000000063e-01 3.694999999999999934e-03 8.056499999999999773e-02
-5.671199999999999575e-01 1.651990000000000125e-01 -1.882909999999999862e-01
1.784090000000000120e-01 -1.970469999999999999e-01 -1.280640000000000112e-01
1.857850000000000057e-01 -1.314099999999999990e-01 -1.719660000000000077e-01
3.009560000000000013e-01 1.713399999999999992e-02 6.856500000000000095e-02
1.069499999999999965e-02 -1.964120000000000033e-01 -9.861000000000000321e-02
-7.533999999999999898e-03 2.964109999999999800e-01 -4.243799999999999656e-02
7.373300000000000687e-02 2.159230000000000038e-01 -1.392839999999999911e-01
6.646619999999999751e-01 2.410249999999999893e-01 -1.242930000000000007e-01
1.993399999999999894e-01 6.819000000000000061e-02 -8.669999999999999929e-02
2.588059999999999805e-01 -2.136800000000000088e-01 -6.927300000000000124e-02
-1.658340000000000092e-01 1.352190000000000059e-01 6.178700000000000164e-02
6.906269999999999909e-01 3.346000000000000016e-03 1.199810000000000043e-01
5.837149999999999839e-01 -5.915000000000000119e-03 -3.148000000000000104e-02
-2.433589999999999920e-01 1.096069999999999961e-01 -1.566089999999999982e-01
1.445399999999999983e-02 2.822120000000000184e-01 7.758900000000000519e-02
-6.025540000000000340e-01 2.389620000000000077e-01 -2.456799999999999956e-02
6.349900000000000544e-01 -9.364300000000000401e-02 -9.607799999999999674e-02
-6.470150000000000068e-01 -3.607400000000000190e-02 -1.983749999999999958e-01
6.721150000000000180e-01 -2.173000000000000018e-03 1.148819999999999980e-01
-5.569199999999999845e-02 9.544999999999999665e-03 -1.499479999999999980e-01
2.869559999999999889e-01 -1.516270000000000118e-01 5.907099999999999851e-02
-2.951929999999999832e-01 2.318919999999999870e-01 -5.615000000000000199e-03
-1.776900000000000007e-02 1.503539999999999877e-01 -9.704100000000000226e-02
-6.265309999999999491e-01 -5.935700000000000004e-02 -6.038000000000000311e-02
-2.696660000000000168e-01 1.853899999999999992e-01 -4.072300000000000225e-02
3.377749999999999919e-01 4.775999999999999863e-03 1.049289999999999945e-01
6.840840000000000254e-01 1.808120000000000005e-01 -3.769999999999999740e-02
-1.358000000000000040e-01 1.232769999999999977e-01 -1.181899999999999964e-02
8.160000000000000586e-02 2.673599999999999935e-02 -3.887299999999999783e-02
-6.107970000000000343e-01 -1.887600000000000042e-02 6.044499999999999873e-02
7.489780000000000326e-01 -4.664800000000000196e-02 -3.977499999999999786e-02
-1.082950000000000024e-01 6.146999999999999686e-02 -1.278870000000000007e-01
3.807420000000000249e-01 -9.271000000000000074e-02 -5.344399999999999845e-02
5.705949999999999633e-01 -1.098049999999999998e-01 7.364400000000000113e-02
2.064139999999999864e-01 1.681999999999999884e-01 -5.092700000000000005e-02
5.580370000000000053e-01 5.717200000000000060e-02 4.221699999999999758e-02
2.305939999999999934e-01 -1.474949999999999872e-01 7.338999999999999690e-02
-6.308629999999999516e-01 -6.269800000000000373e-02 3.941000000000000059e-02
-2.766129999999999978e-01 2.978810000000000069e-01 -1.745609999999999939e-01
3.611799999999999733e-02 -4.110099999999999865e-02 7.489300000000000124e-02
-1.021080000000000043e-01 -1.950459999999999972e-01 4.536799999999999861e-02
-5.514440000000000452e-01 -1.295499999999999985e-01 1.676499999999999865e-02
1.895830000000000015e-01 3.751600000000000074e-02 -1.683360000000000134e-01
3.795990000000000197e-01 -1.211180000000000034e-01 -8.499199999999999811e-02
1.337400000000000047e-02 -1.109190000000000037e-01 -3.001799999999999954e-02
1.536679999999999990e-01 -1.467789999999999928e-01 -1.044260000000000049e-01
3.784649999999999959e-01 -1.665369999999999906e-01 -1.524709999999999954e-01
-6.700220000000000065e-01 7.819800000000000362e-02 -8.296599999999999808e-02
-6.957290000000000418e-01 -1.426139999999999908e-01 -2.628199999999999981e-02
-3.400310000000000277e-01 2.841719999999999802e-01 -1.742019999999999957e-01
-2.242699999999999902e-02 1.060159999999999991e-01 -7.536700000000000343e-02
1.262419999999999931e-01 -1.481490000000000029e-01 -1.230839999999999990e-01
4.669399999999999940e-02 2.969060000000000032e-01 5.575000000000000094e-03
3.640059999999999962e-01 2.738720000000000043e-01 7.846899999999999709e-02
-2.743100000000000052e-02 -1.281269999999999909e-01 -1.877260000000000040e-01
-6.246329999999999938e-01 -6.426199999999999968e-02 -1.174570000000000058e-01
2.992569999999999952e-01 2.840860000000000052e-01 -4.671999999999999938e-03
-1.105150000000000021e-01 8.737699999999999634e-02 -1.870499999999999940e-02
6.016999999999999779e-03 1.735450000000000048e-01 5.721500000000000197e-02
-1.770710000000000062e-01 -1.383000000000000028e-02 2.557299999999999851e-02
6.727220000000000422e-01 -2.615129999999999955e-01 6.701300000000000312e-02
-1.378409999999999913e-01 1.215770000000000045e-01 3.489899999999999947e-02
-6.536079999999999668e-01 -7.430299999999999405e-02 -1.161719999999999975e-01
1.249829999999999969e-01 2.204309999999999881e-01 -9.410999999999999227e-03
-9.237900000000000278e-02 2.761170000000000013e-01 -1.673890000000000100e-01
2.367190000000000127e-01 1.543730000000000102e-01 -1.351809999999999956e-01
-6.019569999999999643e-01 3.571090000000000098e-01 2.466700000000000143e-02
7.951510000000000522e-01 -1.866180000000000061e-01 -8.842999999999999472e-02
7.762449999999999628e-01 -8.055900000000000560e-02 -1.483879999999999921e-01
-3.997569999999999735e-01 3.397649999999999837e-01 3.120300000000000157e-02
3.403300000000000075e-02 1.368590000000000084e-01 -1.861300000000000107e-02
-4.339500000000000024e-01 2.613460000000000227e-01 1.743600000000000011e-02
-2.621899999999999925e-02 5.600499999999999923e-02 -8.699099999999999888e-02
