8.127366304397583008e-01 -1.995668709278106689e-01 1.712428182363510132e-01
8.060232996940612793e-01 -1.761758923530578613e-01 1.648294478654861450e-01
8.165104389190673828e-01 -1.946914792060852051e-01 1.951433420181274414e-01
8.091421127319335938e-01 -1.734033226966857910e-01 1.906876862049102783e-01
2.442995458841323853e-01 7.692483812570571899e-02 -1.572296172380447388e-01
2.227292209863662720e-01 8.048871159553527832e-02 -1.505440175533294678e-01
2.291827946901321411e-01 9.471697360277175903e-02 -1.403403282165527344e-01
2.074239701032638550e-01 9.764667600393295288e-02 -1.331886798143386841e-01
-5.538043975830078125e-01 -1.548853367567062378e-01 4.357194304466247559e-01
-5.561273097991943359e-01 -1.265396922826766968e-01 4.364553391933441162e-01
-5.661454796791076660e-01 -1.529468894004821777e-01 4.506483972072601318e-01
-5.721658468246459961e-01 -1.262269169092178345e-01 4.549740850925445557e-01
-4.933685958385467529e-01 -3.450038433074951172e-01 -9.276280552148818970e-02
-5.046836137771606445e-01 -3.398053348064422607e-01 -9.970823675394058228e-02
-4.965239763259887695e-01 -3.541730642318725586e-01 -8.126463741064071655e-02
-5.088509917259216309e-01 -3.495438694953918457e-01 -8.757807314395904541e-02
8.848076462745666504e-01 6.171554327011108398e-02 2.493884116411209106e-01
8.816286325454711914e-01 8.539590239524841309e-02 2.467726320028305054e-01
8.865845799446105957e-01 6.857798993587493896e-02 2.784479558467864990e-01
8.826980590820312500e-01 9.372818470001220703e-02 2.796512544155120850e-01
-1.671438515186309814e-01 -1.737110912799835205e-01 -2.308482378721237183e-01
-1.931271106004714966e-01 -1.709675490856170654e-01 -2.298093438148498535e-01
-1.742891371250152588e-01 -1.794117093086242676e-01 -2.240144312381744385e-01
-2.005980014801025391e-01 -1.767933666706085205e-01 -2.231132984161376953e-01
7.880057096481323242e-01 -9.042283147573471069e-02 -1.483220458030700684e-01
7.844886183738708496e-01 -8.054010570049285889e-02 -1.563204526901245117e-01
7.872633934020996094e-01 -9.634010493755340576e-02 -1.302823871374130249e-01
7.859034538269042969e-01 -8.456957340240478516e-02 -1.381299197673797607e-01
2.581593990325927734e-01 1.967498958110809326e-01 3.403699398040771484e-01
2.393555492162704468e-01 2.179317474365234375e-01 3.325659334659576416e-01
2.458942383527755737e-01 1.737766861915588379e-01 3.501516580581665039e-01
2.258192300796508789e-01 1.943240016698837280e-01 3.407463729381561279e-01
-1.402333378791809082e-01 -2.341365665197372437e-01 9.568038582801818848e-02
-1.708663105964660645e-01 -2.415688335895538330e-01 9.759589284658432007e-02
-1.550455689430236816e-01 -2.103537023067474365e-01 1.117091178894042969e-01
-1.825029104948043823e-01 -2.171998620033264160e-01 1.130911856889724731e-01
-5.398061871528625488e-01 1.686316132545471191e-01 1.700228825211524963e-02
-5.614073276519775391e-01 1.742990761995315552e-01 2.051958069205284119e-02
-5.486123561859130859e-01 1.831597387790679932e-01 3.333979845046997070e-02
-5.684076547622680664e-01 1.890804022550582886e-01 3.623062744736671448e-02
-6.728057861328125000e-01 -1.346537023782730103e-01 3.951337337493896484e-01
-6.756810545921325684e-01 -1.111871078610420227e-01 3.941687345504760742e-01
-6.699332594871520996e-01 -1.329251676797866821e-01 4.140810370445251465e-01
-6.743353605270385742e-01 -1.113358139991760254e-01 4.113889634609222412e-01
7.980291247367858887e-01 1.778494864702224731e-01 4.662421345710754395e-01
7.929021716117858887e-01 1.994450390338897705e-01 4.687975347042083740e-01
7.908594012260437012e-01 1.842978894710540771e-01 4.842407107353210449e-01
7.867664694786071777e-01 2.089668959379196167e-01 4.875387549400329590e-01
1.162451356649398804e-01 -2.620145976543426514e-01 2.238294668495655060e-02
9.588420391082763672e-02 -2.643017768859863281e-01 1.884424313902854919e-02
1.057833880186080933e-01 -2.531599700450897217e-01 3.840808570384979248e-02
8.431942760944366455e-02 -2.569814026355743408e-01 3.714768216013908386e-02
4.691784977912902832e-01 -5.237281918525695801e-01 1.603323966264724731e-01
4.490027129650115967e-01 -5.179664492607116699e-01 1.517275720834732056e-01
4.650454521179199219e-01 -5.416873693466186523e-01 1.712038218975067139e-01
4.442228078842163086e-01 -5.360376834869384766e-01 1.626766622066497803e-01
7.592549920082092285e-01 1.467654258012771606e-01 -7.893943041563034058e-02
7.534334659576416016e-01 1.657667607069015503e-01 -7.827804237604141235e-02
7.567433714866638184e-01 1.467813998460769653e-01 -6.779890507459640503e-02
7.521144151687622070e-01 1.667390316724777222e-01 -6.941819190979003906e-02
-5.448743700981140137e-01 -2.055013179779052734e-01 3.568035066127777100e-01
-5.446865558624267578e-01 -1.844840794801712036e-01 3.483877182006835938e-01
-5.515635609626770020e-01 -2.108787596225738525e-01 3.815343379974365234e-01
-5.516401529312133789e-01 -1.878522336483001709e-01 3.747511506080627441e-01
7.642206549644470215e-01 1.031243801116943359e-01 -5.722107365727424622e-02
7.608492970466613770e-01 1.258643418550491333e-01 -6.446345150470733643e-02
7.663260102272033691e-01 9.630192816257476807e-02 -4.253476485610008240e-02
7.620149254798889160e-01 1.213136613368988037e-01 -5.477563664317131042e-02
-2.311070263385772705e-01 -3.351672887802124023e-01 1.767447963356971741e-02
-2.471163719892501831e-01 -3.282757997512817383e-01 8.800137788057327271e-03
-2.423823922872543335e-01 -3.397370874881744385e-01 2.946557290852069855e-02
-2.627642750740051270e-01 -3.335106968879699707e-01 2.756708115339279175e-02
-5.493274927139282227e-01 -1.956472247838973999e-01 -2.096827328205108643e-02
-5.502316355705261230e-01 -1.805133968591690063e-01 -2.615131065249443054e-02
-5.480958819389343262e-01 -1.952179521322250366e-01 -1.999045722186565399e-03
-5.495064258575439453e-01 -1.795555651187896729e-01 -7.165933959186077118e-03
-5.935462117195129395e-01 7.792670279741287231e-02 8.893085271120071411e-02
-5.970301628112792969e-01 9.396323561668395996e-02 8.751292526721954346e-02
-5.926958322525024414e-01 7.864178717136383057e-02 1.080448925495147705e-01
-5.948308706283569336e-01 9.341228008270263672e-02 1.046492531895637512e-01
1.867795437574386597e-01 -5.290812253952026367e-01 1.294572204351425171e-01
1.661473959684371948e-01 -5.091169476509094238e-01 1.145437434315681458e-01
1.777224838733673096e-01 -5.567346215248107910e-01 1.474778503179550171e-01
1.537320911884307861e-01 -5.386117696762084961e-01 1.327609568834304810e-01
4.363266527652740479e-01 3.920149058103561401e-02 2.444091290235519409e-01
4.051779508590698242e-01 2.977521903812885284e-02 2.426227182149887085e-01
4.134466052055358887e-01 5.481722578406333923e-02 2.578389942646026611e-01
3.853528499603271484e-01 4.899770393967628479e-02 2.593735754489898682e-01
-2.585632801055908203e-01 -6.819732785224914551e-01 1.805675625801086426e-01
-2.837692797183990479e-01 -6.616002917289733887e-01 1.665627956390380859e-01
-2.653216123580932617e-01 -7.014389634132385254e-01 1.915573477745056152e-01
-2.937008440494537354e-01 -6.821125745773315430e-01 1.789785772562026978e-01
-6.822206377983093262e-01 1.813838332891464233e-01 4.334377124905586243e-02
-7.009129524230957031e-01 1.813606917858123779e-01 4.643166810274124146e-02
-6.899062395095825195e-01 1.912575364112854004e-01 6.404945999383926392e-02
-7.101538181304931641e-01 1.883018016815185547e-01 6.542569398880004883e-02
3.846195936203002930e-01 -7.020285725593566895e-01 1.883771717548370361e-01
3.569423854351043701e-01 -6.952106356620788574e-01 1.770057380199432373e-01
3.722152113914489746e-01 -7.131455540657043457e-01 2.082880586385726929e-01
3.436537683010101318e-01 -7.051617503166198730e-01 1.979582160711288452e-01
3.559755980968475342e-01 -4.942436218261718750e-01 -2.913644164800643921e-02
3.294037580490112305e-01 -4.831410348415374756e-01 -4.367512464523315430e-02
3.479993641376495361e-01 -5.117970108985900879e-01 -1.361041329801082611e-02
3.217866122722625732e-01 -5.007007718086242676e-01 -2.866201102733612061e-02
8.925433754920959473e-01 -3.606795966625213623e-01 -8.826397359371185303e-02
8.919730186462402344e-01 -3.458471000194549561e-01 -9.339319169521331787e-02
8.959767222404479980e-01 -3.716879785060882568e-01 -7.093645632266998291e-02
9.015325307846069336e-01 -3.529804050922393799e-01 -7.139658927917480469e-02
7.862367630004882812e-01 -3.869744762778282166e-02 -2.714696340262889862e-03
7.845414876937866211e-01 -2.167892456054687500e-02 -8.113241754472255707e-03
7.867721915245056152e-01 -3.686824813485145569e-02 1.883301511406898499e-02
7.850573062896728516e-01 -2.048799023032188416e-02 1.312264241278171539e-02
-3.854658603668212891e-01 -2.175530791282653809e-01 1.413428634405136108e-01
-4.080388545989990234e-01 -2.201588153839111328e-01 1.390195041894912720e-01
-3.870804011821746826e-01 -1.948984414339065552e-01 1.575159281492233276e-01
-4.101287126541137695e-01 -1.983048170804977417e-01 1.551293730735778809e-01
1.372681111097335815e-01 -1.427681595087051392e-01 1.274165064096450806e-01
1.129501089453697205e-01 -1.431118845939636230e-01 1.325132995843887329e-01
1.187198832631111145e-01 -1.255965828895568848e-01 1.435195952653884888e-01
9.370899200439453125e-02 -1.248893663287162781e-01 1.501442193984985352e-01
2.855555117130279541e-01 -7.885575294494628906e-02 -2.758942842483520508e-01
2.680573165416717529e-01 -7.721077650785446167e-02 -2.813257575035095215e-01
2.768456041812896729e-01 -8.109825104475021362e-02 -2.661318182945251465e-01
2.609635889530181885e-01 -7.995928823947906494e-02 -2.717522978782653809e-01
7.848421931266784668e-01 -4.025769978761672974e-02 2.133539170026779175e-01
7.831107378005981445e-01 -2.016814425587654114e-02 2.062017470598220825e-01
7.836264967918395996e-01 -3.456600755453109741e-02 2.387567013502120972e-01
7.813227176666259766e-01 -1.396611891686916351e-02 2.322345674037933350e-01
1.103836521506309509e-01 -5.236738324165344238e-01 -3.542542457580566406e-02
8.910075575113296509e-02 -5.176524519920349121e-01 -5.306316539645195007e-02
1.123554930090904236e-01 -5.430996417999267578e-01 -2.204785682260990143e-02
8.927284181118011475e-02 -5.362933874130249023e-01 -3.746359795331954956e-02
7.340604662895202637e-01 3.888173103332519531e-01 1.889524459838867188e-01
7.262002825736999512e-01 4.074363708496093750e-01 1.777977496385574341e-01
7.278441786766052246e-01 3.726527392864227295e-01 2.095082849264144897e-01
7.187849879264831543e-01 3.928428292274475098e-01 1.983264386653900146e-01
5.862637162208557129e-01 -6.677049994468688965e-01 2.144882827997207642e-01
5.687395334243774414e-01 -6.634834408760070801e-01 2.184917330741882324e-01
5.701896548271179199e-01 -6.618403196334838867e-01 2.229003906250000000e-01
5.540322065353393555e-01 -6.559482216835021973e-01 2.268176376819610596e-01
7.161306738853454590e-01 -7.764962315559387207e-02 -3.316233158111572266e-01
6.915689706802368164e-01 -7.277116924524307251e-02 -3.236046731472015381e-01
6.887825131416320801e-01 -7.143195718526840210e-02 -3.290002644062042236e-01
6.647652983665466309e-01 -6.627152860164642334e-02 -3.221073746681213379e-01
6.557775288820266724e-02 -1.534744501113891602e-01 -2.120409756898880005e-01
4.786765575408935547e-02 -1.468250900506973267e-01 -2.201378047466278076e-01
5.926943942904472351e-02 -1.640193909406661987e-01 -2.032406479120254517e-01
4.092299193143844604e-02 -1.579987853765487671e-01 -2.117989510297775269e-01
7.789964079856872559e-01 4.120566844940185547e-01 4.236765950918197632e-02
7.710271477699279785e-01 4.222846329212188721e-01 4.043462499976158142e-02
7.767574191093444824e-01 4.161949455738067627e-01 5.634277313947677612e-02
7.678375244140625000e-01 4.300471544265747070e-01 5.779732018709182739e-02
6.962132453918457031e-01 -3.958458080887794495e-02 -2.211735248565673828e-01
6.878429651260375977e-01 -3.408696502447128296e-02 -2.283697426319122314e-01
6.888921260833740234e-01 -5.255692824721336365e-02 -2.100096195936203003e-01
6.797679662704467773e-01 -4.603845253586769104e-02 -2.171414792537689209e-01
-4.480914473533630371e-01 -8.387236595153808594e-01 1.829224526882171631e-01
-4.732173383235931396e-01 -8.346012830734252930e-01 1.739316731691360474e-01
-4.556217789649963379e-01 -8.407801389694213867e-01 2.029303461313247681e-01
-4.802320301532745361e-01 -8.351033926010131836e-01 1.942604631185531616e-01
2.266138195991516113e-01 3.826489150524139404e-01 1.374798864126205444e-01
2.023709416389465332e-01 3.757480978965759277e-01 1.276870220899581909e-01
2.137216478586196899e-01 3.798434734344482422e-01 1.594223082065582275e-01
1.888220310211181641e-01 3.740533590316772461e-01 1.489830613136291504e-01
8.672845363616943359e-01 2.187212258577346802e-01 -1.197522804141044617e-01
8.423793911933898926e-01 2.241967022418975830e-01 -1.165132001042366028e-01
8.710055947303771973e-01 2.330491244792938232e-01 -1.004705205559730530e-01
8.455313444137573242e-01 2.386453896760940552e-01 -9.789343923330307007e-02
-9.202872961759567261e-02 2.742644846439361572e-01 2.178874015808105469e-01
-1.201080232858657837e-01 2.763524055480957031e-01 2.041195183992385864e-01
-9.634211659431457520e-02 2.511151731014251709e-01 2.361620664596557617e-01
-1.259075999259948730e-01 2.557166814804077148e-01 2.240858078002929688e-01
-1.182196140289306641e-01 -5.687402486801147461e-01 1.272254735231399536e-01
-1.321891993284225464e-01 -5.552226901054382324e-01 1.154172793030738831e-01
-1.286403536796569824e-01 -5.930382609367370605e-01 1.391831189393997192e-01
-1.426708549261093140e-01 -5.800184607505798340e-01 1.275414824485778809e-01
-7.096964716911315918e-01 6.647424399852752686e-02 2.605224549770355225e-01
-7.051949501037597656e-01 8.515087515115737915e-02 2.501501739025115967e-01
-7.070494890213012695e-01 6.145425140857696533e-02 2.833021879196166992e-01
-7.031720280647277832e-01 7.897035777568817139e-02 2.741873562335968018e-01
2.468501925468444824e-01 -2.307702004909515381e-01 -9.669543802738189697e-02
2.353749424219131470e-01 -2.200633734464645386e-01 -1.127871721982955933e-01
2.421785593032836914e-01 -2.451948821544647217e-01 -8.404870331287384033e-02
2.282780408859252930e-01 -2.353129535913467407e-01 -9.913767874240875244e-02
7.665464282035827637e-01 8.838485926389694214e-02 -1.686541736125946045e-01
7.651848196983337402e-01 1.057499796152114868e-01 -1.687055975198745728e-01
7.680900692939758301e-01 8.592746406793594360e-02 -1.462904810905456543e-01
7.668640017509460449e-01 1.033921986818313599e-01 -1.482111811637878418e-01
1.584666967391967773e-01 -2.480891495943069458e-01 -8.574216812849044800e-02
1.447423696517944336e-01 -2.472926676273345947e-01 -9.276399761438369751e-02
1.517283767461776733e-01 -2.559343874454498291e-01 -7.335535436868667603e-02
1.378809064626693726e-01 -2.557593882083892822e-01 -8.038482815027236938e-02
1.295829713344573975e-01 -7.480911016464233398e-01 1.932666748762130737e-01
1.025933250784873962e-01 -7.433399558067321777e-01 1.847820580005645752e-01
1.203908994793891907e-01 -7.583601474761962891e-01 2.091657519340515137e-01
9.225989878177642822e-02 -7.539762258529663086e-01 2.027905285358428955e-01
-5.921131968498229980e-01 -3.459526598453521729e-01 3.194938302040100098e-01
-6.062484383583068848e-01 -3.321509659290313721e-01 3.142308294773101807e-01
-5.903205871582031250e-01 -3.360932171344757080e-01 3.387695550918579102e-01
-6.017712354660034180e-01 -3.220909535884857178e-01 3.345307111740112305e-01
-3.580569624900817871e-01 -5.841990709304809570e-01 -5.752151831984519958e-02
-3.863267600536346436e-01 -5.781586766242980957e-01 -6.745776534080505371e-02
-3.631450533866882324e-01 -6.055120229721069336e-01 -3.857582062482833862e-02
-3.935951590538024902e-01 -5.995417237281799316e-01 -4.888852685689926147e-02
-6.032648086547851562e-01 1.431261897087097168e-01 2.278739362955093384e-01
-6.028315424919128418e-01 1.633864939212799072e-01 2.373110204935073853e-01
-5.961171984672546387e-01 1.419055163860321045e-01 2.463943362236022949e-01
-5.956435203552246094e-01 1.633032709360122681e-01 2.539663612842559814e-01
3.458972871303558350e-01 -1.552296578884124756e-01 -1.616575419902801514e-01
3.296459317207336426e-01 -1.489062905311584473e-01 -1.766030937433242798e-01
3.423375189304351807e-01 -1.655598431825637817e-01 -1.508298814296722412e-01
3.251888453960418701e-01 -1.585932224988937378e-01 -1.654632985591888428e-01
-6.990277767181396484e-01 1.650233566761016846e-02 2.919570505619049072e-01
-6.983319520950317383e-01 3.512431308627128601e-02 2.824081480503082275e-01
-6.959535479545593262e-01 7.898875512182712555e-03 3.116813004016876221e-01
-6.969997882843017578e-01 2.611120231449604034e-02 3.024513125419616699e-01
-6.146327853202819824e-01 -2.106015384197235107e-02 -1.200120374560356140e-01
-6.217965483665466309e-01 -7.047720253467559814e-03 -1.146374344825744629e-01
-6.221573948860168457e-01 -6.026905030012130737e-03 -1.040496751666069031e-01
-6.331872344017028809e-01 5.878568161278963089e-03 -9.431984275579452515e-02
7.408757209777832031e-01 2.376534342765808105e-01 2.926736772060394287e-01
7.439730167388916016e-01 2.584449946880340576e-01 2.861546874046325684e-01
7.345167398452758789e-01 2.270620763301849365e-01 3.062258660793304443e-01
7.385845184326171875e-01 2.474268376827239990e-01 2.993566691875457764e-01
1.819908916950225830e-01 1.057931408286094666e-01 -1.249936819076538086e-01
1.600462943315505981e-01 1.046804711222648621e-01 -1.213312447071075439e-01
1.712823063135147095e-01 1.222064718604087830e-01 -1.114269644021987915e-01
1.492425948381423950e-01 1.194416210055351257e-01 -1.088287159800529480e-01
-8.768693357706069946e-02 -6.397543549537658691e-01 4.552582651376724243e-02
-1.109707504510879517e-01 -6.289590001106262207e-01 2.929363213479518890e-02
-9.694039821624755859e-02 -6.586986780166625977e-01 6.104789674282073975e-02
-1.197638660669326782e-01 -6.480588912963867188e-01 4.594863206148147583e-02
-4.513768851757049561e-01 -6.106898188591003418e-01 -4.665848240256309509e-02
-4.775649011135101318e-01 -5.954643487930297852e-01 -6.422154605388641357e-02
-4.591846764087677002e-01 -6.327506899833679199e-01 -2.583971060812473297e-02
-4.861595630645751953e-01 -6.163732409477233887e-01 -4.523047059774398804e-02
7.809568941593170166e-02 1.741434931755065918e-01 -5.950378254055976868e-02
4.399468749761581421e-02 1.653431802988052368e-01 -5.959749594330787659e-02
5.855125188827514648e-02 1.944851130247116089e-01 -4.403563216328620911e-02
2.501092664897441864e-02 1.859170496463775635e-01 -4.360889270901679993e-02
-5.129191875457763672e-01 9.418310970067977905e-02 -4.464597627520561218e-02
-5.395076274871826172e-01 8.476489037275314331e-02 -4.696290940046310425e-02
-5.222025513648986816e-01 1.046606227755546570e-01 -3.540848568081855774e-02
-5.487989783287048340e-01 9.522640705108642578e-02 -3.720774501562118530e-02
-2.362364828586578369e-01 9.683611243963241577e-02 -8.008345216512680054e-02
-2.651641964912414551e-01 8.780976384878158569e-02 -7.945156842470169067e-02
-2.533868849277496338e-01 1.167517974972724915e-01 -6.507457047700881958e-02
-2.811543047428131104e-01 1.082159280776977539e-01 -6.405208259820938110e-02
4.046311974525451660e-01 -2.094853967428207397e-01 -8.262665569782257080e-02
3.907060325145721436e-01 -2.025163471698760986e-01 -9.438742697238922119e-02
4.002722501754760742e-01 -2.226972281932830811e-01 -6.724943965673446655e-02
3.874716460704803467e-01 -2.141272872686386108e-01 -8.043097704648971558e-02
6.407522559165954590e-01 1.260492056608200073e-01 2.833545207977294922e-01
6.102622151374816895e-01 1.192292645573616028e-01 2.832106649875640869e-01
6.192963123321533203e-01 1.374310255050659180e-01 2.953908443450927734e-01
5.942291021347045898e-01 1.366710960865020752e-01 2.982909381389617920e-01
7.771594524383544922e-01 2.043518424034118652e-02 2.851397693157196045e-01
7.707412838935852051e-01 4.133222624659538269e-02 2.850373983383178711e-01
7.756258845329284668e-01 2.468917705118656158e-02 3.015768527984619141e-01
7.680821418762207031e-01 4.535394906997680664e-02 3.015374541282653809e-01
5.218412876129150391e-01 -2.193018049001693726e-01 -2.827886044979095459e-01
4.995032846927642822e-01 -2.119497954845428467e-01 -2.944032549858093262e-01
5.130783915519714355e-01 -2.354021370410919189e-01 -2.644594013690948486e-01
4.913611710071563721e-01 -2.289359420537948608e-01 -2.755425870418548584e-01
4.118320047855377197e-01 -4.837002158164978027e-01 1.249791458249092102e-01
3.837617039680480957e-01 -4.760118722915649414e-01 1.155188679695129395e-01
4.044614732265472412e-01 -5.060400962829589844e-01 1.391723752021789551e-01
3.740965425968170166e-01 -4.978039562702178955e-01 1.290317773818969727e-01
7.662283182144165039e-01 9.279828518629074097e-02 1.303210761398077011e-02
7.628028988838195801e-01 1.107923388481140137e-01 3.404594957828521729e-03
7.669762372970581055e-01 8.899608254432678223e-02 2.986382320523262024e-02
7.642706036567687988e-01 1.039421632885932922e-01 2.137102559208869934e-02
-5.257854461669921875e-01 -2.561507821083068848e-01 9.429711848497390747e-02
-5.327401161193847656e-01 -2.423005104064941406e-01 8.869813382625579834e-02
-5.226617455482482910e-01 -2.616047561168670654e-01 1.126091182231903076e-01
-5.299576520919799805e-01 -2.469983249902725220e-01 1.067309156060218811e-01
4.450611472129821777e-01 3.136239349842071533e-01 3.024711040779948235e-03
4.146132469177246094e-01 3.064059317111968994e-01 -5.193294491618871689e-04
4.281218647956848145e-01 3.270412683486938477e-01 1.561668887734413147e-02
4.007614254951477051e-01 3.207033276557922363e-01 1.365830563008785248e-02
4.525555968284606934e-01 1.050933748483657837e-01 2.996003925800323486e-01
4.405808448791503906e-01 1.190284043550491333e-01 3.136349320411682129e-01
4.337075948715209961e-01 1.196506097912788391e-01 3.097996711730957031e-01
4.212682247161865234e-01 1.331398785114288330e-01 3.225042521953582764e-01
-7.740727066993713379e-02 -2.129589021205902100e-02 2.613606750965118408e-01
-9.404869377613067627e-02 -1.202095020562410355e-02 2.700460255146026611e-01
-9.329314529895782471e-02 -1.157158985733985901e-03 2.732273638248443604e-01
-1.169131696224212646e-01 5.824672523885965347e-03 2.805877029895782471e-01
9.482614994049072266e-01 -3.088576495647430420e-01 1.064623966813087463e-01
9.502577781677246094e-01 -2.929337322711944580e-01 9.698186069726943970e-02
9.422749876976013184e-01 -3.118801414966583252e-01 1.234064698219299316e-01
9.447727799415588379e-01 -2.961126267910003662e-01 1.144275963306427002e-01
8.911620974540710449e-01 -2.793907225131988525e-01 -1.645362824201583862e-01
8.890856504440307617e-01 -2.670811712741851807e-01 -1.711997389793395996e-01
8.945729732513427734e-01 -2.922230064868927002e-01 -1.458488404750823975e-01
8.927353620529174805e-01 -2.804352939128875732e-01 -1.542026102542877197e-01
-5.205202698707580566e-01 -3.417839407920837402e-01 2.731583453714847565e-02
-5.332381129264831543e-01 -3.335789740085601807e-01 2.181155420839786530e-02
-5.150226950645446777e-01 -3.394428193569183350e-01 4.167374968528747559e-02
-5.278391838073730469e-01 -3.311773538589477539e-01 3.606322035193443298e-02
1.201090514659881592e-01 3.711648285388946533e-01 1.112855598330497742e-01
9.957031905651092529e-02 3.656169772148132324e-01 1.043910980224609375e-01
1.113291308283805847e-01 3.666776418685913086e-01 1.340286433696746826e-01
9.118664264678955078e-02 3.632169961929321289e-01 1.261756271123886108e-01
-3.065910041332244873e-01 -4.227777123451232910e-01 -2.092605978250503540e-01
-3.369572460651397705e-01 -4.132686257362365723e-01 -2.287939786911010742e-01
-3.153425455093383789e-01 -4.450919628143310547e-01 -1.906284838914871216e-01
-3.457700312137603760e-01 -4.341980218887329102e-01 -2.109014838933944702e-01
-5.793671607971191406e-01 1.454751938581466675e-02 2.716741859912872314e-01
-5.857776999473571777e-01 2.811818383634090424e-02 2.699782252311706543e-01
-5.789879560470581055e-01 1.844133436679840088e-02 2.864477336406707764e-01
-5.863581299781799316e-01 3.245434165000915527e-02 2.847433984279632568e-01
-6.277868151664733887e-01 9.029676765203475952e-02 -3.256827965378761292e-02
-6.523438692092895508e-01 8.714642375707626343e-02 -3.469522669911384583e-02
-6.335557699203491211e-01 1.028136089444160461e-01 -2.128284797072410583e-02
-6.561907529830932617e-01 1.036648526787757874e-01 -1.917876303195953369e-02
-4.551078677177429199e-01 -8.316991925239562988e-01 2.238772958517074585e-01
-4.815492630004882812e-01 -8.226752877235412598e-01 2.144842147827148438e-01
-4.569377601146697998e-01 -8.348947763442993164e-01 2.457730025053024292e-01
-4.835884273052215576e-01 -8.264418840408325195e-01 2.363384366035461426e-01
-8.947281539440155029e-02 2.364901304244995117e-01 7.484980858862400055e-03
-1.208514496684074402e-01 2.315675765275955200e-01 7.554243318736553192e-03
-1.033131703734397888e-01 2.570108771324157715e-01 2.724146470427513123e-02
-1.347267627716064453e-01 2.546919584274291992e-01 2.875921130180358887e-02
8.386160135269165039e-01 -6.814888119697570801e-02 3.419862985610961914e-01
8.353676795959472656e-01 -4.040164500474929810e-02 3.513864874839782715e-01
8.256484866142272949e-01 -6.427532434463500977e-02 3.542025685310363770e-01
8.222855925559997559e-01 -3.657554090023040771e-02 3.622294068336486816e-01
2.368911057710647583e-01 3.879918456077575684e-01 1.204448342323303223e-01
2.126829773187637329e-01 3.807384669780731201e-01 1.102341562509536743e-01
2.283698767423629761e-01 3.851067721843719482e-01 1.450976878404617310e-01
2.034545391798019409e-01 3.786109685897827148e-01 1.346882730722427368e-01
4.441377818584442139e-01 1.549170464277267456e-01 3.392624855041503906e-01
4.246335327625274658e-01 1.692031174898147583e-01 3.446283042430877686e-01
4.230111241340637207e-01 1.522967815399169922e-01 3.422687947750091553e-01
4.051116704940795898e-01 1.684390753507614136e-01 3.496193587779998779e-01
8.948298692703247070e-01 1.811679266393184662e-02 3.449036478996276855e-01
8.952717781066894531e-01 3.801481798291206360e-02 3.469786643981933594e-01
8.885357975959777832e-01 1.682775840163230896e-02 3.601484298706054688e-01
8.903729319572448730e-01 3.674656525254249573e-02 3.585813641548156738e-01
-6.771262288093566895e-01 -1.082013398408889771e-01 4.166836738586425781e-01
-6.808544397354125977e-01 -8.756928890943527222e-02 4.138495326042175293e-01
-6.738068461418151855e-01 -1.044143810868263245e-01 4.341142475605010986e-01
-6.816905140876770020e-01 -8.856064826250076294e-02 4.295035302639007568e-01
-4.591041207313537598e-01 2.777924537658691406e-01 1.129806712269783020e-01
-4.818678498268127441e-01 2.696607112884521484e-01 1.036200821399688721e-01
-4.700799882411956787e-01 2.734791338443756104e-01 1.346495449542999268e-01
-4.898306131362915039e-01 2.644896209239959717e-01 1.203265190124511719e-01
-6.030741930007934570e-01 -4.047034978866577148e-01 -2.812015414237976074e-01
-6.122574806213378906e-01 -3.870431780815124512e-01 -2.834954261779785156e-01
-6.056830286979675293e-01 -4.076573252677917480e-01 -2.606399357318878174e-01
-6.155242919921875000e-01 -3.893533051013946533e-01 -2.643085718154907227e-01
-6.613650918006896973e-01 3.339894860982894897e-02 3.664459884166717529e-01
-6.623406410217285156e-01 5.336778610944747925e-02 3.585554063320159912e-01
-6.564146876335144043e-01 1.761837862432003021e-02 3.791706860065460205e-01
-6.602825522422790527e-01 3.741095215082168579e-02 3.713521957397460938e-01
3.598510622978210449e-01 -6.294720172882080078e-01 1.083815991878509521e-01
3.400338590145111084e-01 -6.197064518928527832e-01 9.441373497247695923e-02
3.459051251411437988e-01 -6.462126970291137695e-01 1.216842830181121826e-01
3.261092603206634521e-01 -6.356455683708190918e-01 1.107619702816009521e-01
5.725985765457153320e-01 -6.491659581661224365e-02 -2.148349881172180176e-01
5.426483750343322754e-01 -6.878295540809631348e-02 -2.172616124153137207e-01
5.642915964126586914e-01 -7.916182279586791992e-02 -2.045006155967712402e-01
5.355872511863708496e-01 -8.253760635852813721e-02 -2.076573520898818970e-01
7.709160447120666504e-01 2.463113516569137573e-01 3.909899592399597168e-01
7.692455649375915527e-01 2.660317420959472656e-01 3.860681951045989990e-01
7.709302902221679688e-01 2.357996404170989990e-01 4.071781039237976074e-01
7.687605619430541992e-01 2.577337622642517090e-01 4.030866920948028564e-01
-3.519615232944488525e-01 -2.682721614837646484e-01 9.244757890701293945e-02
-3.723904788494110107e-01 -2.646535336971282959e-01 9.682716429233551025e-02
-3.553106188774108887e-01 -2.469741851091384888e-01 1.112650111317634583e-01
-3.754804134368896484e-01 -2.442843168973922729e-01 1.138409078121185303e-01
-4.022772908210754395e-01 -2.712070941925048828e-01 9.300696104764938354e-02
-4.254519641399383545e-01 -2.730368673801422119e-01 9.115519374608993530e-02
-4.065466523170471191e-01 -2.504447698593139648e-01 1.101620867848396301e-01
-4.291499257087707520e-01 -2.534882128238677979e-01 1.074119731783866882e-01
1.084846258163452148e-01 1.257491856813430786e-01 -1.009549871087074280e-01
7.738091051578521729e-02 1.196136921644210815e-01 -9.932749718427658081e-02
8.767091482877731323e-02 1.494742184877395630e-01 -8.078235387802124023e-02
5.448579788208007812e-02 1.418075859546661377e-01 -8.086711913347244263e-02
7.341827154159545898e-01 -5.119747519493103027e-01 1.754767298698425293e-01
7.062482833862304688e-01 -4.877797663211822510e-01 1.591709256172180176e-01
7.236107587814331055e-01 -5.320121049880981445e-01 1.876854598522186279e-01
6.964060068130493164e-01 -5.076617598533630371e-01 1.712752282619476318e-01
4.462645947933197021e-02 -6.678316593170166016e-01 2.020883262157440186e-01
2.503234893083572388e-02 -6.469405293464660645e-01 1.915468126535415649e-01
3.139647841453552246e-02 -6.838076114654541016e-01 2.119823098182678223e-01
1.108128391206264496e-02 -6.664790511131286621e-01 2.027793824672698975e-01
7.272488474845886230e-01 3.329907655715942383e-01 1.086842268705368042e-01
7.229124903678894043e-01 3.505443632602691650e-01 9.974508732557296753e-02
7.272527217864990234e-01 3.343173861503601074e-01 1.347595155239105225e-01
7.228502035140991211e-01 3.517538905143737793e-01 1.266023963689804077e-01
1.462729871273040771e-01 -3.740945160388946533e-01 2.242546528577804565e-02
1.193755865097045898e-01 -3.613837361335754395e-01 7.279627025127410889e-03
1.390168964862823486e-01 -3.913752138614654541e-01 4.224711284041404724e-02
1.126994639635086060e-01 -3.781172633171081543e-01 2.741166949272155762e-02
-8.017834275960922241e-02 -3.174508810043334961e-01 -5.607888475060462952e-02
-9.432287514209747314e-02 -3.135885298252105713e-01 -6.758775562047958374e-02
-8.186886459589004517e-02 -3.251271247863769531e-01 -3.812744840979576111e-02
-9.662412106990814209e-02 -3.214584887027740479e-01 -4.948005452752113342e-02
6.322058439254760742e-01 5.187687650322914124e-02 -2.238084077835083008e-01
6.017584800720214844e-01 5.551172792911529541e-02 -2.195989340543746948e-01
6.189835667610168457e-01 7.951677590608596802e-02 -2.013567388057708740e-01
5.851300358772277832e-01 8.047906309366226196e-02 -1.978791356086730957e-01
5.485706925392150879e-01 -2.703778147697448730e-01 -6.296075880527496338e-03
5.311120748519897461e-01 -2.637879848480224609e-01 -1.126028783619403839e-02
5.427629351615905762e-01 -2.855937480926513672e-01 3.009299049153923988e-03
5.243988037109375000e-01 -2.796815931797027588e-01 -2.288164105266332626e-03
9.108720421791076660e-01 -9.270276129245758057e-02 1.456302106380462646e-01
9.068089127540588379e-01 -7.334460318088531494e-02 1.347566545009613037e-01
9.117866158485412598e-01 -9.531439840793609619e-02 1.704080551862716675e-01
9.078877568244934082e-01 -7.574218511581420898e-02 1.602262109518051147e-01
7.254375815391540527e-01 3.587695062160491943e-01 1.765818521380424500e-02
7.244840264320373535e-01 3.744365870952606201e-01 8.881142362952232361e-03
7.238826155662536621e-01 3.572106957435607910e-01 3.209026530385017395e-02
7.224676609039306641e-01 3.729521036148071289e-01 2.285690978169441223e-02
1.262865215539932251e-01 -7.205861806869506836e-01 2.278914451599121094e-01
9.916777163743972778e-02 -7.129114866256713867e-01 2.241472750902175903e-01
1.061557978391647339e-01 -7.358207702636718750e-01 2.371535897254943848e-01
7.797124981880187988e-02 -7.289442420005798340e-01 2.355503439903259277e-01
-4.978442490100860596e-01 -3.490841388702392578e-01 2.033987455070018768e-02
-5.104497075080871582e-01 -3.421784043312072754e-01 1.470610219985246658e-02
-4.921033382415771484e-01 -3.441948294639587402e-01 3.760556131601333618e-02
-5.057437419891357422e-01 -3.378455042839050293e-01 3.143113106489181519e-02
7.367722690105438232e-02 -2.222994267940521240e-01 -1.247228309512138367e-01
5.777956172823905945e-02 -2.154155522584915161e-01 -1.341721266508102417e-01
6.489709764719009399e-02 -2.378586232662200928e-01 -1.132246777415275574e-01
4.819482937455177307e-02 -2.314182519912719727e-01 -1.226090565323829651e-01
-4.965901076793670654e-01 -7.380063086748123169e-02 -1.759677678346633911e-01
-5.117557048797607422e-01 -6.525623053312301636e-02 -1.651530116796493530e-01
-5.122784972190856934e-01 -6.076708063483238220e-02 -1.614839881658554077e-01
-5.242152214050292969e-01 -4.955601692199707031e-02 -1.516351997852325439e-01
1.712615489959716797e-01 3.283845782279968262e-01 4.747483506798744202e-02
1.482461243867874146e-01 3.207687437534332275e-01 4.031506925821304321e-02
1.649788767099380493e-01 3.493475615978240967e-01 6.947066634893417358e-02
1.435508728027343750e-01 3.414984941482543945e-01 6.303714215755462646e-02
8.207733035087585449e-01 4.537115991115570068e-01 1.247257441282272339e-01
8.094998598098754883e-01 4.636120498180389404e-01 1.178900077939033508e-01
8.114906549453735352e-01 4.544052481651306152e-01 1.398148685693740845e-01
8.010051846504211426e-01 4.641317725181579590e-01 1.344161331653594971e-01
-5.237724781036376953e-01 -4.962794184684753418e-01 -1.707054376602172852e-01
-5.362103581428527832e-01 -4.887275993824005127e-01 -1.831050664186477661e-01
-5.335896015167236328e-01 -5.144892930984497070e-01 -1.571360230445861816e-01
-5.456340312957763672e-01 -5.066552162170410156e-01 -1.695793271064758301e-01
4.156794250011444092e-01 2.729029059410095215e-01 3.113189637660980225e-01
3.953131437301635742e-01 2.818633019924163818e-01 2.912719249725341797e-01
4.102750718593597412e-01 2.502747476100921631e-01 3.269344568252563477e-01
3.895579576492309570e-01 2.591489255428314209e-01 3.078424334526062012e-01
7.607802748680114746e-01 1.180126368999481201e-01 5.986966192722320557e-02
7.579721808433532715e-01 1.332783699035644531e-01 5.523826181888580322e-02
7.622197270393371582e-01 1.162531822919845581e-01 8.011097460985183716e-02
7.591997385025024414e-01 1.322349607944488525e-01 7.545778155326843262e-02
7.811220288276672363e-01 6.474769674241542816e-03 -5.814981460571289062e-02
7.775362133979797363e-01 2.093318849802017212e-02 -6.744202971458435059e-02
7.814424633979797363e-01 5.561997182667255402e-03 -4.014953225851058960e-02
7.780746221542358398e-01 2.025912888348102570e-02 -5.022582784295082092e-02
-9.903167933225631714e-02 -2.951941490173339844e-01 2.915004827082157135e-02
-1.238929480314254761e-01 -2.982816994190216064e-01 2.749786339700222015e-02
-1.111852377653121948e-01 -2.886828184127807617e-01 4.136085137724876404e-02
-1.378908008337020874e-01 -2.934440672397613525e-01 4.024666547775268555e-02
5.771835446357727051e-01 -4.614822193980216980e-02 -2.200819998979568481e-01
5.499221682548522949e-01 -5.007622018456459045e-02 -2.222148478031158447e-01
5.739082098007202148e-01 -4.972123354673385620e-02 -2.120204269886016846e-01
5.448203086853027344e-01 -5.389262735843658447e-02 -2.145261764526367188e-01
-9.264632314443588257e-02 1.265592575073242188e-01 -7.519686222076416016e-02
-1.206482574343681335e-01 1.221599429845809937e-01 -7.197729498147964478e-02
-1.135934740304946899e-01 1.499337553977966309e-01 -5.722217261791229248e-02
-1.443533003330230713e-01 1.425422728061676025e-01 -5.516133829951286316e-02
-3.638883233070373535e-01 -5.287931859493255615e-02 2.708614766597747803e-01
-3.879745900630950928e-01 -5.464182794094085693e-02 2.734939455986022949e-01
-3.735517263412475586e-01 -3.086421452462673187e-02 2.884472608566284180e-01
-3.989727497100830078e-01 -3.221688792109489441e-02 2.905738353729248047e-01
-5.250136852264404297e-01 -2.156454920768737793e-01 1.397078484296798706e-01
-5.340510010719299316e-01 -2.015363126993179321e-01 1.350408047437667847e-01
-5.212157368659973145e-01 -2.185377627611160278e-01 1.554727852344512939e-01
-5.306860804557800293e-01 -2.037421613931655884e-01 1.509141623973846436e-01
5.567557215690612793e-01 3.101815581321716309e-01 2.925343513488769531e-01
5.411220788955688477e-01 3.242935836315155029e-01 2.799947559833526611e-01
5.507882833480834961e-01 2.905078232288360596e-01 3.068289458751678467e-01
5.322961211204528809e-01 3.072973489761352539e-01 2.948289513587951660e-01
7.390636801719665527e-01 -1.192709356546401978e-01 -1.321409344673156738e-01
7.266979217529296875e-01 -1.145144775509834290e-01 -1.430690288543701172e-01
7.378596067428588867e-01 -1.302359849214553833e-01 -1.181415021419525146e-01
7.264056801795959473e-01 -1.255902051925659180e-01 -1.288155615329742432e-01
-5.110351443290710449e-01 -3.714813292026519775e-01 8.979473263025283813e-02
-5.210469961166381836e-01 -3.597218692302703857e-01 8.482926338911056519e-02
-5.152462124824523926e-01 -3.673824369907379150e-01 1.115549281239509583e-01
-5.193672776222229004e-01 -3.462329208850860596e-01 1.040117517113685608e-01
-6.802282929420471191e-01 -8.860162645578384399e-02 -4.704908654093742371e-02
-6.778842806816101074e-01 -6.037298217415809631e-02 -4.780487716197967529e-02
-6.836510300636291504e-01 -9.287074208259582520e-02 -1.247254107147455215e-02
-6.834090352058410645e-01 -6.565455347299575806e-02 -1.349005289375782013e-02
8.000827431678771973e-01 -1.146421208977699280e-01 1.148045808076858521e-01
7.996873855590820312e-01 -9.390195459127426147e-02 1.215462461113929749e-01
7.936097979545593262e-01 -1.017123609781265259e-01 1.377975493669509888e-01
7.933192849159240723e-01 -8.234398066997528076e-02 1.444422006607055664e-01
4.995636343955993652e-01 2.588836252689361572e-01 -4.605641961097717285e-02
4.691509306430816650e-01 2.516496777534484863e-01 -4.826226085424423218e-02
4.931545257568359375e-01 2.809693515300750732e-01 -2.834374271333217621e-02
4.598157107830047607e-01 2.708482444286346436e-01 -3.313547745347023010e-02
6.878201365470886230e-01 -4.215051531791687012e-01 1.136989220976829529e-01
6.690030097961425781e-01 -4.070058166980743408e-01 1.006532311439514160e-01
6.873876452445983887e-01 -4.422229826450347900e-01 1.262076944112777710e-01
6.682700514793395996e-01 -4.266064167022705078e-01 1.135466396808624268e-01
8.583872318267822266e-01 -2.909677326679229736e-01 1.727356314659118652e-01
8.567031621932983398e-01 -2.719278633594512939e-01 1.864032745361328125e-01
8.426542878150939941e-01 -2.788583934307098389e-01 1.811083406209945679e-01
8.400534987449645996e-01 -2.592543959617614746e-01 1.946599185466766357e-01
8.434678316116333008e-01 3.246296048164367676e-01 2.062383443117141724e-01
8.418754339218139648e-01 3.393298983573913574e-01 1.982351541519165039e-01
8.415060043334960938e-01 3.156341016292572021e-01 2.287936359643936157e-01
8.373827934265136719e-01 3.330763280391693115e-01 2.214172333478927612e-01
1.606695801019668579e-01 2.589528560638427734e-01 2.785289287567138672e-01
1.424627900123596191e-01 2.680833041667938232e-01 2.684994041919708252e-01
1.543265134096145630e-01 2.409262210130691528e-01 2.926877737045288086e-01
1.348610371351242065e-01 2.505747973918914795e-01 2.827025055885314941e-01
9.067583084106445312e-01 -2.368564531207084656e-02 -4.174847900867462158e-01
8.958391547203063965e-01 -7.002700120210647583e-03 -4.242428243160247803e-01
8.992473483085632324e-01 -3.383235260844230652e-02 -3.959308862686157227e-01
8.914067745208740234e-01 -1.617940887808799744e-02 -3.988189101219177246e-01
8.481959700584411621e-01 -3.792659640312194824e-01 1.008140295743942261e-01
8.429687023162841797e-01 -3.595547378063201904e-01 9.403557330369949341e-02
8.512598276138305664e-01 -3.839632272720336914e-01 1.169990748167037964e-01
8.467441201210021973e-01 -3.652654290199279785e-01 1.111196577548980713e-01
-2.895464897155761719e-01 -5.658958554267883301e-01 1.041930392384529114e-01
-3.142949044704437256e-01 -5.572522282600402832e-01 9.741735458374023438e-02
-3.026717305183410645e-01 -5.890371203422546387e-01 1.187609955668449402e-01
-3.265848457813262939e-01 -5.800729990005493164e-01 1.117996945977210999e-01
4.048182070255279541e-01 3.759607076644897461e-01 5.579562112689018250e-02
3.815844953060150146e-01 3.693435192108154297e-01 5.453136563301086426e-02
3.948209285736083984e-01 3.894140720367431641e-01 7.003676891326904297e-02
3.725172281265258789e-01 3.839414715766906738e-01 6.914449483156204224e-02
-5.557589530944824219e-01 -1.538847088813781738e-01 1.064535230398178101e-01
-5.588098168373107910e-01 -1.390141248703002930e-01 1.015603393316268921e-01
-5.553562045097351074e-01 -1.498026102781295776e-01 1.228807643055915833e-01
-5.588563680648803711e-01 -1.354534178972244263e-01 1.190309152007102966e-01
7.786292582750320435e-03 -2.496538162231445312e-01 -1.107503548264503479e-01
-6.992137059569358826e-03 -2.458782792091369629e-01 -1.168635934591293335e-01
-2.609421499073505402e-03 -2.632243037223815918e-01 -9.685893356800079346e-02
-1.635460183024406433e-02 -2.597323358058929443e-01 -1.032449677586555481e-01
3.632156923413276672e-02 -4.369286000728607178e-01 -1.355635821819305420e-01
6.396912038326263428e-03 -4.360594451427459717e-01 -1.483965963125228882e-01
1.748142018914222717e-02 -4.605987966060638428e-01 -1.212864443659782410e-01
-8.183827623724937439e-03 -4.581893086433410645e-01 -1.313052475452423096e-01
8.858935236930847168e-01 6.291759759187698364e-02 -1.851134002208709717e-01
8.782595396041870117e-01 8.159555494785308838e-02 -1.902987062931060791e-01
8.863780498504638672e-01 6.595317274332046509e-02 -1.642231345176696777e-01
8.791532516479492188e-01 8.484829962253570557e-02 -1.687848120927810669e-01
-3.377011716365814209e-01 -3.331842720508575439e-01 -3.115766346454620361e-01
-3.673339486122131348e-01 -3.269701004028320312e-01 -3.173823058605194092e-01
-3.469474315643310547e-01 -3.496688306331634521e-01 -2.990292906761169434e-01
-3.782666325569152832e-01 -3.441475629806518555e-01 -3.041891157627105713e-01
8.795543313026428223e-01 1.259719580411911011e-01 4.407116770744323730e-01
8.815091848373413086e-01 1.529447883367538452e-01 4.431577324867248535e-01
8.663650155067443848e-01 1.209091246128082275e-01 4.599320590496063232e-01
8.653095364570617676e-01 1.489391475915908813e-01 4.616781771183013916e-01
-4.746053516864776611e-01 -3.625928163528442383e-01 4.320630803704261780e-03
-4.894611239433288574e-01 -3.618719279766082764e-01 -8.115756791085004807e-04
-4.687950611114501953e-01 -3.596632778644561768e-01 2.218121662735939026e-02
-4.833033084869384766e-01 -3.572760224342346191e-01 1.726013980805873871e-02
4.810274243354797363e-01 -9.421916306018829346e-02 1.197607740759849548e-01
4.524641335010528564e-01 -1.046545580029487610e-01 1.160488948225975037e-01
4.708100855350494385e-01 -7.446410506963729858e-02 1.393108218908309937e-01
4.426185786724090576e-01 -8.480472862720489502e-02 1.339371800422668457e-01
6.312215328216552734e-01 3.186131417751312256e-01 -1.617804728448390961e-02
6.030774116516113281e-01 3.113950192928314209e-01 -2.442671172320842743e-02
6.180483698844909668e-01 3.303933739662170410e-01 -2.239333698526024818e-03
5.892541408538818359e-01 3.216255605220794678e-01 -1.042158901691436768e-02
-7.105278372764587402e-01 1.931927949190139771e-01 1.330779492855072021e-01
-7.268658280372619629e-01 1.929398477077484131e-01 1.114545464515686035e-01
-7.138109803199768066e-01 1.795353442430496216e-01 1.533587127923965454e-01
-7.272354364395141602e-01 1.833342760801315308e-01 1.332577615976333618e-01
-6.350733637809753418e-01 -3.414074182510375977e-01 -3.219329714775085449e-01
-6.392104029655456543e-01 -3.263919055461883545e-01 -3.286226987838745117e-01
-6.392949819564819336e-01 -3.446254730224609375e-01 -3.025965392589569092e-01
-6.437241435050964355e-01 -3.296252787113189697e-01 -3.095081448554992676e-01
-3.272007405757904053e-01 1.249504685401916504e-01 -4.676947742700576782e-02
-3.552393317222595215e-01 1.181102320551872253e-01 -4.736753553152084351e-02
-3.470801711082458496e-01 1.444913595914840698e-01 -3.067182749509811401e-02
-3.763259649276733398e-01 1.382299512624740601e-01 -3.142740204930305481e-02
1.839505881071090698e-01 -8.913355320692062378e-02 -2.770830988883972168e-01
1.697005182504653931e-01 -8.387885242700576782e-02 -2.809877097606658936e-01
1.740616858005523682e-01 -9.396380931138992310e-02 -2.689507603645324707e-01
1.612529158592224121e-01 -8.650000393390655518e-02 -2.745376229286193848e-01
5.494844317436218262e-01 2.621698081493377686e-01 3.274875879287719727e-01
5.283825993537902832e-01 2.796795666217803955e-01 3.166390657424926758e-01
5.399330854415893555e-01 2.420923113822937012e-01 3.406441807746887207e-01
5.183098912239074707e-01 2.594979405403137207e-01 3.311207890510559082e-01
-4.050803780555725098e-01 1.263726502656936646e-02 3.267188966274261475e-01
-4.316424131393432617e-01 1.199601031839847565e-02 3.263450562953948975e-01
-4.204775393009185791e-01 2.041898109018802643e-02 3.380784392356872559e-01
-4.469018578529357910e-01 2.305452525615692139e-02 3.366643488407135010e-01
-6.095638275146484375e-01 -5.113250613212585449e-01 -4.164120927453041077e-02
-6.148664355278015137e-01 -4.850584566593170166e-01 -4.765495657920837402e-02
-6.089800596237182617e-01 -5.059598088264465332e-01 -1.235266495496034622e-02
-6.139376759529113770e-01 -4.788908958435058594e-01 -1.335004344582557678e-02
-4.793662130832672119e-01 -3.032595217227935791e-01 -1.502527296543121338e-01
-4.900955855846405029e-01 -2.920389473438262939e-01 -1.598660498857498169e-01
-4.868341386318206787e-01 -3.141280412673950195e-01 -1.349234282970428467e-01
-4.962012767791748047e-01 -3.025213181972503662e-01 -1.444727629423141479e-01
1.270379424095153809e-01 -4.936415255069732666e-01 -6.291145086288452148e-02
1.047194749116897583e-01 -4.879307448863983154e-01 -8.200787007808685303e-02
1.222371608018875122e-01 -5.104334950447082520e-01 -4.913776367902755737e-02
1.006690859794616699e-01 -5.042314529418945312e-01 -6.851810216903686523e-02
7.665947079658508301e-01 8.417181670665740967e-02 -7.252057641744613647e-02
7.649879455566406250e-01 1.032081544399261475e-01 -7.886292040348052979e-02
7.685722708702087402e-01 8.142152428627014160e-02 -5.404591932892799377e-02
7.656147480010986328e-01 1.018678545951843262e-01 -6.325934082269668579e-02
-5.315096378326416016e-01 -2.448121607303619385e-01 1.344402581453323364e-01
-5.397012233734130859e-01 -2.316102236509323120e-01 1.282733529806137085e-01
-5.282517075538635254e-01 -2.489092648029327393e-01 1.525082737207412720e-01
-5.373817086219787598e-01 -2.356367707252502441e-01 1.464114040136337280e-01
7.842764258384704590e-02 -4.284793138504028320e-01 5.362470448017120361e-02
5.137217789888381958e-02 -4.152324795722961426e-01 3.842877596616744995e-02
7.363320887088775635e-02 -4.516837000846862793e-01 6.951040774583816528e-02
4.811132699251174927e-02 -4.370684325695037842e-01 5.342796072363853455e-02
7.660537362098693848e-01 8.920377492904663086e-02 6.400893628597259521e-02
7.634074091911315918e-01 1.042885556817054749e-01 5.799807235598564148e-02
7.677329182624816895e-01 8.810319006443023682e-02 8.339339494705200195e-02
7.649107575416564941e-01 1.037410646677017212e-01 7.733111083507537842e-02
-2.347627431154251099e-01 -5.599303245544433594e-01 1.075299456715583801e-01
-2.508220970630645752e-01 -5.477430820465087891e-01 9.877429157495498657e-02
-2.442918121814727783e-01 -5.837405323982238770e-01 1.191642731428146362e-01
-2.615310847759246826e-01 -5.708520412445068359e-01 1.106770783662796021e-01
-6.326910853385925293e-01 1.252209115773439407e-02 -9.143199026584625244e-02
-6.442452669143676758e-01 2.559078671038150787e-02 -7.980120927095413208e-02
-6.377595663070678711e-01 2.844054438173770905e-02 -7.453009486198425293e-02
-6.530831456184387207e-01 3.667203336954116821e-02 -6.747664511203765869e-02
