1.162587011718750000e+04 -1.112677832031250000e+04 7.430641113281250000e+03
1.166502929687500000e+04 -1.118591113281250000e+04 7.376543945312500000e+03
1.166229980468750000e+04 -1.118479492187500000e+04 7.375767578125000000e+03
1.166643750000000000e+04 -1.118469238281250000e+04 7.380088378906250000e+03
1.166376562500000000e+04 -1.118348925781250000e+04 7.379012695312500000e+03
1.161885839843750000e+04 -1.111998339843750000e+04 7.332571777343750000e+03
1.161734179687500000e+04 -1.111615917968750000e+04 7.331617187500000000e+03
1.161861816406250000e+04 -1.112041601562500000e+04 7.336551757812500000e+03
1.161729882812500000e+04 -1.111650683593750000e+04 7.335895507812500000e+03
1.173232812500000000e+04 -1.110210742187500000e+04 7.468949707031250000e+03
1.173301367187500000e+04 -1.109833203125000000e+04 7.468976074218750000e+03
1.172932519531250000e+04 -1.110344042968750000e+04 7.470666992187500000e+03
1.172971582031250000e+04 -1.109958007812500000e+04 7.470904785156250000e+03
1.164153027343750000e+04 -1.116934765625000000e+04 7.381374511718750000e+03
1.163904003906250000e+04 -1.116772460937500000e+04 7.380375000000000000e+03
1.164228027343750000e+04 -1.116761425781250000e+04 7.384164550781250000e+03
1.163963281250000000e+04 -1.116634667968750000e+04 7.382913085937500000e+03
1.171067187500000000e+04 -1.120212402343750000e+04 7.280168457031250000e+03
1.170802246093750000e+04 -1.120199414062500000e+04 7.278722656250000000e+03
1.170991210937500000e+04 -1.120498925781250000e+04 7.281305175781250000e+03
1.170752734375000000e+04 -1.120487304687500000e+04 7.279841796875000000e+03
1.174770312500000000e+04 -1.114125390625000000e+04 7.439032714843750000e+03
1.174963281250000000e+04 -1.113746386718750000e+04 7.439110839843750000e+03
1.174554882812500000e+04 -1.114286816406250000e+04 7.441859375000000000e+03
1.174737011718750000e+04 -1.113916992187500000e+04 7.442025878906250000e+03
1.169285839843750000e+04 -1.121498632812500000e+04 7.384141113281250000e+03
1.169199609375000000e+04 -1.121264257812500000e+04 7.385748535156250000e+03
1.169059082031250000e+04 -1.121329101562500000e+04 7.386220214843750000e+03
1.168979101562500000e+04 -1.121039355468750000e+04 7.388302734375000000e+03
1.177383007812500000e+04 -1.110129394531250000e+04 7.339929199218750000e+03
1.177483203125000000e+04 -1.109766992187500000e+04 7.338884765625000000e+03
1.177248730468750000e+04 -1.110281250000000000e+04 7.343022460937500000e+03
1.177354492187500000e+04 -1.109929199218750000e+04 7.341948730468750000e+03
1.164365917968750000e+04 -1.117021484375000000e+04 7.402312011718750000e+03
1.164177539062500000e+04 -1.116894531250000000e+04 7.401109863281250000e+03
1.164387988281250000e+04 -1.117086816406250000e+04 7.405531738281250000e+03
1.164204492187500000e+04 -1.116959082031250000e+04 7.404597656250000000e+03
1.163908105468750000e+04 -1.112639941406250000e+04 7.453626953125000000e+03
1.163652636718750000e+04 -1.112307910156250000e+04 7.452249023437500000e+03
1.164122949218750000e+04 -1.112620019531250000e+04 7.455832031250000000e+03
1.163858398437500000e+04 -1.112289550781250000e+04 7.454450683593750000e+03
1.162754199218750000e+04 -1.109557519531250000e+04 7.290924804687500000e+03
1.162872070312500000e+04 -1.109206152343750000e+04 7.290312011718750000e+03
1.162669042968750000e+04 -1.109632226562500000e+04 7.294937011718750000e+03
1.162783593750000000e+04 -1.109288378906250000e+04 7.294150390625000000e+03
1.170136914062500000e+04 -1.120518164062500000e+04 7.358804199218750000e+03
1.170422363281250000e+04 -1.120327343750000000e+04 7.358555175781250000e+03
1.170198046875000000e+04 -1.120462988281250000e+04 7.362516601562500000e+03
1.170369042968750000e+04 -1.120344042968750000e+04 7.361897460937500000e+03
1.167740625000000000e+04 -1.104579589843750000e+04 7.251028320312500000e+03
1.167444042968750000e+04 -1.104624121093750000e+04 7.249552734375000000e+03
1.167614355468750000e+04 -1.104581152343750000e+04 7.254433105468750000e+03
1.167298046875000000e+04 -1.104636425781250000e+04 7.252813476562500000e+03
1.177987792968750000e+04 -1.108789648437500000e+04 7.363750976562500000e+03
1.178048242187500000e+04 -1.108479296875000000e+04 7.362313964843750000e+03
1.178053613281250000e+04 -1.108867089843750000e+04 7.366547851562500000e+03
1.178079003906250000e+04 -1.108575000000000000e+04 7.365462890625000000e+03
1.172556347656250000e+04 -1.119354492187500000e+04 7.285433105468750000e+03
1.172679199218750000e+04 -1.119050292968750000e+04 7.284346191406250000e+03
1.172512890625000000e+04 -1.119685058593750000e+04 7.287592773437500000e+03
1.172692773437500000e+04 -1.119362304687500000e+04 7.286799316406250000e+03
1.166907226562500000e+04 -1.105271191406250000e+04 7.473259765625000000e+03
1.166522753906250000e+04 -1.105208203125000000e+04 7.471727050781250000e+03
1.166849316406250000e+04 -1.105604492187500000e+04 7.474355468750000000e+03
1.166443945312500000e+04 -1.105558886718750000e+04 7.472678222656250000e+03
1.173525781250000000e+04 -1.113988671875000000e+04 7.213069824218750000e+03
1.173769042968750000e+04 -1.113746484375000000e+04 7.212120117187500000e+03
1.173462207031250000e+04 -1.114032128906250000e+04 7.216994140625000000e+03
1.173676660156250000e+04 -1.113808984375000000e+04 7.215816406250000000e+03
1.175622851562500000e+04 -1.114033300781250000e+04 7.416320800781250000e+03
1.175763769531250000e+04 -1.113691992187500000e+04 7.416246582031250000e+03
1.175523632812500000e+04 -1.114144335937500000e+04 7.419658203125000000e+03
1.175673339843750000e+04 -1.113802734375000000e+04 7.419695312500000000e+03
1.167960156250000000e+04 -1.121258984375000000e+04 7.313877441406250000e+03
1.167693359375000000e+04 -1.121189746093750000e+04 7.312798828125000000e+03
1.167971582031250000e+04 -1.121163867187500000e+04 7.316692382812500000e+03
1.167699414062500000e+04 -1.121083007812500000e+04 7.315634277343750000e+03
1.175623632812500000e+04 -1.107958203125000000e+04 7.446485839843750000e+03
1.175622167968750000e+04 -1.107525878906250000e+04 7.445976074218750000e+03
1.175381542968750000e+04 -1.108068750000000000e+04 7.449717773437500000e+03
1.175400683593750000e+04 -1.107620605468750000e+04 7.449181640625000000e+03
1.173615234375000000e+04 -1.116568066406250000e+04 7.428522460937500000e+03
1.173611425781250000e+04 -1.116495996093750000e+04 7.429654785156250000e+03
1.173252734375000000e+04 -1.116636816406250000e+04 7.430816406250000000e+03
1.173357910156250000e+04 -1.116423437500000000e+04 7.433575683593750000e+03
1.169136718750000000e+04 -1.117792578125000000e+04 7.433425781250000000e+03
1.168839062500000000e+04 -1.117818359375000000e+04 7.433077148437500000e+03
1.169153808593750000e+04 -1.117601367187500000e+04 7.436230957031250000e+03
1.168848925781250000e+04 -1.117637988281250000e+04 7.435528320312500000e+03
1.173872460937500000e+04 -1.114216601562500000e+04 7.450290527343750000e+03
1.174032031250000000e+04 -1.113936230468750000e+04 7.450973144531250000e+03
1.173590527343750000e+04 -1.114281738281250000e+04 7.452765136718750000e+03
1.173734667968750000e+04 -1.114033007812500000e+04 7.453541503906250000e+03
1.164427343750000000e+04 -1.117238281250000000e+04 7.420403320312500000e+03
1.164212109375000000e+04 -1.117075488281250000e+04 7.419256835937500000e+03
1.164461035156250000e+04 -1.117133593750000000e+04 7.424275878906250000e+03
1.164212597656250000e+04 -1.116939550781250000e+04 7.422876464843750000e+03
1.176566308593750000e+04 -1.111851171875000000e+04 7.408368164062500000e+03
1.176676660156250000e+04 -1.111499707031250000e+04 7.406976562500000000e+03
1.176477441406250000e+04 -1.111955859375000000e+04 7.412685058593750000e+03
1.176587792968750000e+04 -1.111611132812500000e+04 7.411273437500000000e+03
1.171316796875000000e+04 -1.103309472656250000e+04 7.295041992187500000e+03
1.170935644531250000e+04 -1.103366699218750000e+04 7.294023437500000000e+03
1.171275585937500000e+04 -1.103104589843750000e+04 7.297109375000000000e+03
1.170892382812500000e+04 -1.103156738281250000e+04 7.296259765625000000e+03
1.176741699218750000e+04 -1.104615234375000000e+04 7.348378417968750000e+03
1.176634570312500000e+04 -1.104290136718750000e+04 7.347555175781250000e+03
1.176838183593750000e+04 -1.104556250000000000e+04 7.352254882812500000e+03
1.176739941406250000e+04 -1.104240429687500000e+04 7.351351074218750000e+03
1.170659765625000000e+04 -1.116325488281250000e+04 7.232686035156250000e+03
1.170268164062500000e+04 -1.116505468750000000e+04 7.230201660156250000e+03
1.170663183593750000e+04 -1.116450781250000000e+04 7.235831054687500000e+03
1.170274121093750000e+04 -1.116617578125000000e+04 7.233261718750000000e+03
1.167356640625000000e+04 -1.117216992187500000e+04 7.396398437500000000e+03
1.166987207031250000e+04 -1.117086621093750000e+04 7.395610351562500000e+03
1.167241601562500000e+04 -1.117230371093750000e+04 7.399839355468750000e+03
1.166879785156250000e+04 -1.117105175781250000e+04 7.398774414062500000e+03
1.177039648437500000e+04 -1.111311523437500000e+04 7.370312011718750000e+03
1.177104882812500000e+04 -1.110961035156250000e+04 7.368516113281250000e+03
1.177042675781250000e+04 -1.111424609375000000e+04 7.374487304687500000e+03
1.177099218750000000e+04 -1.111064453125000000e+04 7.372518066406250000e+03
1.166608886718750000e+04 -1.098847656250000000e+04 7.411882812500000000e+03
1.166412890625000000e+04 -1.098842773437500000e+04 7.409435058593750000e+03
1.166423437500000000e+04 -1.099100683593750000e+04 7.415730957031250000e+03
1.166214648437500000e+04 -1.099081250000000000e+04 7.413492187500000000e+03
1.166575878906250000e+04 -1.117515136718750000e+04 7.271881347656250000e+03
1.166471484375000000e+04 -1.117224902343750000e+04 7.271031738281250000e+03
1.166354199218750000e+04 -1.117767675781250000e+04 7.274427734375000000e+03
1.166215429687500000e+04 -1.117430957031250000e+04 7.273582519531250000e+03
1.163933789062500000e+04 -1.104422167968750000e+04 7.447602539062500000e+03
1.163851171875000000e+04 -1.104179980468750000e+04 7.446004882812500000e+03
1.164174316406250000e+04 -1.104672753906250000e+04 7.451369140625000000e+03
1.164038476562500000e+04 -1.104455468750000000e+04 7.449520507812500000e+03
1.172752929687500000e+04 -1.115157812500000000e+04 7.261638183593750000e+03
1.172966406250000000e+04 -1.114817285156250000e+04 7.260825683593750000e+03
1.172852832031250000e+04 -1.115309960937500000e+04 7.265731445312500000e+03
1.173051171875000000e+04 -1.114965429687500000e+04 7.265077148437500000e+03
1.170598437500000000e+04 -1.098600878906250000e+04 7.418743164062500000e+03
1.170384570312500000e+04 -1.098466308593750000e+04 7.416602050781250000e+03
1.170525390625000000e+04 -1.098741210937500000e+04 7.421977050781250000e+03
1.170287890625000000e+04 -1.098591796875000000e+04 7.419892578125000000e+03
1.166140429687500000e+04 -1.115158789062500000e+04 7.249851074218750000e+03
1.165979882812500000e+04 -1.114970703125000000e+04 7.248614257812500000e+03
1.166041601562500000e+04 -1.115228320312500000e+04 7.254263183593750000e+03
1.165883886718750000e+04 -1.115025195312500000e+04 7.253189453125000000e+03
1.162575585937500000e+04 -1.114429785156250000e+04 7.309690429687500000e+03
1.162471386718750000e+04 -1.113879785156250000e+04 7.311018066406250000e+03
1.162502734375000000e+04 -1.114443261718750000e+04 7.312721191406250000e+03
1.162392578125000000e+04 -1.113860156250000000e+04 7.313678222656250000e+03
1.174486914062500000e+04 -1.113200585937500000e+04 7.273384277343750000e+03
1.174623437500000000e+04 -1.112913183593750000e+04 7.272791992187500000e+03
1.174606054687500000e+04 -1.113262890625000000e+04 7.276781250000000000e+03
1.174729199218750000e+04 -1.112963964843750000e+04 7.276119140625000000e+03
1.172627734375000000e+04 -1.119244726562500000e+04 7.330598144531250000e+03
1.172218652343750000e+04 -1.119417187500000000e+04 7.329882324218750000e+03
1.172557714843750000e+04 -1.119237500000000000e+04 7.333934570312500000e+03
1.172159570312500000e+04 -1.119411718750000000e+04 7.333202636718750000e+03
1.171876757812500000e+04 -1.099765429687500000e+04 7.331381347656250000e+03
1.171483984375000000e+04 -1.099667480468750000e+04 7.329875488281250000e+03
1.171987402343750000e+04 -1.099595117187500000e+04 7.335242675781250000e+03
1.171588769531250000e+04 -1.099487890625000000e+04 7.333782226562500000e+03
1.162035058593750000e+04 -1.104072656250000000e+04 7.350736816406250000e+03
1.162166992187500000e+04 -1.103747949218750000e+04 7.349740234375000000e+03
1.161960156250000000e+04 -1.104098730468750000e+04 7.354547851562500000e+03
1.162084472656250000e+04 -1.103779492187500000e+04 7.353400390625000000e+03
1.165557617187500000e+04 -1.100504003906250000e+04 7.330674316406250000e+03
1.165795117187500000e+04 -1.100209472656250000e+04 7.333179199218750000e+03
1.165306738281250000e+04 -1.100474707031250000e+04 7.333841308593750000e+03
1.165579589843750000e+04 -1.100158691406250000e+04 7.336345703125000000e+03
1.160746582031250000e+04 -1.108928417968750000e+04 7.371522460937500000e+03
1.160715039062500000e+04 -1.108657519531250000e+04 7.370248535156250000e+03
1.160801367187500000e+04 -1.108947851562500000e+04 7.375617675781250000e+03
1.160781054687500000e+04 -1.108671679687500000e+04 7.374547363281250000e+03
1.161331250000000000e+04 -1.108602929687500000e+04 7.407059570312500000e+03
1.161307421875000000e+04 -1.108253613281250000e+04 7.407323242187500000e+03
1.161406835937500000e+04 -1.108579687500000000e+04 7.411398437500000000e+03
1.161387109375000000e+04 -1.108242285156250000e+04 7.411329589843750000e+03
1.164946386718750000e+04 -1.105221582031250000e+04 7.290230957031250000e+03
1.165175976562500000e+04 -1.104900878906250000e+04 7.291018554687500000e+03
1.164674414062500000e+04 -1.105187792968750000e+04 7.294440429687500000e+03
1.164897167968750000e+04 -1.104870214843750000e+04 7.294503417968750000e+03
1.162109570312500000e+04 -1.103238574218750000e+04 7.370428222656250000e+03
1.162207519531250000e+04 -1.102903222656250000e+04 7.369390136718750000e+03
1.162174023437500000e+04 -1.103250488281250000e+04 7.374553222656250000e+03
1.162275585937500000e+04 -1.102894238281250000e+04 7.373211425781250000e+03
1.178416796875000000e+04 -1.108469140625000000e+04 7.365595703125000000e+03
1.178441015625000000e+04 -1.108183203125000000e+04 7.364631347656250000e+03
1.178296191406250000e+04 -1.108546582031250000e+04 7.368240722656250000e+03
1.178313085937500000e+04 -1.108254296875000000e+04 7.367630859375000000e+03
1.174387207031250000e+04 -1.115809765625000000e+04 7.425827148437500000e+03
1.174613378906250000e+04 -1.115498242187500000e+04 7.426059082031250000e+03
1.174169921875000000e+04 -1.115920703125000000e+04 7.428149902343750000e+03
1.174402343750000000e+04 -1.115608105468750000e+04 7.428567871093750000e+03
1.162465625000000000e+04 -1.114455761718750000e+04 7.386528320312500000e+03
1.162293847656250000e+04 -1.114030566406250000e+04 7.385117675781250000e+03
1.162564257812500000e+04 -1.114424511718750000e+04 7.390924316406250000e+03
1.162419628906250000e+04 -1.114067968750000000e+04 7.389629394531250000e+03
1.165674707031250000e+04 -1.119528808593750000e+04 7.323440429687500000e+03
1.165483886718750000e+04 -1.119459863281250000e+04 7.322139648437500000e+03
1.165799023437500000e+04 -1.119475390625000000e+04 7.326549804687500000e+03
1.165586718750000000e+04 -1.119393945312500000e+04 7.325227539062500000e+03
1.170598046875000000e+04 -1.109299902343750000e+04 7.481300292968750000e+03
1.170456347656250000e+04 -1.108947851562500000e+04 7.481879882812500000e+03
1.170294921875000000e+04 -1.109475488281250000e+04 7.481787597656250000e+03
1.170149609375000000e+04 -1.109123535156250000e+04 7.482437988281250000e+03
1.164658886718750000e+04 -1.113729980468750000e+04 7.209762207031250000e+03
1.164365722656250000e+04 -1.113478906250000000e+04 7.207562500000000000e+03
1.164577734375000000e+04 -1.113790527343750000e+04 7.214356933593750000e+03
1.164292089843750000e+04 -1.113549023437500000e+04 7.212166992187500000e+03
1.178697656250000000e+04 -1.107356152343750000e+04 7.363132812500000000e+03
1.178676171875000000e+04 -1.107053320312500000e+04 7.361382812500000000e+03
1.178605859375000000e+04 -1.107501464843750000e+04 7.366751953125000000e+03
1.178582910156250000e+04 -1.107183398437500000e+04 7.365166992187500000e+03
1.170547558593750000e+04 -1.104957910156250000e+04 7.475033691406250000e+03
1.170353515625000000e+04 -1.104613476562500000e+04 7.474110839843750000e+03
1.170239453125000000e+04 -1.105304394531250000e+04 7.476339843750000000e+03
1.170063281250000000e+04 -1.104956054687500000e+04 7.475215332031250000e+03
1.163530859375000000e+04 -1.106534277343750000e+04 7.305403320312500000e+03
1.163719531250000000e+04 -1.106148828125000000e+04 7.305085449218750000e+03
1.163305664062500000e+04 -1.106664257812500000e+04 7.308954589843750000e+03
1.163500000000000000e+04 -1.106259960937500000e+04 7.308808105468750000e+03
1.170373046875000000e+04 -1.120619335937500000e+04 7.334948242187500000e+03
1.170209667968750000e+04 -1.120557519531250000e+04 7.333082031250000000e+03
1.170278906250000000e+04 -1.120712792968750000e+04 7.337828125000000000e+03
1.170067675781250000e+04 -1.120687109375000000e+04 7.335939453125000000e+03
1.175078027343750000e+04 -1.114172753906250000e+04 7.432698242187500000e+03
1.175253125000000000e+04 -1.113815625000000000e+04 7.432802246093750000e+03
1.174888964843750000e+04 -1.114252539062500000e+04 7.435776855468750000e+03
1.175079492187500000e+04 -1.113886035156250000e+04 7.435817382812500000e+03
1.174874121093750000e+04 -1.108485449218750000e+04 7.260975097656250000e+03
1.174751953125000000e+04 -1.108193945312500000e+04 7.259682617187500000e+03
1.174911816406250000e+04 -1.108558691406250000e+04 7.265430175781250000e+03
1.174783593750000000e+04 -1.108271093750000000e+04 7.263985839843750000e+03
1.172565039062500000e+04 -1.104451269531250000e+04 7.288549804687500000e+03
1.172277343750000000e+04 -1.104250683593750000e+04 7.287813476562500000e+03
1.172684960937500000e+04 -1.104359179687500000e+04 7.291480957031250000e+03
1.172403222656250000e+04 -1.104163281250000000e+04 7.290726074218750000e+03
1.171841113281250000e+04 -1.115449414062500000e+04 7.231236816406250000e+03
1.171483593750000000e+04 -1.115640136718750000e+04 7.228476562500000000e+03
1.171753515625000000e+04 -1.115629492187500000e+04 7.235383789062500000e+03
1.171357910156250000e+04 -1.115854589843750000e+04 7.232684082031250000e+03
1.172459277343750000e+04 -1.098861523437500000e+04 7.408900390625000000e+03
1.172281445312500000e+04 -1.098754003906250000e+04 7.407539550781250000e+03
1.172370312500000000e+04 -1.098940722656250000e+04 7.412569335937500000e+03
1.172208300781250000e+04 -1.098832617187500000e+04 7.411085449218750000e+03
1.175181835937500000e+04 -1.115965136718750000e+04 7.300239746093750000e+03
1.175229687500000000e+04 -1.115664257812500000e+04 7.299545410156250000e+03
1.175279980468750000e+04 -1.116078320312500000e+04 7.303470214843750000e+03
1.175363964843750000e+04 -1.115766894531250000e+04 7.303197265625000000e+03
1.172440820312500000e+04 -1.115853320312500000e+04 7.400940917968750000e+03
1.172082812500000000e+04 -1.115891015625000000e+04 7.400700683593750000e+03
1.172374218750000000e+04 -1.115859179687500000e+04 7.403942871093750000e+03
1.171995019531250000e+04 -1.115902734375000000e+04 7.404000488281250000e+03
1.162483789062500000e+04 -1.102917871093750000e+04 7.352489257812500000e+03
1.162638769531250000e+04 -1.102603906250000000e+04 7.351580566406250000e+03
1.162435937500000000e+04 -1.102970312500000000e+04 7.356460937500000000e+03
1.162578417968750000e+04 -1.102652246093750000e+04 7.355524902343750000e+03
1.170628613281250000e+04 -1.104640625000000000e+04 7.245297851562500000e+03
1.170274218750000000e+04 -1.104589160156250000e+04 7.243186523437500000e+03
1.170565234375000000e+04 -1.104621191406250000e+04 7.250168945312500000e+03
1.170209960937500000e+04 -1.104582910156250000e+04 7.248150390625000000e+03
1.165286523437500000e+04 -1.102831054687500000e+04 7.451556152343750000e+03
1.164970800781250000e+04 -1.102847851562500000e+04 7.449313964843750000e+03
1.165413867187500000e+04 -1.103152929687500000e+04 7.454569824218750000e+03
1.165054687500000000e+04 -1.103177636718750000e+04 7.452345214843750000e+03
1.161904882812500000e+04 -1.112210839843750000e+04 7.335228515625000000e+03
1.161769824218750000e+04 -1.111816894531250000e+04 7.334606933593750000e+03
1.161856250000000000e+04 -1.112139941406250000e+04 7.339560546875000000e+03
1.161742382812500000e+04 -1.111769238281250000e+04 7.339180175781250000e+03
1.174902636718750000e+04 -1.107256250000000000e+04 7.296077636718750000e+03
1.174705273437500000e+04 -1.107004003906250000e+04 7.294361328125000000e+03
1.175093652343750000e+04 -1.107203125000000000e+04 7.300478515625000000e+03
1.174879980468750000e+04 -1.106951953125000000e+04 7.298398925781250000e+03
1.175543945312500000e+04 -1.110388281250000000e+04 7.244802734375000000e+03
1.175507421875000000e+04 -1.110036621093750000e+04 7.243734863281250000e+03
1.175577441406250000e+04 -1.110516015625000000e+04 7.249081542968750000e+03
1.175546582031250000e+04 -1.110160644531250000e+04 7.248222656250000000e+03
1.175961621093750000e+04 -1.102074511718750000e+04 7.391647460937500000e+03
1.175793164062500000e+04 -1.101804199218750000e+04 7.390657714843750000e+03
1.175909375000000000e+04 -1.102098925781250000e+04 7.395779785156250000e+03
1.175734570312500000e+04 -1.101822265625000000e+04 7.394796875000000000e+03
1.164398828125000000e+04 -1.118383984375000000e+04 7.328486816406250000e+03
1.164170800781250000e+04 -1.118133105468750000e+04 7.326770507812500000e+03
1.164398144531250000e+04 -1.118373437500000000e+04 7.331684570312500000e+03
1.164212011718750000e+04 -1.118156152343750000e+04 7.330476074218750000e+03
1.169062402343750000e+04 -1.121041699218750000e+04 7.337153320312500000e+03
1.168813378906250000e+04 -1.120846679687500000e+04 7.335586425781250000e+03
1.168941894531250000e+04 -1.121155078125000000e+04 7.340117675781250000e+03
1.168684960937500000e+04 -1.120959863281250000e+04 7.338240234375000000e+03
1.163912988281250000e+04 -1.107694042968750000e+04 7.267732421875000000e+03
1.164092187500000000e+04 -1.107399902343750000e+04 7.267262695312500000e+03
1.163923046875000000e+04 -1.107788378906250000e+04 7.271979980468750000e+03
1.164102246093750000e+04 -1.107458496093750000e+04 7.271622558593750000e+03
1.175110644531250000e+04 -1.112103320312500000e+04 7.231840820312500000e+03
1.175286425781250000e+04 -1.111719726562500000e+04 7.229423339843750000e+03
1.175015917968750000e+04 -1.112248828125000000e+04 7.237540527343750000e+03
1.175187402343750000e+04 -1.111853710937500000e+04 7.235224609375000000e+03
1.172323339843750000e+04 -1.101744824218750000e+04 7.452435058593750000e+03
1.172195703125000000e+04 -1.101298339843750000e+04 7.449969726562500000e+03
1.172052050781250000e+04 -1.102101367187500000e+04 7.455660156250000000e+03
1.171912304687500000e+04 -1.101647167968750000e+04 7.453205566406250000e+03
1.175698730468750000e+04 -1.104710742187500000e+04 7.434368164062500000e+03
1.175646289062500000e+04 -1.104419433593750000e+04 7.433311523437500000e+03
1.175472070312500000e+04 -1.104802636718750000e+04 7.438263671875000000e+03
1.175427636718750000e+04 -1.104511621093750000e+04 7.437116210937500000e+03
1.173053320312500000e+04 -1.111687402343750000e+04 7.467887207031250000e+03
1.173046386718750000e+04 -1.111414648437500000e+04 7.468685058593750000e+03
1.172715917968750000e+04 -1.111698144531250000e+04 7.469819824218750000e+03
1.172701660156250000e+04 -1.111437792968750000e+04 7.470661621093750000e+03
1.176012304687500000e+04 -1.101973828125000000e+04 7.377810058593750000e+03
1.175861816406250000e+04 -1.101705664062500000e+04 7.376274414062500000e+03
1.176029296875000000e+04 -1.102009179687500000e+04 7.381241699218750000e+03
1.175860058593750000e+04 -1.101711523437500000e+04 7.379630371093750000e+03
1.177728906250000000e+04 -1.109241015625000000e+04 7.321145507812500000e+03
1.177780761718750000e+04 -1.108902734375000000e+04 7.321868652343750000e+03
1.177832812500000000e+04 -1.109254785156250000e+04 7.324462890625000000e+03
1.177898925781250000e+04 -1.108914355468750000e+04 7.324826660156250000e+03
1.164661328125000000e+04 -1.100298242187500000e+04 7.345548828125000000e+03
1.165035742187500000e+04 -1.099990136718750000e+04 7.347630371093750000e+03
1.164489355468750000e+04 -1.100271093750000000e+04 7.349690429687500000e+03
1.164820996093750000e+04 -1.100026171875000000e+04 7.351151855468750000e+03
1.166979980468750000e+04 -1.109590429687500000e+04 7.479005859375000000e+03
1.166602246093750000e+04 -1.109493066406250000e+04 7.478114746093750000e+03
1.166858984375000000e+04 -1.109788378906250000e+04 7.478316894531250000e+03
1.166478710937500000e+04 -1.109692675781250000e+04 7.477385253906250000e+03
1.161299804687500000e+04 -1.108058984375000000e+04 7.385151367187500000e+03
1.161289257812500000e+04 -1.107653808593750000e+04 7.385370605468750000e+03
1.161256640625000000e+04 -1.108074609375000000e+04 7.388479003906250000e+03
1.161264843750000000e+04 -1.107672265625000000e+04 7.388629394531250000e+03
1.167656542968750000e+04 -1.118196191406250000e+04 7.427308105468750000e+03
1.167268847656250000e+04 -1.118188671875000000e+04 7.426260742187500000e+03
1.167646191406250000e+04 -1.118070019531250000e+04 7.430169433593750000e+03
1.167270800781250000e+04 -1.118085058593750000e+04 7.428988769531250000e+03
1.174023535156250000e+04 -1.118366699218750000e+04 7.315099121093750000e+03
1.174222656250000000e+04 -1.118071093750000000e+04 7.315300292968750000e+03
1.173963964843750000e+04 -1.118422753906250000e+04 7.318608886718750000e+03
1.174198242187500000e+04 -1.118101757812500000e+04 7.319269531250000000e+03
1.168092285156250000e+04 -1.108119042968750000e+04 7.481581054687500000e+03
1.167850292968750000e+04 -1.107879101562500000e+04 7.480402832031250000e+03
1.167980468750000000e+04 -1.108442285156250000e+04 7.481491210937500000e+03
1.167710351562500000e+04 -1.108222656250000000e+04 7.480579589843750000e+03
1.175176855468750000e+04 -1.108013476562500000e+04 7.292685058593750000e+03
1.174951464843750000e+04 -1.107762304687500000e+04 7.290263183593750000e+03
1.175338574218750000e+04 -1.107933203125000000e+04 7.297408691406250000e+03
1.175113964843750000e+04 -1.107676562500000000e+04 7.295118164062500000e+03
1.163305957031250000e+04 -1.101113281250000000e+04 7.370124511718750000e+03
1.163500488281250000e+04 -1.100877636718750000e+04 7.369798828125000000e+03
1.163329296875000000e+04 -1.101098144531250000e+04 7.374320312500000000e+03
1.163512500000000000e+04 -1.100852929687500000e+04 7.374210937500000000e+03
1.173408007812500000e+04 -1.109852050781250000e+04 7.468221191406250000e+03
1.173486230468750000e+04 -1.109492871093750000e+04 7.468130859375000000e+03
1.173101171875000000e+04 -1.110017187500000000e+04 7.470146972656250000e+03
1.173180761718750000e+04 -1.109634082031250000e+04 7.470127929687500000e+03
1.175438378906250000e+04 -1.101090820312500000e+04 7.372490234375000000e+03
1.175264355468750000e+04 -1.100871679687500000e+04 7.370938476562500000e+03
1.175494140625000000e+04 -1.101160546875000000e+04 7.376046386718750000e+03
1.175325195312500000e+04 -1.100936230468750000e+04 7.374523925781250000e+03
1.162925195312500000e+04 -1.114693847656250000e+04 7.418228515625000000e+03
1.162737695312500000e+04 -1.114386914062500000e+04 7.416076660156250000e+03
1.163133105468750000e+04 -1.114688769531250000e+04 7.423656250000000000e+03
1.162942089843750000e+04 -1.114380761718750000e+04 7.421576171875000000e+03
1.168434765625000000e+04 -1.105168652343750000e+04 7.476000488281250000e+03
1.168065625000000000e+04 -1.104878613281250000e+04 7.474485839843750000e+03
1.168294433593750000e+04 -1.105520605468750000e+04 7.476950683593750000e+03
1.167915722656250000e+04 -1.105235546875000000e+04 7.475497070312500000e+03
1.176469335937500000e+04 -1.104192382812500000e+04 7.408101074218750000e+03
1.176397851562500000e+04 -1.103865429687500000e+04 7.407032226562500000e+03
1.176442480468750000e+04 -1.104285937500000000e+04 7.411119140625000000e+03
1.176359277343750000e+04 -1.103953515625000000e+04 7.410088378906250000e+03
1.163728808593750000e+04 -1.117669921875000000e+04 7.361609375000000000e+03
1.163509277343750000e+04 -1.117462792968750000e+04 7.360951171875000000e+03
1.163728710937500000e+04 -1.117516015625000000e+04 7.366281738281250000e+03
1.163508593750000000e+04 -1.117315332031250000e+04 7.365621093750000000e+03
1.163165039062500000e+04 -1.115522851562500000e+04 7.387238281250000000e+03
1.162945117187500000e+04 -1.115317187500000000e+04 7.385175781250000000e+03
1.163303222656250000e+04 -1.115499609375000000e+04 7.391243652343750000e+03
1.163088378906250000e+04 -1.115288085937500000e+04 7.389203125000000000e+03
1.175387792968750000e+04 -1.101049902343750000e+04 7.379077636718750000e+03
1.175208398437500000e+04 -1.100805175781250000e+04 7.378286132812500000e+03
1.175430761718750000e+04 -1.101091210937500000e+04 7.382947753906250000e+03
1.175245703125000000e+04 -1.100830371093750000e+04 7.382411132812500000e+03
1.162873339843750000e+04 -1.115685058593750000e+04 7.312666015625000000e+03
1.162773437500000000e+04 -1.115355078125000000e+04 7.311261718750000000e+03
1.162854296875000000e+04 -1.115787695312500000e+04 7.315914550781250000e+03
1.162765429687500000e+04 -1.115474121093750000e+04 7.314631835937500000e+03
1.174640527343750000e+04 -1.116907226562500000e+04 7.296136230468750000e+03
1.174673242187500000e+04 -1.116601367187500000e+04 7.294871093750000000e+03
1.174688183593750000e+04 -1.117084179687500000e+04 7.298878906250000000e+03
1.174729492187500000e+04 -1.116795996093750000e+04 7.297587402343750000e+03
1.169296582031250000e+04 -1.103314062500000000e+04 7.467824218750000000e+03
1.168945507812500000e+04 -1.103139648437500000e+04 7.466379882812500000e+03
1.169145996093750000e+04 -1.103575195312500000e+04 7.469138671875000000e+03
1.168786035156250000e+04 -1.103393359375000000e+04 7.467514160156250000e+03
1.164633789062500000e+04 -1.117021289062500000e+04 7.384543457031250000e+03
1.164373632812500000e+04 -1.116914355468750000e+04 7.383454101562500000e+03
1.164742968750000000e+04 -1.116949609375000000e+04 7.387195312500000000e+03
1.164486035156250000e+04 -1.116850292968750000e+04 7.386042480468750000e+03
1.163541015625000000e+04 -1.117454003906250000e+04 7.346166015625000000e+03
1.163345703125000000e+04 -1.117218261718750000e+04 7.344585937500000000e+03
1.163572363281250000e+04 -1.117526171875000000e+04 7.349870605468750000e+03
1.163377929687500000e+04 -1.117323339843750000e+04 7.348143554687500000e+03
1.172157421875000000e+04 -1.111546093750000000e+04 7.473356445312500000e+03
1.172105468750000000e+04 -1.111168066406250000e+04 7.474267578125000000e+03
1.171837207031250000e+04 -1.111680761718750000e+04 7.474623046875000000e+03
1.171804296875000000e+04 -1.111267285156250000e+04 7.475498046875000000e+03
1.168722265625000000e+04 -1.099488085937500000e+04 7.434741699218750000e+03
1.168462597656250000e+04 -1.099334082031250000e+04 7.432666015625000000e+03
1.168623535156250000e+04 -1.099783593750000000e+04 7.437679687500000000e+03
1.168363769531250000e+04 -1.099608984375000000e+04 7.435330566406250000e+03
1.170822363281250000e+04 -1.104419824218750000e+04 7.275068847656250000e+03
1.170524609375000000e+04 -1.104330371093750000e+04 7.274770019531250000e+03
1.170804589843750000e+04 -1.104312695312500000e+04 7.279314453125000000e+03
1.170515136718750000e+04 -1.104216601562500000e+04 7.279253906250000000e+03
1.162747265625000000e+04 -1.103355371093750000e+04 7.418822265625000000e+03
1.162840820312500000e+04 -1.103020605468750000e+04 7.417941894531250000e+03
1.162823828125000000e+04 -1.103521875000000000e+04 7.422610839843750000e+03
1.162922460937500000e+04 -1.103173437500000000e+04 7.421549804687500000e+03
1.167209277343750000e+04 -1.121223828125000000e+04 7.306785156250000000e+03
1.166932421875000000e+04 -1.121079589843750000e+04 7.306088378906250000e+03
1.167266113281250000e+04 -1.121155664062500000e+04 7.310234863281250000e+03
1.166948730468750000e+04 -1.121000097656250000e+04 7.309938476562500000e+03
1.171837792968750000e+04 -1.117031445312500000e+04 7.392609375000000000e+03
1.171486132812500000e+04 -1.117145507812500000e+04 7.392792968750000000e+03
1.171717187500000000e+04 -1.117028808593750000e+04 7.396362304687500000e+03
1.171295703125000000e+04 -1.117182519531250000e+04 7.395493652343750000e+03
1.165152246093750000e+04 -1.114114746093750000e+04 7.248128417968750000e+03
1.164928906250000000e+04 -1.113838867187500000e+04 7.246705078125000000e+03
1.165095703125000000e+04 -1.114156250000000000e+04 7.252373046875000000e+03
1.164886914062500000e+04 -1.113885253906250000e+04 7.251090332031250000e+03
1.175556640625000000e+04 -1.103812402343750000e+04 7.430577148437500000e+03
1.175509765625000000e+04 -1.103566601562500000e+04 7.429592285156250000e+03
1.175385644531250000e+04 -1.103822656250000000e+04 7.433009765625000000e+03
1.175359179687500000e+04 -1.103555957031250000e+04 7.431812500000000000e+03
1.162573144531250000e+04 -1.102493652343750000e+04 7.358692382812500000e+03
1.162708203125000000e+04 -1.102168554687500000e+04 7.357705566406250000e+03
1.162525488281250000e+04 -1.102592187500000000e+04 7.362749511718750000e+03
1.162652343750000000e+04 -1.102255468750000000e+04 7.361755371093750000e+03
1.160237011718750000e+04 -1.107290625000000000e+04 7.371042480468750000e+03
1.160174707031250000e+04 -1.107074902343750000e+04 7.369275878906250000e+03
1.160247167968750000e+04 -1.107423437500000000e+04 7.373456054687500000e+03
1.160152929687500000e+04 -1.107195410156250000e+04 7.371620605468750000e+03
1.161292578125000000e+04 -1.108390917968750000e+04 7.375187988281250000e+03
1.161288183593750000e+04 -1.108064648437500000e+04 7.374342285156250000e+03
1.161228906250000000e+04 -1.108493164062500000e+04 7.378454589843750000e+03
1.161244433593750000e+04 -1.108139941406250000e+04 7.377928710937500000e+03
1.166663476562500000e+04 -1.119764843750000000e+04 7.341446777343750000e+03
1.166426367187500000e+04 -1.119631054687500000e+04 7.340452148437500000e+03
1.166774218750000000e+04 -1.119758105468750000e+04 7.344352050781250000e+03
1.166519433593750000e+04 -1.119611132812500000e+04 7.343339355468750000e+03
1.163369238281250000e+04 -1.111438574218750000e+04 7.453061523437500000e+03
1.163259667968750000e+04 -1.111158593750000000e+04 7.452278320312500000e+03
1.163724902343750000e+04 -1.111421972656250000e+04 7.455518554687500000e+03
1.163510839843750000e+04 -1.111161425781250000e+04 7.454192382812500000e+03
1.162288964843750000e+04 -1.113831152343750000e+04 7.388414062500000000e+03
1.162144433593750000e+04 -1.113443652343750000e+04 7.387275878906250000e+03
1.162411914062500000e+04 -1.113896875000000000e+04 7.392680664062500000e+03
1.162269042968750000e+04 -1.113527343750000000e+04 7.391648925781250000e+03
1.172943457031250000e+04 -1.101203808593750000e+04 7.320533691406250000e+03
1.172558105468750000e+04 -1.100980859375000000e+04 7.319477050781250000e+03
1.173172070312500000e+04 -1.101064941406250000e+04 7.324169433593750000e+03
1.172825390625000000e+04 -1.100823535156250000e+04 7.323206054687500000e+03
1.174119042968750000e+04 -1.115787890625000000e+04 7.431813476562500000e+03
1.174366503906250000e+04 -1.115487402343750000e+04 7.432476074218750000e+03
1.173878906250000000e+04 -1.115855371093750000e+04 7.434128906250000000e+03
1.174108398437500000e+04 -1.115591796875000000e+04 7.435123046875000000e+03
1.177605957031250000e+04 -1.109405273437500000e+04 7.332211914062500000e+03
1.177675097656250000e+04 -1.109094531250000000e+04 7.331312500000000000e+03
1.177656054687500000e+04 -1.109419824218750000e+04 7.335989257812500000e+03
1.177713867187500000e+04 -1.109133789062500000e+04 7.334878417968750000e+03
1.163310058593750000e+04 -1.113002734375000000e+04 7.443214355468750000e+03
1.163040332031250000e+04 -1.112712207031250000e+04 7.441007812500000000e+03
1.163448242187500000e+04 -1.112915917968750000e+04 7.446546386718750000e+03
1.163186425781250000e+04 -1.112630371093750000e+04 7.444418945312500000e+03
1.168763574218750000e+04 -1.120823144531250000e+04 7.336665039062500000e+03
1.168488867187500000e+04 -1.120630761718750000e+04 7.335131835937500000e+03
1.168616015625000000e+04 -1.120869042968750000e+04 7.339613769531250000e+03
1.168295507812500000e+04 -1.120686621093750000e+04 7.338033691406250000e+03
1.173118457031250000e+04 -1.119160449218750000e+04 7.331964843750000000e+03
1.173470410156250000e+04 -1.118906640625000000e+04 7.332366699218750000e+03
1.173081738281250000e+04 -1.119124902343750000e+04 7.336145507812500000e+03
1.173394238281250000e+04 -1.118923046875000000e+04 7.336360839843750000e+03
1.167948339843750000e+04 -1.117326464843750000e+04 7.262428222656250000e+03
1.167721484375000000e+04 -1.117157910156250000e+04 7.261936523437500000e+03
1.167812792968750000e+04 -1.117437695312500000e+04 7.264650390625000000e+03
1.167676855468750000e+04 -1.117241699218750000e+04 7.263771972656250000e+03
1.166776074218750000e+04 -1.115457519531250000e+04 7.229252441406250000e+03
1.166530273437500000e+04 -1.115255859375000000e+04 7.227764648437500000e+03
1.166745898437500000e+04 -1.115525097656250000e+04 7.233719238281250000e+03
1.166526855468750000e+04 -1.115336035156250000e+04 7.232724121093750000e+03
1.170147265625000000e+04 -1.103930957031250000e+04 7.286945312500000000e+03
1.169808886718750000e+04 -1.104018066406250000e+04 7.285737304687500000e+03
1.170225488281250000e+04 -1.103604980468750000e+04 7.290712402343750000e+03
1.169843457031250000e+04 -1.103717871093750000e+04 7.289477050781250000e+03
1.175261328125000000e+04 -1.114628710937500000e+04 7.294418457031250000e+03
1.175341406250000000e+04 -1.114250488281250000e+04 7.294394042968750000e+03
1.175464257812500000e+04 -1.114729589843750000e+04 7.298105957031250000e+03
1.175524804687500000e+04 -1.114368652343750000e+04 7.297881347656250000e+03
1.172223632812500000e+04 -1.110418457031250000e+04 7.474028320312500000e+03
1.172141015625000000e+04 -1.109998632812500000e+04 7.475084472656250000e+03
1.171944824218750000e+04 -1.110551367187500000e+04 7.475328125000000000e+03
1.171866406250000000e+04 -1.110138867187500000e+04 7.476425292968750000e+03
1.166235742187500000e+04 -1.098925878906250000e+04 7.359179199218750000e+03
1.165935839843750000e+04 -1.099165429687500000e+04 7.356968261718750000e+03
1.166146191406250000e+04 -1.098860546875000000e+04 7.363328125000000000e+03
1.165855566406250000e+04 -1.099107617187500000e+04 7.360808593750000000e+03
1.168466894531250000e+04 -1.098586914062500000e+04 7.342587890625000000e+03
1.168087304687500000e+04 -1.098720214843750000e+04 7.341425292968750000e+03
1.168458300781250000e+04 -1.098520703125000000e+04 7.346871582031250000e+03
1.168067871093750000e+04 -1.098669921875000000e+04 7.345378906250000000e+03
1.173592089843750000e+04 -1.114930566406250000e+04 7.273580566406250000e+03
1.173632812500000000e+04 -1.114618261718750000e+04 7.272678710937500000e+03
1.173730273437500000e+04 -1.115030371093750000e+04 7.276909667968750000e+03
1.173768750000000000e+04 -1.114716992187500000e+04 7.275810058593750000e+03
1.175897070312500000e+04 -1.109633496093750000e+04 7.294178710937500000e+03
1.175802636718750000e+04 -1.109338281250000000e+04 7.292366210937500000e+03
1.175998339843750000e+04 -1.109618847656250000e+04 7.297812011718750000e+03
1.175897656250000000e+04 -1.109341894531250000e+04 7.296211425781250000e+03
1.164004882812500000e+04 -1.107324707031250000e+04 7.278634765625000000e+03
1.164244921875000000e+04 -1.106960937500000000e+04 7.278894042968750000e+03
1.163849707031250000e+04 -1.107353320312500000e+04 7.281694824218750000e+03
1.164058007812500000e+04 -1.107037011718750000e+04 7.281431640625000000e+03
1.177384765625000000e+04 -1.108559570312500000e+04 7.390781738281250000e+03
1.177389550781250000e+04 -1.108246093750000000e+04 7.390071777343750000e+03
1.177374023437500000e+04 -1.108617773437500000e+04 7.394886230468750000e+03
1.177367480468750000e+04 -1.108286621093750000e+04 7.394444335937500000e+03
1.163302539062500000e+04 -1.109058300781250000e+04 7.276000976562500000e+03
1.163434960937500000e+04 -1.108666894531250000e+04 7.275847656250000000e+03
1.163262011718750000e+04 -1.109166308593750000e+04 7.279656250000000000e+03
1.163395117187500000e+04 -1.108742089843750000e+04 7.279350585937500000e+03
1.174510937500000000e+04 -1.117745214843750000e+04 7.342119628906250000e+03
1.174716699218750000e+04 -1.117469238281250000e+04 7.341863281250000000e+03
1.174478417968750000e+04 -1.117794335937500000e+04 7.346104003906250000e+03
1.174714257812500000e+04 -1.117518554687500000e+04 7.346016601562500000e+03
1.176150390625000000e+04 -1.109118261718750000e+04 7.438661621093750000e+03
1.176274121093750000e+04 -1.108713574218750000e+04 7.437239257812500000e+03
1.175976855468750000e+04 -1.109237402343750000e+04 7.441613281250000000e+03
1.176102636718750000e+04 -1.108816699218750000e+04 7.440238769531250000e+03
1.168601269531250000e+04 -1.104468457031250000e+04 7.256305175781250000e+03
1.168250000000000000e+04 -1.104525781250000000e+04 7.254681152343750000e+03
1.168480957031250000e+04 -1.104468066406250000e+04 7.259295898437500000e+03
1.168115332031250000e+04 -1.104535937500000000e+04 7.257847656250000000e+03
1.172454785156250000e+04 -1.105134667968750000e+04 7.260393066406250000e+03
1.172125097656250000e+04 -1.104957617187500000e+04 7.258779785156250000e+03
1.172510351562500000e+04 -1.105214550781250000e+04 7.264195312500000000e+03
1.172179492187500000e+04 -1.105032910156250000e+04 7.262414062500000000e+03
1.173337695312500000e+04 -1.105654101562500000e+04 7.258207519531250000e+03
1.173059570312500000e+04 -1.105474804687500000e+04 7.256896484375000000e+03
1.173334277343750000e+04 -1.105712597656250000e+04 7.261672363281250000e+03
1.173063769531250000e+04 -1.105538671875000000e+04 7.260443847656250000e+03
1.167822167968750000e+04 -1.099921582031250000e+04 7.322338867187500000e+03
1.167448730468750000e+04 -1.099898046875000000e+04 7.323943847656250000e+03
1.167458203125000000e+04 -1.099765332031250000e+04 7.325649414062500000e+03
1.167141308593750000e+04 -1.099715039062500000e+04 7.327482421875000000e+03
1.172373242187500000e+04 -1.115599023437500000e+04 7.260367675781250000e+03
1.172396679687500000e+04 -1.115473144531250000e+04 7.258605957031250000e+03
1.172433300781250000e+04 -1.115809667968750000e+04 7.264253906250000000e+03
1.172423144531250000e+04 -1.115685156250000000e+04 7.262445800781250000e+03
1.163001171875000000e+04 -1.108431152343750000e+04 7.297246093750000000e+03
1.163180761718750000e+04 -1.108060644531250000e+04 7.296622070312500000e+03
1.162908789062500000e+04 -1.108477832031250000e+04 7.301317382812500000e+03
1.163090917968750000e+04 -1.108096777343750000e+04 7.300659667968750000e+03
1.170498535156250000e+04 -1.103506347656250000e+04 7.292807128906250000e+03
1.170110937500000000e+04 -1.103619726562500000e+04 7.291609863281250000e+03
1.170478125000000000e+04 -1.103161914062500000e+04 7.296487304687500000e+03
1.170096582031250000e+04 -1.103276953125000000e+04 7.295447265625000000e+03
1.175566308593750000e+04 -1.114437597656250000e+04 7.409620605468750000e+03
1.175707519531250000e+04 -1.114130664062500000e+04 7.409391601562500000e+03
1.175483886718750000e+04 -1.114555761718750000e+04 7.412005859375000000e+03
1.175625683593750000e+04 -1.114229687500000000e+04 7.412012207031250000e+03
1.173730371093750000e+04 -1.106366406250000000e+04 7.265776855468750000e+03
1.173587792968750000e+04 -1.106111328125000000e+04 7.265162109375000000e+03
1.173666992187500000e+04 -1.106400488281250000e+04 7.269465332031250000e+03
1.173517187500000000e+04 -1.106140820312500000e+04 7.268714355468750000e+03
1.171572558593750000e+04 -1.116414550781250000e+04 7.258965820312500000e+03
1.171341894531250000e+04 -1.116492480468750000e+04 7.256398437500000000e+03
1.171516015625000000e+04 -1.116624707031250000e+04 7.262434082031250000e+03
1.171295410156250000e+04 -1.116668750000000000e+04 7.260122558593750000e+03
1.161895898437500000e+04 -1.104412890625000000e+04 7.396963867187500000e+03
1.161941992187500000e+04 -1.104096777343750000e+04 7.396110839843750000e+03
1.161979687500000000e+04 -1.104474511718750000e+04 7.401169921875000000e+03
1.162031542968750000e+04 -1.104158789062500000e+04 7.400530761718750000e+03
1.165173339843750000e+04 -1.110896679687500000e+04 7.468956054687500000e+03
1.165005468750000000e+04 -1.110605371093750000e+04 7.468080566406250000e+03
1.165426757812500000e+04 -1.110822167968750000e+04 7.470783691406250000e+03
1.165245507812500000e+04 -1.110535351562500000e+04 7.470013183593750000e+03
1.176845410156250000e+04 -1.108149121093750000e+04 7.324646972656250000e+03
1.176592382812500000e+04 -1.107843945312500000e+04 7.325195312500000000e+03
1.176991992187500000e+04 -1.108003417968750000e+04 7.326280273437500000e+03
1.176723046875000000e+04 -1.107700781250000000e+04 7.327364257812500000e+03
1.163416015625000000e+04 -1.107441699218750000e+04 7.300177246093750000e+03
1.163575878906250000e+04 -1.107145605468750000e+04 7.299334472656250000e+03
1.163262695312500000e+04 -1.107483691406250000e+04 7.303983398437500000e+03
1.163434863281250000e+04 -1.107197851562500000e+04 7.303368652343750000e+03
1.166146191406250000e+04 -1.117546679687500000e+04 7.406601074218750000e+03
1.165902539062500000e+04 -1.117409179687500000e+04 7.405260742187500000e+03
1.166060644531250000e+04 -1.117743750000000000e+04 7.409819824218750000e+03
1.165803515625000000e+04 -1.117612890625000000e+04 7.408797851562500000e+03
1.171773828125000000e+04 -1.106161718750000000e+04 7.474435546875000000e+03
1.171630957031250000e+04 -1.105778027343750000e+04 7.474122070312500000e+03
1.171490625000000000e+04 -1.106445019531250000e+04 7.475652343750000000e+03
1.171329589843750000e+04 -1.106040332031250000e+04 7.475184570312500000e+03
1.173199218750000000e+04 -1.118999218750000000e+04 7.334943847656250000e+03
1.173515234375000000e+04 -1.118793750000000000e+04 7.335151855468750000e+03
1.173173144531250000e+04 -1.118967089843750000e+04 7.339336914062500000e+03
1.173379980468750000e+04 -1.118831054687500000e+04 7.338996582031250000e+03
1.171783398437500000e+04 -1.119623144531250000e+04 7.345361816406250000e+03
1.171795703125000000e+04 -1.119598144531250000e+04 7.344906250000000000e+03
1.171537988281250000e+04 -1.119728808593750000e+04 7.348532714843750000e+03
1.171687402343750000e+04 -1.119620996093750000e+04 7.348575195312500000e+03
1.163984570312500000e+04 -1.104672558593750000e+04 7.449487792968750000e+03
1.163862207031250000e+04 -1.104457812500000000e+04 7.447709960937500000e+03
1.164264355468750000e+04 -1.104923828125000000e+04 7.453400878906250000e+03
1.164113378906250000e+04 -1.104714843750000000e+04 7.451462402343750000e+03
1.173896289062500000e+04 -1.118061035156250000e+04 7.293922363281250000e+03
1.174151562500000000e+04 -1.117733789062500000e+04 7.293876464843750000e+03
1.173871875000000000e+04 -1.118171093750000000e+04 7.296831054687500000e+03
1.174147753906250000e+04 -1.117837695312500000e+04 7.296867675781250000e+03
1.166820800781250000e+04 -1.114259375000000000e+04 7.465995117187500000e+03
1.166572460937500000e+04 -1.114141894531250000e+04 7.465842773437500000e+03
1.166956738281250000e+04 -1.113911328125000000e+04 7.467833496093750000e+03
1.166704394531250000e+04 -1.113811425781250000e+04 7.467714843750000000e+03
1.168373535156250000e+04 -1.104194824218750000e+04 7.276663085937500000e+03
1.167986621093750000e+04 -1.104256835937500000e+04 7.275916992187500000e+03
1.168360839843750000e+04 -1.104027050781250000e+04 7.281231933593750000e+03
1.167972265625000000e+04 -1.104088476562500000e+04 7.280555664062500000e+03
1.175020019531250000e+04 -1.113722656250000000e+04 7.436738281250000000e+03
1.175236523437500000e+04 -1.113360644531250000e+04 7.436452636718750000e+03
1.174858300781250000e+04 -1.113668261718750000e+04 7.440329589843750000e+03
1.175048437500000000e+04 -1.113342578125000000e+04 7.440149902343750000e+03
1.175373242187500000e+04 -1.116243750000000000e+04 7.331349121093750000e+03
1.175558886718750000e+04 -1.115941308593750000e+04 7.331184082031250000e+03
