1.171011621100000048e+04 -1.100985839800000031e+04 7.451307617000000391e+03
1.163923046900000008e+04 -1.112863281300000017e+04 7.265641112999999677e+03
1.165616210900000078e+04 -1.099139062500000000e+04 7.364867188000000169e+03
1.176189257800000087e+04 -1.103992968800000017e+04 7.338894530999999915e+03
1.175036523400000078e+04 -1.115470703099999992e+04 7.292981934000000365e+03
1.164725000000000000e+04 -1.113752246100000048e+04 7.236325195000000349e+03
1.161130078099999992e+04 -1.110327831999999944e+04 7.341140625000000000e+03
1.176703027300000031e+04 -1.108721093800000017e+04 7.427192382999999609e+03
1.162440820300000087e+04 -1.102914062500000000e+04 7.354655762000000323e+03
1.161903613299999961e+04 -1.108816503899999952e+04 7.430660644999999931e+03
1.160563964800000031e+04 -1.107461328099999992e+04 7.372697266000000127e+03
1.167029980500000056e+04 -1.115012890599999992e+04 7.461839844000000085e+03
1.162694531300000017e+04 -1.111468359400000008e+04 7.294842773000000307e+03
1.174357031300000017e+04 -1.117834375000000000e+04 7.304857422000000042e+03
1.169424706999999944e+04 -1.117517285199999969e+04 7.261355469000000085e+03
1.173066601599999922e+04 -1.105441503899999952e+04 7.248474608999999873e+03
1.176541308600000048e+04 -1.112406347699999969e+04 7.391258300999999847e+03
1.165647949200000039e+04 -1.103599706999999944e+04 7.300214355000000069e+03
1.176233203099999992e+04 -1.113992773400000078e+04 7.331049804999999651e+03
1.162956835900000078e+04 -1.114806543000000056e+04 7.415369141000000127e+03
1.174002343800000017e+04 -1.099947558600000048e+04 7.356314452999999958e+03
1.165202343800000017e+04 -1.102098535199999969e+04 7.445667969000000085e+03
1.177093456999999944e+04 -1.105203222699999969e+04 7.374103516000000127e+03
1.170177441399999952e+04 -1.098975878899999952e+04 7.335170898000000307e+03
1.163865039099999922e+04 -1.116739257800000087e+04 7.381166503999999804e+03
1.163347656300000017e+04 -1.112193261700000039e+04 7.228954101999999693e+03
1.166005468800000017e+04 -1.098998632800000087e+04 7.362250000000000000e+03
1.170936523400000078e+04 -1.121244921900000008e+04 7.284887206999999762e+03
1.161788671900000008e+04 -1.109439843800000017e+04 7.424930664000000434e+03
1.174939257800000087e+04 -1.102163378899999952e+04 7.335349608999999873e+03
1.164861718800000017e+04 -1.113906250000000000e+04 7.219922362999999677e+03
1.162966308600000048e+04 -1.102420410199999969e+04 7.414739257999999609e+03
1.162705175799999961e+04 -1.109312402300000031e+04 7.296212891000000127e+03
1.168156347699999969e+04 -1.121397265599999992e+04 7.320807128999999804e+03
1.167472363299999961e+04 -1.098181347699999969e+04 7.381054688000000169e+03
1.171443359400000008e+04 -1.098702246100000048e+04 7.350248534999999720e+03
1.174471875000000000e+04 -1.117722656300000017e+04 7.332487304999999651e+03
1.172911914099999922e+04 -1.116227050799999961e+04 7.439772949000000153e+03
1.170791308600000048e+04 -1.120031445300000087e+04 7.359899414000000434e+03
1.174911230500000056e+04 -1.109566308600000048e+04 7.455549315999999635e+03
1.176802734400000008e+04 -1.105315234400000008e+04 7.342019530999999915e+03
1.168273632800000087e+04 -1.120576660199999969e+04 7.326424804999999651e+03
1.176533984400000008e+04 -1.103681152300000031e+04 7.397795409999999720e+03
1.172957910199999969e+04 -1.103809863299999961e+04 7.459894043000000238e+03
1.161262109400000008e+04 -1.106580078099999992e+04 7.364895507999999609e+03
1.164302441399999952e+04 -1.101813183600000048e+04 7.329192382999999609e+03
1.164333300799999961e+04 -1.106042578099999992e+04 7.460443358999999873e+03
1.171904882800000087e+04 -1.103711230500000056e+04 7.465037108999999873e+03
1.177110742199999913e+04 -1.110977343800000017e+04 7.345652344000000085e+03
1.175030371100000048e+04 -1.109906933600000048e+04 7.453484862999999677e+03
1.161591601599999922e+04 -1.111067675799999961e+04 7.405141601999999693e+03
1.178459863299999961e+04 -1.106758789099999922e+04 7.347778809000000365e+03
1.175397656300000017e+04 -1.116517871100000048e+04 7.338891601999999693e+03
1.175472753899999952e+04 -1.111205664099999922e+04 7.236655273000000307e+03
1.166636718800000017e+04 -1.098838671900000008e+04 7.412755371000000196e+03
1.164384375000000000e+04 -1.116146875000000000e+04 7.432676269999999931e+03
1.165552343800000017e+04 -1.105352831999999944e+04 7.254529784999999720e+03
1.173938085900000078e+04 -1.117557617199999913e+04 7.375887695000000349e+03
1.175438769499999944e+04 -1.109567382800000087e+04 7.248679199000000153e+03
1.175486328099999992e+04 -1.101177636700000039e+04 7.367707519999999931e+03
1.162331250000000000e+04 -1.102812109400000008e+04 7.363189452999999958e+03
1.162765136700000039e+04 -1.109890625000000000e+04 7.289600585999999566e+03
1.161745898400000078e+04 -1.112202831999999944e+04 7.346649414000000434e+03
1.162486230500000056e+04 -1.115529003899999952e+04 7.352164550999999847e+03
1.175196679699999913e+04 -1.102202539099999922e+04 7.420906737999999677e+03
1.173414160199999969e+04 -1.099430273400000078e+04 7.358957030999999915e+03
1.165553125000000000e+04 -1.111233984400000008e+04 7.470887206999999762e+03
1.174634081999999944e+04 -1.113933789099999922e+04 7.443189452999999958e+03
1.175055664099999922e+04 -1.101976171900000008e+04 7.338941405999999915e+03
1.176019921900000008e+04 -1.102648632800000087e+04 7.350133789000000434e+03
1.163638671900000008e+04 -1.101774609400000008e+04 7.341118652000000111e+03
1.174636328099999992e+04 -1.117400195300000087e+04 7.370655273000000307e+03
1.163237793000000056e+04 -1.108608105500000056e+04 7.237985840000000280e+03
1.174571875000000000e+04 -1.100318359400000008e+04 7.399855956999999762e+03
1.176481738299999961e+04 -1.110701171900000008e+04 7.426534179999999651e+03
1.173391601599999922e+04 -1.100097070300000087e+04 7.424925780999999915e+03
1.177816015599999992e+04 -1.107243652300000031e+04 7.338485840000000280e+03
1.161642871100000048e+04 -1.104700097699999969e+04 7.372933594000000085e+03
1.171285156300000017e+04 -1.112609668000000056e+04 7.472919922000000042e+03
1.166122265599999992e+04 -1.115800195300000087e+04 7.264208007999999609e+03
1.161682910199999969e+04 -1.111514941399999952e+04 7.398260742000000391e+03
1.159989257800000087e+04 -1.108223730500000056e+04 7.372997070000000349e+03
1.171456640599999992e+04 -1.114568164099999922e+04 7.464046875000000000e+03
1.170098437500000000e+04 -1.119602148400000078e+04 7.274518554999999651e+03
1.165784081999999944e+04 -1.102958007800000087e+04 7.456709472999999889e+03
1.164178320300000087e+04 -1.110298828099999992e+04 7.461556641000000127e+03
1.169308105500000056e+04 -1.098912500000000000e+04 7.335248534999999720e+03
1.176361523400000078e+04 -1.113851074200000039e+04 7.339854980000000069e+03
1.169073242199999913e+04 -1.115607812500000000e+04 7.459581543000000238e+03
1.162112500000000000e+04 -1.104088085900000078e+04 7.345465820000000349e+03
1.176708984400000008e+04 -1.113360839800000031e+04 7.367175780999999915e+03
1.163406933600000048e+04 -1.106238964800000031e+04 7.452103027000000111e+03
1.168487695300000087e+04 -1.101920507800000087e+04 7.459769530999999915e+03
1.164180664099999922e+04 -1.102534277300000031e+04 7.437263672000000042e+03
1.161423242199999913e+04 -1.105868456999999944e+04 7.363283202999999958e+03
1.170085156300000017e+04 -1.121864355500000056e+04 7.286555664000000434e+03
1.175938867199999913e+04 -1.113760058600000048e+04 7.403394530999999915e+03
1.161312304699999913e+04 -1.108790918000000056e+04 7.411511719000000085e+03
1.169256054699999913e+04 -1.118428222699999969e+04 7.411603027000000111e+03
1.174938671900000008e+04 -1.100478613299999961e+04 7.388662108999999873e+03
1.175292480500000056e+04 -1.112365820300000087e+04 7.288647460999999566e+03
1.163504882800000087e+04 -1.112820605500000056e+04 7.282693847999999889e+03
1.170877636700000039e+04 -1.115743164099999922e+04 7.456482422000000042e+03
1.162959960900000078e+04 -1.109897753899999952e+04 7.264628905999999915e+03
1.162324414099999922e+04 -1.114341406300000017e+04 7.337623534999999720e+03
1.167762988299999961e+04 -1.111770507800000087e+04 7.477797851999999693e+03
1.169229101599999922e+04 -1.118398828099999992e+04 7.422055664000000434e+03
1.169552734400000008e+04 -1.099417382800000087e+04 7.325106934000000365e+03
1.166995703099999992e+04 -1.115398632800000087e+04 7.219232422000000042e+03
1.165691992199999913e+04 -1.105123535199999969e+04 7.467690429999999651e+03
1.160033300799999961e+04 -1.107799706999999944e+04 7.353048340000000280e+03
1.162280761700000039e+04 -1.114191992199999913e+04 7.338042480000000069e+03
1.164795800799999961e+04 -1.102412500000000000e+04 7.444492188000000169e+03
1.162153613299999961e+04 -1.103443359400000008e+04 7.358010742000000391e+03
1.172970312500000000e+04 -1.105978515599999992e+04 7.468567871000000196e+03
1.176079101599999922e+04 -1.114849902300000031e+04 7.342396972999999889e+03
1.175330956999999944e+04 -1.101184570300000087e+04 7.359903809000000365e+03
1.171962988299999961e+04 -1.115989550799999961e+04 7.407001465000000280e+03
1.169093750000000000e+04 -1.099079980500000056e+04 7.332061034999999720e+03
1.164793164099999922e+04 -1.106241015599999992e+04 7.267137695000000349e+03
1.172151757800000087e+04 -1.107933593800000017e+04 7.475941405999999915e+03
1.167127831999999944e+04 -1.117602831999999944e+04 7.389077637000000323e+03
1.175730468800000017e+04 -1.110905371100000048e+04 7.288156737999999677e+03
1.175603320300000087e+04 -1.109639648400000078e+04 7.283823242000000391e+03
1.164517480500000056e+04 -1.110712597699999969e+04 7.464154784999999720e+03
1.172490136700000039e+04 -1.114953906300000017e+04 7.239443358999999873e+03
1.175762793000000056e+04 -1.116017675799999961e+04 7.368811034999999720e+03
1.171984179699999913e+04 -1.115259277300000031e+04 7.456854980000000069e+03
1.168751171900000008e+04 -1.107071581999999944e+04 7.480062987999999677e+03
1.165013671900000008e+04 -1.101128320300000087e+04 7.433184570000000349e+03
1.174630566399999952e+04 -1.106299609400000008e+04 7.300178710999999566e+03
1.163700390599999992e+04 -1.107046972699999969e+04 7.456045898000000307e+03
1.176379687500000000e+04 -1.113904492199999913e+04 7.379507813000000169e+03
1.171196191399999952e+04 -1.101428808600000048e+04 7.455394043000000238e+03
1.170423046900000008e+04 -1.117280468800000017e+04 7.398120117000000391e+03
1.174906933600000048e+04 -1.114099121100000048e+04 7.287642090000000280e+03
1.161323242199999913e+04 -1.107261816399999952e+04 7.395790039000000434e+03
1.167277441399999952e+04 -1.118590625000000000e+04 7.379980956999999762e+03
1.170422070300000087e+04 -1.120887988299999961e+04 7.339106445000000349e+03
1.161300097699999969e+04 -1.107901660199999969e+04 7.401002440999999635e+03
1.172044628899999952e+04 -1.120588671900000008e+04 7.289067382999999609e+03
1.168579101599999922e+04 -1.121529785199999969e+04 7.319515625000000000e+03
1.164452929699999913e+04 -1.113830468800000017e+04 7.271375487999999677e+03
1.171199706999999944e+04 -1.119914160199999969e+04 7.318242188000000169e+03
1.166751757800000087e+04 -1.098424511700000039e+04 7.378162108999999873e+03
1.167701660199999969e+04 -1.103767089800000031e+04 7.290354003999999804e+03
1.162074804699999913e+04 -1.104849609400000008e+04 7.412280273000000307e+03
1.172613476599999922e+04 -1.118845800799999961e+04 7.362591797000000042e+03
1.177181054699999913e+04 -1.108236523400000078e+04 7.403259277000000111e+03
1.165070507800000087e+04 -1.103573535199999969e+04 7.305617188000000169e+03
1.174293456999999944e+04 -1.100911718800000017e+04 7.422547851999999693e+03
1.161150097699999969e+04 -1.109418554699999913e+04 7.339498534999999720e+03
1.162157226599999922e+04 -1.103581250000000000e+04 7.354285155999999915e+03
1.170852636700000039e+04 -1.120137695300000087e+04 7.320152344000000085e+03
1.170254394499999944e+04 -1.122334570300000087e+04 7.293259277000000111e+03
1.170086328099999992e+04 -1.108238476599999922e+04 7.481955565999999635e+03
1.168222558600000048e+04 -1.098471093800000017e+04 7.349626952999999958e+03
1.161708007800000087e+04 -1.104434179699999913e+04 7.373828125000000000e+03
1.172370703099999992e+04 -1.120303710900000078e+04 7.291284179999999651e+03
1.169674609400000008e+04 -1.097941503899999952e+04 7.381547362999999677e+03
1.164399218800000017e+04 -1.113385742199999913e+04 7.253862304999999651e+03
1.162319921900000008e+04 -1.114113378899999952e+04 7.327918945000000349e+03
1.160344335900000078e+04 -1.108308496100000048e+04 7.336472655999999915e+03
1.163283789099999922e+04 -1.108043847699999969e+04 7.452682128999999804e+03
1.169599316399999952e+04 -1.117843261700000039e+04 7.432688965000000280e+03
1.171416015599999992e+04 -1.103949218800000017e+04 7.288546875000000000e+03
1.174494726599999922e+04 -1.113628906300000017e+04 7.447614257999999609e+03
1.175631445300000087e+04 -1.104344140599999992e+04 7.432754882999999609e+03
1.172403125000000000e+04 -1.116045214800000031e+04 7.391830077999999958e+03
1.178569335900000078e+04 -1.107572460900000078e+04 7.368716797000000042e+03
1.164506933600000048e+04 -1.107693261700000039e+04 7.464445313000000169e+03
1.164579882800000087e+04 -1.118609863299999961e+04 7.327148438000000169e+03
1.175946581999999944e+04 -1.115751171900000008e+04 7.353992188000000169e+03
1.169756054699999913e+04 -1.111345312500000000e+04 7.479281250000000000e+03
1.163669140599999992e+04 -1.108222558600000048e+04 7.261927246000000196e+03
1.167395898400000078e+04 -1.098367675799999961e+04 7.404140137000000323e+03
1.162919628899999952e+04 -1.112148828099999992e+04 7.293980469000000085e+03
1.168219531300000017e+04 -1.098015429699999913e+04 7.390225097999999889e+03
1.166504492199999913e+04 -1.119015527300000031e+04 7.327958496000000196e+03
1.175735937500000000e+04 -1.109997070300000087e+04 7.288407226999999693e+03
1.163579296900000008e+04 -1.112710546900000008e+04 7.280693358999999873e+03
1.176958203099999992e+04 -1.107623242199999913e+04 7.420756347999999889e+03
1.162954980500000056e+04 -1.109898242199999913e+04 7.247932128999999804e+03
1.175681152300000031e+04 -1.116255566399999952e+04 7.350191894999999931e+03
1.167968359400000008e+04 -1.102033105500000056e+04 7.459962891000000127e+03
1.172196386700000039e+04 -1.112355371100000048e+04 7.471040039000000434e+03
1.163923242199999913e+04 -1.106292968800000017e+04 7.300149902000000111e+03
1.175796484400000008e+04 -1.107400585900000078e+04 7.443618652000000111e+03
1.172994824200000039e+04 -1.110522363299999961e+04 7.470053222999999889e+03
1.174789355500000056e+04 -1.103769238299999961e+04 7.442955077999999958e+03
1.175632421900000008e+04 -1.112744238299999961e+04 7.434303222999999889e+03
1.176472265599999992e+04 -1.112271777300000031e+04 7.407141112999999677e+03
1.174506445300000087e+04 -1.115673632800000087e+04 7.425677246000000196e+03
1.176758203099999992e+04 -1.111164257800000087e+04 7.410901367000000391e+03
1.174895410199999969e+04 -1.116625878899999952e+04 7.300676757999999609e+03
1.176983984400000008e+04 -1.110907910199999969e+04 7.399559570000000349e+03
1.161811132800000087e+04 -1.112243945300000087e+04 7.340740722999999889e+03
1.175173437500000000e+04 -1.114667187500000000e+04 7.424518554999999651e+03
1.174615039099999922e+04 -1.117419824200000039e+04 7.302156737999999677e+03
1.168860742199999913e+04 -1.122251171900000008e+04 7.368156737999999677e+03
1.171513574200000039e+04 -1.119871679699999913e+04 7.323139648000000307e+03
1.174148828099999992e+04 -1.116177148400000078e+04 7.284148438000000169e+03
1.164625781300000017e+04 -1.113650195300000087e+04 7.242766601999999693e+03
1.170551367199999913e+04 -1.122230859400000008e+04 7.300859375000000000e+03
1.175577050799999961e+04 -1.116546386700000039e+04 7.359551757999999609e+03
1.167188574200000039e+04 -1.108528125000000000e+04 7.480718750000000000e+03
1.165937402300000031e+04 -1.109757910199999969e+04 7.474848144999999931e+03
1.165733984400000008e+04 -1.118571679699999913e+04 7.371983398000000307e+03
1.172733593800000017e+04 -1.120029101599999922e+04 7.298145996000000196e+03
1.169177246100000048e+04 -1.104491601599999922e+04 7.275323730000000069e+03
1.162126562500000000e+04 -1.112553125000000000e+04 7.322915039000000434e+03
1.169908496100000048e+04 -1.115893261700000039e+04 7.213580565999999635e+03
1.173256250000000000e+04 -1.119327343800000017e+04 7.317520996000000196e+03
1.170638671900000008e+04 -1.117007714800000031e+04 7.261148438000000169e+03
1.167299218800000017e+04 -1.119962500000000000e+04 7.361598144999999931e+03
1.165005566399999952e+04 -1.106459765599999992e+04 7.466232422000000042e+03
1.177352539099999922e+04 -1.107014843800000017e+04 7.367117675999999847e+03
1.176699121100000048e+04 -1.113454882800000087e+04 7.365654297000000042e+03
1.167279296900000008e+04 -1.098463085900000078e+04 7.406392577999999958e+03
1.165999414099999922e+04 -1.115109375000000000e+04 7.252413574000000153e+03
1.176588378899999952e+04 -1.106331640599999992e+04 7.423253418000000238e+03
1.172490625000000000e+04 -1.105110742199999913e+04 7.246469237999999677e+03
1.166840918000000056e+04 -1.116886621100000048e+04 7.442079101999999693e+03
1.172312695300000087e+04 -1.100651660199999969e+04 7.441390625000000000e+03
1.165741210900000078e+04 -1.101988964800000031e+04 7.313614746000000196e+03
1.164704589800000031e+04 -1.117532812500000000e+04 7.414938476999999693e+03
1.165104882800000087e+04 -1.114338281300000017e+04 7.258956054999999651e+03
1.161705273400000078e+04 -1.111435742199999913e+04 7.331302733999999873e+03
1.162026367199999913e+04 -1.108756835900000078e+04 7.433182128999999804e+03
1.167007226599999922e+04 -1.101023437500000000e+04 7.448586914000000434e+03
1.177010351599999922e+04 -1.111308593800000017e+04 7.362522460999999566e+03
1.170735351599999922e+04 -1.120440820300000087e+04 7.350256835999999566e+03
1.163648730500000056e+04 -1.112513671900000008e+04 7.272883789000000434e+03
1.174432226599999922e+04 -1.113990527300000031e+04 7.445789063000000169e+03
1.167918261700000039e+04 -1.118856835900000078e+04 7.271479492000000391e+03
1.171896093800000017e+04 -1.116453222699999969e+04 7.444541992000000391e+03
1.173167382800000087e+04 -1.118553320300000087e+04 7.286208496000000196e+03
1.162205859400000008e+04 -1.103283886700000039e+04 7.393896483999999873e+03
1.161121093800000017e+04 -1.110146679699999913e+04 7.336092773000000307e+03
1.171203515599999992e+04 -1.118043847699999969e+04 7.414270507999999609e+03
1.163604394499999944e+04 -1.101009179699999913e+04 7.401553710999999566e+03
1.167442675799999961e+04 -1.116304296900000008e+04 7.246615722999999889e+03
1.162964453099999992e+04 -1.114991796900000008e+04 7.411661132999999609e+03
1.170662988299999961e+04 -1.120130273400000078e+04 7.358966797000000042e+03
1.165407226599999922e+04 -1.114472265599999992e+04 7.251895019999999931e+03
1.170525488299999961e+04 -1.102607421900000008e+04 7.463134277000000111e+03
1.169536132800000087e+04 -1.099003808600000048e+04 7.333589355000000069e+03
1.168349023400000078e+04 -1.121673144499999944e+04 7.310748047000000042e+03
1.166314843800000017e+04 -1.119398046900000008e+04 7.328312012000000323e+03
1.173857617199999913e+04 -1.115179687500000000e+04 7.441335938000000169e+03
1.170526367199999913e+04 -1.121172070300000087e+04 7.318640625000000000e+03
1.177667285199999969e+04 -1.109997363299999961e+04 7.352750976999999693e+03
1.177314941399999952e+04 -1.108091210900000078e+04 7.381063965000000280e+03
1.175293554699999913e+04 -1.101666992199999913e+04 7.414368164000000434e+03
1.172168945300000087e+04 -1.120758984400000008e+04 7.298083983999999873e+03
1.168722558600000048e+04 -1.117054296900000008e+04 7.248152344000000085e+03
1.168308789099999922e+04 -1.098420898400000078e+04 7.411762695000000349e+03
1.174079492199999913e+04 -1.108642968800000017e+04 7.464109375000000000e+03
1.161824023400000078e+04 -1.110272460900000078e+04 7.423348144999999931e+03
1.173482617199999913e+04 -1.118083203099999992e+04 7.286388184000000365e+03
1.173558007800000087e+04 -1.114857910199999969e+04 7.448866699000000153e+03
1.174224609400000008e+04 -1.099821484400000008e+04 7.393965820000000349e+03
1.166419726599999922e+04 -1.114852246100000048e+04 7.206368164000000434e+03
1.170840820300000087e+04 -1.122156445300000087e+04 7.293998534999999720e+03
1.166462109400000008e+04 -1.105794433600000048e+04 7.473317382999999609e+03
1.163958789099999922e+04 -1.100315234400000008e+04 7.384392577999999958e+03
1.165410156300000017e+04 -1.101951269499999944e+04 7.316325684000000365e+03
1.168766796900000008e+04 -1.107430273400000078e+04 7.480758300999999847e+03
1.161523828099999992e+04 -1.110630956999999944e+04 7.408479003999999804e+03
1.169447070300000087e+04 -1.098390625000000000e+04 7.349607422000000042e+03
1.175315429699999913e+04 -1.115362500000000000e+04 7.408259277000000111e+03
1.168358203099999992e+04 -1.120161425799999961e+04 7.387973632999999609e+03
1.161962109400000008e+04 -1.108481738299999961e+04 7.322235351999999693e+03
1.170651953099999992e+04 -1.100548535199999969e+04 7.446798340000000280e+03
1.160618945300000087e+04 -1.108648632800000087e+04 7.339868164000000434e+03
1.167056250000000000e+04 -1.119670214800000031e+04 7.325388184000000365e+03
1.172589843800000017e+04 -1.119274902300000031e+04 7.285184570000000349e+03
1.168543554699999913e+04 -1.118572558600000048e+04 7.268764159999999720e+03
1.172806738299999961e+04 -1.107213574200000039e+04 7.471312500000000000e+03
1.164155078099999992e+04 -1.113211914099999922e+04 7.268172851999999693e+03
1.163116601599999922e+04 -1.102637695300000087e+04 7.340904297000000042e+03
1.174237988299999961e+04 -1.117986718800000017e+04 7.363705077999999958e+03
1.176545605500000056e+04 -1.112830761700000039e+04 7.336348632999999609e+03
1.163033789099999922e+04 -1.112265722699999969e+04 7.443441894999999931e+03
1.161868066399999952e+04 -1.111097460900000078e+04 7.422219726999999693e+03
1.175017968800000017e+04 -1.104318652300000031e+04 7.443182617000000391e+03
1.176083398400000078e+04 -1.102091503899999952e+04 7.380722655999999915e+03
1.176773242199999913e+04 -1.104495312500000000e+04 7.395727539000000434e+03
1.164604199200000039e+04 -1.118663769499999944e+04 7.324743164000000434e+03
1.175681250000000000e+04 -1.115519531300000017e+04 7.318073730000000069e+03
1.172448437500000000e+04 -1.101307324200000039e+04 7.316568358999999873e+03
1.163758203099999992e+04 -1.116498046900000008e+04 7.382331054999999651e+03
1.161450000000000000e+04 -1.106060058600000048e+04 7.352426757999999609e+03
1.174749316399999952e+04 -1.103440429699999913e+04 7.441549315999999635e+03
1.166655273400000078e+04 -1.119343456999999944e+04 7.279334960999999566e+03
1.176088378899999952e+04 -1.103321875000000000e+04 7.342306641000000127e+03
1.163932324200000039e+04 -1.104862500000000000e+04 7.309120117000000391e+03
1.164395800799999961e+04 -1.113447070300000087e+04 7.229530762000000323e+03
1.174588281300000017e+04 -1.109469531300000017e+04 7.458692382999999609e+03
1.162236816399999952e+04 -1.103045507800000087e+04 7.364093750000000000e+03
1.169246093800000017e+04 -1.097976757800000087e+04 7.390411132999999609e+03
1.169106933600000048e+04 -1.117093066399999952e+04 7.239218750000000000e+03
1.164757421900000008e+04 -1.106241210900000078e+04 7.264931152000000111e+03
1.172587109400000008e+04 -1.112960937500000000e+04 7.466624023000000307e+03
1.173796972699999969e+04 -1.117655175799999961e+04 7.375104492000000391e+03
1.172321972699999969e+04 -1.099175195300000087e+04 7.424727539000000434e+03
1.164627929699999913e+04 -1.116630468800000017e+04 7.396491210999999566e+03
1.161457421900000008e+04 -1.105502929699999913e+04 7.372647460999999566e+03
1.161310546900000008e+04 -1.107475293000000056e+04 7.378121094000000085e+03
1.172704589800000031e+04 -1.109842382800000087e+04 7.472763672000000042e+03
1.168716503899999952e+04 -1.108202441399999952e+04 7.482202148000000307e+03
1.171924609400000008e+04 -1.119347753899999952e+04 7.351272460999999566e+03
1.169965136700000039e+04 -1.116938769499999944e+04 7.238051757999999609e+03
1.166138281300000017e+04 -1.110535156300000017e+04 7.474928710999999566e+03
1.164040234400000008e+04 -1.107109375000000000e+04 7.246340820000000349e+03
1.169900781300000017e+04 -1.104556445300000087e+04 7.246019530999999915e+03
1.174876269499999944e+04 -1.107725097699999969e+04 7.288429199000000153e+03
1.173579687500000000e+04 -1.099217773400000078e+04 7.389369628999999804e+03
1.161839160199999969e+04 -1.112481250000000000e+04 7.342409668000000238e+03
1.174156738299999961e+04 -1.118090039099999922e+04 7.341693358999999873e+03
1.164059960900000078e+04 -1.103851367199999913e+04 7.315046875000000000e+03
1.169979003899999952e+04 -1.110091796900000008e+04 7.480862304999999651e+03
1.176542382800000087e+04 -1.114183007800000087e+04 7.364574706999999762e+03
1.172672070300000087e+04 -1.103613769499999944e+04 7.297543945000000349e+03
1.176479296900000008e+04 -1.112900585900000078e+04 7.332589844000000085e+03
1.164690039099999922e+04 -1.116755273400000078e+04 7.392483887000000323e+03
1.171489550799999961e+04 -1.098434081999999944e+04 7.361759277000000111e+03
1.173591406300000017e+04 -1.117226562500000000e+04 7.421688476999999693e+03
1.175199511700000039e+04 -1.116930371100000048e+04 7.345822266000000127e+03
1.168786230500000056e+04 -1.103542382800000087e+04 7.468806152000000111e+03
1.163220898400000078e+04 -1.108884472699999969e+04 7.255670898000000307e+03
1.173941992199999913e+04 -1.106508984400000008e+04 7.462848144999999931e+03
1.166655175799999961e+04 -1.108021386700000039e+04 7.477775391000000127e+03
1.162958007800000087e+04 -1.104672851599999922e+04 7.435030273000000307e+03
1.165795312500000000e+04 -1.119234960900000078e+04 7.284623534999999720e+03
1.165517871100000048e+04 -1.119164941399999952e+04 7.286600097999999889e+03
1.169509081999999944e+04 -1.117334960900000078e+04 7.260318847999999889e+03
1.163106445300000087e+04 -1.113969824200000039e+04 7.294219237999999677e+03
1.163259472699999969e+04 -1.116160156300000017e+04 7.303432128999999804e+03
1.174927636700000039e+04 -1.107752929699999913e+04 7.455143554999999651e+03
1.165825195300000087e+04 -1.107758398400000078e+04 7.473479492000000391e+03
1.164788281300000017e+04 -1.118474218800000017e+04 7.367113280999999915e+03
1.163283203099999992e+04 -1.116577929699999913e+04 7.310294434000000365e+03
1.165993750000000000e+04 -1.099011621100000048e+04 7.406311523000000307e+03
1.174894433600000048e+04 -1.103341308600000048e+04 7.439166016000000127e+03
1.178041406300000017e+04 -1.108830761700000039e+04 7.331356445000000349e+03
1.168635058600000048e+04 -1.121138964800000031e+04 7.362721190999999635e+03
1.163583203099999992e+04 -1.112468750000000000e+04 7.275228516000000127e+03
1.164520898400000078e+04 -1.113555273400000078e+04 7.238763672000000042e+03
1.168260644499999944e+04 -1.118195703099999992e+04 7.267091797000000042e+03
1.166248437500000000e+04 -1.100997168000000056e+04 7.444349608999999873e+03
1.168644140599999992e+04 -1.119006738299999961e+04 7.398257324000000153e+03
1.164452343800000017e+04 -1.106472168000000056e+04 7.462165527000000111e+03
1.177296679699999913e+04 -1.106285839800000031e+04 7.361414550999999847e+03
1.165574706999999944e+04 -1.118460546900000008e+04 7.282672851999999693e+03
1.177932617199999913e+04 -1.107006543000000056e+04 7.358142577999999958e+03
1.169782324200000039e+04 -1.122326855500000056e+04 7.305174804999999651e+03
1.170756347699999969e+04 -1.100646972699999969e+04 7.447882813000000169e+03
1.174706152300000031e+04 -1.107634765599999992e+04 7.242499023000000307e+03
1.166052539099999922e+04 -1.098974511700000039e+04 7.362211425999999847e+03
1.170079785199999969e+04 -1.117096875000000000e+04 7.253036621000000196e+03
1.173236425799999961e+04 -1.114223046900000008e+04 7.231449219000000085e+03
1.168571679699999913e+04 -1.097978222699999969e+04 7.373405762000000323e+03
1.177269140599999992e+04 -1.106794238299999961e+04 7.383043945000000349e+03
1.167139648400000078e+04 -1.098835839800000031e+04 7.347500000000000000e+03
1.176788476599999922e+04 -1.112761425799999961e+04 7.351345215000000280e+03
1.175784375000000000e+04 -1.103657714800000031e+04 7.334430175999999847e+03
1.162705371100000048e+04 -1.115421289099999922e+04 7.322275391000000127e+03
1.162623437500000000e+04 -1.103342187500000000e+04 7.414565918000000238e+03
1.176519628899999952e+04 -1.103138281300000017e+04 7.374067382999999609e+03
1.176796679699999913e+04 -1.111625781300000017e+04 7.392817871000000196e+03
1.173368945300000087e+04 -1.117445019499999944e+04 7.416007324000000153e+03
1.174575000000000000e+04 -1.107187500000000000e+04 7.236037108999999873e+03
1.171490625000000000e+04 -1.120313378899999952e+04 7.316943358999999873e+03
1.167555371100000048e+04 -1.120239453099999992e+04 7.319449219000000085e+03
1.170972363299999961e+04 -1.115442578099999992e+04 7.210998047000000042e+03
1.165227539099999922e+04 -1.116068750000000000e+04 7.441820313000000169e+03
1.173350683600000048e+04 -1.103673632800000087e+04 7.456232422000000042e+03
1.167152441399999952e+04 -1.117776953099999992e+04 7.408342773000000307e+03
1.165555078099999992e+04 -1.116613671900000008e+04 7.275062987999999677e+03
1.166868945300000087e+04 -1.119995312500000000e+04 7.335350585999999566e+03
1.177305859400000008e+04 -1.108012109400000008e+04 7.376422851999999693e+03
1.177239843800000017e+04 -1.109901269499999944e+04 7.389632813000000169e+03
1.171533007800000087e+04 -1.115335449200000039e+04 7.457688476999999693e+03
1.170701171900000008e+04 -1.102203613299999961e+04 7.460825195000000349e+03
1.168213867199999913e+04 -1.099632226599999922e+04 7.436240233999999873e+03
1.176618066399999952e+04 -1.105152441399999952e+04 7.413206543000000238e+03
1.174045312500000000e+04 -1.114627148400000078e+04 7.445463867000000391e+03
1.170297851599999922e+04 -1.122376953099999992e+04 7.297478516000000127e+03
1.166857031300000017e+04 -1.118106054699999913e+04 7.413263672000000042e+03
1.162159570300000087e+04 -1.109921875000000000e+04 7.310147949000000153e+03
1.173615625000000000e+04 -1.102856738299999961e+04 7.311333983999999873e+03
1.175137011700000039e+04 -1.101149706999999944e+04 7.355853516000000127e+03
1.169807031300000017e+04 -1.118322460900000078e+04 7.425676757999999609e+03
1.160983593800000017e+04 -1.109045410199999969e+04 7.343170898000000307e+03
1.172506640599999992e+04 -1.105237109400000008e+04 7.264098632999999609e+03
1.168620410199999969e+04 -1.122550488299999961e+04 7.295212891000000127e+03
1.161410156300000017e+04 -1.110358398400000078e+04 7.367456054999999651e+03
1.168349804699999913e+04 -1.098173535199999969e+04 7.402517577999999958e+03
1.160916992199999913e+04 -1.108288671900000008e+04 7.369554688000000169e+03
1.176638574200000039e+04 -1.113637695300000087e+04 7.368202148000000307e+03
1.176037402300000031e+04 -1.113666210900000078e+04 7.311340331999999762e+03
1.162337695300000087e+04 -1.115019726599999922e+04 7.369547851999999693e+03
1.161987890599999992e+04 -1.112492578099999992e+04 7.396794922000000042e+03
1.161755273400000078e+04 -1.112486621100000048e+04 7.376833983999999873e+03
1.166109375000000000e+04 -1.099837500000000000e+04 7.430121094000000085e+03
1.172623046900000008e+04 -1.105208593800000017e+04 7.255944335999999566e+03
1.162718750000000000e+04 -1.114927343800000017e+04 7.385889648000000307e+03
1.172171875000000000e+04 -1.114767773400000078e+04 7.209357422000000042e+03
1.175077929699999913e+04 -1.100720214800000031e+04 7.392662108999999873e+03
1.170615331999999944e+04 -1.104582324200000039e+04 7.254783690999999635e+03
1.168775000000000000e+04 -1.101232226599999922e+04 7.455450684000000365e+03
1.170953515599999992e+04 -1.114933789099999922e+04 7.462729492000000391e+03
1.163981738299999961e+04 -1.107386523400000078e+04 7.260402344000000085e+03
1.175417871100000048e+04 -1.109682324200000039e+04 7.270195313000000169e+03
1.164844628899999952e+04 -1.102226855500000056e+04 7.318209960999999566e+03
1.163117968800000017e+04 -1.113355956999999944e+04 7.437953125000000000e+03
1.167219726599999922e+04 -1.118206933600000048e+04 7.271649414000000434e+03
1.177208984400000008e+04 -1.110283789099999922e+04 7.378685547000000042e+03
1.162997363299999961e+04 -1.109501269499999944e+04 7.260259277000000111e+03
1.171014257800000087e+04 -1.119978906300000017e+04 7.370341309000000365e+03
1.169909570300000087e+04 -1.114468359400000008e+04 7.467308594000000085e+03
1.172596093800000017e+04 -1.098658203099999992e+04 7.392600585999999566e+03
1.173273339800000031e+04 -1.102645410199999969e+04 7.310557128999999804e+03
1.171098925799999961e+04 -1.117046679699999913e+04 7.402052733999999873e+03
1.176582617199999913e+04 -1.112521972699999969e+04 7.386373534999999720e+03
1.176612011700000039e+04 -1.112473730500000056e+04 7.335444824000000153e+03
1.161739257800000087e+04 -1.105829882800000087e+04 7.341681641000000127e+03
1.163101562500000000e+04 -1.102448144499999944e+04 7.342929688000000169e+03
1.171783203099999992e+04 -1.110972460900000078e+04 7.475565429999999651e+03
1.169910644499999944e+04 -1.103652148400000078e+04 7.291970702999999958e+03
1.164612597699999969e+04 -1.105905664099999922e+04 7.462816894999999931e+03
1.174710742199999913e+04 -1.116740918000000056e+04 7.295711425999999847e+03
1.170654882800000087e+04 -1.116648242199999913e+04 7.446448242000000391e+03
1.177224706999999944e+04 -1.106426757800000087e+04 7.386279297000000042e+03
1.163098242199999913e+04 -1.105972656300000017e+04 7.317082519999999931e+03
1.176799023400000078e+04 -1.112603222699999969e+04 7.373952148000000307e+03
1.172134277300000031e+04 -1.105040820300000087e+04 7.471174315999999635e+03
1.173486328099999992e+04 -1.117577343800000017e+04 7.378890625000000000e+03
1.174734081999999944e+04 -1.104373535199999969e+04 7.312824706999999762e+03
1.166826562500000000e+04 -1.114907421900000008e+04 7.462060059000000365e+03
1.168159960900000078e+04 -1.121378027300000031e+04 7.318784179999999651e+03
1.173495898400000078e+04 -1.105836035199999969e+04 7.279030273000000307e+03
1.168027929699999913e+04 -1.104580371100000048e+04 7.249490233999999873e+03
1.163098535199999969e+04 -1.112926367199999913e+04 7.440170898000000307e+03
1.168771875000000000e+04 -1.097957910199999969e+04 7.371694335999999566e+03
1.170874804699999913e+04 -1.108706640599999992e+04 7.481994628999999804e+03
1.171611523400000078e+04 -1.098892968800000017e+04 7.344991210999999566e+03
1.167949218800000017e+04 -1.105149609400000008e+04 7.475524414000000434e+03
1.160754687500000000e+04 -1.109566796900000008e+04 7.367593262000000323e+03
1.162656054699999913e+04 -1.102692187500000000e+04 7.406933594000000085e+03
1.160030468800000017e+04 -1.107755761700000039e+04 7.367973632999999609e+03
1.162083593800000017e+04 -1.105182421900000008e+04 7.337100585999999566e+03
1.161223242199999913e+04 -1.108644140599999992e+04 7.388923340000000280e+03
1.171754492199999913e+04 -1.103772460900000078e+04 7.292528809000000365e+03
1.160612793000000056e+04 -1.109469824200000039e+04 7.326229003999999804e+03
1.175091699200000039e+04 -1.111969238299999961e+04 7.264290039000000434e+03
1.176676367199999913e+04 -1.112129101599999922e+04 7.334501952999999958e+03
1.170051757800000087e+04 -1.117987988299999961e+04 7.431147460999999566e+03
1.162055664099999922e+04 -1.105394140599999992e+04 7.335881835999999566e+03
1.176196093800000017e+04 -1.114452831999999944e+04 7.342259766000000127e+03
1.169101953099999992e+04 -1.099883984400000008e+04 7.320081543000000238e+03
1.170009277300000031e+04 -1.120557910199999969e+04 7.356441894999999931e+03
1.178374902300000031e+04 -1.107694335900000078e+04 7.338031250000000000e+03
1.166011621100000048e+04 -1.117943652300000031e+04 7.423670409999999720e+03
1.162986914099999922e+04 -1.104633984400000008e+04 7.326266112999999677e+03
1.169275585900000078e+04 -1.121830859400000008e+04 7.363974608999999873e+03
1.171367773400000078e+04 -1.120160449200000039e+04 7.281579101999999693e+03
1.174791796900000008e+04 -1.105615918000000056e+04 7.453193358999999873e+03
1.169898535199999969e+04 -1.119991601599999922e+04 7.390076172000000042e+03
1.161524316399999952e+04 -1.111005078099999992e+04 7.391258789000000434e+03
1.173516308600000048e+04 -1.104970703099999992e+04 7.291716309000000365e+03
1.172841601599999922e+04 -1.111873730500000056e+04 7.469241699000000153e+03
1.163184765599999992e+04 -1.101205566399999952e+04 7.380008789000000434e+03
1.168414550799999961e+04 -1.115801367199999913e+04 7.211559570000000349e+03
1.176161718800000017e+04 -1.102927929699999913e+04 7.350635742000000391e+03
1.162935156300000017e+04 -1.110165820300000087e+04 7.262155273000000307e+03
1.167567187500000000e+04 -1.117875000000000000e+04 7.267677733999999873e+03
1.167276269499999944e+04 -1.101988378899999952e+04 7.306735351999999693e+03
1.175048730500000056e+04 -1.109602050799999961e+04 7.453723632999999609e+03
1.175504003899999952e+04 -1.115717871100000048e+04 7.308794922000000042e+03
1.165638085900000078e+04 -1.118590625000000000e+04 7.282844726999999693e+03
1.177074023400000078e+04 -1.105242578099999992e+04 7.377016601999999693e+03
1.170423535199999969e+04 -1.106830371100000048e+04 7.478963867000000391e+03
1.163206054699999913e+04 -1.104545507800000087e+04 7.438508789000000434e+03
1.173646777300000031e+04 -1.101350097699999969e+04 7.435771972999999889e+03
1.162484081999999944e+04 -1.103210156300000017e+04 7.408857909999999720e+03
1.166166210900000078e+04 -1.098724706999999944e+04 7.373650391000000127e+03
1.172598925799999961e+04 -1.102342187500000000e+04 7.455105469000000085e+03
1.161727636700000039e+04 -1.106485839800000031e+04 7.336619141000000127e+03
1.170361132800000087e+04 -1.120723535199999969e+04 7.378193358999999873e+03
1.178157421900000008e+04 -1.108173632800000087e+04 7.339650878999999804e+03
1.168306054699999913e+04 -1.116545996100000048e+04 7.232642577999999958e+03
1.176301171900000008e+04 -1.108443945300000087e+04 7.316500000000000000e+03
1.160291406300000017e+04 -1.108190136700000039e+04 7.355645019999999931e+03
1.168803027300000031e+04 -1.102336230500000056e+04 7.303414063000000169e+03
1.171519433600000048e+04 -1.098559277300000031e+04 7.356970215000000280e+03
1.176109765599999992e+04 -1.104462695300000087e+04 7.333940918000000238e+03
1.163369921900000008e+04 -1.117200585900000078e+04 7.366191405999999915e+03
1.163190918000000056e+04 -1.106397265599999992e+04 7.449410155999999915e+03
1.165497265599999992e+04 -1.119748242199999913e+04 7.296805175999999847e+03
1.162182031300000017e+04 -1.114528418000000056e+04 7.355781250000000000e+03
1.175292675799999961e+04 -1.101129296900000008e+04 7.397820800999999847e+03
1.174379785199999969e+04 -1.107186914099999922e+04 7.278331054999999651e+03
1.173338867199999913e+04 -1.099401953099999992e+04 7.357936523000000307e+03
1.173894043000000056e+04 -1.117554394499999944e+04 7.376279784999999720e+03
1.164337500000000000e+04 -1.100630761700000039e+04 7.416565429999999651e+03
1.166854882800000087e+04 -1.118312793000000056e+04 7.416741210999999566e+03
1.174288476599999922e+04 -1.110005273400000078e+04 7.460755858999999873e+03
1.176118261700000039e+04 -1.108598242199999913e+04 7.311464844000000085e+03
1.163387109400000008e+04 -1.108507617199999913e+04 7.248468750000000000e+03
1.166919628899999952e+04 -1.111497070300000087e+04 7.476314940999999635e+03
1.168358789099999922e+04 -1.101496484400000008e+04 7.309093750000000000e+03
1.170397070300000087e+04 -1.102306738299999961e+04 7.461670409999999720e+03
1.172447460900000078e+04 -1.119009863299999961e+04 7.351872070000000349e+03
1.174554101599999922e+04 -1.107880664099999922e+04 7.264080077999999958e+03
1.165944726599999922e+04 -1.116922851599999922e+04 7.436933105000000069e+03
1.164515039099999922e+04 -1.115383496100000048e+04 7.279536132999999609e+03
1.166772656300000017e+04 -1.117583203099999992e+04 7.434144043000000238e+03
1.171724023400000078e+04 -1.100693261700000039e+04 7.444802733999999873e+03
1.176718164099999922e+04 -1.110196484400000008e+04 7.316330565999999635e+03
1.175053125000000000e+04 -1.108894726599999922e+04 7.270758789000000434e+03
1.173153418000000056e+04 -1.115901269499999944e+04 7.441048340000000280e+03
1.174817773400000078e+04 -1.117200195300000087e+04 7.320324706999999762e+03
1.177324902300000031e+04 -1.107237695300000087e+04 7.369405273000000307e+03
1.164489257800000087e+04 -1.116356347699999969e+04 7.282860351999999693e+03
1.168644335900000078e+04 -1.098518945300000087e+04 7.416077637000000323e+03
1.173977148400000078e+04 -1.100879101599999922e+04 7.426399414000000434e+03
1.174202050799999961e+04 -1.107006445300000087e+04 7.259763184000000365e+03
1.160909668000000056e+04 -1.108968066399999952e+04 7.342326172000000042e+03
1.173429296900000008e+04 -1.114019921900000008e+04 7.219730469000000085e+03
1.161654785199999969e+04 -1.111116503899999952e+04 7.409084472999999889e+03
1.170429296900000008e+04 -1.121812695300000087e+04 7.287217773000000307e+03
1.175470214800000031e+04 -1.102368164099999922e+04 7.417787108999999873e+03
1.166861523400000078e+04 -1.117151171900000008e+04 7.393329590000000280e+03
1.174371679699999913e+04 -1.100183300799999961e+04 7.357570800999999847e+03
1.170674414099999922e+04 -1.118453515599999992e+04 7.385467773000000307e+03
1.162542675799999961e+04 -1.102240136700000039e+04 7.373581054999999651e+03
1.167025390599999992e+04 -1.098949414099999922e+04 7.344583983999999873e+03
1.163755078099999992e+04 -1.102192968800000017e+04 7.427276367000000391e+03
1.175360156300000017e+04 -1.116347558600000048e+04 7.331657715000000280e+03
1.174895410199999969e+04 -1.116701171900000008e+04 7.301419434000000365e+03
1.167204882800000087e+04 -1.115836425799999961e+04 7.232873047000000042e+03
1.169789062500000000e+04 -1.108039648400000078e+04 7.481796387000000323e+03
1.174298046900000008e+04 -1.118041601599999922e+04 7.355575684000000365e+03
1.168934863299999961e+04 -1.122267773400000078e+04 7.306238280999999915e+03
1.165801367199999913e+04 -1.113555956999999944e+04 7.465317382999999609e+03
1.170573828099999992e+04 -1.120658007800000087e+04 7.374772460999999566e+03
1.176069921900000008e+04 -1.111057617199999913e+04 7.303030273000000307e+03
1.163637890599999992e+04 -1.102250976599999922e+04 7.336585938000000169e+03
1.173155956999999944e+04 -1.099036328099999992e+04 7.367920898000000307e+03
1.170696093800000017e+04 -1.100616992199999913e+04 7.316451172000000042e+03
1.164485156300000017e+04 -1.117944531300000017e+04 7.292403809000000365e+03
1.167087011700000039e+04 -1.098608691399999952e+04 7.357548827999999958e+03
1.168473242199999913e+04 -1.104439941399999952e+04 7.267529297000000042e+03
1.162169531300000017e+04 -1.112944531300000017e+04 7.405753905999999915e+03
1.167586914099999922e+04 -1.104314453099999992e+04 7.277852539000000434e+03
1.166633886700000039e+04 -1.116358789099999922e+04 7.264250000000000000e+03
1.174820214800000031e+04 -1.108278320300000087e+04 7.274942382999999609e+03
1.177030956999999944e+04 -1.105931054699999913e+04 7.344868652000000111e+03
1.175493359400000008e+04 -1.110408593800000017e+04 7.258426757999999609e+03
1.164261425799999961e+04 -1.107116503899999952e+04 7.461344726999999693e+03
1.163725195300000087e+04 -1.100924609400000008e+04 7.404000487999999677e+03
1.174048925799999961e+04 -1.116708593800000017e+04 7.285375000000000000e+03
1.169538085900000078e+04 -1.097932812500000000e+04 7.379405762000000323e+03
1.169733203099999992e+04 -1.119175097699999969e+04 7.271758789000000434e+03
1.163740429699999913e+04 -1.112831054699999913e+04 7.275148925999999847e+03
1.163231445300000087e+04 -1.104610644499999944e+04 7.439390625000000000e+03
1.172451464800000031e+04 -1.101213378899999952e+04 7.446750976999999693e+03
1.168244140599999992e+04 -1.115628515599999992e+04 7.206910155999999915e+03
1.163611523400000078e+04 -1.117293750000000000e+04 7.370733398000000307e+03
1.174917382800000087e+04 -1.108624804699999913e+04 7.266994141000000127e+03
1.170590039099999922e+04 -1.106448632800000087e+04 7.478030762000000323e+03
1.164974511700000039e+04 -1.101483789099999922e+04 7.323530762000000323e+03
1.169041308600000048e+04 -1.100940527300000031e+04 7.312932617000000391e+03
1.163642187500000000e+04 -1.108113281300000017e+04 7.256447266000000127e+03
1.173626660199999969e+04 -1.115267773400000078e+04 7.276231445000000349e+03
1.166055956999999944e+04 -1.115211718800000017e+04 7.253691894999999931e+03
1.162089746100000048e+04 -1.113969531300000017e+04 7.349492188000000169e+03
1.162253613299999961e+04 -1.114969726599999922e+04 7.362213867000000391e+03
1.166638964800000031e+04 -1.116663964800000031e+04 7.266481445000000349e+03
1.168622851599999922e+04 -1.117015039099999922e+04 7.248873047000000042e+03
1.168597753899999952e+04 -1.115366406300000017e+04 7.461061523000000307e+03
1.168213378899999952e+04 -1.102231347699999969e+04 7.303909179999999651e+03
1.170649121100000048e+04 -1.120218359400000008e+04 7.375569335999999566e+03
1.166616406300000017e+04 -1.112335253899999952e+04 7.473233398000000307e+03
1.174719433600000048e+04 -1.116696484400000008e+04 7.295402831999999762e+03
1.175622363299999961e+04 -1.101744433600000048e+04 7.403579101999999693e+03
1.166947265599999992e+04 -1.117201757800000087e+04 7.266944335999999566e+03
1.178534765599999992e+04 -1.108462206999999944e+04 7.372081543000000238e+03
1.162369921900000008e+04 -1.110273632800000087e+04 7.303708007999999609e+03
1.162637988299999961e+04 -1.115271972699999969e+04 7.330878905999999915e+03
1.162608203099999992e+04 -1.110725585900000078e+04 7.440953125000000000e+03
1.169242089800000031e+04 -1.099977831999999944e+04 7.319446289000000434e+03
1.163480956999999944e+04 -1.108792285199999969e+04 7.272773438000000169e+03
1.164940625000000000e+04 -1.117304882800000087e+04 7.384269530999999915e+03
1.170277539099999922e+04 -1.117793652300000031e+04 7.264742675999999847e+03
1.160694824200000039e+04 -1.109273046900000008e+04 7.334438476999999693e+03
1.168356835900000078e+04 -1.113217578099999992e+04 7.472918456999999762e+03
1.172549804699999913e+04 -1.103466406300000017e+04 7.298386719000000085e+03
1.162562304699999913e+04 -1.112635156300000017e+04 7.304254882999999609e+03
1.171919335900000078e+04 -1.116049804699999913e+04 7.401628418000000238e+03
1.170186132800000087e+04 -1.118372460900000078e+04 7.421777344000000085e+03
1.167369140599999992e+04 -1.098283691399999952e+04 7.367727539000000434e+03
1.169526269499999944e+04 -1.101172168000000056e+04 7.311329590000000280e+03
1.162721581999999944e+04 -1.103880468800000017e+04 7.423185059000000365e+03
1.169686132800000087e+04 -1.117218164099999922e+04 7.251772949000000153e+03
1.171714355500000056e+04 -1.117337500000000000e+04 7.393870117000000391e+03
1.163470507800000087e+04 -1.116422363299999961e+04 7.298559081999999762e+03
1.172794140599999992e+04 -1.106767578099999992e+04 7.470774902000000111e+03
1.162939062500000000e+04 -1.110195507800000087e+04 7.267396483999999873e+03
1.172516308600000048e+04 -1.104777050799999961e+04 7.468303222999999889e+03
1.160988476599999922e+04 -1.110695117199999913e+04 7.322908202999999958e+03
1.166451953099999992e+04 -1.115495898400000078e+04 7.250109375000000000e+03
1.174650488299999961e+04 -1.105347460900000078e+04 7.306048340000000280e+03
1.165896581999999944e+04 -1.116446581999999944e+04 7.270721190999999635e+03
1.162466406300000017e+04 -1.111261035199999969e+04 7.436641112999999677e+03
1.172988476599999922e+04 -1.117021679699999913e+04 7.402394530999999915e+03
1.171957617199999913e+04 -1.100038378899999952e+04 7.436563476999999693e+03
1.161887890599999992e+04 -1.112075097699999969e+04 7.404496094000000085e+03
1.169283593800000017e+04 -1.118449023400000078e+04 7.415950684000000365e+03
1.163507519499999944e+04 -1.108254296900000008e+04 7.250079101999999693e+03
1.164081738299999961e+04 -1.118006738299999961e+04 7.329146972999999889e+03
1.176221484400000008e+04 -1.104527343800000017e+04 7.419458983999999873e+03
1.163173828099999992e+04 -1.101699804699999913e+04 7.405892577999999958e+03
1.176074804699999913e+04 -1.107503515599999992e+04 7.439875976999999693e+03
1.161877929699999913e+04 -1.113276953099999992e+04 7.352289550999999847e+03
1.163135937500000000e+04 -1.101654882800000087e+04 7.402673827999999958e+03
1.176139355500000056e+04 -1.102183398400000078e+04 7.381713378999999804e+03
1.171105859400000008e+04 -1.099646875000000000e+04 7.435433594000000085e+03
1.163695312500000000e+04 -1.117192675799999961e+04 7.301823242000000391e+03
