-2.370669841766357422e-01 3.492223322391510010e-01 -3.707251846790313721e-01
-2.393801212310791016e-01 3.216504752635955811e-01 -3.615073859691619873e-01
-2.470679879188537598e-01 3.374781906604766846e-01 -3.661661744117736816e-01
-4.452888667583465576e-01 -2.119517475366592407e-01 -2.357260584831237793e-01
-4.505344629287719727e-01 -1.912885904312133789e-01 -2.377999573945999146e-01
-4.535153806209564209e-01 -2.262712717056274414e-01 -2.342370897531509399e-01
-4.607132673263549805e-01 -2.088957726955413818e-01 -2.362739741802215576e-01
-6.756561994552612305e-02 3.252395987510681152e-01 -3.865517973899841309e-01
-7.205482572317123413e-02 3.399249613285064697e-01 -3.886370658874511719e-01
-8.110740035772323608e-02 3.093202710151672363e-01 -3.865305781364440918e-01
-8.588416874408721924e-02 3.236637711524963379e-01 -3.884633481502532959e-01
1.634764522314071655e-01 2.754749655723571777e-01 -4.054526090621948242e-01
1.515480428934097290e-01 2.939847111701965332e-01 -4.118685722351074219e-01
1.462737917900085449e-01 2.660903334617614746e-01 -3.998902738094329834e-01
1.337320208549499512e-01 2.850845754146575928e-01 -4.044981598854064941e-01
-8.100128918886184692e-02 -6.192902568727731705e-03 -3.285526335239410400e-01
-8.982902020215988159e-02 4.737255163490772247e-03 -3.299065232276916504e-01
-9.309707581996917725e-02 -1.740118488669395447e-02 -3.292756378650665283e-01
-1.018743813037872314e-01 -6.688099354505538940e-03 -3.302270472049713135e-01
-1.759985387325286865e-01 -3.742361664772033691e-01 3.288983404636383057e-01
-1.770534217357635498e-01 -3.524166643619537354e-01 3.288703858852386475e-01
-1.961075514554977417e-01 -3.861618041992187500e-01 3.313190042972564697e-01
-1.978006362915039062e-01 -3.650210797786712646e-01 3.316240906715393066e-01
-3.033130764961242676e-01 -4.683410525321960449e-01 -2.176511287689208984e-01
-3.214166760444641113e-01 -4.509388208389282227e-01 -2.172965854406356812e-01
-3.132646083831787109e-01 -4.759057462215423584e-01 -2.156544029712677002e-01
-3.298048079013824463e-01 -4.586994051933288574e-01 -2.155095636844635010e-01
3.321641385555267334e-01 -1.347239911556243896e-01 -1.282154917716979980e-01
3.376503288745880127e-01 -1.148514598608016968e-01 -1.336608678102493286e-01
3.194425404071807861e-01 -1.525480449199676514e-01 -1.101817190647125244e-01
3.264145553112030029e-01 -1.322974711656570435e-01 -1.145608574151992798e-01
-7.405602335929870605e-01 -1.907689422369003296e-01 -2.024892568588256836e-01
-7.407010793685913086e-01 -1.733564138412475586e-01 -2.015670537948608398e-01
-7.568337917327880859e-01 -2.005348652601242065e-01 -2.004811912775039673e-01
-7.590070962905883789e-01 -1.822196841239929199e-01 -1.999058127403259277e-01
9.477525018155574799e-03 -3.311953544616699219e-01 2.729067504405975342e-01
3.514123382046818733e-04 -3.124364316463470459e-01 2.733976542949676514e-01
-3.617745824158191681e-03 -3.444474935531616211e-01 2.792750895023345947e-01
-1.471021585166454315e-02 -3.257985115051269531e-01 2.804472744464874268e-01
-6.445372700691223145e-01 -1.178034618496894836e-01 -2.369021028280258179e-01
-6.591337323188781738e-01 -1.051152646541595459e-01 -2.417153865098953247e-01
-6.569451689720153809e-01 -1.270214617252349854e-01 -2.297391295433044434e-01
-6.689768433570861816e-01 -1.135772541165351868e-01 -2.340193539857864380e-01
-2.072721719741821289e-01 1.969897747039794922e-01 2.775307744741439819e-02
-2.020281851291656494e-01 2.057801932096481323e-01 2.232449688017368317e-02
-2.092025727033615112e-01 1.922418922185897827e-01 3.924657404422760010e-02
-2.025230675935745239e-01 2.020208984613418579e-01 3.526606783270835876e-02
-2.500575482845306396e-01 1.558332145214080811e-01 1.236223988234996796e-02
-2.390506118535995483e-01 1.691756546497344971e-01 7.508636452257633209e-03
-2.522455453872680664e-01 1.476341485977172852e-01 2.736678905785083771e-02
-2.408767789602279663e-01 1.617381721735000610e-01 2.240138873457908630e-02
-3.887898623943328857e-01 5.571303367614746094e-01 3.403813838958740234e-01
-4.235299527645111084e-01 5.980576872825622559e-01 3.407332301139831543e-01
-4.225134849548339844e-01 5.419912338256835938e-01 3.555234968662261963e-01
-4.555765688419342041e-01 5.852314233779907227e-01 3.544740676879882812e-01
-3.637041151523590088e-01 5.015720613300800323e-03 1.528483331203460693e-01
-3.683631420135498047e-01 8.179959841072559357e-03 1.394876241683959961e-01
-3.667249679565429688e-01 6.303610280156135559e-05 1.734468042850494385e-01
-3.717761635780334473e-01 2.793573774397373199e-03 1.578247100114822388e-01
4.833664894104003906e-01 -1.225912049412727356e-01 1.293698847293853760e-01
4.751398265361785889e-01 -1.053149476647377014e-01 1.284157782793045044e-01
4.700500965118408203e-01 -1.357330381870269775e-01 1.375731378793716431e-01
4.616231024265289307e-01 -1.184150353074073792e-01 1.364801377058029175e-01
1.862645298242568970e-01 2.141994088888168335e-01 1.914127916097640991e-01
1.875325292348861694e-01 2.392802387475967407e-01 1.868416666984558105e-01
1.683990359306335449e-01 1.968494653701782227e-01 2.000494897365570068e-01
1.703064441680908203e-01 2.243995517492294312e-01 1.948983073234558105e-01
-6.107987761497497559e-01 -4.141832888126373291e-02 1.226784810423851013e-01
-6.171908974647521973e-01 -4.632589593529701233e-02 1.028129383921623230e-01
-6.149323582649230957e-01 -5.010713264346122742e-02 1.482961624860763550e-01
-6.252699494361877441e-01 -5.644826591014862061e-02 1.268526166677474976e-01
-9.163386374711990356e-02 2.978205382823944092e-01 1.164251714944839478e-01
-9.036173671483993530e-02 3.071824610233306885e-01 9.492395073175430298e-02
-9.775026142597198486e-02 2.868895828723907471e-01 1.444098502397537231e-01
-9.339787065982818604e-02 2.985026538372039795e-01 1.240891516208648682e-01
3.922272473573684692e-02 3.935823142528533936e-01 -1.066538989543914795e-01
2.456607110798358917e-02 4.042105972766876221e-01 -1.116398423910140991e-01
3.893613815307617188e-02 3.961106836795806885e-01 -8.634687215089797974e-02
2.316912077367305756e-02 4.073697030544281006e-01 -9.075783938169479370e-02
-2.116494476795196533e-01 4.773755669593811035e-01 -4.071609079837799072e-01
-2.205472737550735474e-01 4.896024763584136963e-01 -4.090544879436492920e-01
-2.279279679059982300e-01 4.631932079792022705e-01 -4.015606343746185303e-01
-2.364165931940078735e-01 4.754427671432495117e-01 -4.030654430389404297e-01
5.352302789688110352e-01 -4.118142649531364441e-03 7.786577194929122925e-02
5.106354951858520508e-01 1.908411830663681030e-02 7.847500592470169067e-02
5.312277674674987793e-01 -8.453053422272205353e-03 9.990388154983520508e-02
5.068399906158447266e-01 1.707587949931621552e-02 9.674143791198730469e-02
1.080641672015190125e-01 -4.772918522357940674e-01 7.600760459899902344e-02
9.300596266984939575e-02 -4.859724938869476318e-01 6.375562399625778198e-02
1.034029126167297363e-01 -4.836198091506958008e-01 9.515494108200073242e-02
8.601555973291397095e-02 -4.919297099113464355e-01 8.299877494573593140e-02
-2.323701232671737671e-01 -2.281869500875473022e-01 -2.456172108650207520e-01
-2.366553544998168945e-01 -2.172451764345169067e-01 -2.465692311525344849e-01
-2.522127628326416016e-01 -2.340660989284515381e-01 -2.401465326547622681e-01
-2.564780414104461670e-01 -2.228661477565765381e-01 -2.416144609451293945e-01
2.684205770492553711e-02 -4.673626124858856201e-01 -8.908251300454139709e-03
3.438591212034225464e-02 -4.410145580768585205e-01 -9.082395583391189575e-03
1.154382433742284775e-02 -4.859210252761840820e-01 -1.841951045207679272e-03
1.687825098633766174e-02 -4.600671529769897461e-01 -2.721315948292613029e-03
-7.313529849052429199e-01 -9.501137584447860718e-02 -1.781074851751327515e-01
-7.408457994461059570e-01 -9.065101295709609985e-02 -1.843773126602172852e-01
-7.403845787048339844e-01 -1.033884510397911072e-01 -1.664931476116180420e-01
-7.437201142311096191e-01 -9.709385782480239868e-02 -1.713224202394485474e-01
-4.823161959648132324e-01 -4.491275548934936523e-02 -2.607414424419403076e-01
-4.956233799457550049e-01 -2.685122564435005188e-02 -2.684708237648010254e-01
-4.948090016841888428e-01 -5.980394780635833740e-02 -2.484354376792907715e-01
-5.074380636215209961e-01 -4.540728032588958740e-02 -2.560835480690002441e-01
3.427152708172798157e-02 -3.248169720172882080e-01 -2.765504121780395508e-01
2.718082256615161896e-02 -3.044535219669342041e-01 -2.784804701805114746e-01
2.072562463581562042e-02 -3.349318504333496094e-01 -2.746480405330657959e-01
1.402253471314907074e-02 -3.145867884159088135e-01 -2.765710055828094482e-01
-8.485761284828186035e-01 -1.416128128767013550e-01 -1.964879631996154785e-01
-8.557029962539672852e-01 -1.229534447193145752e-01 -2.002206444740295410e-01
-8.660382628440856934e-01 -1.559519022703170776e-01 -1.940389126539230347e-01
-8.750887513160705566e-01 -1.367888003587722778e-01 -1.979445219039916992e-01
-6.375018954277038574e-01 -1.075451970100402832e-01 3.359758555889129639e-01
-6.614627838134765625e-01 -9.077184647321701050e-02 3.256919682025909424e-01
-6.318143606185913086e-01 -1.075836420059204102e-01 3.615405559539794922e-01
-6.556481719017028809e-01 -9.075562655925750732e-02 3.503929674625396729e-01
3.619686961174011230e-01 9.609400480985641479e-02 1.528502553701400757e-01
3.512060642242431641e-01 1.150593087077140808e-01 1.533911973237991333e-01
3.455430865287780762e-01 8.991086483001708984e-02 1.576960533857345581e-01
3.362112641334533691e-01 1.086146160960197449e-01 1.581211835145950317e-01
-4.678686559200286865e-01 -7.307730615139007568e-02 1.495819073170423508e-02
-4.536974728107452393e-01 -5.478467419743537903e-02 3.246142528951168060e-03
-4.758028686046600342e-01 -8.008421957492828369e-02 3.323537483811378479e-02
-4.609941840171813965e-01 -6.172991171479225159e-02 2.297447063028812408e-02
4.739201664924621582e-01 -1.316197812557220459e-01 -3.848763704299926758e-01
4.656408727169036865e-01 -1.178394407033920288e-01 -3.863749802112579346e-01
4.662426412105560303e-01 -1.386178135871887207e-01 -3.799788951873779297e-01
4.599447846412658691e-01 -1.255992949008941650e-01 -3.814300298690795898e-01
-5.329676866531372070e-01 -1.101945266127586365e-01 -7.879622280597686768e-02
-5.310633778572082520e-01 -1.057766526937484741e-01 -9.413497895002365112e-02
-5.346029996871948242e-01 -1.201865896582603455e-01 -5.120769888162612915e-02
-5.239648818969726562e-01 -1.081925705075263977e-01 -6.506810337305068970e-02
-6.021353229880332947e-02 -5.065745711326599121e-01 -2.399124652147293091e-01
-7.095038890838623047e-02 -4.891478419303894043e-01 -2.409286350011825562e-01
-7.188602536916732788e-02 -5.147025585174560547e-01 -2.384925931692123413e-01
-8.246660977602005005e-02 -4.979706704616546631e-01 -2.392031848430633545e-01
-2.226889729499816895e-01 6.941572576761245728e-02 3.230786919593811035e-01
-2.280967235565185547e-01 8.268873393535614014e-02 3.212583065032958984e-01
-2.328602969646453857e-01 5.723388865590095520e-02 3.280257582664489746e-01
-2.391083389520645142e-01 7.022932171821594238e-02 3.254437744617462158e-01
5.724707618355751038e-02 3.480114340782165527e-01 -6.879201531410217285e-02
4.479900375008583069e-02 3.640267252922058105e-01 -7.019017636775970459e-02
5.630832165479660034e-02 3.479989171028137207e-01 -4.747226089239120483e-02
4.380357265472412109e-02 3.643837571144104004e-01 -4.938682168722152710e-02
-1.716224700212478638e-01 2.703938186168670654e-01 -1.458898037672042847e-01
-1.492294222116470337e-01 2.822914421558380127e-01 -1.476781517267227173e-01
-1.748071610927581787e-01 2.635931074619293213e-01 -1.298556029796600342e-01
-1.504672318696975708e-01 2.762389183044433594e-01 -1.299494504928588867e-01
-3.553388118743896484e-01 4.838395118713378906e-01 -3.967761993408203125e-01
-3.672484159469604492e-01 5.022318363189697266e-01 -4.023266732692718506e-01
-3.755584061145782471e-01 4.729625582695007324e-01 -3.887468576431274414e-01
-3.879505097866058350e-01 4.909883141517639160e-01 -3.939335942268371582e-01
-1.274853944778442383e-01 -3.480809628963470459e-01 3.253137171268463135e-01
-1.300568580627441406e-01 -3.269973397254943848e-01 3.267250955104827881e-01
-1.438887417316436768e-01 -3.548081815242767334e-01 3.274153470993041992e-01
-1.461111456155776978e-01 -3.347350656986236572e-01 3.284679353237152100e-01
-3.532334864139556885e-01 -4.288864731788635254e-01 9.833371639251708984e-02
-3.586910367012023926e-01 -4.023197591304779053e-01 9.855149686336517334e-02
-3.567277193069458008e-01 -4.301181137561798096e-01 1.114425361156463623e-01
-3.651446998119354248e-01 -4.077255427837371826e-01 1.110608875751495361e-01
-1.658966690301895142e-01 -5.165703222155570984e-02 3.070291876792907715e-01
-1.686542034149169922e-01 -3.064827807247638702e-02 3.061820268630981445e-01
-1.794176846742630005e-01 -6.043531745672225952e-02 3.085055947303771973e-01
-1.822629421949386597e-01 -4.101505875587463379e-02 3.081718981266021729e-01
-6.197590827941894531e-01 -2.510844767093658447e-01 -2.183130532503128052e-01
-6.296608448028564453e-01 -2.365537881851196289e-01 -2.192684262990951538e-01
-6.281614899635314941e-01 -2.588293850421905518e-01 -2.122466117143630981e-01
-6.382339000701904297e-01 -2.444194108247756958e-01 -2.133564054965972900e-01
-6.802915781736373901e-02 3.015987277030944824e-01 2.042309790849685669e-01
-6.195447593927383423e-02 3.130870163440704346e-01 2.000809311866760254e-01
-6.584262847900390625e-02 2.931747436523437500e-01 2.196818292140960693e-01
-5.999839678406715393e-02 3.041721880435943604e-01 2.161117047071456909e-01
1.894797384738922119e-01 -3.758266866207122803e-01 1.185785979032516479e-02
2.012697011232376099e-01 -3.593649268150329590e-01 8.421589620411396027e-03
1.893688440322875977e-01 -3.799465000629425049e-01 3.494733572006225586e-02
2.032652646303176880e-01 -3.633298277854919434e-01 3.224763274192810059e-02
-5.919826030731201172e-01 -2.081680893898010254e-01 1.071345210075378418e-01
-5.968581438064575195e-01 -1.944073289632797241e-01 1.035558506846427917e-01
-5.868992805480957031e-01 -2.086374461650848389e-01 1.253861188888549805e-01
-5.920274853706359863e-01 -1.964177340269088745e-01 1.210282519459724426e-01
-6.993543356657028198e-02 -6.801211237907409668e-01 -1.992764919996261597e-01
-8.421858400106430054e-02 -6.637388467788696289e-01 -2.019478976726531982e-01
-8.104655146598815918e-02 -6.921616792678833008e-01 -1.909788697957992554e-01
-9.564702212810516357e-02 -6.763011217117309570e-01 -1.939649879932403564e-01
-6.042295694351196289e-01 -1.945977658033370972e-02 -2.501068115234375000e-01
-6.164380908012390137e-01 -7.947823032736778259e-04 -2.561782598495483398e-01
-6.099724769592285156e-01 -3.621854633092880249e-02 -2.409816682338714600e-01
-6.238390803337097168e-01 -1.850268989801406860e-02 -2.455647140741348267e-01
-1.597684621810913086e-01 2.167947143316268921e-01 1.332516223192214966e-01
-1.553164571523666382e-01 2.291336953639984131e-01 1.273709684610366821e-01
-1.606075018644332886e-01 2.136008739471435547e-01 1.484558582305908203e-01
-1.641614884138107300e-01 2.193200290203094482e-01 1.410603821277618408e-01
2.664509713649749756e-01 -4.684086143970489502e-02 -3.717225193977355957e-01
2.575918734073638916e-01 -3.269464895129203796e-02 -3.733888864517211914e-01
2.540387809276580811e-01 -6.051521748304367065e-02 -3.686500787734985352e-01
2.441145181655883789e-01 -4.701055586338043213e-02 -3.709526658058166504e-01
-2.272334843873977661e-01 -1.042442023754119873e-02 -3.084404170513153076e-01
-2.349829226732254028e-01 2.623558510094881058e-03 -3.098046779632568359e-01
-2.372460961341857910e-01 -1.901610381901264191e-02 -3.080982565879821777e-01
-2.438641935586929321e-01 -4.885583184659481049e-03 -3.099212944507598877e-01
-2.447059154510498047e-01 -2.621209621429443359e-02 4.068255797028541565e-02
-2.442968785762786865e-01 7.293105125427246094e-03 4.366279020905494690e-02
-2.658449709415435791e-01 -3.618406131863594055e-02 4.673216119408607483e-02
-2.649854719638824463e-01 -2.926582470536231995e-03 4.954075440764427185e-02
-5.630922913551330566e-01 -3.816017210483551025e-01 -1.957092881202697754e-01
-5.736868977546691895e-01 -3.632998466491699219e-01 -1.992130577564239502e-01
-5.690180063247680664e-01 -3.906730413436889648e-01 -1.905105262994766235e-01
-5.796032547950744629e-01 -3.721432089805603027e-01 -1.939729005098342896e-01
8.976450562477111816e-02 -4.745903611183166504e-01 -6.874482147395610809e-03
9.250045567750930786e-02 -4.667878150939941406e-01 -1.589728519320487976e-02
8.646839857101440430e-02 -4.760622978210449219e-01 1.217569224536418915e-02
8.542156219482421875e-02 -4.749037623405456543e-01 8.577550761401653290e-04
-1.105646938085556030e-01 -1.209519952535629272e-01 -2.970565259456634521e-01
-1.267389357089996338e-01 -1.066926494240760803e-01 -2.998422682285308838e-01
-1.218924671411514282e-01 -1.332193017005920410e-01 -2.924916744232177734e-01
-1.357666701078414917e-01 -1.189402267336845398e-01 -2.955912053585052490e-01
-6.923217177391052246e-01 -8.772239089012145996e-03 -2.436401844024658203e-01
-7.024716138839721680e-01 8.654362522065639496e-03 -2.479213625192642212e-01
-6.948623061180114746e-01 -1.922129280865192413e-02 -2.386587709188461304e-01
-7.058988809585571289e-01 -2.474301494657993317e-03 -2.434292137622833252e-01
1.450193524360656738e-01 6.937421858310699463e-03 -6.313065439462661743e-02
1.360107958316802979e-01 2.570178359746932983e-02 -6.381227821111679077e-02
1.239648312330245972e-01 -1.102539151906967163e-02 -5.904098972678184509e-02
1.129908487200737000e-01 9.721886366605758667e-03 -5.975199490785598755e-02
-6.798520684242248535e-02 -4.298973083496093750e-01 -2.469711005687713623e-01
-7.302444428205490112e-02 -4.157891571521759033e-01 -2.501901984214782715e-01
-8.227170258760452271e-02 -4.400663077831268311e-01 -2.416663914918899536e-01
-8.825420588254928589e-02 -4.248278141021728516e-01 -2.446287572383880615e-01
1.487870514392852783e-01 -3.075067102909088135e-01 2.322845309972763062e-01
1.451170891523361206e-01 -2.886191308498382568e-01 2.332779467105865479e-01
1.339801102876663208e-01 -3.159532845020294189e-01 2.374552041292190552e-01
1.295969635248184204e-01 -2.979157567024230957e-01 2.382623404264450073e-01
-3.123506605625152588e-01 1.585487723350524902e-01 -3.364435434341430664e-01
-3.236253559589385986e-01 1.678646951913833618e-01 -3.380021750926971436e-01
-3.181978464126586914e-01 1.508360207080841064e-01 -3.308702409267425537e-01
-3.301669359207153320e-01 1.597232222557067871e-01 -3.328672945499420166e-01
1.508108973503112793e-01 1.658621132373809814e-01 -3.991090953350067139e-01
1.439178586006164551e-01 1.824131608009338379e-01 -4.028325080871582031e-01
1.407490223646163940e-01 1.526849418878555298e-01 -3.939825892448425293e-01
1.329313367605209351e-01 1.695306748151779175e-01 -3.974073231220245361e-01
-1.523051857948303223e-01 -4.216697812080383301e-01 4.174992442131042480e-02
-1.551449596881866455e-01 -3.983850777149200439e-01 4.085726290941238403e-02
-1.721075773239135742e-01 -4.389493763446807861e-01 4.450003057718276978e-02
-1.766014695167541504e-01 -4.164797663688659668e-01 4.367981851100921631e-02
2.919208705425262451e-01 -5.406102538108825684e-02 -1.146511882543563843e-01
2.877874970436096191e-01 -1.874673366546630859e-02 -1.154614314436912537e-01
2.740492820739746094e-01 -7.367505878210067749e-02 -1.093253865838050842e-01
2.664693295955657959e-01 -4.264174401760101318e-02 -1.101556420326232910e-01
1.283973604440689087e-01 2.510899901390075684e-01 -3.747496306896209717e-01
1.186235025525093079e-01 2.718881964683532715e-01 -3.763058185577392578e-01
1.024279147386550903e-01 2.399620860815048218e-01 -3.725462853908538818e-01
9.351388365030288696e-02 2.603403627872467041e-01 -3.732265830039978027e-01
-1.776165068149566650e-01 4.887051582336425781e-01 -3.683635592460632324e-01
-1.795545667409896851e-01 5.022266507148742676e-01 -3.700881302356719971e-01
-1.891618967056274414e-01 4.766410887241363525e-01 -3.635567724704742432e-01
-1.862829178571701050e-01 4.893764555454254150e-01 -3.640875816345214844e-01
3.811604380607604980e-01 3.348536789417266846e-02 -3.999749124050140381e-01
3.699765503406524658e-01 4.676703363656997681e-02 -4.009008109569549561e-01
3.656170368194580078e-01 2.373380586504936218e-02 -3.957309722900390625e-01
3.540896177291870117e-01 3.708159923553466797e-02 -3.967176377773284912e-01
2.625224180519580841e-02 -5.695538520812988281e-01 -2.353889495134353638e-01
1.885838620364665985e-02 -5.554299950599670410e-01 -2.381736338138580322e-01
7.951078005135059357e-03 -5.874351859092712402e-01 -2.332448661327362061e-01
1.688042189925909042e-03 -5.716987848281860352e-01 -2.366751879453659058e-01
2.323428839445114136e-01 -3.193626105785369873e-01 2.261869609355926514e-02
2.457387447357177734e-01 -2.999503314495086670e-01 1.965597458183765411e-02
2.295652031898498535e-01 -3.236954212188720703e-01 4.360901191830635071e-02
2.445017993450164795e-01 -3.063492178916931152e-01 4.121644422411918640e-02
-6.168577671051025391e-01 -1.631795763969421387e-01 -1.536857038736343384e-01
-6.293019652366638184e-01 -1.654882431030273438e-01 -1.715084612369537354e-01
-6.165294051170349121e-01 -1.696888059377670288e-01 -1.306597143411636353e-01
-6.292154192924499512e-01 -1.731270402669906616e-01 -1.513330638408660889e-01
3.208528459072113037e-02 4.229837656021118164e-01 -4.303016066551208496e-01
2.174593321979045868e-02 4.362584650516510010e-01 -4.306387305259704590e-01
1.765752211213111877e-02 4.160734415054321289e-01 -4.251244068145751953e-01
7.311246357858181000e-03 4.289554655551910400e-01 -4.257100522518157959e-01
-4.145029783248901367e-01 -1.269601136445999146e-01 -2.527346611022949219e-01
-4.193322360515594482e-01 -1.065865233540534973e-01 -2.565070092678070068e-01
-4.284066259860992432e-01 -1.402217000722885132e-01 -2.516346871852874756e-01
-4.342869520187377930e-01 -1.170894280076026917e-01 -2.549855411052703857e-01
-4.105424508452415466e-02 8.664583787322044373e-03 2.750876247882843018e-01
-5.144166201353073120e-02 2.520583197474479675e-02 2.748759388923645020e-01
-5.506190285086631775e-02 3.260484430938959122e-03 2.782290279865264893e-01
-6.315387040376663208e-02 2.066264674067497253e-02 2.768157720565795898e-01
-4.326986372470855713e-01 1.291650980710983276e-01 1.442794203758239746e-01
-4.272324442863464355e-01 1.400413215160369873e-01 1.413615494966506958e-01
-4.414495527744293213e-01 1.173879206180572510e-01 1.588284075260162354e-01
-4.334949254989624023e-01 1.289808452129364014e-01 1.564410030841827393e-01
-2.189386039972305298e-01 5.064393877983093262e-01 -4.076946377754211426e-01
-2.312346696853637695e-01 5.196177363395690918e-01 -4.098210036754608154e-01
-2.377885729074478149e-01 4.924694299697875977e-01 -4.050678610801696777e-01
-2.489303350448608398e-01 5.059409141540527344e-01 -4.068379402160644531e-01
-4.769358038902282715e-01 1.100501641631126404e-01 -2.957312464714050293e-01
-4.839192330837249756e-01 1.248752400279045105e-01 -2.969923019409179688e-01
-4.948042035102844238e-01 9.935113042593002319e-02 -2.948253452777862549e-01
-5.030538439750671387e-01 1.154927387833595276e-01 -2.955300807952880859e-01
-1.381109654903411865e-01 -7.592893242835998535e-01 -1.747604161500930786e-01
-1.458445191383361816e-01 -7.471000552177429199e-01 -1.793171465396881104e-01
-1.568971425294876099e-01 -7.657167315483093262e-01 -1.678063869476318359e-01
-1.670368164777755737e-01 -7.535055875778198242e-01 -1.718671321868896484e-01
2.196465246379375458e-02 2.361810207366943359e-01 -4.354590177536010742e-02
1.582369394600391388e-02 2.676567435264587402e-01 -4.380843043327331543e-02
-2.462386852130293846e-03 2.213536351919174194e-01 -4.072432592511177063e-02
-7.206501439213752747e-03 2.542193531990051270e-01 -4.044881835579872131e-02
-1.019070595502853394e-01 5.252541303634643555e-01 -1.474621295928955078e-01
-1.237242594361305237e-01 5.184494256973266602e-01 -1.458611935377120972e-01
-1.164433434605598450e-01 5.205759406089782715e-01 -1.359720379114151001e-01
-1.382605433464050293e-01 5.137712359428405762e-01 -1.343711018562316895e-01
3.274896442890167236e-01 -5.630362033843994141e-02 -1.171243041753768921e-01
3.244517743587493896e-01 -1.624520495533943176e-02 -1.173833832144737244e-01
3.084096908569335938e-01 -7.326943427324295044e-02 -1.120439618825912476e-01
3.050201833248138428e-01 -3.325872495770454407e-02 -1.123751997947692871e-01
-2.303595393896102905e-01 2.291645705699920654e-01 -2.491680681705474854e-01
-2.366844713687896729e-01 2.265941351652145386e-01 -2.628565430641174316e-01
-2.267225533723831177e-01 2.268787920475006104e-01 -2.325398623943328857e-01
-2.295464128255844116e-01 2.268129736185073853e-01 -2.445316463708877563e-01
-1.347673386335372925e-01 -6.927564740180969238e-01 -1.864147484302520752e-01
-1.466505676507949829e-01 -6.776993274688720703e-01 -1.898613572120666504e-01
-1.500536650419235229e-01 -7.095351815223693848e-01 -1.802878826856613159e-01
-1.596918702125549316e-01 -6.950495243072509766e-01 -1.837890446186065674e-01
6.740935891866683960e-02 -3.432474434375762939e-01 2.680246531963348389e-01
6.426981091499328613e-02 -3.223074674606323242e-01 2.686270773410797119e-01
5.123907700181007385e-02 -3.566018640995025635e-01 2.722351551055908203e-01
4.830964654684066772e-02 -3.360283374786376953e-01 2.723496854305267334e-01
-5.085727944970130920e-02 -2.449947595596313477e-01 3.801417537033557892e-03
-5.950794368982315063e-02 -2.210107594728469849e-01 4.812640603631734848e-03
-7.567077130079269409e-02 -2.507562339305877686e-01 8.743889629840850830e-03
-8.469115197658538818e-02 -2.280580401420593262e-01 9.915718808770179749e-03
-2.162021100521087646e-01 -1.215565055608749390e-01 -2.892590463161468506e-01
-2.235180884599685669e-01 -1.063662618398666382e-01 -2.917450070381164551e-01
-2.293108552694320679e-01 -1.349177509546279907e-01 -2.846688032150268555e-01
-2.366409003734588623e-01 -1.206641346216201782e-01 -2.861658036708831787e-01
-4.123264551162719727e-01 -5.216585006564855576e-03 7.781715691089630127e-02
-4.234237372875213623e-01 1.760316081345081329e-04 7.377050071954727173e-02
-4.130969643592834473e-01 -4.984365776181221008e-03 8.888339996337890625e-02
-4.234744310379028320e-01 2.685876097530126572e-04 8.323997259140014648e-02
-4.378542304039001465e-02 -4.823670387268066406e-01 -2.414480894804000854e-01
-5.150206759572029114e-02 -4.679563641548156738e-01 -2.430463135242462158e-01
-5.645162239670753479e-02 -4.918325841426849365e-01 -2.378955632448196411e-01
-6.583335250616073608e-02 -4.760091304779052734e-01 -2.390513271093368530e-01
3.816053271293640137e-01 1.492454260587692261e-01 1.438935697078704834e-01
3.688789308071136475e-01 1.659871190786361694e-01 1.454081833362579346e-01
3.730282783508300781e-01 1.409584879875183105e-01 1.562376022338867188e-01
3.610381186008453369e-01 1.577179729938507080e-01 1.571405231952667236e-01
-3.023013472557067871e-01 2.175666838884353638e-01 -3.387943804264068604e-01
-3.091069757938385010e-01 2.302871644496917725e-01 -3.416933119297027588e-01
-3.113767802715301514e-01 2.087518274784088135e-01 -3.320394754409790039e-01
-3.194579780101776123e-01 2.217481285333633423e-01 -3.347097635269165039e-01
-7.733378559350967407e-02 9.931650757789611816e-02 -3.495996892452239990e-01
-9.416405856609344482e-02 1.166562214493751526e-01 -3.506859540939331055e-01
-8.982440084218978882e-02 9.326162189245223999e-02 -3.466691374778747559e-01
-1.068093553185462952e-01 1.128263175487518311e-01 -3.473867774009704590e-01
-1.557700783014297485e-01 1.438722312450408936e-01 -3.535218536853790283e-01
-1.740687042474746704e-01 1.535344570875167847e-01 -3.529020547866821289e-01
-1.669948846101760864e-01 1.368296891450881958e-01 -3.500111401081085205e-01
-1.855486035346984863e-01 1.462395489215850830e-01 -3.497588634490966797e-01
-1.389535842463374138e-03 -3.191325366497039795e-01 -2.797590494155883789e-01
-8.965587243437767029e-03 -2.986606955528259277e-01 -2.801768481731414795e-01
-1.791016384959220886e-02 -3.262352049350738525e-01 -2.788263559341430664e-01
-2.427825517952442169e-02 -3.061551749706268311e-01 -2.791629731655120850e-01
-2.709684669971466064e-01 -1.337976157665252686e-01 3.349840641021728516e-01
-2.741164267063140869e-01 -1.079784780740737915e-01 3.348833322525024414e-01
-2.907774746417999268e-01 -1.495306640863418579e-01 3.406705856323242188e-01
-2.937701344490051270e-01 -1.239501163363456726e-01 3.405446708202362061e-01
2.972641289234161377e-01 -2.580240368843078613e-01 -3.263273537158966064e-01
2.863233685493469238e-01 -2.433087378740310669e-01 -3.281465768814086914e-01
2.855018079280853271e-01 -2.709952592849731445e-01 -3.252022862434387207e-01
2.752801775932312012e-01 -2.565834820270538330e-01 -3.275488018989562988e-01
3.155914843082427979e-01 4.013915359973907471e-02 1.769086420536041260e-01
3.112854957580566406e-01 6.001413613557815552e-02 1.765920966863632202e-01
3.006868064403533936e-01 2.767459675669670105e-02 1.793348789215087891e-01
2.947967350482940674e-01 4.720187932252883911e-02 1.801114678382873535e-01
-7.401577830314636230e-01 -9.720145165920257568e-02 -2.134879082441329956e-01
-7.558827996253967285e-01 -9.307844191789627075e-02 -2.180131226778030396e-01
-7.458682656288146973e-01 -1.064732521772384644e-01 -2.044527977705001831e-01
-7.601955533027648926e-01 -1.022458747029304504e-01 -2.092569470405578613e-01
-2.741725444793701172e-01 -4.499559402465820312e-01 -2.255839556455612183e-01
-2.885591089725494385e-01 -4.321246743202209473e-01 -2.267081886529922485e-01
-2.834353744983673096e-01 -4.577166736125946045e-01 -2.224012017250061035e-01
-3.010887205600738525e-01 -4.395562708377838135e-01 -2.226443737745285034e-01
-5.707411468029022217e-02 4.793805778026580811e-01 -5.736906081438064575e-02
-7.358451932668685913e-02 4.874730706214904785e-01 -6.688164174556732178e-02
-5.578223243355751038e-02 4.788578152656555176e-01 -3.532293066382408142e-02
-7.217969745397567749e-02 4.871452152729034424e-01 -4.476340487599372864e-02
-6.518179774284362793e-01 -3.002054095268249512e-01 -2.025009840726852417e-01
-6.606067419052124023e-01 -2.903475165367126465e-01 -2.052415609359741211e-01
-6.632141470909118652e-01 -3.057551085948944092e-01 -1.960728913545608521e-01
-6.718403697013854980e-01 -2.924765646457672119e-01 -1.985491961240768433e-01
-3.941420018672943115e-01 5.443966947495937347e-03 -2.908123731613159180e-01
-4.016744196414947510e-01 2.529837191104888916e-02 -2.931397855281829834e-01
-4.015115499496459961e-01 -5.275849252939224243e-03 -2.860674262046813965e-01
-4.088182151317596436e-01 1.441889442503452301e-02 -2.890587449073791504e-01
-5.284992456436157227e-01 -3.206903859972953796e-02 1.209452897310256958e-01
-5.329467058181762695e-01 -2.036930620670318604e-02 1.136793345212936401e-01
-5.411334633827209473e-01 -3.995538130402565002e-02 1.337756812572479248e-01
-5.470744967460632324e-01 -3.045625053346157074e-02 1.246318370103836060e-01
-1.781870275735855103e-01 1.178692281246185303e-02 -3.150991499423980713e-01
-1.858663558959960938e-01 2.518082410097122192e-02 -3.164222836494445801e-01
-1.869288384914398193e-01 -1.895502209663391113e-03 -3.128031790256500244e-01
-1.961496323347091675e-01 1.082671713083982468e-02 -3.139799237251281738e-01
2.409451007843017578e-01 1.075096353888511658e-01 -3.729503154754638672e-01
2.317762225866317749e-01 1.177871301770210266e-01 -3.763713240623474121e-01
2.253872454166412354e-01 9.576401114463806152e-02 -3.681346476078033447e-01
2.172154337167739868e-01 1.072358787059783936e-01 -3.708156049251556396e-01
6.589304655790328979e-03 3.744409084320068359e-01 -6.635754555463790894e-02
-1.061419211328029633e-02 3.806240856647491455e-01 -6.900607794523239136e-02
1.469203270971775055e-04 3.732125163078308105e-01 -5.157964676618576050e-02
-1.863102987408638000e-02 3.784163892269134521e-01 -5.418721586465835571e-02
-5.564622879028320312e-01 8.709274232387542725e-02 -2.510909438133239746e-01
-5.626984238624572754e-01 1.025910601019859314e-01 -2.554304599761962891e-01
-5.662439465522766113e-01 7.743234932422637939e-02 -2.467317432165145874e-01
-5.728400349617004395e-01 9.125229716300964355e-02 -2.513279914855957031e-01
-3.030015528202056885e-01 2.800399661064147949e-01 3.991219401359558105e-02
-2.956319749355316162e-01 2.927808165550231934e-01 4.122118651866912842e-02
-3.062450587749481201e-01 2.740277051925659180e-01 4.943049326539039612e-02
-2.987222373485565186e-01 2.868350744247436523e-01 5.061741545796394348e-02
2.260573059320449829e-01 -2.288870364427566528e-01 -3.223842084407806396e-01
2.197669297456741333e-01 -2.128442525863647461e-01 -3.231386244297027588e-01
2.071452289819717407e-01 -2.406203299760818481e-01 -3.234769105911254883e-01
2.011296451091766357e-01 -2.246922552585601807e-01 -3.244726955890655518e-01
3.061166107654571533e-01 -4.593273997306823730e-02 -3.717103898525238037e-01
2.996571063995361328e-01 -3.337578848004341125e-02 -3.739553093910217285e-01
2.888931035995483398e-01 -6.292812526226043701e-02 -3.680437803268432617e-01
2.824851572513580322e-01 -4.918915033340454102e-02 -3.696372807025909424e-01
-7.867511510848999023e-01 -7.465469837188720703e-02 -2.223903685808181763e-01
-7.954018712043762207e-01 -5.656724795699119568e-02 -2.280402183532714844e-01
-7.972812652587890625e-01 -8.938581496477127075e-02 -2.149648219347000122e-01
-8.060011863708496094e-01 -7.117010653018951416e-02 -2.200908809900283813e-01
-6.057747006416320801e-01 -5.292336270213127136e-02 1.481590420007705688e-01
-6.161122918128967285e-01 -5.926449596881866455e-02 1.267154961824417114e-01
-6.124904751777648926e-01 -6.202755495905876160e-02 1.716534495353698730e-01
-6.237962245941162109e-01 -6.931098550558090210e-02 1.505204737186431885e-01
-1.079813577234745026e-02 3.365121483802795410e-01 -4.030003547668457031e-01
-1.695676892995834351e-02 3.469438254833221436e-01 -4.053803384304046631e-01
-2.009635232388973236e-02 3.278802931308746338e-01 -3.996258676052093506e-01
-2.643064223229885101e-02 3.399978876113891602e-01 -4.013819098472595215e-01
-5.036861896514892578e-01 8.258223533630371094e-02 8.798862248659133911e-02
-4.929093718528747559e-01 9.542308747768402100e-02 8.642831444740295410e-02
-5.028656721115112305e-01 7.884310185909271240e-02 1.018328368663787842e-01
-4.922720491886138916e-01 9.158041328191757202e-02 1.003675833344459534e-01
-3.290204405784606934e-01 -2.823331952095031738e-01 -2.355132848024368286e-01
-3.390403091907501221e-01 -2.652356624603271484e-01 -2.370365411043167114e-01
-3.395478427410125732e-01 -2.921765446662902832e-01 -2.343238443136215210e-01
-3.497253656387329102e-01 -2.743274271488189697e-01 -2.362171262502670288e-01
-3.365522995591163635e-02 4.205867648124694824e-01 -2.467913031578063965e-01
-5.187497287988662720e-02 4.199795722961425781e-01 -2.472393959760665894e-01
-3.873778134584426880e-02 4.302709698677062988e-01 -2.242683470249176025e-01
-5.724998563528060913e-02 4.293220937252044678e-01 -2.250138372182846069e-01
2.775822281837463379e-01 1.374835669994354248e-01 1.735064387321472168e-01
2.761173844337463379e-01 1.555652767419815063e-01 1.729426681995391846e-01
2.608093619346618652e-01 1.254398822784423828e-01 1.772546023130416870e-01
2.581529319286346436e-01 1.441025882959365845e-01 1.771443784236907959e-01
-8.538611233234405518e-02 3.770433962345123291e-01 -4.534896835684776306e-02
-9.920987486839294434e-02 3.762684464454650879e-01 -5.495977774262428284e-02
-9.041868895292282104e-02 3.730158805847167969e-01 -2.564705908298492432e-02
-1.038978174328804016e-01 3.722018003463745117e-01 -3.520544618368148804e-02
3.738705068826675415e-02 1.001654267311096191e-01 -3.707786798477172852e-01
2.943949960172176361e-02 1.204773709177970886e-01 -3.764484524726867676e-01
2.591523341834545135e-02 8.499952405691146851e-02 -3.688211143016815186e-01
1.803334988653659821e-02 1.044034436345100403e-01 -3.743046522140502930e-01
1.370645612478256226e-01 -1.562453210353851318e-01 -3.256158232688903809e-01
1.256517767906188965e-01 -1.465172320604324341e-01 -3.278812468051910400e-01
1.209439411759376526e-01 -1.638418883085250854e-01 -3.253021538257598877e-01
1.097388043999671936e-01 -1.531320661306381226e-01 -3.274073004722595215e-01
4.326844587922096252e-02 -3.455388359725475311e-03 2.564958333969116211e-01
3.117287345230579376e-02 1.447170414030551910e-02 2.560189068317413330e-01
2.875304967164993286e-02 -1.395968627184629440e-02 2.628432512283325195e-01
1.598490774631500244e-02 4.193265922367572784e-03 2.624514698982238770e-01
-2.865935862064361572e-02 -2.981882095336914062e-01 2.906566560268402100e-01
-2.936549670994281769e-02 -2.741520404815673828e-01 2.904419600963592529e-01
-4.291227459907531738e-02 -3.112795352935791016e-01 2.957627475261688232e-01
-4.140665009617805481e-02 -2.868281006813049316e-01 2.953960895538330078e-01
-2.724563479423522949e-01 -6.002972126007080078e-01 -1.590161472558975220e-01
-2.783069908618927002e-01 -5.835949182510375977e-01 -1.625843793153762817e-01
-2.934626638889312744e-01 -6.123222112655639648e-01 -1.577462852001190186e-01
-2.982182800769805908e-01 -5.953143835067749023e-01 -1.603754162788391113e-01
-1.601914763450622559e-01 -5.875205397605895996e-01 3.402210474014282227e-01
-1.701063513755798340e-01 -5.695036649703979492e-01 3.393467366695404053e-01
-1.782352179288864136e-01 -5.929770469665527344e-01 3.445884883403778076e-01
-1.890725046396255493e-01 -5.749640464782714844e-01 3.440740406513214111e-01
-1.483942866325378418e-01 1.175751537084579468e-01 -3.428587317466735840e-01
-1.688097119331359863e-01 1.243561804294586182e-01 -3.417427539825439453e-01
-1.607110947370529175e-01 1.128775179386138916e-01 -3.415007293224334717e-01
-1.811783164739608765e-01 1.183415427803993225e-01 -3.399333953857421875e-01
5.417576525360345840e-03 -7.666756957769393921e-02 -3.003817498683929443e-01
-1.613764208741486073e-03 -6.155788898468017578e-02 -3.043567538261413574e-01
-1.027603168040513992e-03 -8.716465532779693604e-02 -2.924130856990814209e-01
-8.463597856462001801e-03 -7.311996817588806152e-02 -2.966946661472320557e-01
-2.095985710620880127e-01 3.762401640415191650e-01 5.275913327932357788e-02
-1.961065530776977539e-01 3.925908207893371582e-01 4.950205609202384949e-02
-2.166790962219238281e-01 3.680402934551239014e-01 7.264852523803710938e-02
-2.023971229791641235e-01 3.858723044395446777e-01 7.153270393610000610e-02
-1.767553091049194336e-01 -6.477500200271606445e-01 -1.815319359302520752e-01
-1.875292509794235229e-01 -6.371672153472900391e-01 -1.814728528261184692e-01
-1.891664564609527588e-01 -6.592348217964172363e-01 -1.792636662721633911e-01
-1.996694058179855347e-01 -6.486535668373107910e-01 -1.795911341905593872e-01
-5.924631282687187195e-02 -5.979896187782287598e-01 -1.231048256158828735e-01
-4.820030555129051208e-02 -5.769710540771484375e-01 -1.219217553734779358e-01
-5.627339333295822144e-02 -6.061164736747741699e-01 -1.001320555806159973e-01
-4.507457837462425232e-02 -5.844400525093078613e-01 -1.001590415835380554e-01
-2.420469075441360474e-01 -4.867893457412719727e-01 3.146499395370483398e-01
-2.488676011562347412e-01 -4.682955741882324219e-01 3.160138726234436035e-01
-2.667098939418792725e-01 -4.952535033226013184e-01 3.184845149517059326e-01
-2.752738595008850098e-01 -4.761289358139038086e-01 3.207955360412597656e-01
-6.460401415824890137e-01 -2.375229448080062866e-01 -3.440526500344276428e-02
-6.375572085380554199e-01 -2.154455482959747314e-01 -4.026045650243759155e-02
-6.420025229454040527e-01 -2.409060895442962646e-01 -9.375154040753841400e-03
-6.388652324676513672e-01 -2.221892178058624268e-01 -1.573980413377285004e-02
3.023639023303985596e-01 -2.258009165525436401e-01 -1.533075869083404541e-01
3.122611045837402344e-01 -2.132405191659927368e-01 -1.501060128211975098e-01
2.935115098953247070e-01 -2.334156036376953125e-01 -1.358809918165206909e-01
3.036037385463714600e-01 -2.196342796087265015e-01 -1.278425157070159912e-01
2.514308318495750427e-02 2.832600846886634827e-02 -4.513971135020256042e-02
2.025576494634151459e-02 5.053117871284484863e-02 -4.498296976089477539e-02
5.040246061980724335e-03 1.722721196711063385e-02 -4.152805358171463013e-02
6.432307418435811996e-04 4.010862857103347778e-02 -4.169020429253578186e-02
5.880649015307426453e-02 -3.524359464645385742e-01 -2.809400558471679688e-01
4.911951720714569092e-02 -3.290213644504547119e-01 -2.829984724521636963e-01
5.007901415228843689e-02 -3.617725670337677002e-01 -2.783344089984893799e-01
4.046445339918136597e-02 -3.392027318477630615e-01 -2.799714207649230957e-01
-1.275050193071365356e-01 -3.370727598667144775e-01 -2.536224722862243652e-01
-1.394695192575454712e-01 -3.293618857860565186e-01 -2.547014653682708740e-01
-1.367833465337753296e-01 -3.425754308700561523e-01 -2.534212768077850342e-01
-1.517845839262008667e-01 -3.374600708484649658e-01 -2.552441060543060303e-01
-1.143152043223381042e-01 -1.691274642944335938e-01 -2.934980094432830811e-01
-1.247827410697937012e-01 -1.548742651939392090e-01 -2.971516251564025879e-01
-1.299519836902618408e-01 -1.842012703418731689e-01 -2.900971472263336182e-01
-1.395440697669982910e-01 -1.688901036977767944e-01 -2.929141223430633545e-01
-2.421967387199401855e-01 2.171720713376998901e-01 -2.431601732969284058e-01
-2.382736951112747192e-01 2.221201956272125244e-01 -2.524776160717010498e-01
-2.420189976692199707e-01 2.141556143760681152e-01 -2.297042012214660645e-01
-2.336131334304809570e-01 2.224657535552978516e-01 -2.369917482137680054e-01
-2.906204946339130402e-02 -1.738393604755401611e-01 -6.029298529028892517e-03
-3.666014969348907471e-02 -1.470804363489151001e-01 -5.593043286353349686e-03
-5.321353673934936523e-02 -1.859020292758941650e-01 -1.022893236950039864e-03
-5.955391749739646912e-02 -1.597092002630233765e-01 -4.131412133574485779e-04
-2.176537215709686279e-01 -5.244619846343994141e-01 3.532964587211608887e-01
-2.217371910810470581e-01 -5.013124942779541016e-01 3.539907336235046387e-01
-2.322900444269180298e-01 -5.361545681953430176e-01 3.591587841510772705e-01
-2.364134937524795532e-01 -5.124742984771728516e-01 3.586549162864685059e-01
-4.749551415443420410e-01 2.444007694721221924e-01 -3.277925848960876465e-01
-4.838543832302093506e-01 2.583431601524353027e-01 -3.297355175018310547e-01
-4.871900975704193115e-01 2.380653619766235352e-01 -3.252546787261962891e-01
-4.958572089672088623e-01 2.510693371295928955e-01 -3.267653286457061768e-01
-3.576062917709350586e-01 5.218453332781791687e-02 -3.119306862354278564e-01
-3.655064404010772705e-01 6.800303608179092407e-02 -3.151204288005828857e-01
-3.701347708702087402e-01 4.098232090473175049e-02 -3.069859743118286133e-01
-3.784576654434204102e-01 5.860690027475357056e-02 -3.098505735397338867e-01
3.317207098007202148e-01 1.177027001976966858e-01 -1.494897902011871338e-01
3.209286332130432129e-01 1.383224576711654663e-01 -1.525810062885284424e-01
3.226799666881561279e-01 1.025724709033966064e-01 -1.355226039886474609e-01
3.120908439159393311e-01 1.232414543628692627e-01 -1.377609223127365112e-01
-3.320041298866271973e-02 -4.437010884284973145e-01 -2.397104203701019287e-01
-4.071351885795593262e-02 -4.277324974536895752e-01 -2.428882420063018799e-01
-4.525623098015785217e-02 -4.563497602939605713e-01 -2.370785176753997803e-01
-5.205405130982398987e-02 -4.409159719944000244e-01 -2.401593774557113647e-01
-3.618142306804656982e-01 3.164590299129486084e-01 -3.514041304588317871e-01
-3.684903681278228760e-01 3.300820291042327881e-01 -3.559431433677673340e-01
-3.659266233444213867e-01 3.043720424175262451e-01 -3.463875651359558105e-01
-3.711745142936706543e-01 3.187289237976074219e-01 -3.501232266426086426e-01
4.789307415485382080e-01 -1.584521681070327759e-02 -4.006420671939849854e-01
4.674082100391387939e-01 -1.375590451061725616e-03 -4.039636552333831787e-01
4.683836698532104492e-01 -2.225977927446365356e-02 -3.949864208698272705e-01
4.572857618331909180e-01 -8.039101958274841309e-03 -3.976992368698120117e-01
-1.079174131155014038e-01 -6.282679438591003418e-01 2.200580984354019165e-01
-1.311897188425064087e-01 -6.195926666259765625e-01 2.097875773906707764e-01
-1.163738146424293518e-01 -6.325659751892089844e-01 2.446109652519226074e-01
-1.374656409025192261e-01 -6.224942207336425781e-01 2.345793843269348145e-01
-1.601457297801971436e-01 3.295494019985198975e-01 -1.367102004587650299e-02
-1.685387194156646729e-01 3.297445774078369141e-01 -2.321942709386348724e-02
-1.585750132799148560e-01 3.207494914531707764e-01 -2.805352676659822464e-03
-1.669680029153823853e-01 3.209446668624877930e-01 -1.235375925898551941e-02
-3.971222639083862305e-01 -3.702242374420166016e-01 2.215248346328735352e-01
-4.246970117092132568e-01 -3.448179364204406738e-01 2.367450296878814697e-01
-3.972989022731781006e-01 -3.629824817180633545e-01 2.504816353321075439e-01
-4.253870248794555664e-01 -3.361290097236633301e-01 2.687815725803375244e-01
1.088658533990383148e-02 -4.564684033393859863e-01 -2.303314507007598877e-01
6.010004319250583649e-03 -4.416243731975555420e-01 -2.344913780689239502e-01
-6.475807167589664459e-03 -4.715754687786102295e-01 -2.232842594385147095e-01
-1.110384427011013031e-02 -4.553429186344146729e-01 -2.284275293350219727e-01
-3.995173275470733643e-01 -9.872064739465713501e-02 -2.435821890830993652e-01
-4.031877517700195312e-01 -7.996798306703567505e-02 -2.476590871810913086e-01
-4.158944189548492432e-01 -1.197788715362548828e-01 -2.399240583181381226e-01
-4.203279316425323486e-01 -9.903579950332641602e-02 -2.436854541301727295e-01
1.772639602422714233e-01 -2.476236075162887573e-01 2.317955642938613892e-01
1.780481338500976562e-01 -2.232479006052017212e-01 2.325655966997146606e-01
1.598838269710540771e-01 -2.566243410110473633e-01 2.341438978910446167e-01
1.598349362611770630e-01 -2.329624146223068237e-01 2.346545308828353882e-01
-6.028614640235900879e-01 8.219720423221588135e-02 -2.606020271778106689e-01
-6.129183769226074219e-01 9.598429501056671143e-02 -2.638036906719207764e-01
-6.151942014694213867e-01 7.175743579864501953e-02 -2.582779526710510254e-01
-6.258533596992492676e-01 8.466862142086029053e-02 -2.618600130081176758e-01
-4.100567195564508438e-03 -6.314253062009811401e-02 -3.171463608741760254e-01
-1.107710320502519608e-02 -4.940106719732284546e-02 -3.198738992214202881e-01
-1.328743062913417816e-02 -7.557736337184906006e-02 -3.133029043674468994e-01
-2.095871046185493469e-02 -6.280149519443511963e-02 -3.164241015911102295e-01
-9.641949087381362915e-02 -4.282494485378265381e-01 3.164306581020355225e-01
-1.035727262496948242e-01 -4.102850556373596191e-01 3.143104910850524902e-01
-1.082917898893356323e-01 -4.391615986824035645e-01 3.183758556842803955e-01
-1.172197461128234863e-01 -4.218134582042694092e-01 3.174847066402435303e-01
3.006956577301025391e-01 -1.003478541970252991e-01 -1.155376806855201721e-01
2.993296682834625244e-01 -6.479507684707641602e-02 -1.160673350095748901e-01
2.820672094821929932e-01 -1.164070069789886475e-01 -1.105206683278083801e-01
2.819706499576568604e-01 -8.246760070323944092e-02 -1.097881048917770386e-01
-2.007384598255157471e-01 2.779678106307983398e-01 -3.212506771087646484e-01
-2.154906988143920898e-01 2.706569433212280273e-01 -3.337472975254058838e-01
-2.039959877729415894e-01 2.714587152004241943e-01 -3.067920207977294922e-01
-2.188773006200790405e-01 2.635484635829925537e-01 -3.203245103359222412e-01
3.601576760411262512e-02 1.196934804320335388e-01 2.503983080387115479e-01
2.913463674485683441e-02 1.402846425771713257e-01 2.520987093448638916e-01
1.401457563042640686e-02 1.089923232793807983e-01 2.537904083728790283e-01
7.327394559979438782e-03 1.284776479005813599e-01 2.548590302467346191e-01
-2.578056156635284424e-01 -3.261479139328002930e-01 6.371639668941497803e-02
-2.655895352363586426e-01 -3.012026548385620117e-01 6.295559555292129517e-02
-2.770780026912689209e-01 -3.370782434940338135e-01 6.897480040788650513e-02
-2.849376797676086426e-01 -3.127392530441284180e-01 6.867533177137374878e-02
-4.442439973354339600e-01 -5.413590073585510254e-01 -1.854136735200881958e-01
-4.590840637683868408e-01 -5.273236632347106934e-01 -1.875760406255722046e-01
-4.582293927669525146e-01 -5.421245098114013672e-01 -1.805322319269180298e-01
-4.730694591999053955e-01 -5.280891656875610352e-01 -1.826945990324020386e-01
