-6.134667396545410156e-01 -2.837347984313964844e-01 4.681673645973205566e-02
-6.073015332221984863e-01 -2.713201940059661865e-01 4.491515457630157471e-02
1.171478480100631714e-01 8.178145438432693481e-02 1.561377048492431641e-01
1.133967638015747070e-01 9.221861511468887329e-02 1.536284387111663818e-01
1.089032143354415894e-01 7.141399383544921875e-02 1.614798605442047119e-01
1.047117263078689575e-01 8.205623179674148560e-02 1.590815186500549316e-01
2.094418108463287354e-01 -3.098123371601104736e-01 1.113461181521415710e-01
1.996028274297714233e-01 -3.070889115333557129e-01 1.095316782593727112e-01
2.100632488727569580e-01 -3.050278723239898682e-01 1.224334239959716797e-01
1.998950690031051636e-01 -3.015798628330230713e-01 1.213850080966949463e-01
5.396679788827896118e-02 -1.266650557518005371e-01 1.470543146133422852e-01
4.394871741533279419e-02 -1.160580441355705261e-01 1.437881439924240112e-01
6.451832503080368042e-02 -1.243083029985427856e-01 1.539146453142166138e-01
5.356276035308837891e-02 -1.143405884504318237e-01 1.508690714836120605e-01
-2.905314564704895020e-01 -9.816788882017135620e-02 5.490695685148239136e-02
-2.894429564476013184e-01 -8.483687788248062134e-02 5.356125906109809875e-02
-2.921636700630187988e-01 -1.021257042884826660e-01 6.835269927978515625e-02
-2.919786274433135986e-01 -8.751247823238372803e-02 6.917488574981689453e-02
-2.025899589061737061e-01 3.042834401130676270e-01 -1.241649985313415527e-01
-2.152321189641952515e-01 3.000417053699493408e-01 -1.219249367713928223e-01
-2.121705561876296997e-01 3.061999082565307617e-01 -1.119142174720764160e-01
-2.261334210634231567e-01 3.011336028575897217e-01 -1.105623766779899597e-01
-3.790848851203918457e-01 1.288577541708946228e-02 2.863954007625579834e-01
-3.744685351848602295e-01 2.561120130121707916e-02 2.972677350044250488e-01
-3.828016519546508789e-01 1.694602519273757935e-02 2.994865477085113525e-01
-3.770854771137237549e-01 2.976256608963012695e-02 3.054649829864501953e-01
-1.157555505633354187e-01 5.243665575981140137e-01 -2.051980234682559967e-03
-1.196256428956985474e-01 5.333350300788879395e-01 -9.184370748698711395e-03
-1.235623955726623535e-01 5.142631530761718750e-01 5.690068937838077545e-03
-1.297917515039443970e-01 5.236200094223022461e-01 -1.608615973964333534e-03
-3.986237943172454834e-01 -1.609159857034683228e-01 -1.176828593015670776e-01
-3.946194946765899658e-01 -1.459080576896667480e-01 -1.124870106577873230e-01
-4.086170196533203125e-01 -1.645712405443191528e-01 -1.179105862975120544e-01
-4.045368134975433350e-01 -1.492847204208374023e-01 -1.139274686574935913e-01
7.017651796340942383e-01 -4.920954704284667969e-01 -1.037974581122398376e-01
7.055293917655944824e-01 -4.832409024238586426e-01 -9.865300357341766357e-02
6.928144097328186035e-01 -4.927015006542205811e-01 -9.104409068822860718e-02
6.964955925941467285e-01 -4.831475615501403809e-01 -8.529411256313323975e-02
1.145921275019645691e-01 5.103132128715515137e-01 -1.748941242694854736e-01
1.015735715627670288e-01 5.109751224517822266e-01 -1.774774491786956787e-01
1.087400093674659729e-01 5.065215826034545898e-01 -1.674102991819381714e-01
9.624067693948745728e-02 5.076403617858886719e-01 -1.710593700408935547e-01
-3.205696940422058105e-01 2.321163564920425415e-01 -6.470132619142532349e-02
-3.113718628883361816e-01 2.432912141084671021e-01 -6.448696553707122803e-02
-3.276050090789794922e-01 2.312108576297760010e-01 -4.903967678546905518e-02
-3.173872232437133789e-01 2.423816472291946411e-01 -4.952878504991531372e-02
4.342692494392395020e-01 6.174684315919876099e-02 8.882659673690795898e-02
4.231751263141632080e-01 6.224914267659187317e-02 8.667942881584167480e-02
4.236581325531005859e-01 5.881353840231895447e-02 9.222472459077835083e-02
4.119148254394531250e-01 5.781497806310653687e-02 8.872109651565551758e-02
4.014090299606323242e-01 -1.854440756142139435e-02 7.451627403497695923e-02
3.907195627689361572e-01 -5.743263754993677139e-03 7.462449371814727783e-02
4.049659967422485352e-01 -1.838648691773414612e-02 7.813419401645660400e-02
3.952227532863616943e-01 -5.087004043161869049e-03 7.790965586900711060e-02
3.575896024703979492e-01 -2.823863923549652100e-01 1.199999377131462097e-01
3.608990311622619629e-01 -2.775552570819854736e-01 1.253941655158996582e-01
3.483109474182128906e-01 -2.812535166740417480e-01 1.306366771459579468e-01
3.513781428337097168e-01 -2.757953703403472900e-01 1.360187977552413940e-01
-3.718032836914062500e-01 -2.490932643413543701e-01 -2.471703737974166870e-01
-3.813042938709259033e-01 -2.531032860279083252e-01 -2.557670176029205322e-01
-3.741061389446258545e-01 -2.521064281463623047e-01 -2.341900169849395752e-01
-3.833394646644592285e-01 -2.556449770927429199e-01 -2.428122609853744507e-01
5.568298697471618652e-01 1.161683946847915649e-01 -9.928315877914428711e-02
5.475966930389404297e-01 1.146915555000305176e-01 -1.070802435278892517e-01
5.514244437217712402e-01 1.088034361600875854e-01 -9.172658622264862061e-02
5.419318675994873047e-01 1.071793884038925171e-01 -9.928353875875473022e-02
-4.668269753456115723e-01 -5.349536985158920288e-02 1.228418201208114624e-01
-4.734097719192504883e-01 -5.183150246739387512e-02 1.144793704152107239e-01
-4.657519161701202393e-01 -6.252931803464889526e-02 1.303847730159759521e-01
-4.738401174545288086e-01 -6.153710559010505676e-02 1.219745799899101257e-01
-5.934638977050781250e-01 -3.376296162605285645e-01 1.326466910541057587e-02
-5.941677093505859375e-01 -3.235387802124023438e-01 1.341194566339254379e-02
-6.091579198837280273e-01 -3.374362289905548096e-01 2.187509462237358093e-02
-6.092181801795959473e-01 -3.231371939182281494e-01 2.160273678600788116e-02
1.971153318881988525e-01 1.089328899979591370e-01 -5.823986232280731201e-02
1.886856108903884888e-01 1.164848655462265015e-01 -6.494631618261337280e-02
2.023229598999023438e-01 1.073520481586456299e-01 -4.604324325919151306e-02
1.938276588916778564e-01 1.153920367360115051e-01 -5.307554826140403748e-02
-2.081768214702606201e-01 -3.255452215671539307e-02 2.677047438919544220e-02
-2.190327644348144531e-01 -2.948512509465217590e-02 2.492556534707546234e-02
-2.054865360260009766e-01 -2.741803973913192749e-02 3.802205622196197510e-02
-2.162969857454299927e-01 -2.420471236109733582e-02 3.676577284932136536e-02
-3.741399347782135010e-01 -2.371018677949905396e-01 -1.747135668992996216e-01
-3.751263320446014404e-01 -2.313978970050811768e-01 -1.808541566133499146e-01
-3.737607896327972412e-01 -2.382180988788604736e-01 -1.599317342042922974e-01
-3.740259706974029541e-01 -2.333956509828567505e-01 -1.665743291378021240e-01
-4.518017768859863281e-01 -2.960958480834960938e-01 6.555496156215667725e-02
-4.551301896572113037e-01 -2.983295321464538574e-01 5.828287452459335327e-02
-4.568161070346832275e-01 -2.990182042121887207e-01 7.582594454288482666e-02
-4.560214877128601074e-01 -2.966563105583190918e-01 7.034400105476379395e-02
3.891428411006927490e-01 -1.308391094207763672e-01 1.824979931116104126e-01
3.814248442649841309e-01 -1.179050654172897339e-01 1.866302639245986938e-01
3.796315193176269531e-01 -1.337739676237106323e-01 1.884861141443252563e-01
3.720277249813079834e-01 -1.213459968566894531e-01 1.926474273204803467e-01
-1.640095412731170654e-01 1.902781873941421509e-01 -1.982905864715576172e-01
-1.667621582746505737e-01 2.008488476276397705e-01 -1.965533643960952759e-01
-1.742334663867950439e-01 1.862170547246932983e-01 -1.982487440109252930e-01
-1.769209951162338257e-01 1.969264000654220581e-01 -1.963412463665008545e-01
3.867833018302917480e-01 -2.425163388252258301e-01 1.416228115558624268e-01
3.940511345863342285e-01 -2.332284152507781982e-01 1.447282880544662476e-01
3.746473491191864014e-01 -2.445835620164871216e-01 1.508874297142028809e-01
3.818962872028350830e-01 -2.352963835000991821e-01 1.543695777654647827e-01
-2.926448583602905273e-01 -1.287790685892105103e-01 -6.864838302135467529e-03
-2.913247942924499512e-01 -1.175891011953353882e-01 -5.395304411649703979e-03
-2.951592803001403809e-01 -1.293805986642837524e-01 3.001516219228506088e-03
-2.942135035991668701e-01 -1.189319565892219543e-01 4.419878590852022171e-03
5.163917541503906250e-01 1.812978237867355347e-01 6.359041482210159302e-02
5.139690041542053223e-01 1.988637298345565796e-01 5.933926254510879517e-02
5.171582698822021484e-01 1.734390556812286377e-01 7.475183159112930298e-02
5.150746107101440430e-01 1.910942494869232178e-01 7.057639956474304199e-02
3.919031620025634766e-01 -5.424759909510612488e-02 5.563961341977119446e-02
3.800806701183319092e-01 -4.585119709372520447e-02 5.121458321809768677e-02
3.977316319942474365e-01 -5.173608288168907166e-02 6.326198577880859375e-02
3.840478360652923584e-01 -4.173240810632705688e-02 6.036831066012382507e-02
-2.751808054745197296e-02 5.928647518157958984e-01 -2.182403020560741425e-02
-3.055742941796779633e-02 6.060116291046142578e-01 -2.112216874957084656e-02
-3.665014356374740601e-02 5.841096639633178711e-01 -1.718820258975028992e-02
-4.024104401469230652e-02 5.968260169029235840e-01 -1.749506220221519470e-02
3.308404684066772461e-01 -2.202609628438949585e-01 -1.038824021816253662e-01
3.178106844425201416e-01 -2.102341204881668091e-01 -1.101788878440856934e-01
3.237746059894561768e-01 -2.314223200082778931e-01 -9.987178444862365723e-02
3.129633367061614990e-01 -2.222567498683929443e-01 -1.060591861605644226e-01
-1.054920777678489685e-01 -5.805956199765205383e-02 6.969754397869110107e-02
-1.194601505994796753e-01 -4.968946427106857300e-02 6.707144528627395630e-02
-9.962828457355499268e-02 -5.190692096948623657e-02 7.899475097656250000e-02
-1.139262542128562927e-01 -4.243820905685424805e-02 7.725816965103149414e-02
3.778421282768249512e-01 -2.889720499515533447e-01 2.463603019714355469e-02
3.744011521339416504e-01 -2.872617542743682861e-01 1.557288691401481628e-02
3.704397976398468018e-01 -2.940311729907989502e-01 3.789291158318519592e-02
3.670703470706939697e-01 -2.923183143138885498e-01 2.910220436751842499e-02
7.079855203628540039e-01 2.974750697612762451e-01 -1.197827756404876709e-01
7.047044634819030762e-01 3.061850965023040771e-01 -1.206063106656074524e-01
7.004202008247375488e-01 2.887295484542846680e-01 -1.135612353682518005e-01
6.971184611320495605e-01 2.980324625968933105e-01 -1.147387176752090454e-01
-5.349662527441978455e-02 4.098375141620635986e-01 2.006708644330501556e-02
-5.671172216534614563e-02 4.217741489410400391e-01 1.512861624360084534e-02
-6.184039637446403503e-02 4.038577079772949219e-01 3.129493817687034607e-02
-6.500050425529479980e-02 4.160416722297668457e-01 2.589067444205284119e-02
3.417868912220001221e-01 -7.810871303081512451e-02 1.998006552457809448e-01
3.309095203876495361e-01 -6.372985988855361938e-02 1.987099647521972656e-01
3.318571746349334717e-01 -8.378632366657257080e-02 2.035004943609237671e-01
3.205012679100036621e-01 -7.014856487512588501e-02 2.017721086740493774e-01
-1.948805451393127441e-01 -2.249619457870721817e-03 6.897101551294326782e-02
-2.065206766128540039e-01 3.014242975041270256e-03 7.028313726186752319e-02
-1.937241703271865845e-01 9.849732741713523865e-03 7.714152336120605469e-02
-2.062059342861175537e-01 1.515352353453636169e-02 7.832434028387069702e-02
-3.190025389194488525e-01 -4.623763263225555420e-03 2.812948524951934814e-01
-3.227006196975708008e-01 4.893385339528322220e-03 2.818607091903686523e-01
-3.143229186534881592e-01 -3.718724474310874939e-04 2.882170379161834717e-01
-3.184338808059692383e-01 1.029155962169170380e-02 2.894361317157745361e-01
4.446116983890533447e-01 -2.098451554775238037e-02 1.443250924348831177e-01
4.485453069210052490e-01 -6.922627799212932587e-03 1.472497880458831787e-01
4.337504506111145020e-01 -2.403182163834571838e-02 1.490622907876968384e-01
4.371894896030426025e-01 -1.054552569985389709e-02 1.509919017553329468e-01
-1.185664087533950806e-01 1.513595134019851685e-02 1.054589226841926575e-01
-1.327530890703201294e-01 2.181171253323554993e-02 1.002278178930282593e-01
-1.088362634181976318e-01 1.987406983971595764e-02 1.126324385404586792e-01
-1.215031743049621582e-01 2.807759866118431091e-02 1.084448099136352539e-01
-2.714306414127349854e-01 -7.278948556631803513e-03 -7.520724087953567505e-02
-2.826030552387237549e-01 -3.528559580445289612e-03 -8.053796738386154175e-02
-2.745314836502075195e-01 -9.546831250190734863e-03 -6.770307570695877075e-02
-2.838049829006195068e-01 -4.963000304996967316e-03 -7.296994328498840332e-02
-3.483545184135437012e-01 5.236088484525680542e-02 -1.063318476080894470e-01
-3.454405367374420166e-01 6.640921533107757568e-02 -1.059374585747718811e-01
-3.587731719017028809e-01 4.617902636528015137e-02 -1.042641848325729370e-01
-3.569670319557189941e-01 6.016260385513305664e-02 -1.036163344979286194e-01
1.354352682828903198e-01 -1.444391161203384399e-01 -1.096550598740577698e-01
1.346459984779357910e-01 -1.253288984298706055e-01 -1.164574101567268372e-01
1.241565272212028503e-01 -1.580555737018585205e-01 -1.042131111025810242e-01
1.226117312908172607e-01 -1.381624937057495117e-01 -1.121069639921188354e-01
-4.952902495861053467e-01 -2.764401137828826904e-01 9.983569383621215820e-02
-5.004969239234924316e-01 -2.646519839763641357e-01 1.002109423279762268e-01
-5.027623176574707031e-01 -2.751452922821044922e-01 1.054884567856788635e-01
-5.082051157951354980e-01 -2.641501724720001221e-01 1.054266765713691711e-01
1.013279631733894348e-01 -2.239878922700881958e-01 1.441662460565567017e-01
9.335510432720184326e-02 -2.128718495368957520e-01 1.445747166872024536e-01
1.079409569501876831e-01 -2.195699214935302734e-01 1.542873382568359375e-01
9.980710595846176147e-02 -2.077278643846511841e-01 1.550423353910446167e-01
1.629475951194763184e-01 -1.388668417930603027e-01 2.023028284311294556e-01
1.457191854715347290e-01 -1.296225190162658691e-01 1.981603503227233887e-01
1.576302647590637207e-01 -1.495170295238494873e-01 2.014748305082321167e-01
1.405728310346603394e-01 -1.396543234586715698e-01 1.973742693662643433e-01
1.483776569366455078e-01 4.613935947418212891e-02 1.523742973804473877e-01
1.440422087907791138e-01 5.840230733156204224e-02 1.502766609191894531e-01
1.394391357898712158e-01 3.760597109794616699e-02 1.575811654329299927e-01
1.352955251932144165e-01 5.201864987611770630e-02 1.557347178459167480e-01
6.544724106788635254e-01 -5.140612125396728516e-01 -1.293578445911407471e-01
6.509429216384887695e-01 -5.052289962768554688e-01 -1.338201165199279785e-01
6.506139636039733887e-01 -5.179296731948852539e-01 -1.219826340675354004e-01
6.474736928939819336e-01 -5.087402462959289551e-01 -1.263985186815261841e-01
2.452283650636672974e-01 4.078184068202972412e-02 1.035410631448030472e-02
2.388569712638854980e-01 5.001578480005264282e-02 6.133299786597490311e-03
2.486275732517242432e-01 4.139431565999984741e-02 2.470727637410163879e-02
2.423295080661773682e-01 4.955650493502616882e-02 1.939285732805728912e-02
-3.434324637055397034e-02 6.526208519935607910e-01 -3.127305954694747925e-02
-3.089791908860206604e-02 6.631365418434143066e-01 -3.292426466941833496e-02
-4.406502470374107361e-02 6.450772285461425781e-01 -2.605971693992614746e-02
-4.053387418389320374e-02 6.562896370887756348e-01 -2.622643485665321350e-02
-5.304020047187805176e-01 -4.027062356472015381e-01 7.289838045835494995e-02
-5.424551963806152344e-01 -4.033319950103759766e-01 7.132777571678161621e-02
-5.367397069931030273e-01 -3.971593081951141357e-01 8.156683295965194702e-02
-5.492689013481140137e-01 -3.980892002582550049e-01 8.060757070779800415e-02
3.403608500957489014e-01 -2.931507527828216553e-01 -2.420591935515403748e-02
3.276437520980834961e-01 -2.952324450016021729e-01 -3.214843943715095520e-02
3.430690169334411621e-01 -2.978518009185791016e-01 -1.360725797712802887e-02
3.300174176692962646e-01 -3.002581596374511719e-01 -2.101544477045536041e-02
1.331215351819992065e-01 1.675911545753479004e-01 7.711955904960632324e-02
1.280403435230255127e-01 1.741563379764556885e-01 7.466883212327957153e-02
1.296901106834411621e-01 1.643006801605224609e-01 8.799562603235244751e-02
1.245883032679557800e-01 1.709032654762268066e-01 8.456414192914962769e-02
-6.170395761728286743e-02 4.342834651470184326e-01 -1.889389157295227051e-01
-5.844838917255401611e-02 4.456416368484497070e-01 -1.848083436489105225e-01
-7.079052180051803589e-02 4.370173215866088867e-01 -1.810919195413589478e-01
-6.730030477046966553e-02 4.482819736003875732e-01 -1.777880042791366577e-01
2.388584166765213013e-01 1.860149018466472626e-02 -7.289575040340423584e-02
2.284193038940429688e-01 2.879902720451354980e-02 -7.329089194536209106e-02
2.421412169933319092e-01 2.257342822849750519e-02 -6.228688731789588928e-02
2.317631244659423828e-01 3.297366574406623840e-02 -6.272652000188827515e-02
-3.369302749633789062e-01 -1.870608478784561157e-01 1.440472900867462158e-01
-3.310679793357849121e-01 -1.730502098798751831e-01 1.417322456836700439e-01
-3.461778461933135986e-01 -1.934203654527664185e-01 1.536709368228912354e-01
-3.397428989410400391e-01 -1.796322017908096313e-01 1.521649062633514404e-01
2.734416723251342773e-01 -1.973831057548522949e-01 2.093308418989181519e-01
2.695280015468597412e-01 -1.838309317827224731e-01 2.132039070129394531e-01
2.554040849208831787e-01 -1.926631182432174683e-01 2.091407030820846558e-01
2.526372075080871582e-01 -1.780654788017272949e-01 2.129327505826950073e-01
1.142712980508804321e-01 -2.240659743547439575e-01 -7.926481217145919800e-02
1.112858280539512634e-01 -2.134383171796798706e-01 -8.402182161808013916e-02
1.069365739822387695e-01 -2.317257672548294067e-01 -6.965886801481246948e-02
1.032314971089363098e-01 -2.208364903926849365e-01 -7.432854920625686646e-02
-1.227283626794815063e-01 4.153818190097808838e-01 -1.940541341900825500e-02
-1.253459751605987549e-01 4.262489974498748779e-01 -2.126368135213851929e-02
-1.300282776355743408e-01 4.099024832248687744e-01 -1.449430361390113831e-02
-1.321077346801757812e-01 4.205339550971984863e-01 -1.673970371484756470e-02
4.046108722686767578e-01 -1.869922429323196411e-01 1.685353368520736694e-01
4.045939743518829346e-01 -1.760092973709106445e-01 1.727655529975891113e-01
3.955782651901245117e-01 -1.879803240299224854e-01 1.750081479549407959e-01
3.956513404846191406e-01 -1.779098957777023315e-01 1.788408309221267700e-01
3.566818237304687500e-01 2.377506345510482788e-02 7.796611636877059937e-02
3.431765735149383545e-01 2.142593078315258026e-02 7.500582933425903320e-02
3.526673316955566406e-01 3.527150675654411316e-02 8.625839650630950928e-02
3.390079438686370850e-01 3.278226405382156372e-02 8.313437551259994507e-02
1.039703115820884705e-01 -1.769227534532546997e-01 1.733752191066741943e-01
9.095417708158493042e-02 -1.705403327941894531e-01 1.696049869060516357e-01
1.156227439641952515e-01 -1.719617545604705811e-01 1.815526485443115234e-01
1.021168306469917297e-01 -1.658619195222854614e-01 1.779983639717102051e-01
2.146134227514266968e-01 4.824719950556755066e-02 -8.836943656206130981e-02
2.068307995796203613e-01 5.787144228816032410e-02 -9.182356297969818115e-02
2.206068187952041626e-01 4.895321279764175415e-02 -7.810214161872863770e-02
2.122249156236648560e-01 5.925402790307998657e-02 -8.197652548551559448e-02
-3.291726410388946533e-01 1.611463576555252075e-01 6.207108125090599060e-02
-3.455314338207244873e-01 1.592386513948440552e-01 5.347787216305732727e-02
-3.265271484851837158e-01 1.464722901582717896e-01 7.002291828393936157e-02
-3.438789844512939453e-01 1.435838341712951660e-01 6.188488751649856567e-02
-3.775877952575683594e-01 -8.231515996158123016e-03 2.688883841037750244e-01
-3.737894296646118164e-01 4.345097579061985016e-03 2.788616716861724854e-01
-3.836517333984375000e-01 -1.812689937651157379e-03 2.771461904048919678e-01
-3.787325322628021240e-01 1.111495681107044220e-02 2.875475287437438965e-01
1.858008652925491333e-02 1.874671317636966705e-02 1.660821735858917236e-01
7.390616461634635925e-03 2.870500646531581879e-02 1.624908745288848877e-01
1.217158883810043335e-02 1.529409643262624741e-02 1.659936010837554932e-01
8.697258308529853821e-04 2.546557411551475525e-02 1.623250544071197510e-01
-1.518152356147766113e-01 -3.398419171571731567e-02 6.475099921226501465e-02
-1.603973060846328735e-01 -2.356716431677341461e-02 6.664276123046875000e-02
-1.450643390417098999e-01 -2.347478270530700684e-02 7.587102055549621582e-02
-1.538352519273757935e-01 -1.341270562261343002e-02 7.757523655891418457e-02
-3.094721436500549316e-01 9.552853181958198547e-03 3.384699225425720215e-01
-3.055887222290039062e-01 2.222331240773200989e-02 3.434410095214843750e-01
-3.211639821529388428e-01 1.129408180713653564e-02 3.443540632724761963e-01
-3.169031441211700439e-01 2.425034530460834503e-02 3.488966226577758789e-01
-6.739616394042968750e-02 4.454313516616821289e-01 -1.790093332529067993e-01
-6.419841200113296509e-02 4.569665193557739258e-01 -1.749328970909118652e-01
-7.653584331274032593e-02 4.464279711246490479e-01 -1.709528565406799316e-01
-7.326665520668029785e-02 4.580344557762145996e-01 -1.687070280313491821e-01
4.170190691947937012e-01 -8.814910054206848145e-02 -5.491327494382858276e-03
4.154987037181854248e-01 -7.959934324026107788e-02 -1.013390719890594482e-02
4.087498486042022705e-01 -9.007275104522705078e-02 6.748992018401622772e-03
4.074155390262603760e-01 -8.142293244600296021e-02 2.233661012724041939e-03
-3.210653364658355713e-01 1.988448351621627808e-01 -1.181634292006492615e-01
-3.125939667224884033e-01 2.136869281530380249e-01 -1.187296882271766663e-01
-3.315975368022918701e-01 1.919349133968353271e-01 -1.084499359130859375e-01
-3.228872120380401611e-01 2.075288742780685425e-01 -1.091477572917938232e-01
4.405550062656402588e-01 -1.307044327259063721e-01 -3.995261713862419128e-02
4.417310655117034912e-01 -1.155551075935363770e-01 -4.375764355063438416e-02
4.377498626708984375e-01 -1.319931745529174805e-01 -2.693153172731399536e-02
4.381833374500274658e-01 -1.185276135802268982e-01 -3.085381351411342621e-02
-4.416249990463256836e-01 -2.843528091907501221e-01 -8.717625588178634644e-02
-4.475081562995910645e-01 -2.807046175003051758e-01 -9.318632632493972778e-02
-4.395123422145843506e-01 -2.828268408775329590e-01 -7.049049437046051025e-02
-4.453428983688354492e-01 -2.806624770164489746e-01 -7.650396972894668579e-02
-4.527688622474670410e-01 4.647649824619293213e-02 -3.647388890385627747e-02
-4.445106387138366699e-01 5.869371071457862854e-02 -3.541620820760726929e-02
-4.613266885280609131e-01 4.295413196086883545e-02 -2.505187131464481354e-02
-4.519857764244079590e-01 5.628794059157371521e-02 -2.305542118847370148e-02
-4.011765420436859131e-01 -2.107507139444351196e-01 2.026670128107070923e-01
-3.966428339481353760e-01 -1.994439065456390381e-01 2.119932025671005249e-01
-4.070300161838531494e-01 -2.075882703065872192e-01 2.134229540824890137e-01
-4.043397903442382812e-01 -1.982859522104263306e-01 2.233648598194122314e-01
3.457356989383697510e-01 -2.825216948986053467e-01 -3.955806419253349304e-02
3.360669910907745361e-01 -2.827170193195343018e-01 -4.781246185302734375e-02
3.464045822620391846e-01 -2.882861495018005371e-01 -3.007382899522781372e-02
3.343668878078460693e-01 -2.897572815418243408e-01 -3.834235668182373047e-02
7.151139378547668457e-01 2.754078805446624756e-01 -1.356984674930572510e-01
7.183269262313842773e-01 2.860678136348724365e-01 -1.353153288364410400e-01
7.084914445877075195e-01 2.696068882942199707e-01 -1.286520808935165405e-01
7.125720977783203125e-01 2.804037928581237793e-01 -1.281181573867797852e-01
2.650348842144012451e-01 -3.229142725467681885e-01 5.726943258196115494e-03
2.554942071437835693e-01 -3.190056681632995605e-01 -3.967692144215106964e-03
2.599817812442779541e-01 -3.309036791324615479e-01 2.376205101609230042e-02
2.493232339620590210e-01 -3.282111585140228271e-01 1.417294424027204514e-02
3.858605325222015381e-01 -2.051976621150970459e-01 -8.464557677507400513e-02
3.728348314762115479e-01 -2.035313695669174194e-01 -9.385130554437637329e-02
3.839555680751800537e-01 -2.223446071147918701e-01 -7.676225155591964722e-02
3.740106821060180664e-01 -2.193765640258789062e-01 -8.605141192674636841e-02
2.519364356994628906e-01 -1.042945683002471924e-01 -1.341961026191711426e-01
2.532590925693511963e-01 -8.614686876535415649e-02 -1.318727582693099976e-01
2.363310158252716064e-01 -1.130647659301757812e-01 -1.330720633268356323e-01
2.373154610395431519e-01 -9.543158859014511108e-02 -1.308300495147705078e-01
-1.215429529547691345e-01 4.190037548542022705e-01 2.636597491800785065e-02
-1.231589615345001221e-01 4.330390989780426025e-01 2.663742750883102417e-02
-1.231630146503448486e-01 4.062062799930572510e-01 3.142181411385536194e-02
-1.252816766500473022e-01 4.201810061931610107e-01 3.208805248141288757e-02
-4.509463012218475342e-01 -2.971100807189941406e-01 1.814616098999977112e-02
-4.589164555072784424e-01 -3.017420172691345215e-01 1.297545712441205978e-02
-4.530072510242462158e-01 -2.984026670455932617e-01 2.744871750473976135e-02
-4.610046446323394775e-01 -3.037594258785247803e-01 2.169757336378097534e-02
-2.040580660104751587e-01 3.276808559894561768e-02 -1.228737235069274902e-01
-2.141057550907135010e-01 4.077729955315589905e-02 -1.269607096910476685e-01
-2.112161517143249512e-01 2.472401596605777740e-02 -1.146952062845230103e-01
-2.223631143569946289e-01 3.203389048576354980e-02 -1.185162737965583801e-01
-4.187481701374053955e-01 -1.877799183130264282e-01 -3.451451361179351807e-01
-4.283283054828643799e-01 -1.802000254392623901e-01 -3.505434691905975342e-01
-4.240486621856689453e-01 -2.007022649049758911e-01 -3.402478098869323730e-01
-4.336900711059570312e-01 -1.931958943605422974e-01 -3.457579016685485840e-01
3.073960840702056885e-01 -3.715995233505964279e-03 -6.674887239933013916e-02
2.965733706951141357e-01 -3.470028284937143326e-03 -7.415432482957839966e-02
3.076813220977783203e-01 -1.129612978547811508e-02 -5.699733644723892212e-02
2.973166406154632568e-01 -1.022400986403226852e-02 -6.420905888080596924e-02
4.937132596969604492e-01 3.144367039203643799e-01 6.237450987100601196e-02
4.929006397724151611e-01 3.265621960163116455e-01 6.216739863157272339e-02
4.950135052204132080e-01 3.041586279869079590e-01 6.586927920579910278e-02
4.949426651000976562e-01 3.171739876270294189e-01 6.635011732578277588e-02
-1.837799847126007080e-01 2.850282490253448486e-01 -1.591253578662872314e-01
-1.914613246917724609e-01 2.846195399761199951e-01 -1.563023477792739868e-01
-1.884401887655258179e-01 2.913925647735595703e-01 -1.468593478202819824e-01
-1.974419206380844116e-01 2.902437150478363037e-01 -1.442201733589172363e-01
-2.740034162998199463e-01 9.502251446247100830e-02 -1.409122645854949951e-01
-2.791193425655364990e-01 1.069576591253280640e-01 -1.427469253540039062e-01
-2.859990596771240234e-01 8.434709906578063965e-02 -1.320727020502090454e-01
-2.904213070869445801e-01 9.687851369380950928e-02 -1.347823739051818848e-01
-5.160788297653198242e-01 -3.045605421066284180e-01 2.661636332049965858e-03
-5.237990617752075195e-01 -2.999385893344879150e-01 2.521874848753213882e-04
-5.296750664710998535e-01 -3.135706186294555664e-01 -1.019831164740025997e-03
-5.370347499847412109e-01 -3.080962002277374268e-01 -2.866857219487428665e-03
3.603344857692718506e-01 -2.012052685022354126e-01 1.856492459774017334e-01
3.629609346389770508e-01 -1.912311613559722900e-01 1.894058585166931152e-01
3.468868136405944824e-01 -2.045675665140151978e-01 1.894850432872772217e-01
3.503320217132568359e-01 -1.931141167879104614e-01 1.929113864898681641e-01
-5.169610381126403809e-01 -1.277765482664108276e-01 -5.754258483648300171e-02
-5.148751735687255859e-01 -1.158512011170387268e-01 -5.990265309810638428e-02
-5.208933353424072266e-01 -1.254771649837493896e-01 -4.204128310084342957e-02
-5.190370082855224609e-01 -1.138959974050521851e-01 -4.516408964991569519e-02
5.087462663650512695e-01 8.315073698759078979e-02 1.304116547107696533e-01
4.976505637168884277e-01 8.531519025564193726e-02 1.245805993676185608e-01
5.070087313652038574e-01 7.563520967960357666e-02 1.363081485033035278e-01
4.964393377304077148e-01 7.837896794080734253e-02 1.302947551012039185e-01
-3.393963873386383057e-01 1.548931701108813286e-03 2.749880850315093994e-01
-3.433000147342681885e-01 1.265036128461360931e-02 2.803131937980651855e-01
-3.417313694953918457e-01 9.287349879741668701e-03 2.788799107074737549e-01
-3.445744216442108154e-01 2.193421497941017151e-02 2.886235713958740234e-01
-4.803373217582702637e-01 1.830371096730232239e-02 -6.011077202856540680e-03
-4.701100885868072510e-01 3.433781489729881287e-02 -3.167966846376657486e-03
-4.849388301372528076e-01 1.189318206161260605e-02 8.059402927756309509e-03
-4.751015901565551758e-01 2.777543477714061737e-02 1.025842875242233276e-02
1.263126283884048462e-01 4.881278574466705322e-01 -1.544211357831954956e-01
1.154721677303314209e-01 4.933713078498840332e-01 -1.586272418498992920e-01
1.187397986650466919e-01 4.803956449031829834e-01 -1.481511890888214111e-01
1.081356555223464966e-01 4.852774739265441895e-01 -1.518553942441940308e-01
3.394662737846374512e-01 2.608366124331951141e-02 7.959204167127609253e-02
3.259217739105224609e-01 2.369220741093158722e-02 7.647967338562011719e-02
3.364393413066864014e-01 3.566462174057960510e-02 8.837743848562240601e-02
3.230981826782226562e-01 3.356504812836647034e-02 8.572653681039810181e-02
1.942571699619293213e-01 -1.455789618194103241e-02 -1.226988211274147034e-01
1.801281571388244629e-01 -1.088263839483261108e-02 -1.262883841991424561e-01
2.019470185041427612e-01 -8.806136436760425568e-03 -1.164165362715721130e-01
1.875456869602203369e-01 -5.335118621587753296e-03 -1.199848428368568420e-01
-5.139657855033874512e-01 -1.978176385164260864e-01 1.978493994101881981e-03
-5.161941647529602051e-01 -1.846288144588470459e-01 6.740691605955362320e-05
-5.154460668563842773e-01 -1.961153149604797363e-01 1.843814551830291748e-02
-5.177227258682250977e-01 -1.829075962305068970e-01 1.674334332346916199e-02
6.382592916488647461e-01 -5.099143981933593750e-01 -9.418690949678421021e-02
6.322965621948242188e-01 -4.993253350257873535e-01 -9.604928642511367798e-02
6.381453871726989746e-01 -5.126888751983642578e-01 -8.456977456808090210e-02
6.312736868858337402e-01 -5.015411972999572754e-01 -8.480900526046752930e-02
7.039925456047058105e-01 2.582987248897552490e-01 -1.418615877628326416e-01
7.099983096122741699e-01 2.686530053615570068e-01 -1.430330574512481689e-01
7.023231983184814453e-01 2.542048692703247070e-01 -1.333495676517486572e-01
7.084000706672668457e-01 2.643748521804809570e-01 -1.346614658832550049e-01
4.152042567729949951e-01 -2.233901247382164001e-02 8.081632107496261597e-02
4.060130417346954346e-01 -9.193584322929382324e-03 7.972586154937744141e-02
4.169066250324249268e-01 -2.550353482365608215e-02 8.440820127725601196e-02
4.078745841979980469e-01 -1.288486644625663757e-02 8.247286826372146606e-02
-4.101238027215003967e-02 3.988013863563537598e-01 -1.960466504096984863e-01
-3.966367244720458984e-02 4.066057503223419189e-01 -1.963715553283691406e-01
-4.890437051653862000e-02 3.976524770259857178e-01 -1.887794882059097290e-01
-4.562428593635559082e-02 4.065026044845581055e-01 -1.885948181152343750e-01
-4.139906167984008789e-01 -7.010124623775482178e-02 2.950299382209777832e-01
-4.150254130363464355e-01 -5.689834058284759521e-02 3.006042242050170898e-01
-4.171142280101776123e-01 -6.013797223567962646e-02 3.051203787326812744e-01
-4.193116426467895508e-01 -4.682575911283493042e-02 3.104351758956909180e-01
-3.533719778060913086e-01 -2.507071495056152344e-01 -5.059523880481719971e-02
-3.441054522991180420e-01 -2.409841567277908325e-01 -5.308829620480537415e-02
-3.543218374252319336e-01 -2.508023679256439209e-01 -3.837259113788604736e-02
-3.450537025928497314e-01 -2.413225919008255005e-01 -3.984825685620307922e-02
6.934864073991775513e-02 -1.511691808700561523e-01 -8.957576006650924683e-02
5.869979038834571838e-02 -1.418484151363372803e-01 -9.124772995710372925e-02
6.242880970239639282e-02 -1.578720957040786743e-01 -8.070702850818634033e-02
5.179086327552795410e-02 -1.489834785461425781e-01 -8.185476809740066528e-02
5.641536712646484375e-01 1.265476346015930176e-01 -1.073912754654884338e-01
5.545330047607421875e-01 1.243434697389602661e-01 -1.153777539730072021e-01
5.581544041633605957e-01 1.180183812975883484e-01 -9.939898550510406494e-02
5.489401817321777344e-01 1.165040582418441772e-01 -1.071913316845893860e-01
7.195099443197250366e-02 2.092544585466384888e-01 -8.430600166320800781e-02
5.916412547230720520e-02 2.150854319334030151e-01 -8.526158332824707031e-02
7.520522177219390869e-02 2.132963687181472778e-01 -6.931579113006591797e-02
6.419254839420318604e-02 2.195041924715042114e-01 -7.152052223682403564e-02
-7.544874399900436401e-02 -5.808258056640625000e-02 -8.304609358310699463e-02
-8.200304210186004639e-02 -5.226447433233261108e-02 -8.666047453880310059e-02
-7.869600504636764526e-02 -6.407767534255981445e-02 -7.357291877269744873e-02
-8.618099987506866455e-02 -5.827815085649490356e-02 -7.684716582298278809e-02
5.602322816848754883e-01 2.774252593517303467e-01 5.278020352125167847e-02
5.582714080810546875e-01 2.888122797012329102e-01 4.786659032106399536e-02
5.621757507324218750e-01 2.751264870166778564e-01 6.455018371343612671e-02
5.605447888374328613e-01 2.866303026676177979e-01 6.014399230480194092e-02
-2.976938486099243164e-01 -3.139687702059745789e-02 -6.914394348859786987e-02
-2.991439700126647949e-01 -2.226365730166435242e-02 -7.396321743726730347e-02
-2.946557998657226562e-01 -3.497856110334396362e-02 -5.834679678082466125e-02
-2.963792383670806885e-01 -2.586703561246395111e-02 -6.302597373723983765e-02
-3.542135953903198242e-01 -2.310984432697296143e-01 -9.706614911556243896e-02
-3.486653864383697510e-01 -2.208201885223388672e-01 -1.019861474633216858e-01
-3.525464236736297607e-01 -2.356065660715103149e-01 -8.138602226972579956e-02
-3.456199765205383301e-01 -2.253474295139312744e-01 -8.622962981462478638e-02
7.173830866813659668e-01 -4.753030538558959961e-01 -1.418943554162979126e-01
7.107525467872619629e-01 -4.678288698196411133e-01 -1.396496444940567017e-01
7.154470086097717285e-01 -4.707559049129486084e-01 -1.299158781766891479e-01
7.090685367584228516e-01 -4.640924334526062012e-01 -1.269353181123733521e-01
7.203742265701293945e-01 2.979672849178314209e-01 -1.333906948566436768e-01
7.151526808738708496e-01 3.048342168331146240e-01 -1.349611878395080566e-01
7.122663855552673340e-01 2.936073839664459229e-01 -1.264357864856719971e-01
7.091285586357116699e-01 3.021782934665679932e-01 -1.272733360528945923e-01
5.511506199836730957e-01 -4.716629087924957275e-01 2.496489882469177246e-02
5.418370366096496582e-01 -4.634784758090972900e-01 2.585251815617084503e-02
5.449211001396179199e-01 -4.681365489959716797e-01 3.790944069623947144e-02
5.352874398231506348e-01 -4.600153863430023193e-01 3.867734223604202271e-02
-5.239309072494506836e-01 -1.125055626034736633e-01 2.856924571096897125e-02
-5.224774479866027832e-01 -1.010958552360534668e-01 2.322897687554359436e-02
-5.230509638786315918e-01 -1.157449334859848022e-01 4.538271576166152954e-02
-5.218119621276855469e-01 -1.043327301740646362e-01 4.005519300699234009e-02
6.825389862060546875e-01 -4.869690835475921631e-01 -1.711244434118270874e-01
6.760991811752319336e-01 -4.785740673542022705e-01 -1.676863580942153931e-01
6.804667711257934570e-01 -4.842479825019836426e-01 -1.649210751056671143e-01
6.751332283020019531e-01 -4.753604829311370850e-01 -1.599839776754379272e-01
-3.823023140430450439e-01 -2.650088667869567871e-01 -8.068383485078811646e-02
-3.978627622127532959e-01 -2.758812904357910156e-01 -9.581188857555389404e-02
-3.777390420436859131e-01 -2.663490772247314453e-01 -6.447894126176834106e-02
-3.955285549163818359e-01 -2.788589298725128174e-01 -7.824824005365371704e-02
-4.140356481075286865e-01 -9.489660710096359253e-02 -1.070327460765838623e-01
-4.211212694644927979e-01 -8.294832706451416016e-02 -1.043330058455467224e-01
-4.292559623718261719e-01 -9.721838682889938354e-02 -1.064600870013237000e-01
-4.358821809291839600e-01 -8.517553657293319702e-02 -1.036810278892517090e-01
7.926293462514877319e-02 2.238802015781402588e-01 -2.071461267769336700e-02
6.889268010854721069e-02 2.307650148868560791e-01 -2.298956923186779022e-02
7.843360304832458496e-02 2.253020256757736206e-01 -5.439712200313806534e-03
6.903962790966033936e-02 2.321152836084365845e-01 -8.558804169297218323e-03
-2.915865182876586914e-01 -1.021386608481407166e-01 -1.422027219086885452e-02
-2.883996069431304932e-01 -9.060502052307128906e-02 -1.853509992361068726e-02
-2.932823300361633301e-01 -1.057555377483367920e-01 -2.411576453596353531e-03
-2.898446023464202881e-01 -9.433170408010482788e-02 -7.771500386297702789e-03
4.915903508663177490e-02 4.538583159446716309e-01 -1.833722293376922607e-01
3.737956285476684570e-02 4.573600292205810547e-01 -1.871660798788070679e-01
4.733901098370552063e-02 4.505251348018646240e-01 -1.760014742612838745e-01
3.563763946294784546e-02 4.522563815116882324e-01 -1.818920671939849854e-01
-3.367483913898468018e-01 -5.554340779781341553e-02 3.063809275627136230e-01
-3.337184190750122070e-01 -4.383061453700065613e-02 3.124582171440124512e-01
-3.411329388618469238e-01 -5.132037401199340820e-02 3.110514581203460693e-01
-3.384397625923156738e-01 -3.912651911377906799e-02 3.184954226016998291e-01
-4.716634154319763184e-01 -1.554287225008010864e-01 2.536002993583679199e-01
-4.747573137283325195e-01 -1.433218717575073242e-01 2.527845501899719238e-01
-4.626635015010833740e-01 -1.532687544822692871e-01 2.647352218627929688e-01
-4.656583666801452637e-01 -1.393068134784698486e-01 2.644650042057037354e-01
-4.466767907142639160e-01 -2.021645158529281616e-01 -2.353588640689849854e-01
-4.540202319622039795e-01 -2.026761621236801147e-01 -2.446302622556686401e-01
-4.487744569778442383e-01 -2.031603455543518066e-01 -2.200096696615219116e-01
-4.562683403491973877e-01 -2.054657787084579468e-01 -2.295015156269073486e-01
-3.050347864627838135e-01 2.108079940080642700e-01 -1.297595649957656860e-01
-2.973002195358276367e-01 2.241765707731246948e-01 -1.293125301599502563e-01
-3.139146268367767334e-01 2.076605558395385742e-01 -1.212933883070945740e-01
-3.056659102439880371e-01 2.214589118957519531e-01 -1.208567470312118530e-01
-4.192444980144500732e-01 -1.198051571846008301e-01 -3.166309893131256104e-01
-4.325088560581207275e-01 -1.147679835557937622e-01 -3.214184939861297607e-01
-4.211805462837219238e-01 -1.220376193523406982e-01 -3.056105375289916992e-01
-4.326827824115753174e-01 -1.166874542832374573e-01 -3.099643886089324951e-01
5.302248001098632812e-01 -4.508901238441467285e-01 8.354669809341430664e-02
5.183791518211364746e-01 -4.460968673229217529e-01 8.737496286630630493e-02
5.247491002082824707e-01 -4.415515661239624023e-01 9.391187876462936401e-02
5.130200982093811035e-01 -4.369613826274871826e-01 9.724055975675582886e-02
2.502878308296203613e-01 -2.750277519226074219e-01 -7.003167271614074707e-02
2.370244264602661133e-01 -2.708134055137634277e-01 -7.320302724838256836e-02
2.476799190044403076e-01 -2.861052155494689941e-01 -6.169506162405014038e-02
2.324150949716567993e-01 -2.821262776851654053e-01 -6.623048335313796997e-02
4.835706949234008789e-01 7.023589313030242920e-02 -1.178054288029670715e-01
4.684399962425231934e-01 7.456065714359283447e-02 -1.221147030591964722e-01
4.765723049640655518e-01 6.018988415598869324e-02 -1.164457723498344421e-01
4.611536264419555664e-01 6.304311752319335938e-02 -1.215440183877944946e-01
-4.066897034645080566e-01 -3.081425651907920837e-02 -1.009906753897666931e-01
-4.101615846157073975e-01 -2.047592960298061371e-02 -9.914045780897140503e-02
-4.214546680450439453e-01 -3.505493700504302979e-02 -9.886772930622100830e-02
-4.239746034145355225e-01 -2.373088523745536804e-02 -9.713525325059890747e-02
-4.699257910251617432e-01 -2.880628705024719238e-01 5.131768528372049332e-03
-4.784083664417266846e-01 -2.873791754245758057e-01 1.365235075354576111e-03
-4.735173285007476807e-01 -2.938914597034454346e-01 1.091134361922740936e-02
-4.822569191455841064e-01 -2.935255765914916992e-01 7.018778473138809204e-03
3.102262318134307861e-01 -1.875149309635162354e-01 -1.201693788170814514e-01
2.962177395820617676e-01 -1.782345175743103027e-01 -1.254622191190719604e-01
3.052956461906433105e-01 -1.999742835760116577e-01 -1.170266792178153992e-01
2.918623387813568115e-01 -1.898485869169235229e-01 -1.228059753775596619e-01
-4.428235068917274475e-02 3.035087287425994873e-01 -1.017112210392951965e-01
-4.994732141494750977e-02 3.123308718204498291e-01 -1.051644459366798401e-01
-4.431438073515892029e-02 2.977212369441986084e-01 -9.059112519025802612e-02
-5.172937363386154175e-02 3.030548989772796631e-01 -9.416689723730087280e-02
5.094358325004577637e-01 2.280221730470657349e-01 5.935696512460708618e-02
5.100706815719604492e-01 2.428016215562820435e-01 5.754633620381355286e-02
5.046834349632263184e-01 2.263270169496536255e-01 6.994681805372238159e-02
5.048311352729797363e-01 2.404710799455642700e-01 6.842960417270660400e-02
4.137923717498779297e-01 -1.712233871221542358e-01 1.664831489324569702e-01
4.142685532569885254e-01 -1.592745482921600342e-01 1.701542884111404419e-01
4.065240025520324707e-01 -1.725895702838897705e-01 1.718536764383316040e-01
4.062831401824951172e-01 -1.607694774866104126e-01 1.761172711849212646e-01
1.603864580392837524e-01 1.075830683112144470e-01 1.162469387054443359e-01
1.560623794794082642e-01 1.193382292985916138e-01 1.132628470659255981e-01
1.542581617832183838e-01 9.885192662477493286e-02 1.240228638052940369e-01
1.499514430761337280e-01 1.108353883028030396e-01 1.213701516389846802e-01
5.290860533714294434e-01 2.951574325561523438e-01 3.567264601588249207e-02
5.262103080749511719e-01 3.076230883598327637e-01 3.473057970404624939e-02
5.275934338569641113e-01 2.891539633274078369e-01 4.228512942790985107e-02
5.260748863220214844e-01 3.025773465633392334e-01 4.172882437705993652e-02
1.181127652525901794e-01 -5.179264396429061890e-02 -1.425870209932327271e-01
1.081705465912818909e-01 -4.320928454399108887e-02 -1.500644683837890625e-01
1.128305047750473022e-01 -6.613772362470626831e-02 -1.383842825889587402e-01
1.040736660361289978e-01 -5.772310122847557068e-02 -1.444657444953918457e-01
-2.478540986776351929e-01 1.596558243036270142e-01 -1.771142631769180298e-01
-2.508533000946044922e-01 1.703055053949356079e-01 -1.761649101972579956e-01
-2.613446712493896484e-01 1.551022678613662720e-01 -1.708770841360092163e-01
-2.641956210136413574e-01 1.654461771249771118e-01 -1.703382134437561035e-01
4.674497544765472412e-01 9.292097762227058411e-03 -1.084885820746421814e-01
4.513774216175079346e-01 1.000514440238475800e-02 -1.158415377140045166e-01
4.639547765254974365e-01 -4.627127666026353836e-03 -1.063462346792221069e-01
4.517117142677307129e-01 -9.305072017014026642e-04 -1.125827357172966003e-01
7.114394903182983398e-01 2.921153903007507324e-01 -1.186576038599014282e-01
7.087204456329345703e-01 3.010974824428558350e-01 -1.192758232355117798e-01
7.032958865165710449e-01 2.841833233833312988e-01 -1.122521460056304932e-01
7.010090947151184082e-01 2.934865057468414307e-01 -1.130329445004463196e-01
-1.458365768194198608e-01 2.977719306945800781e-01 -1.296794116497039795e-01
-1.520095169544219971e-01 3.013092279434204102e-01 -1.264786422252655029e-01
-1.477869302034378052e-01 3.017197847366333008e-01 -1.163196340203285217e-01
-1.578996926546096802e-01 3.031165599822998047e-01 -1.142363548278808594e-01
4.548369348049163818e-01 -4.081066548824310303e-01 1.260685473680496216e-01
4.439787566661834717e-01 -4.053297042846679688e-01 1.238153874874114990e-01
4.575528800487518311e-01 -4.021378159523010254e-01 1.331263780593872070e-01
4.466387629508972168e-01 -3.985814452171325684e-01 1.305382698774337769e-01
-9.118177741765975952e-02 -5.804858356714248657e-02 -7.168217748403549194e-02
-9.957331418991088867e-02 -5.220082774758338928e-02 -7.504770159721374512e-02
-9.512327611446380615e-02 -6.453915685415267944e-02 -6.218225136399269104e-02
-1.036448106169700623e-01 -5.862721055746078491e-02 -6.509993970394134521e-02
-4.625267088413238525e-01 -2.717795372009277344e-01 9.897415339946746826e-02
-4.726538062095642090e-01 -2.654532492160797119e-01 9.724154323339462280e-02
-4.594174325466156006e-01 -2.675088047981262207e-01 1.086009964346885681e-01
-4.695040285587310791e-01 -2.613823711872100830e-01 1.061153933405876160e-01
5.082170367240905762e-01 3.669957220554351807e-01 7.330553233623504639e-02
5.028343200683593750e-01 3.762153387069702148e-01 6.727188825607299805e-02
5.018129944801330566e-01 3.575340807437896729e-01 8.375141024589538574e-02
4.965531229972839355e-01 3.671800494194030762e-01 7.792971283197402954e-02
-2.301197126507759094e-02 4.496837258338928223e-01 -2.000538706779479980e-01
-2.578419074416160583e-02 4.561787247657775879e-01 -2.029732465744018555e-01
-3.189510852098464966e-02 4.403643608093261719e-01 -1.961445361375808716e-01
-3.314373642206192017e-02 4.482849240303039551e-01 -1.967827975749969482e-01
1.109844967722892761e-01 1.250412911176681519e-01 -1.437534242868423462e-01
9.768735617399215698e-02 1.291792094707489014e-01 -1.474287211894989014e-01
1.155517473816871643e-01 1.315315216779708862e-01 -1.365778446197509766e-01
1.013792976737022400e-01 1.369780004024505615e-01 -1.394325345754623413e-01
3.524740412831306458e-02 1.887635514140129089e-02 1.692121773958206177e-01
2.371050603687763214e-02 2.986058220267295837e-02 1.665633022785186768e-01
2.646464109420776367e-02 1.424415688961744308e-02 1.691005975008010864e-01
1.516918931156396866e-02 2.418220788240432739e-02 1.654709875583648682e-01
-1.045596972107887268e-01 4.026588201522827148e-01 4.335644096136093140e-02
-1.092539057135581970e-01 4.149888753890991211e-01 4.195607826113700867e-02
-1.069251298904418945e-01 3.905689418315887451e-01 4.783491417765617371e-02
-1.134150847792625427e-01 4.018496572971343994e-01 4.545363038778305054e-02
-4.930217564105987549e-01 -1.969799213111400604e-02 -1.192683167755603790e-02
-4.860051274299621582e-01 -4.125572741031646729e-03 -1.232009474188089371e-02
-4.982105493545532227e-01 -2.010461688041687012e-02 2.869827207177877426e-03
-4.912600219249725342e-01 -4.612856544554233551e-03 2.277023158967494965e-03
1.993612796068191528e-01 -2.635478973388671875e-01 -7.464928179979324341e-02
1.860947608947753906e-01 -2.560024559497833252e-01 -8.040695637464523315e-02
1.928184628486633301e-01 -2.703536748886108398e-01 -6.486267596483230591e-02
1.784405559301376343e-01 -2.652308940887451172e-01 -6.967739760875701904e-02
3.937599062919616699e-01 1.364879310131072998e-02 1.676609963178634644e-01
3.846239745616912842e-01 2.610887773334980011e-02 1.638278067111968994e-01
3.852214813232421875e-01 7.834086194634437561e-03 1.707968562841415405e-01
3.773720264434814453e-01 1.903301477432250977e-02 1.677343547344207764e-01
-1.043784841895103455e-01 -9.325389564037322998e-02 3.049172461032867432e-02
-1.180972456932067871e-01 -8.352354168891906738e-02 2.193265780806541443e-02
-1.011981517076492310e-01 -8.975831419229507446e-02 4.433007165789604187e-02
-1.148729249835014343e-01 -8.009331673383712769e-02 3.638509660959243774e-02
4.535948932170867920e-01 -4.315094649791717529e-01 1.028995215892791748e-01
4.430810511112213135e-01 -4.303387105464935303e-01 1.014830991625785828e-01
4.560470283031463623e-01 -4.238049387931823730e-01 1.114339008927345276e-01
4.456532895565032959e-01 -4.221552610397338867e-01 1.099418252706527710e-01
6.292088627815246582e-01 2.304256260395050049e-01 -1.546945273876190186e-01
6.338204741477966309e-01 2.408839166164398193e-01 -1.494897902011871338e-01
6.210496425628662109e-01 2.304013818502426147e-01 -1.491327881813049316e-01
6.265221834182739258e-01 2.409141063690185547e-01 -1.415775418281555176e-01
-4.769644439220428467e-01 -6.218730658292770386e-02 -7.887154072523117065e-02
-4.707418978214263916e-01 -4.902284592390060425e-02 -7.778954505920410156e-02
-4.869180917739868164e-01 -6.398871541023254395e-02 -7.025101780891418457e-02
-4.792247414588928223e-01 -5.080145597457885742e-02 -6.992134451866149902e-02
