-5.257304310798645020e-01 -1.579227000474929810e-01 -1.117255911231040955e-01
-5.500452518463134766e-01 -1.455764323472976685e-01 -1.197682544589042664e-01
7.957853078842163086e-01 -2.301225811243057251e-01 -3.004395663738250732e-01
7.840564846992492676e-01 -2.314506024122238159e-01 -3.182807564735412598e-01
7.973841428756713867e-01 -2.388293743133544922e-01 -2.684941291809082031e-01
7.819030284881591797e-01 -2.426833063364028931e-01 -2.842396199703216553e-01
4.633807241916656494e-01 -4.188483953475952148e-01 -2.908040583133697510e-01
4.522109031677246094e-01 -4.209896922111511230e-01 -3.040393888950347900e-01
4.670824408531188965e-01 -4.240090548992156982e-01 -2.645195424556732178e-01
4.549667835235595703e-01 -4.258615076541900635e-01 -2.780171632766723633e-01
6.399927139282226562e-01 -3.773639202117919922e-01 -9.382138401269912720e-02
6.188392639160156250e-01 -3.785653710365295410e-01 -1.098689436912536621e-01
6.401960849761962891e-01 -3.827765882015228271e-01 -6.327257305383682251e-02
6.199178099632263184e-01 -3.834754228591918945e-01 -7.758859544992446899e-02
6.538940072059631348e-01 5.335536599159240723e-01 -1.033528968691825867e-01
6.388310194015502930e-01 5.371575355529785156e-01 -1.191127002239227295e-01
6.516430377960205078e-01 5.259621143341064453e-01 -7.633615285158157349e-02
6.379206180572509766e-01 5.272905230522155762e-01 -9.399008750915527344e-02
3.313303291797637939e-01 -5.349457263946533203e-01 -1.180607676506042480e-01
3.080037236213684082e-01 -5.399528145790100098e-01 -1.313002854585647583e-01
3.272289037704467773e-01 -5.453085899353027344e-01 -9.167307615280151367e-02
3.045433163642883301e-01 -5.495235919952392578e-01 -1.068616360425949097e-01
5.771604180335998535e-01 2.680090665817260742e-01 1.943643391132354736e-01
5.691897273063659668e-01 2.871101200580596924e-01 1.999767124652862549e-01
5.580409169197082520e-01 2.643118798732757568e-01 1.991686373949050903e-01
5.472245812416076660e-01 2.830230593681335449e-01 2.039963155984878540e-01
1.800050139427185059e-01 6.860382854938507080e-04 -2.339949160814285278e-01
1.645731925964355469e-01 2.685073763132095337e-02 -2.317080944776535034e-01
1.852652579545974731e-01 4.343938082456588745e-03 -2.091627418994903564e-01
1.700816303491592407e-01 2.909296937286853790e-02 -2.070782780647277832e-01
1.861320063471794128e-02 2.305735647678375244e-01 -1.561782509088516235e-01
2.452141232788562775e-02 2.514682710170745850e-01 -1.603293269872665405e-01
2.561817690730094910e-02 2.405379116535186768e-01 -1.249289140105247498e-01
1.573909446597099304e-02 2.458269298076629639e-01 -1.351229250431060791e-01
7.535514980554580688e-02 5.228273868560791016e-01 3.312643170356750488e-01
4.232483357191085815e-02 5.136805176734924316e-01 3.210288286209106445e-01
6.396313011646270752e-02 5.198223590850830078e-01 3.610172569751739502e-01
3.093281947076320648e-02 5.106754899024963379e-01 3.507817983627319336e-01
-6.403080821037292480e-01 1.386815011501312256e-01 3.252829909324645996e-01
-6.554958224296569824e-01 1.532509326934814453e-01 3.073183298110961914e-01
-6.371867060661315918e-01 1.408950537443161011e-01 3.497573435306549072e-01
-6.489489674568176270e-01 1.614655256271362305e-01 3.367850184440612793e-01
5.101336836814880371e-01 -1.045979559421539307e-01 1.480829119682312012e-01
5.152711272239685059e-01 -8.170772343873977661e-02 1.493297517299652100e-01
4.808454513549804688e-01 -1.091485023498535156e-01 1.506497710943222046e-01
4.877062141895294189e-01 -8.616986870765686035e-02 1.520486474037170410e-01
-4.706794619560241699e-01 -1.624541580677032471e-01 -1.930342465639114380e-01
-5.032579302787780762e-01 -1.472659111022949219e-01 -1.968351751565933228e-01
-4.912201166152954102e-01 -1.659502089023590088e-01 -1.811661720275878906e-01
-5.241740345954895020e-01 -1.495230346918106079e-01 -1.840466111898422241e-01
-6.790183186531066895e-01 9.937091916799545288e-02 2.281533181667327881e-01
-6.881213188171386719e-01 1.161504387855529785e-01 2.162164598703384399e-01
-6.726709008216857910e-01 9.458722919225692749e-02 2.608713805675506592e-01
-6.803171038627624512e-01 1.145070120692253113e-01 2.469976991415023804e-01
-2.606836557388305664e-01 -6.280095577239990234e-01 4.818645119667053223e-02
-2.788621485233306885e-01 -6.064471602439880371e-01 3.682003542780876160e-02
-2.540538609027862549e-01 -6.334202885627746582e-01 8.293703198432922363e-02
-2.701936960220336914e-01 -6.140094995498657227e-01 7.015712559223175049e-02
-3.446104750037193298e-02 -2.111984044313430786e-01 2.641810178756713867e-01
-3.904439136385917664e-02 -1.884877085685729980e-01 2.641368806362152100e-01
-6.453809142112731934e-02 -2.236775457859039307e-01 2.722608447074890137e-01
-6.754676252603530884e-02 -2.019058614969253540e-01 2.717870771884918213e-01
3.812533617019653320e-02 -1.216218024492263794e-01 -3.115526437759399414e-01
2.859089523553848267e-02 -9.698521345853805542e-02 -3.065328001976013184e-01
1.260875910520553589e-02 -1.281080842018127441e-01 -3.093330860137939453e-01
-1.573617104440927505e-03 -1.040509119629859924e-01 -3.022071123123168945e-01
5.714241787791252136e-02 1.628671139478683472e-01 1.132114697247743607e-02
3.574375063180923462e-02 1.696140021085739136e-01 -3.022211603820323944e-04
5.351722240447998047e-02 1.605451107025146484e-01 4.132789373397827148e-02
2.960445731878280640e-02 1.629844307899475098e-01 3.040375187993049622e-02
-1.399031877517700195e-01 -2.833102941513061523e-01 2.857772111892700195e-01
-1.427363604307174683e-01 -2.577116191387176514e-01 2.934593856334686279e-01
-1.657555401325225830e-01 -2.855286598205566406e-01 2.866722047328948975e-01
-1.691125631332397461e-01 -2.581951618194580078e-01 2.952482998371124268e-01
-1.648731678724288940e-01 1.057981513440608978e-03 1.885752081871032715e-01
-1.927321702241897583e-01 -1.085449475795030594e-02 1.684059351682662964e-01
-1.637324690818786621e-01 -5.224868655204772949e-03 2.142688930034637451e-01
-1.938803195953369141e-01 -1.843944564461708069e-02 1.942434310913085938e-01
-2.586196959018707275e-01 -6.056557297706604004e-01 2.584250867366790771e-01
-2.802841961383819580e-01 -5.939104557037353516e-01 2.555792629718780518e-01
-2.573547363281250000e-01 -5.842456221580505371e-01 2.765347957611083984e-01
-2.776318490505218506e-01 -5.728342533111572266e-01 2.732351422309875488e-01
1.691157221794128418e-01 2.516294121742248535e-01 -1.472422480583190918e-01
1.834658831357955933e-01 2.715443670749664307e-01 -1.483696997165679932e-01
1.684536486864089966e-01 2.558521926403045654e-01 -1.187138557434082031e-01
1.751449704170227051e-01 2.669052779674530029e-01 -1.283449530601501465e-01
-6.477712988853454590e-01 1.857246272265911102e-03 -1.236289553344249725e-02
-6.591728925704956055e-01 2.048921585083007812e-02 -1.189882401376962662e-02
-6.477765440940856934e-01 1.021007075905799866e-02 2.439032867550849915e-02
-6.586670279502868652e-01 2.670409716665744781e-02 2.029492147266864777e-02
-3.347271084785461426e-01 3.229428231716156006e-01 2.004315517842769623e-02
-3.442709743976593018e-01 3.440617918968200684e-01 8.673020638525485992e-03
-3.346841931343078613e-01 3.241673409938812256e-01 4.979924857616424561e-02
-3.456497192382812500e-01 3.444051146507263184e-01 3.697507828474044800e-02
-4.329477548599243164e-01 -4.195866286754608154e-01 -2.497587800025939941e-01
-4.498184919357299805e-01 -3.933766782283782959e-01 -2.447451502084732056e-01
-4.521954655647277832e-01 -4.182813167572021484e-01 -2.342166602611541748e-01
-4.700226783752441406e-01 -3.912638425827026367e-01 -2.276254743337631226e-01
4.631388485431671143e-01 7.458945512771606445e-01 2.154560685157775879e-01
4.685997366905212402e-01 7.594255208969116211e-01 2.000092118978500366e-01
4.496943950653076172e-01 7.267087101936340332e-01 2.473393231630325317e-01
4.668759703636169434e-01 7.482832074165344238e-01 2.354745417833328247e-01
-5.153449773788452148e-01 -2.448106706142425537e-01 -1.981668174266815186e-01
-5.127984881401062012e-01 -2.122055292129516602e-01 -2.105991542339324951e-01
-5.303691625595092773e-01 -2.463494241237640381e-01 -1.770578622817993164e-01
-5.298916697502136230e-01 -2.172986268997192383e-01 -1.892444044351577759e-01
2.779172360897064209e-01 3.062099516391754150e-01 7.352235913276672363e-02
2.609465420246124268e-01 3.128087222576141357e-01 5.818205699324607849e-02
2.773184180259704590e-01 2.992257773876190186e-01 8.996991068124771118e-02
2.602069079875946045e-01 3.081905245780944824e-01 7.807617634534835815e-02
4.738155305385589600e-01 2.690690010786056519e-02 1.871762424707412720e-01
4.781447947025299072e-01 5.799658223986625671e-02 1.926434189081192017e-01
4.524682462215423584e-01 1.629219949245452881e-02 1.900337934494018555e-01
4.584453105926513672e-01 4.925463348627090454e-02 1.946724057197570801e-01
-3.663057684898376465e-01 -4.357255101203918457e-01 1.772701591253280640e-01
-3.914923369884490967e-01 -4.036512374877929688e-01 1.930957436561584473e-01
-3.684486448764801025e-01 -4.292984604835510254e-01 1.967633068561553955e-01
-3.933719396591186523e-01 -3.972624242305755615e-01 2.136743068695068359e-01
4.716640114784240723e-01 6.746637225151062012e-01 -2.995607852935791016e-01
4.738234877586364746e-01 7.061643600463867188e-01 -2.934330403804779053e-01
4.390337467193603516e-01 6.807221174240112305e-01 -2.893037199974060059e-01
4.448192119598388672e-01 7.118116021156311035e-01 -2.833638489246368408e-01
5.483630895614624023e-01 4.173953235149383545e-01 -3.715535104274749756e-01
5.564473271369934082e-01 4.430252611637115479e-01 -3.658962845802307129e-01
5.186370611190795898e-01 4.176113903522491455e-01 -3.650268912315368652e-01
5.300457477569580078e-01 4.433701038360595703e-01 -3.608645796775817871e-01
9.803525358438491821e-02 5.888231396675109863e-01 -7.143696397542953491e-02
8.566744625568389893e-02 6.040688753128051758e-01 -9.126690775156021118e-02
9.694810956716537476e-02 5.908731818199157715e-01 -5.178033933043479919e-02
8.359847217798233032e-02 6.003484725952148438e-01 -7.336127012968063354e-02
2.633222378790378571e-02 5.646925568580627441e-01 2.736587077379226685e-02
-7.130691781640052795e-03 5.510233640670776367e-01 1.792479492723941803e-02
2.891888841986656189e-02 5.627710223197937012e-01 5.829816311597824097e-02
-6.155954673886299133e-03 5.484826564788818359e-01 4.544818401336669922e-02
3.824949264526367188e-01 -4.621376395225524902e-01 -3.323953151702880859e-01
3.676391243934631348e-01 -4.624162316322326660e-01 -3.480285704135894775e-01
3.856836557388305664e-01 -4.678532183170318604e-01 -3.088285028934478760e-01
3.710879087448120117e-01 -4.683017730712890625e-01 -3.250133693218231201e-01
4.169068336486816406e-01 -5.301821827888488770e-01 -6.380372494459152222e-02
3.995226323604583740e-01 -5.343305468559265137e-01 -8.442088961601257324e-02
4.201525747776031494e-01 -5.346192717552185059e-01 -3.264828026294708252e-02
4.015545547008514404e-01 -5.401778221130371094e-01 -5.636617541313171387e-02
8.393364548683166504e-01 -3.510911166667938232e-01 4.725066572427749634e-02
8.244149684906005859e-01 -3.352063596248626709e-01 4.283685609698295593e-02
8.203315734863281250e-01 -3.664461374282836914e-01 5.692574381828308105e-02
8.083221316337585449e-01 -3.468250334262847900e-01 5.426093563437461853e-02
-2.838285565376281738e-01 -2.119844406843185425e-01 3.427756726741790771e-01
-2.810652852058410645e-01 -1.868419647216796875e-01 3.440172374248504639e-01
-2.984225749969482422e-01 -2.201064229011535645e-01 3.435892164707183838e-01
-3.023399412631988525e-01 -1.934467852115631104e-01 3.475900888442993164e-01
-7.563830614089965820e-01 1.928462386131286621e-01 -5.858166515827178955e-02
-7.640120387077331543e-01 2.138791978359222412e-01 -6.161009892821311951e-02
-7.681332826614379883e-01 1.790048778057098389e-01 -2.768395841121673584e-02
-7.794831395149230957e-01 2.003138214349746704e-01 -3.391429781913757324e-02
-6.142368912696838379e-01 1.489160116761922836e-02 2.775181233882904053e-01
-6.369089484214782715e-01 3.637341409921646118e-02 2.585188746452331543e-01
-6.091331839561462402e-01 1.042241230607032776e-02 2.989273667335510254e-01
-6.303324699401855469e-01 2.896838821470737457e-02 2.826839387416839600e-01
1.722326725721359253e-01 2.728131115436553955e-01 4.292589612305164337e-03
1.539941728115081787e-01 2.784309387207031250e-01 -1.175723969936370850e-02
1.698006838560104370e-01 2.561857700347900391e-01 3.475734964013099670e-02
1.511270999908447266e-01 2.638575434684753418e-01 1.970794051885604858e-02
-4.352254569530487061e-01 -7.564999908208847046e-02 -8.123700320720672607e-02
-4.483543336391448975e-01 -7.567234337329864502e-02 -9.185869991779327393e-02
-4.457148611545562744e-01 -7.446607947349548340e-02 -6.247629597783088684e-02
-4.600173234939575195e-01 -7.382968068122863770e-02 -7.264415919780731201e-02
-5.428785458207130432e-03 -7.802816629409790039e-01 -7.539662532508373260e-03
-2.317222580313682556e-02 -7.829893827438354492e-01 -2.744807861745357513e-02
-1.318193040788173676e-03 -7.873958349227905273e-01 1.818495616316795349e-02
-1.827303692698478699e-02 -7.903925180435180664e-01 -5.256589502096176147e-04
-8.828267455101013184e-02 6.698156148195266724e-02 2.286469787359237671e-01
-1.093518957495689392e-01 6.174852699041366577e-02 2.144691497087478638e-01
-8.583383262157440186e-02 5.824853479862213135e-02 2.529823482036590576e-01
-1.069675013422966003e-01 5.747757852077484131e-02 2.399799525737762451e-01
2.433384209871292114e-01 7.787715196609497070e-01 -2.160372883081436157e-01
2.104149311780929565e-01 7.658010125160217285e-01 -2.316684573888778687e-01
2.431803345680236816e-01 7.778697013854980469e-01 -1.772518604993820190e-01
2.109560370445251465e-01 7.639480829238891602e-01 -1.943531781435012817e-01
3.824746012687683105e-01 -4.293395280838012695e-01 -4.112673997879028320e-01
3.638147711753845215e-01 -4.211258292198181152e-01 -4.245238304138183594e-01
3.651043176651000977e-01 -4.434168636798858643e-01 -3.935540020465850830e-01
3.458309769630432129e-01 -4.369649291038513184e-01 -4.080522954463958740e-01
-3.119620084762573242e-01 -5.581538081169128418e-01 4.996160417795181274e-02
-3.275881707668304443e-01 -5.400407314300537109e-01 3.657389432191848755e-02
-3.104290664196014404e-01 -5.553693771362304688e-01 8.426131308078765869e-02
-3.244879245758056641e-01 -5.367333889007568359e-01 7.263617217540740967e-02
1.902845501899719238e-01 -5.403445959091186523e-01 -3.818981051445007324e-01
1.706866621971130371e-01 -5.388917922973632812e-01 -3.992080092430114746e-01
1.918246746063232422e-01 -5.527831912040710449e-01 -3.524693548679351807e-01
1.722032427787780762e-01 -5.549681782722473145e-01 -3.715867996215820312e-01
8.539630472660064697e-02 -7.062337398529052734e-01 -5.536138266324996948e-02
7.280355691909790039e-02 -7.056881785392761230e-01 -7.314139604568481445e-02
8.019185066223144531e-02 -7.175441384315490723e-01 -2.506989240646362305e-02
6.880991905927658081e-02 -7.181625962257385254e-01 -4.269000142812728882e-02
-6.395396590232849121e-02 1.282296702265739441e-02 2.984505891799926758e-01
-7.839755713939666748e-02 2.831472456455230713e-02 2.961220443248748779e-01
-8.048645406961441040e-02 9.717084467411041260e-04 3.117759823799133301e-01
-9.248664975166320801e-02 1.787902787327766418e-02 3.108322918415069580e-01
-4.168040454387664795e-01 -7.952877879142761230e-02 -1.269449666142463684e-02
-4.348343014717102051e-01 -8.285237848758697510e-02 -2.211442217230796814e-02
-4.235462844371795654e-01 -8.717098832130432129e-02 8.460077457129955292e-03
-4.416574239730834961e-01 -9.034896641969680786e-02 -3.211675211787223816e-04
6.366591453552246094e-01 3.949345350265502930e-01 1.939448267221450806e-01
6.140441894531250000e-01 4.039323031902313232e-01 1.834208518266677856e-01
6.326556205749511719e-01 3.784791529178619385e-01 2.088560909032821655e-01
6.086230278015136719e-01 3.897141516208648682e-01 1.989299952983856201e-01
1.460614204406738281e-01 4.640967249870300293e-01 -1.178828179836273193e-01
1.349761784076690674e-01 4.823009967803955078e-01 -1.314013451337814331e-01
1.445298194885253906e-01 4.625062048435211182e-01 -9.352407604455947876e-02
1.325234025716781616e-01 4.798425734043121338e-01 -1.098328009247779846e-01
9.418693780899047852e-01 2.241646349430084229e-01 1.033332422375679016e-01
9.321855306625366211e-01 2.378598898649215698e-01 1.015762463212013245e-01
9.338681697845458984e-01 2.212695032358169556e-01 1.235299035906791687e-01
9.236290454864501953e-01 2.362238466739654541e-01 1.234607473015785217e-01
-2.694098949432373047e-01 -4.624794051051139832e-02 2.616742551326751709e-01
-2.834998071193695068e-01 -4.794978350400924683e-02 2.428449988365173340e-01
-2.670575678348541260e-01 -5.058010667562484741e-02 2.932726442813873291e-01
-2.802790105342864990e-01 -5.058850347995758057e-02 2.753962576389312744e-01
7.709786891937255859e-01 -1.653084754943847656e-01 -5.161914229393005371e-01
7.550978660583496094e-01 -1.556645780801773071e-01 -5.195623636245727539e-01
7.548782825469970703e-01 -1.814220249652862549e-01 -5.062609910964965820e-01
7.343018054962158203e-01 -1.787765920162200928e-01 -5.117344856262207031e-01
-3.151750266551971436e-01 -7.977842539548873901e-02 1.731405258178710938e-01
-3.367011249065399170e-01 -8.694592863321304321e-02 1.619253009557723999e-01
-3.259266018867492676e-01 -8.664470911026000977e-02 2.039767652750015259e-01
-3.449342846870422363e-01 -9.332241117954254150e-02 1.918898522853851318e-01
-2.306843847036361694e-01 -7.579748034477233887e-01 -1.326203197240829468e-01
-2.494594901800155640e-01 -7.373300194740295410e-01 -1.396650522947311401e-01
-2.245171070098876953e-01 -7.560440301895141602e-01 -1.081718355417251587e-01
-2.433001548051834106e-01 -7.362250089645385742e-01 -1.177807226777076721e-01
2.126530110836029053e-01 -2.166658341884613037e-01 -3.768514990806579590e-01
1.920053809881210327e-01 -2.040207386016845703e-01 -3.810569047927856445e-01
2.079093754291534424e-01 -1.993904560804367065e-01 -3.615425825119018555e-01
1.883333027362823486e-01 -1.872966736555099487e-01 -3.644567131996154785e-01
-2.421999722719192505e-01 8.584667928516864777e-03 1.223859935998916626e-01
-2.637350261211395264e-01 5.318066105246543884e-03 1.080040112137794495e-01
-2.444052100181579590e-01 -1.763718435540795326e-03 1.540768146514892578e-01
-2.660420835018157959e-01 -7.569736801087856293e-03 1.376201808452606201e-01
-5.207437276840209961e-01 -1.377806663513183594e-01 1.877631992101669312e-01
-5.385946631431579590e-01 -1.287371367216110229e-01 1.743445396423339844e-01
-5.203645825386047363e-01 -1.456137150526046753e-01 2.098826915025711060e-01
-5.389719009399414062e-01 -1.343210041522979736e-01 1.973622888326644897e-01
9.295059442520141602e-01 1.521499007940292358e-01 7.493544369935989380e-02
9.123790264129638672e-01 1.732171624898910522e-01 8.212084323167800903e-02
9.147021770477294922e-01 1.568070352077484131e-01 8.679462224245071411e-02
8.978483676910400391e-01 1.774262189865112305e-01 9.520875662565231323e-02
6.488505601882934570e-01 -6.682302057743072510e-02 1.069114804267883301e-01
6.414858102798461914e-01 -4.442930966615676880e-02 1.099627390503883362e-01
6.287859082221984863e-01 -7.204370945692062378e-02 1.121586188673973083e-01
6.200626492500305176e-01 -4.721950367093086243e-02 1.159413903951644897e-01
2.792643904685974121e-01 -1.520261019468307495e-01 -9.227608144283294678e-02
2.571071684360504150e-01 -1.241878122091293335e-01 -1.028373315930366516e-01
2.852128148078918457e-01 -1.505174636840820312e-01 -5.529591441154479980e-02
2.631893754005432129e-01 -1.200476884841918945e-01 -6.762696802616119385e-02
-1.064103990793228149e-01 3.781352937221527100e-02 2.675711214542388916e-01
-1.304412484169006348e-01 4.644201695919036865e-02 2.548337578773498535e-01
-9.875632077455520630e-02 3.926160186529159546e-02 2.889069914817810059e-01
-1.226177513599395752e-01 5.366771295666694641e-02 2.804238200187683105e-01
-1.849898546934127808e-01 -5.945293903350830078e-01 -3.285475373268127441e-01
-1.793037950992584229e-01 -5.672352313995361328e-01 -3.241862058639526367e-01
-2.135955840349197388e-01 -5.984413027763366699e-01 -3.258261978626251221e-01
-2.094803452491760254e-01 -5.702514648437500000e-01 -3.219100236892700195e-01
5.077106952667236328e-01 -3.777042627334594727e-01 -4.262219369411468506e-01
4.928533732891082764e-01 -3.759918510913848877e-01 -4.384170770645141602e-01
5.114147067070007324e-01 -3.861913383007049561e-01 -4.063155651092529297e-01
4.973192512989044189e-01 -3.845188319683074951e-01 -4.195495247840881348e-01
6.810775399208068848e-01 3.436888456344604492e-01 1.875488311052322388e-01
6.774021387100219727e-01 3.675291240215301514e-01 1.939844787120819092e-01
6.533267498016357422e-01 3.388163745403289795e-01 1.933306306600570679e-01
6.509801149368286133e-01 3.632106184959411621e-01 1.982524245977401733e-01
1.293457448482513428e-01 2.745081782341003418e-01 -2.069108188152313232e-01
1.463083475828170776e-01 3.008393943309783936e-01 -2.000052481889724731e-01
1.300553679466247559e-01 2.669287323951721191e-01 -1.884605437517166138e-01
1.466811597347259521e-01 2.943362593650817871e-01 -1.808587014675140381e-01
-4.848217964172363281e-01 -1.982514858245849609e-01 3.526689112186431885e-01
-5.121045112609863281e-01 -1.866273730993270874e-01 3.409470915794372559e-01
-4.845510423183441162e-01 -1.968495845794677734e-01 3.763881921768188477e-01
-5.129255652427673340e-01 -1.830533891916275024e-01 3.622632324695587158e-01
1.399806141853332520e-01 2.762018740177154541e-01 -2.037008106708526611e-01
1.575876772403717041e-01 3.029120862483978271e-01 -1.963282823562622070e-01
1.430515348911285400e-01 2.743389606475830078e-01 -1.807647794485092163e-01
1.579470038414001465e-01 2.999137043952941895e-01 -1.746299862861633301e-01
3.799423277378082275e-01 6.837924718856811523e-01 2.908351421356201172e-01
3.864708244800567627e-01 7.053217291831970215e-01 2.953334152698516846e-01
3.747056722640991211e-01 6.725424528121948242e-01 3.149073421955108643e-01
3.772930800914764404e-01 6.911740899085998535e-01 3.174572288990020752e-01
1.858801394701004028e-01 -1.187118701636791229e-02 -2.877662777900695801e-01
1.760726273059844971e-01 1.686040125787258148e-02 -2.879910469055175781e-01
1.856523305177688599e-01 -1.878678053617477417e-02 -2.748264074325561523e-01
1.743042320013046265e-01 9.391885250806808472e-03 -2.753881812095642090e-01
7.472618818283081055e-01 -2.729797065258026123e-01 -2.793533504009246826e-01
7.333785295486450195e-01 -2.765702307224273682e-01 -2.975168228149414062e-01
7.460002303123474121e-01 -2.794692814350128174e-01 -2.550511360168457031e-01
7.315627932548522949e-01 -2.839048504829406738e-01 -2.727049887180328369e-01
-5.185651183128356934e-01 -2.378238439559936523e-01 -7.314344495534896851e-02
-5.321069359779357910e-01 -2.244688719511032104e-01 -8.062342554330825806e-02
-5.184126496315002441e-01 -2.343172878026962280e-01 -4.937469959259033203e-02
-5.353405475616455078e-01 -2.234044820070266724e-01 -5.496364086866378784e-02
-6.798462271690368652e-01 1.887226104736328125e-01 -7.328514009714126587e-02
-6.984467506408691406e-01 1.997868418693542480e-01 -7.581257820129394531e-02
-7.034336924552917480e-01 1.746747046709060669e-01 -3.966050595045089722e-02
-7.170138359069824219e-01 1.889116466045379639e-01 -4.656032845377922058e-02
-3.142873942852020264e-01 -5.379839539527893066e-01 1.615283489227294922e-01
-3.295333087444305420e-01 -5.206276774406433105e-01 1.503115445375442505e-01
-3.140031397342681885e-01 -5.256444215774536133e-01 1.873642355203628540e-01
-3.308393955230712891e-01 -5.077744126319885254e-01 1.760721802711486816e-01
-2.522670030593872070e-01 -6.576557755470275879e-01 2.068516910076141357e-01
-2.702731490135192871e-01 -6.429494023323059082e-01 2.051290720701217651e-01
-2.591894567012786865e-01 -6.269507408142089844e-01 2.248550206422805786e-01
-2.793495953083038330e-01 -6.117246747016906738e-01 2.227218598127365112e-01
9.332992434501647949e-01 2.039650231599807739e-01 8.319471031427383423e-03
9.239540696144104004e-01 2.213184088468551636e-01 8.491943590342998505e-03
9.263475537300109863e-01 2.085180729627609253e-01 1.957579329609870911e-02
9.170449972152709961e-01 2.266667038202285767e-01 2.063798718154430389e-02
-7.100295275449752808e-02 1.643138676881790161e-01 -8.895347267389297485e-02
-9.074518829584121704e-02 1.566143035888671875e-01 -1.029392927885055542e-01
-7.384863495826721191e-02 1.563011854887008667e-01 -6.210677325725555420e-02
-9.377335757017135620e-02 1.504277139902114868e-01 -7.755467295646667480e-02
1.093507289886474609e+00 -5.272754281759262085e-02 1.469985488802194595e-02
1.095015645027160645e+00 -2.573095448315143585e-02 1.012852787971496582e-02
1.067844033241271973e+00 -5.804171040654182434e-02 3.315646946430206299e-02
1.069048643112182617e+00 -3.108695335686206818e-02 2.897987700998783112e-02
9.298784285783767700e-02 -1.585332751274108887e-01 2.462160438299179077e-01
8.768834173679351807e-02 -1.349078118801116943e-01 2.498881518840789795e-01
5.997396260499954224e-02 -1.677408218383789062e-01 2.483700364828109741e-01
6.005208566784858704e-02 -1.437101215124130249e-01 2.517236471176147461e-01
7.178499102592468262e-01 -6.339698284864425659e-02 1.103014573454856873e-01
7.176261544227600098e-01 -4.180140420794487000e-02 1.129661500453948975e-01
6.986641883850097656e-01 -7.167343795299530029e-02 1.138912215828895569e-01
6.986026763916015625e-01 -5.004264414310455322e-02 1.159675791859626770e-01
2.451743036508560181e-01 7.398446202278137207e-01 -1.520269960165023804e-01
2.155096977949142456e-01 7.296454906463623047e-01 -1.731464117765426636e-01
2.359107434749603271e-01 7.325556278228759766e-01 -1.192642226815223694e-01
2.066099047660827637e-01 7.228732705116271973e-01 -1.412358134984970093e-01
-3.781813085079193115e-01 2.645677626132965088e-01 3.963336348533630371e-01
-3.865716457366943359e-01 2.737990915775299072e-01 3.805206418037414551e-01
-3.869550526142120361e-01 2.500137686729431152e-01 4.167678058147430420e-01
-3.908795714378356934e-01 2.609775364398956299e-01 4.002019166946411133e-01
-2.662047147750854492e-01 4.670084714889526367e-01 -1.358306109905242920e-01
-2.495825290679931641e-01 4.973570406436920166e-01 -1.251353472471237183e-01
-2.954249382019042969e-01 4.645466208457946777e-01 -1.085399761795997620e-01
-2.777719497680664062e-01 4.967031180858612061e-01 -9.704425930976867676e-02
-2.698516845703125000e-01 -4.471827447414398193e-01 -2.842603623867034912e-01
-2.668555378913879395e-01 -4.209291934967041016e-01 -2.839099466800689697e-01
-2.909043431282043457e-01 -4.494099020957946777e-01 -2.765536904335021973e-01
-2.920394539833068848e-01 -4.235229492187500000e-01 -2.790580391883850098e-01
-2.352990210056304932e-02 -7.850849628448486328e-02 2.851165235042572021e-01
-2.831460349261760712e-02 -6.019072979688644409e-02 2.805187404155731201e-01
-3.592582046985626221e-02 -8.952773362398147583e-02 2.972172200679779053e-01
-4.026563465595245361e-02 -7.056462764739990234e-02 2.911560237407684326e-01
4.595727324485778809e-01 -5.390406847000122070e-01 7.982207834720611572e-02
4.408737421035766602e-01 -5.285637378692626953e-01 7.999847829341888428e-02
4.417718052864074707e-01 -5.456060171127319336e-01 9.463924169540405273e-02
4.183944165706634521e-01 -5.393712520599365234e-01 9.100650250911712646e-02
1.964261382818222046e-01 2.677856087684631348e-01 -3.258601948618888855e-02
1.783665269613265991e-01 2.743441462516784668e-01 -4.902561753988265991e-02
1.923812627792358398e-01 2.536863982677459717e-01 -6.658894941210746765e-03
1.723371595144271851e-01 2.579085230827331543e-01 -2.325380966067314148e-02
9.497127532958984375e-01 -2.223780602216720581e-01 -1.061621308326721191e-01
9.302905201911926270e-01 -2.307374626398086548e-01 -1.238955110311508179e-01
9.450014233589172363e-01 -2.301513254642486572e-01 -8.001285046339035034e-02
9.256051778793334961e-01 -2.371620535850524902e-01 -9.731067717075347900e-02
7.782521843910217285e-01 5.112697482109069824e-01 1.702620834112167358e-01
7.567447423934936523e-01 5.219448208808898926e-01 1.617408692836761475e-01
7.718047499656677246e-01 5.056948661804199219e-01 1.833700984716415405e-01
7.493212223052978516e-01 5.200019478797912598e-01 1.785566657781600952e-01
-1.927331238985061646e-01 -8.614080026745796204e-03 -2.361575216054916382e-01
-1.962447166442871094e-01 1.686690002679824829e-02 -2.299093604087829590e-01
-2.093133479356765747e-01 -1.095910929143428802e-02 -2.246405929327011108e-01
-2.125529199838638306e-01 1.513194851577281952e-02 -2.188589721918106079e-01
-4.590298607945442200e-02 -6.852829456329345703e-01 2.001341879367828369e-01
-5.730102956295013428e-02 -6.637094616889953613e-01 2.119200080633163452e-01
-7.248791307210922241e-02 -6.821784377098083496e-01 2.051690965890884399e-01
-8.690675348043441772e-02 -6.591336131095886230e-01 2.182831466197967529e-01
-4.940608143806457520e-01 -9.327775239944458008e-02 -1.776034086942672729e-01
-5.194218754768371582e-01 -7.749982178211212158e-02 -1.776927858591079712e-01
-5.196181535720825195e-01 -9.186837822198867798e-02 -1.609690487384796143e-01
-5.429638624191284180e-01 -7.505813241004943848e-02 -1.614349186420440674e-01
-2.472697049379348755e-01 -6.377512812614440918e-01 2.444436848163604736e-01
-2.677384912967681885e-01 -6.289067864418029785e-01 2.392667233943939209e-01
-2.462131828069686890e-01 -6.117199063301086426e-01 2.567982077598571777e-01
-2.679961621761322021e-01 -6.019222140312194824e-01 2.525555491447448730e-01
-2.711877226829528809e-01 4.192031025886535645e-01 8.561721444129943848e-02
-2.891790270805358887e-01 4.163620769977569580e-01 6.177941709756851196e-02
-2.731453180313110352e-01 4.008512198925018311e-01 1.206611990928649902e-01
-2.905187010765075684e-01 3.978911638259887695e-01 9.449993073940277100e-02
-7.685677707195281982e-02 -1.725288778543472290e-01 2.830128371715545654e-01
-7.956802099943161011e-02 -1.546879708766937256e-01 2.839849293231964111e-01
-1.049408689141273499e-01 -1.874604523181915283e-01 2.899651527404785156e-01
-1.057867705821990967e-01 -1.687722951173782349e-01 2.901741862297058105e-01
6.538079977035522461e-01 4.536801874637603760e-01 1.573275625705718994e-01
6.345628499984741211e-01 4.512561559677124023e-01 1.443239897489547729e-01
6.499528288841247559e-01 4.424486756324768066e-01 1.816749423742294312e-01
6.288142204284667969e-01 4.422947764396667480e-01 1.688176393508911133e-01
1.102491259574890137e+00 -1.593695133924484253e-01 -5.102613568305969238e-02
1.086014270782470703e+00 -1.610461473464965820e-01 -6.166625767946243286e-02
1.100823879241943359e+00 -1.566385328769683838e-01 -3.269354999065399170e-02
1.080117464065551758e+00 -1.669192314147949219e-01 -4.211445152759552002e-02
4.295099079608917236e-01 -5.746866464614868164e-01 1.167032718658447266e-01
4.037338495254516602e-01 -5.767470002174377441e-01 1.059513539075851440e-01
4.160387516021728516e-01 -5.794214010238647461e-01 1.344995498657226562e-01
3.928163349628448486e-01 -5.807904601097106934e-01 1.238364875316619873e-01
6.206844449043273926e-01 -4.599411785602569580e-01 2.916173450648784637e-02
6.036674976348876953e-01 -4.574690759181976318e-01 2.707194164395332336e-02
6.160781979560852051e-01 -4.563418626785278320e-01 4.197055473923683167e-02
6.001269817352294922e-01 -4.531931579113006592e-01 3.920610994100570679e-02
-3.319029808044433594e-01 -3.869346380233764648e-01 3.239789307117462158e-01
-3.419659137725830078e-01 -3.691628575325012207e-01 3.258636295795440674e-01
-3.354486525058746338e-01 -3.760795891284942627e-01 3.368600904941558838e-01
-3.453852236270904541e-01 -3.583374917507171631e-01 3.389959335327148438e-01
9.306021034717559814e-03 -6.521187424659729004e-01 -3.701374530792236328e-01
-1.913779973983764648e-02 -6.356004476547241211e-01 -3.744018375873565674e-01
-5.089351907372474670e-03 -6.656349301338195801e-01 -3.637334108352661133e-01
-2.924896776676177979e-02 -6.487957239151000977e-01 -3.677012622356414795e-01
2.740647792816162109e-01 -1.220237277448177338e-02 1.996053755283355713e-01
2.720856368541717529e-01 1.207513548433780670e-02 2.068541795015335083e-01
2.554124295711517334e-01 -1.935162022709846497e-02 2.084566205739974976e-01
2.573546767234802246e-01 4.693891853094100952e-03 2.152938246726989746e-01
-2.010632455348968506e-01 -7.227492332458496094e-01 1.398767083883285522e-01
-2.106431424617767334e-01 -7.004522085189819336e-01 1.514766216278076172e-01
-2.257823199033737183e-01 -7.142208814620971680e-01 1.547914445400238037e-01
-2.339649796485900879e-01 -6.910606026649475098e-01 1.665350943803787231e-01
1.082915216684341431e-01 -6.906466484069824219e-01 -5.365668609738349915e-02
9.525999426841735840e-02 -6.920661926269531250e-01 -7.099275290966033936e-02
1.002928465604782104e-01 -7.044027447700500488e-01 -2.683494612574577332e-02
8.805029094219207764e-02 -7.042469382286071777e-01 -4.412742331624031067e-02
-3.605517745018005371e-01 -4.254689514636993408e-01 2.480791509151458740e-01
-3.785412311553955078e-01 -4.049545526504516602e-01 2.574993968009948730e-01
-3.736196160316467285e-01 -4.122541248798370361e-01 2.653658092021942139e-01
-3.882162868976593018e-01 -3.954601287841796875e-01 2.706988453865051270e-01
-2.879020273685455322e-01 -6.684065461158752441e-01 -3.340628445148468018e-01
-2.970513701438903809e-01 -6.384257078170776367e-01 -3.360671401023864746e-01
-3.074338436126708984e-01 -6.761404275894165039e-01 -3.073488473892211914e-01
-3.198229372501373291e-01 -6.443183422088623047e-01 -3.100004792213439941e-01
4.351130425930023193e-01 -4.006373286247253418e-01 -1.087925210595130920e-01
4.154415428638458252e-01 -3.785172998905181885e-01 -1.211786717176437378e-01
4.415059387683868408e-01 -4.027733206748962402e-01 -8.395659923553466797e-02
4.211992323398590088e-01 -3.787241876125335693e-01 -9.003078192472457886e-02
2.223364859819412231e-01 3.579513728618621826e-01 -1.903299391269683838e-01
2.063400149345397949e-01 3.696029782295227051e-01 -2.000857293605804443e-01
2.153765410184860229e-01 3.422337174415588379e-01 -1.701633632183074951e-01
1.994397342205047607e-01 3.541324436664581299e-01 -1.801040470600128174e-01
-5.314019322395324707e-02 5.704216957092285156e-01 -9.346123039722442627e-02
-6.963958591222763062e-02 5.720610022544860840e-01 -1.028850600123405457e-01
-7.227408140897750854e-02 5.557759404182434082e-01 -6.276926398277282715e-02
-9.131961315870285034e-02 5.547670722007751465e-01 -7.612968981266021729e-02
1.356378495693206787e-01 5.303692817687988281e-01 1.874197274446487427e-02
1.219586506485939026e-01 5.448764562606811523e-01 4.803351592272520065e-03
1.386420726776123047e-01 5.352980494499206543e-01 4.191895574331283569e-02
1.226812526583671570e-01 5.441616773605346680e-01 2.711550146341323853e-02
-1.928206980228424072e-01 -5.971505641937255859e-01 2.535306811332702637e-01
-2.017617672681808472e-01 -5.777456164360046387e-01 2.573629915714263916e-01
-2.126408219337463379e-01 -5.879390835762023926e-01 2.622576653957366943e-01
-2.265202254056930542e-01 -5.747923254966735840e-01 2.614181339740753174e-01
1.735515594482421875e-01 -5.866093039512634277e-01 1.550583541393280029e-01
1.780948787927627563e-01 -5.641642212867736816e-01 1.575291901826858521e-01
1.478918939828872681e-01 -5.900907516479492188e-01 1.567831933498382568e-01
1.527038216590881348e-01 -5.679695606231689453e-01 1.584830135107040405e-01
2.089145183563232422e-01 6.787028312683105469e-01 4.492059350013732910e-03
1.881011873483657837e-01 6.734929680824279785e-01 -2.075837366282939911e-02
2.094556391239166260e-01 6.728724241256713867e-01 3.963923454284667969e-02
1.861657500267028809e-01 6.663261055946350098e-01 1.541394181549549103e-02
-2.218734472990036011e-02 4.403928816318511963e-01 -2.108877301216125488e-01
-3.185379505157470703e-02 4.648664295673370361e-01 -2.046295702457427979e-01
-5.737367272377014160e-02 4.412060081958770752e-01 -2.081106603145599365e-01
-6.283161044120788574e-02 4.669155478477478027e-01 -2.008931785821914673e-01
-1.508690118789672852e-01 -5.918039083480834961e-01 2.362387478351593018e-01
-1.581341177225112915e-01 -5.640060901641845703e-01 2.397546172142028809e-01
-1.790663450956344604e-01 -5.951979160308837891e-01 2.450723499059677124e-01
-1.859103739261627197e-01 -5.725625157356262207e-01 2.494338750839233398e-01
6.713646054267883301e-01 6.477862596511840820e-01 3.285451559349894524e-03
6.568768024444580078e-01 6.711747646331787109e-01 -1.986560411751270294e-03
6.768771409988403320e-01 6.499876379966735840e-01 3.032990172505378723e-02
6.607357859611511230e-01 6.724341511726379395e-01 2.463419735431671143e-02
1.729786396026611328e-01 4.543831646442413330e-01 -1.843270845711231232e-02
1.578554660081863403e-01 4.763579964637756348e-01 -2.875263616442680359e-02
1.819198578596115112e-01 4.596942067146301270e-01 8.990488946437835693e-03
1.640222966670989990e-01 4.830623269081115723e-01 7.531101582571864128e-04
3.844240009784698486e-01 6.673392057418823242e-01 2.742119729518890381e-01
3.910240232944488525e-01 6.889272928237915039e-01 2.782227396965026855e-01
3.719544708728790283e-01 6.531524062156677246e-01 2.977370917797088623e-01
3.741514682769775391e-01 6.718876957893371582e-01 2.996988296508789062e-01
5.295104384422302246e-01 -2.303585857152938843e-01 1.290920525789260864e-01
5.194309353828430176e-01 -2.060562521219253540e-01 1.382075548171997070e-01
4.959551393985748291e-01 -2.289013266563415527e-01 1.351474970579147339e-01
4.902205765247344971e-01 -2.024866044521331787e-01 1.434087306261062622e-01
2.825218439102172852e-01 7.449097037315368652e-01 -5.321791395545005798e-02
2.553474009037017822e-01 7.359182238578796387e-01 -7.698458433151245117e-02
2.618061602115631104e-01 7.237685918807983398e-01 -1.951371878385543823e-02
2.375520169734954834e-01 7.171509861946105957e-01 -4.507236555218696594e-02
-7.624646276235580444e-02 -2.984178066253662109e-02 2.741257250308990479e-01
-8.452074229717254639e-02 -1.090723276138305664e-02 2.720552086830139160e-01
-9.523326158523559570e-02 -3.134827688336372375e-02 2.851898372173309326e-01
-1.041528433561325073e-01 -1.076321117579936981e-02 2.827446162700653076e-01
-5.177328586578369141e-01 -1.450883001089096069e-01 -1.813552677631378174e-01
-5.482982397079467773e-01 -1.273978501558303833e-01 -1.836866587400436401e-01
-5.371279120445251465e-01 -1.481685489416122437e-01 -1.682011634111404419e-01
-5.641877055168151855e-01 -1.290332674980163574e-01 -1.700662672519683838e-01
-9.684881567955017090e-02 -5.170182883739471436e-02 -2.725062668323516846e-01
-1.019127294421195984e-01 -3.478284180164337158e-02 -2.666923403739929199e-01
-1.248670518398284912e-01 -6.234440952539443970e-02 -2.665823996067047119e-01
-1.262139230966567993e-01 -4.559232294559478760e-02 -2.620910108089447021e-01
-7.141618132591247559e-01 1.165938228368759155e-01 1.060043349862098694e-01
-7.300625443458557129e-01 1.345311850309371948e-01 9.148109704256057739e-02
-7.100355029106140137e-01 1.160544529557228088e-01 1.327055543661117554e-01
-7.260748147964477539e-01 1.321365237236022949e-01 1.192093789577484131e-01
1.236948445439338684e-01 -7.032600641250610352e-01 1.581707149744033813e-01
1.430276185274124146e-01 -6.814175248146057129e-01 1.708681285381317139e-01
1.091586500406265259e-01 -7.080876827239990234e-01 1.857466399669647217e-01
1.253345161676406860e-01 -6.867769956588745117e-01 1.982165575027465820e-01
-3.050158619880676270e-01 -5.378279685974121094e-01 2.336264997720718384e-01
-3.315117359161376953e-01 -5.162279605865478516e-01 2.267960309982299805e-01
-3.069058656692504883e-01 -5.217967629432678223e-01 2.514441609382629395e-01
-3.372216820716857910e-01 -5.034252405166625977e-01 2.443066090345382690e-01
8.482379317283630371e-01 1.996435523033142090e-01 -4.781583547592163086e-01
8.316386342048645020e-01 2.172162979841232300e-01 -4.764479994773864746e-01
8.440675139427185059e-01 2.108388692140579224e-01 -4.462113082408905029e-01
8.284987807273864746e-01 2.290727943181991577e-01 -4.429214000701904297e-01
6.662017703056335449e-01 5.289297103881835938e-01 -3.064706325531005859e-01
6.591501832008361816e-01 5.471425652503967285e-01 -3.099525868892669678e-01
6.671056151390075684e-01 5.227918624877929688e-01 -2.789631485939025879e-01
6.610617637634277344e-01 5.421399474143981934e-01 -2.829301059246063232e-01
-2.275734841823577881e-01 2.818656340241432190e-02 5.140132457017898560e-02
-2.462359219789505005e-01 2.561283297836780548e-02 3.869273513555526733e-02
-2.271029800176620483e-01 2.596143074333667755e-02 8.626419305801391602e-02
-2.455426603555679321e-01 2.739660441875457764e-02 7.484115660190582275e-02
-6.653466820716857910e-01 4.924635961651802063e-02 6.017442047595977783e-02
-6.780489087104797363e-01 6.251049786806106567e-02 4.727631807327270508e-02
-6.551596522331237793e-01 5.038897693157196045e-02 9.086126089096069336e-02
-6.685790419578552246e-01 6.239995360374450684e-02 7.730527222156524658e-02
2.389535307884216309e-01 2.470337152481079102e-01 -9.674195200204849243e-03
2.149302363395690918e-01 2.478208988904953003e-01 -2.662218362092971802e-02
2.373254150152206421e-01 2.373402416706085205e-01 1.518389023840427399e-02
2.117108553647994995e-01 2.355758845806121826e-01 -3.791758790612220764e-04
6.768988370895385742e-01 2.118247598409652710e-01 -4.356378614902496338e-01
6.618851423263549805e-01 2.410679906606674194e-01 -4.263322055339813232e-01
6.494335532188415527e-01 2.265532314777374268e-01 -4.278784096240997314e-01
6.373130679130554199e-01 2.580636739730834961e-01 -4.180521070957183838e-01
6.154701113700866699e-01 -3.834319412708282471e-01 7.034789770841598511e-02
6.145988702774047852e-01 -3.600528538227081299e-01 7.356578111648559570e-02
5.976381897926330566e-01 -3.923581838607788086e-01 7.712946087121963501e-02
5.956996679306030273e-01 -3.691396713256835938e-01 8.011587709188461304e-02
1.309099644422531128e-01 -5.477219447493553162e-02 2.516717016696929932e-01
1.285850852727890015e-01 -3.714403882622718811e-02 2.536356449127197266e-01
9.509910643100738525e-02 -5.201160535216331482e-02 2.561852633953094482e-01
9.305763989686965942e-02 -3.387589007616043091e-02 2.574158608913421631e-01
8.245710730552673340e-01 3.877671062946319580e-01 1.262422502040863037e-01
8.156667947769165039e-01 4.100527167320251465e-01 1.239321529865264893e-01
8.095495700836181641e-01 3.849823474884033203e-01 1.467575281858444214e-01
8.011747598648071289e-01 4.117600619792938232e-01 1.442711949348449707e-01
7.678940296173095703e-01 4.334756433963775635e-01 -1.908548176288604736e-01
7.569128274917602539e-01 4.566555321216583252e-01 -2.053998112678527832e-01
7.711673974990844727e-01 4.466142058372497559e-01 -1.538884043693542480e-01
7.592283487319946289e-01 4.685241281986236572e-01 -1.684875935316085815e-01
2.107863575220108032e-01 -9.118103235960006714e-02 -3.622747957706451416e-01
1.934888064861297607e-01 -6.460684537887573242e-02 -3.549222946166992188e-01
1.880459338426589966e-01 -8.803960680961608887e-02 -3.479095697402954102e-01
1.725421100854873657e-01 -6.378013640642166138e-02 -3.430910110473632812e-01
-3.575113415718078613e-01 3.228023350238800049e-01 -1.191863939166069031e-01
-3.798563182353973389e-01 3.420141935348510742e-01 -1.262811124324798584e-01
-3.425929248332977295e-01 3.342956304550170898e-01 -9.605888277292251587e-02
-3.641158640384674072e-01 3.520377278327941895e-01 -1.028289422392845154e-01
1.575610600411891937e-03 -4.399116337299346924e-02 -2.902969121932983398e-01
-7.652176544070243835e-03 -1.518635358661413193e-02 -2.850877642631530762e-01
-2.441095747053623199e-02 -4.765923321247100830e-02 -2.846070528030395508e-01
-3.456847369670867920e-02 -1.868295669555664062e-02 -2.775623202323913574e-01
-2.233514636754989624e-01 -7.765503525733947754e-01 -2.045634090900421143e-01
-2.461480647325515747e-01 -7.680900096893310547e-01 -2.150589972734451294e-01
-2.239432036876678467e-01 -7.857671380043029785e-01 -1.806536018848419189e-01
-2.451992630958557129e-01 -7.702975273132324219e-01 -1.907385885715484619e-01
6.457818150520324707e-01 1.103486791253089905e-01 1.436814218759536743e-01
6.450254321098327637e-01 1.300396025180816650e-01 1.465164870023727417e-01
6.275562047958374023e-01 1.034589186310768127e-01 1.471854597330093384e-01
6.220373511314392090e-01 1.271267086267471313e-01 1.510267555713653564e-01
7.541510462760925293e-01 2.156530767679214478e-01 1.259865313768386841e-01
7.572176456451416016e-01 2.354303449392318726e-01 1.303258538246154785e-01
7.301384210586547852e-01 2.104365974664688110e-01 1.297292858362197876e-01
7.352852821350097656e-01 2.326408326625823975e-01 1.328393220901489258e-01
-1.637758910655975342e-01 6.335821468383073807e-03 1.823201775550842285e-01
-1.919425427913665771e-01 -5.450273863971233368e-03 1.620215326547622681e-01
-1.632692217826843262e-01 9.278180077672004700e-04 2.104356437921524048e-01
-1.928083002567291260e-01 -1.193047687411308289e-02 1.903083175420761108e-01
-8.815966546535491943e-02 9.132827818393707275e-02 1.698958314955234528e-02
-1.141813993453979492e-01 8.557218313217163086e-02 -3.715660423040390015e-04
-8.735942840576171875e-02 8.111584186553955078e-02 5.484996736049652100e-02
-1.111678630113601685e-01 7.793092727661132812e-02 3.617319464683532715e-02
-6.493964195251464844e-01 1.354513317346572876e-02 -1.387112885713577271e-01
-6.664132475852966309e-01 3.413624316453933716e-02 -1.510386317968368530e-01
-6.508600711822509766e-01 1.705820299685001373e-02 -1.086142659187316895e-01
-6.668648123741149902e-01 3.637072443962097168e-02 -1.217490211129188538e-01
8.319501280784606934e-01 -2.488170564174652100e-01 -2.125703692436218262e-01
8.107176423072814941e-01 -2.544124126434326172e-01 -2.242485582828521729e-01
8.282440304756164551e-01 -2.567652165889739990e-01 -1.844279468059539795e-01
8.078141808509826660e-01 -2.619388699531555176e-01 -1.965841054916381836e-01
-2.203685492277145386e-01 3.865270614624023438e-01 -1.773042678833007812e-01
-2.280299365520477295e-01 4.132241308689117432e-01 -1.630467921495437622e-01
-2.402077615261077881e-01 3.973826467990875244e-01 -1.578452438116073608e-01
-2.516366243362426758e-01 4.233892261981964111e-01 -1.395453214645385742e-01
-4.827749729156494141e-01 1.956154853105545044e-01 3.553168475627899170e-01
-4.968461692333221436e-01 1.926158219575881958e-01 3.369483649730682373e-01
-4.894503951072692871e-01 1.785183250904083252e-01 3.859229385852813721e-01
-5.065589547157287598e-01 1.740213632583618164e-01 3.651714622974395752e-01
5.942532420158386230e-01 4.617167711257934570e-01 1.407973617315292358e-01
5.790692567825317383e-01 4.601458907127380371e-01 1.257269531488418579e-01
5.973109602928161621e-01 4.490363299846649170e-01 1.664382219314575195e-01
5.790513753890991211e-01 4.512295722961425781e-01 1.522861719131469727e-01
2.596932649612426758e-01 -6.547937393188476562e-01 6.675959378480911255e-02
2.410603910684585571e-01 -6.622717380523681641e-01 5.513956025242805481e-02
2.390729486942291260e-01 -6.551226973533630371e-01 9.089630842208862305e-02
2.217429131269454956e-01 -6.609621047973632812e-01 8.250822126865386963e-02
-3.130785748362541199e-02 -3.452388346195220947e-01 2.556676566600799561e-01
-2.920332178473472595e-02 -3.225550353527069092e-01 2.606471478939056396e-01
-6.921175867319107056e-02 -3.495228290557861328e-01 2.566608786582946777e-01
-6.916643679141998291e-02 -3.275933861732482910e-01 2.621370851993560791e-01
-4.230846464633941650e-01 -3.180103003978729248e-01 1.835961192846298218e-01
-4.404256045818328857e-01 -2.949010431766510010e-01 1.721197813749313354e-01
-4.188124835491180420e-01 -3.150901198387145996e-01 2.094997316598892212e-01
-4.347010254859924316e-01 -2.956565022468566895e-01 2.005397826433181763e-01
-2.513775825500488281e-01 -7.094039916992187500e-01 -2.079705893993377686e-01
-2.661283910274505615e-01 -6.892274618148803711e-01 -2.160392552614212036e-01
-2.526699304580688477e-01 -7.098814845085144043e-01 -1.813223809003829956e-01
-2.699829936027526855e-01 -6.885204911231994629e-01 -1.879398524761199951e-01
6.095880866050720215e-01 -3.153696358203887939e-01 7.807774841785430908e-02
6.065747737884521484e-01 -2.874923348426818848e-01 8.275928348302841187e-02
5.872095227241516113e-01 -3.266532421112060547e-01 8.479062467813491821e-02
5.851491689682006836e-01 -2.987835407257080078e-01 9.110832214355468750e-02
-3.361743390560150146e-01 3.122876882553100586e-01 2.645390033721923828e-01
