9.132327884435653687e-02 -9.700089693069458008e-02 -1.812348663806915283e-01
1.044516563415527344e-01 -8.987193554639816284e-02 -1.722863912582397461e-01
9.165926277637481689e-02 -8.644790202379226685e-02 -1.721022874116897583e-01
-2.939468324184417725e-01 -2.242242395877838135e-01 2.825144231319427490e-01
-3.200697898864746094e-01 -2.157474905252456665e-01 2.841013371944427490e-01
-3.022208809852600098e-01 -2.123550325632095337e-01 2.844640314579010010e-01
-3.295148015022277832e-01 -2.053548097610473633e-01 2.849445641040802002e-01
-4.802122116088867188e-01 -4.261196255683898926e-01 -1.148122847080230713e-01
-4.927036762237548828e-01 -4.158849120140075684e-01 -1.191013008356094360e-01
-4.902117550373077393e-01 -4.381118118762969971e-01 -1.028519347310066223e-01
-5.016066431999206543e-01 -4.274071156978607178e-01 -1.083301976323127747e-01
-4.198684990406036377e-01 -5.560461431741714478e-02 1.708216220140457153e-01
-4.223539233207702637e-01 -4.267187044024467468e-02 1.655693203210830688e-01
-4.255516231060028076e-01 -6.544264405965805054e-02 1.841078251600265503e-01
-4.274872541427612305e-01 -5.213550850749015808e-02 1.786552071571350098e-01
8.610608577728271484e-01 7.751364260911941528e-03 -4.243678227066993713e-02
8.373087644577026367e-01 8.958095684647560120e-03 -5.111247673630714417e-02
8.571294546127319336e-01 -1.542421616613864899e-02 -3.582928329706192017e-02
8.342293500900268555e-01 -1.177855022251605988e-02 -4.527134448289871216e-02
-3.131159543991088867e-01 -3.428925871849060059e-01 2.032154351472854614e-01
-3.302910029888153076e-01 -3.412397801876068115e-01 1.982057243585586548e-01
-3.117568790912628174e-01 -3.310565948486328125e-01 2.126152068376541138e-01
-3.288794457912445068e-01 -3.295580744743347168e-01 2.079495489597320557e-01
-5.228799581527709961e-01 3.024398088455200195e-01 1.640723198652267456e-01
-5.327267646789550781e-01 3.082460165023803711e-01 1.567446291446685791e-01
-5.229449272155761719e-01 2.992888391017913818e-01 1.817723810672760010e-01
-5.338634252548217773e-01 3.034845292568206787e-01 1.742151677608489990e-01
2.005946040153503418e-01 -3.802746832370758057e-01 -1.001049578189849854e-01
1.702942848205566406e-01 -3.823288977146148682e-01 -1.080031320452690125e-01
1.999534368515014648e-01 -3.944514691829681396e-01 -8.620512485504150391e-02
1.699264943599700928e-01 -3.970907032489776611e-01 -9.309600293636322021e-02
-2.484993785619735718e-01 -4.965772628784179688e-01 3.737931326031684875e-02
-2.640742957592010498e-01 -4.973624944686889648e-01 3.244547173380851746e-02
-2.477939873933792114e-01 -4.899671673774719238e-01 5.783310905098915100e-02
-2.630234360694885254e-01 -4.908472895622253418e-01 5.389381200075149536e-02
1.031565964221954346e-01 1.806007027626037598e-01 -1.226373165845870972e-01
1.025507748126983643e-01 1.937418282032012939e-01 -1.221370548009872437e-01
8.995661884546279907e-02 1.787242591381072998e-01 -1.169297248125076294e-01
8.929884433746337891e-02 1.921463161706924438e-01 -1.164404451847076416e-01
9.485033154487609863e-01 1.245183497667312622e-01 -2.359692193567752838e-02
9.477188587188720703e-01 1.393117308616638184e-01 -2.420447953045368195e-02
9.618301987648010254e-01 1.261852234601974487e-01 -9.322106838226318359e-03
9.614583849906921387e-01 1.409671157598495483e-01 -1.070499606430530548e-02
-4.558107554912567139e-01 -1.283642053604125977e-01 -2.513116896152496338e-01
-4.576326310634613037e-01 -1.196968704462051392e-01 -2.449753731489181519e-01
-4.722503423690795898e-01 -1.273421645164489746e-01 -2.483590096235275269e-01
-4.754491448402404785e-01 -1.164570078253746033e-01 -2.439943253993988037e-01
1.622062325477600098e-01 4.834540188312530518e-02 -3.015819936990737915e-02
1.507600098848342896e-01 5.816531926393508911e-02 -2.887253277003765106e-02
1.669538170099258423e-01 5.410644784569740295e-02 -1.962141878902912140e-02
1.558220386505126953e-01 6.347492337226867676e-02 -1.945017836987972260e-02
-4.440070390701293945e-01 -2.060660347342491150e-02 2.043819278478622437e-01
-4.431565999984741211e-01 -7.937643676996231079e-03 1.975419521331787109e-01
-4.499477446079254150e-01 -2.858202345669269562e-02 2.174661606550216675e-01
-4.494336843490600586e-01 -1.572348177433013916e-02 2.115408480167388916e-01
7.003537416458129883e-01 -2.570211589336395264e-01 1.147530823945999146e-01
7.038463354110717773e-01 -2.426442503929138184e-01 1.254259496927261353e-01
6.908082962036132812e-01 -2.584850490093231201e-01 1.219386905431747437e-01
6.921335458755493164e-01 -2.461241781711578369e-01 1.293888241052627563e-01
-6.074978709220886230e-01 1.891402900218963623e-01 -1.572333276271820068e-01
-6.151030659675598145e-01 2.085178345441818237e-01 -1.600701808929443359e-01
-6.188181042671203613e-01 1.787230074405670166e-01 -1.536920666694641113e-01
-6.255540847778320312e-01 1.982341259717941284e-01 -1.567085832357406616e-01
-5.460243225097656250e-01 1.844589561223983765e-01 -1.225612536072731018e-01
-5.454632043838500977e-01 1.935520768165588379e-01 -1.257300078868865967e-01
-5.406859517097473145e-01 1.847594678401947021e-01 -1.084741279482841492e-01
-5.399142503738403320e-01 1.938828825950622559e-01 -1.116319075226783752e-01
5.387467741966247559e-01 -1.279098391532897949e-01 1.535775214433670044e-01
5.268025398254394531e-01 -1.115461960434913635e-01 1.526488810777664185e-01
5.231974124908447266e-01 -1.362448781728744507e-01 1.507934182882308960e-01
5.101368427276611328e-01 -1.209449842572212219e-01 1.504320204257965088e-01
1.335473507642745972e-01 4.407586753368377686e-01 1.989723891019821167e-01
1.185890510678291321e-01 4.429827034473419189e-01 1.911153644323348999e-01
1.276564151048660278e-01 4.315606653690338135e-01 2.083723694086074829e-01
1.129607856273651123e-01 4.370730221271514893e-01 2.014434486627578735e-01
4.677200317382812500e-01 -1.946139037609100342e-01 1.444365084171295166e-01
4.558309614658355713e-01 -1.818726509809494019e-01 1.485859006643295288e-01
4.501124024391174316e-01 -1.989717185497283936e-01 1.462041884660720825e-01
4.404529631137847900e-01 -1.848557442426681519e-01 1.499307155609130859e-01
-1.031460240483283997e-03 -1.819445937871932983e-01 -2.528976202011108398e-01
-2.323789894580841064e-02 -1.671210676431655884e-01 -2.559861540794372559e-01
-1.225766539573669434e-02 -1.949203759431838989e-01 -2.560325264930725098e-01
-3.457023203372955322e-02 -1.802979558706283569e-01 -2.594165503978729248e-01
-5.620163083076477051e-01 3.970586508512496948e-02 -2.106601744890213013e-01
-5.562083721160888672e-01 5.638996511697769165e-02 -2.024621665477752686e-01
-5.782161355018615723e-01 4.320947080850601196e-02 -2.065251469612121582e-01
-5.725464224815368652e-01 5.962913483381271362e-02 -1.987362056970596313e-01
7.512655854225158691e-02 9.297638386487960815e-02 -3.489261120557785034e-02
6.124296784400939941e-02 9.824386984109878540e-02 -3.614029660820960999e-02
7.929497957229614258e-02 9.465033560991287231e-02 -2.365100942552089691e-02
6.658931076526641846e-02 1.008110865950584412e-01 -2.283276990056037903e-02
6.959348171949386597e-02 2.678304314613342285e-01 1.550502032041549683e-01
6.415852159261703491e-02 2.824862003326416016e-01 1.513344794511795044e-01
6.910511851310729980e-02 2.690146267414093018e-01 1.703496426343917847e-01
6.267684698104858398e-02 2.838931381702423096e-01 1.665148288011550903e-01
-4.566052556037902832e-01 4.947655275464057922e-02 1.681113988161087036e-01
-4.613156318664550781e-01 6.451418995857238770e-02 1.625040918588638306e-01
-4.578333497047424316e-01 4.632417112588882446e-02 1.814547479152679443e-01
-4.623076915740966797e-01 6.092512607574462891e-02 1.762011051177978516e-01
9.090854525566101074e-01 1.807932108640670776e-01 1.186095848679542542e-01
9.058095216751098633e-01 1.937035173177719116e-01 1.133579686284065247e-01
9.000721573829650879e-01 1.714978069067001343e-01 1.273086071014404297e-01
8.964028358459472656e-01 1.849745661020278931e-01 1.226660385727882385e-01
-2.023764699697494507e-02 -4.520664364099502563e-02 2.504232525825500488e-01
-3.020286187529563904e-02 -2.998949401080608368e-02 2.463938444852828979e-01
-3.073940239846706390e-02 -5.750379711389541626e-02 2.631810307502746582e-01
-4.050288721919059753e-02 -4.243773221969604492e-02 2.586475014686584473e-01
-4.750707745552062988e-01 1.180227920413017273e-01 1.328612267971038818e-01
-4.873247146606445312e-01 1.325672268867492676e-01 1.326663196086883545e-01
-4.810571670532226562e-01 1.220574527978897095e-01 1.439643949270248413e-01
-4.926506876945495605e-01 1.357327848672866821e-01 1.422456949949264526e-01
1.048650220036506653e-01 -4.324774742126464844e-01 -7.747613638639450073e-02
9.687423706054687500e-02 -4.291957020759582520e-01 -8.823291957378387451e-02
9.580010920763015747e-02 -4.400409758090972900e-01 -6.066274270415306091e-02
8.748250454664230347e-02 -4.373240768909454346e-01 -7.087459415197372437e-02
4.291112720966339111e-01 -6.528184749186038971e-04 9.294728189706802368e-02
4.136877954006195068e-01 3.466632682830095291e-03 8.827359974384307861e-02
4.224677085876464844e-01 -7.888901978731155396e-03 1.038178279995918274e-01
4.083609580993652344e-01 -2.970551140606403351e-03 9.901610761880874634e-02
-5.419465899467468262e-01 1.796006262302398682e-01 1.262759417295455933e-01
-5.392007827758789062e-01 1.992874145507812500e-01 1.293480247259140015e-01
-5.430316925048828125e-01 1.780533790588378906e-01 1.375053822994232178e-01
-5.395463109016418457e-01 1.974447816610336304e-01 1.403995007276535034e-01
8.094184994697570801e-01 1.257916539907455444e-01 1.550293117761611938e-01
8.010879158973693848e-01 1.398372650146484375e-01 1.519283354282379150e-01
7.989649176597595215e-01 1.129740104079246521e-01 1.523524820804595947e-01
7.905079126358032227e-01 1.285565346479415894e-01 1.507798880338668823e-01
5.909435153007507324e-01 -1.978635936975479126e-01 1.451845616102218628e-01
5.819675326347351074e-01 -1.853977590799331665e-01 1.486646085977554321e-01
5.708683133125305176e-01 -2.007092684507369995e-01 1.427839845418930054e-01
5.619661808013916016e-01 -1.891161948442459106e-01 1.466101408004760742e-01
8.029876947402954102e-01 1.162393540143966675e-01 1.541753709316253662e-01
7.943188548088073730e-01 1.303354650735855103e-01 1.521170884370803833e-01
7.923901081085205078e-01 1.029779538512229919e-01 1.506887525320053101e-01
7.838971614837646484e-01 1.191393211483955383e-01 1.493368744850158691e-01
-1.291258633136749268e-01 -4.865271151065826416e-01 3.158708289265632629e-02
-1.492712646722793579e-01 -4.896103739738464355e-01 1.769187860190868378e-02
-1.297374814748764038e-01 -4.866376817226409912e-01 5.068995058536529541e-02
-1.492131650447845459e-01 -4.899795353412628174e-01 3.755196928977966309e-02
8.404089212417602539e-01 2.345544248819351196e-01 1.198300868272781372e-01
8.289015293121337891e-01 2.416751831769943237e-01 1.109476014971733093e-01
8.281345963478088379e-01 2.222937345504760742e-01 1.303760558366775513e-01
8.171309232711791992e-01 2.297662049531936646e-01 1.210570335388183594e-01
-4.484331235289573669e-02 7.303781807422637939e-02 -1.307034343481063843e-01
-5.682511627674102783e-02 7.679370790719985962e-02 -1.305249631404876709e-01
-4.217017441987991333e-02 8.149064332246780396e-02 -1.184615716338157654e-01
-5.475175008177757263e-02 8.551242947578430176e-02 -1.180890053510665894e-01
-5.199083089828491211e-01 -5.042891204357147217e-02 -2.426233887672424316e-01
-5.252645015716552734e-01 -3.328154981136322021e-02 -2.388038933277130127e-01
-5.431705713272094727e-01 -5.279688537120819092e-02 -2.454710751771926880e-01
-5.484244227409362793e-01 -3.699126839637756348e-02 -2.409781366586685181e-01
-5.154886245727539062e-01 1.288858205080032349e-01 -1.574086993932723999e-01
-5.207121372222900391e-01 1.407639235258102417e-01 -1.535566300153732300e-01
-5.176386833190917969e-01 1.338673830032348633e-01 -1.481657624244689941e-01
-5.203836560249328613e-01 1.463472247123718262e-01 -1.425749063491821289e-01
-2.465960085391998291e-01 -9.422101825475692749e-02 2.959822118282318115e-01
-2.581886351108551025e-01 -8.208546787500381470e-02 2.932135462760925293e-01
-2.528571188449859619e-01 -1.091821193695068359e-01 2.952977418899536133e-01
-2.658666670322418213e-01 -9.600093960762023926e-02 2.932709157466888428e-01
-6.600908637046813965e-01 -1.178286150097846985e-01 -6.161374505609273911e-03
-6.568881273269653320e-01 -1.029033288359642029e-01 -8.417047560214996338e-03
-6.596038341522216797e-01 -1.210696920752525330e-01 7.473722565919160843e-03
-6.554976105690002441e-01 -1.071394979953765869e-01 6.100902799516916275e-03
1.637398749589920044e-01 3.625104427337646484e-01 -1.619388908147811890e-02
1.646369993686676025e-01 3.887612521648406982e-01 -1.121836155652999878e-02
1.449174135923385620e-01 3.556871414184570312e-01 -1.275478675961494446e-02
1.456936299800872803e-01 3.815153837203979492e-01 -8.340889587998390198e-03
-6.599222421646118164e-01 -2.553582191467285156e-01 -2.112402115017175674e-03
-6.636035442352294922e-01 -2.397637069225311279e-01 -7.013931404799222946e-03
-6.630019545555114746e-01 -2.590305805206298828e-01 1.379146613180637360e-02
-6.662176847457885742e-01 -2.435858100652694702e-01 8.435037918388843536e-03
-6.128379106521606445e-01 3.067792057991027832e-01 1.805103570222854614e-01
-6.256436705589294434e-01 3.063958585262298584e-01 1.699010282754898071e-01
-6.181814670562744141e-01 3.020206987857818604e-01 1.971447020769119263e-01
-6.293188929557800293e-01 3.022993206977844238e-01 1.876835674047470093e-01
-1.108346953988075256e-01 -3.724738061428070068e-01 -2.132570892572402954e-01
-1.214319244027137756e-01 -3.669499158859252930e-01 -2.189651876688003540e-01
-1.133833676576614380e-01 -3.838834464550018311e-01 -2.042911499738693237e-01
-1.249059811234474182e-01 -3.755115270614624023e-01 -2.118829488754272461e-01
-6.631824970245361328e-01 6.237774342298507690e-02 1.619551628828048706e-01
-6.657032966613769531e-01 8.078377693891525269e-02 1.574846059083938599e-01
-6.602132320404052734e-01 5.141047388315200806e-02 1.701320707798004150e-01
-6.631374359130859375e-01 7.003483176231384277e-02 1.655095368623733521e-01
-5.962319970130920410e-01 -3.775233924388885498e-01 -8.127897977828979492e-02
-6.029633879661560059e-01 -3.659628331661224365e-01 -8.962316811084747314e-02
-6.009403467178344727e-01 -3.823712468147277832e-01 -6.572951376438140869e-02
-6.076169013977050781e-01 -3.719767928123474121e-01 -7.356964796781539917e-02
-2.936325073242187500e-01 -4.808066189289093018e-01 -6.841251254081726074e-02
-3.140991032123565674e-01 -4.753838181495666504e-01 -7.656802982091903687e-02
-2.971075475215911865e-01 -4.878680706024169922e-01 -5.579029396176338196e-02
-3.196924328804016113e-01 -4.829103350639343262e-01 -6.350134313106536865e-02
4.445458054542541504e-01 -1.904845535755157471e-01 -9.778755158185958862e-02
4.281118214130401611e-01 -1.796072423458099365e-01 -1.056980714201927185e-01
4.389717578887939453e-01 -2.115090340375900269e-01 -9.605604410171508789e-02
4.217187166213989258e-01 -2.004077434539794922e-01 -1.050218939781188965e-01
-6.713880896568298340e-01 1.030142158269882202e-01 1.053247749805450439e-01
-6.736392378807067871e-01 1.181251853704452515e-01 1.036647930741310120e-01
-6.737200021743774414e-01 9.708447754383087158e-02 1.162137016654014587e-01
-6.760700941085815430e-01 1.121356710791587830e-01 1.147587448358535767e-01
6.825396418571472168e-01 1.518925726413726807e-01 9.748338162899017334e-02
6.783642172813415527e-01 1.579014807939529419e-01 8.777049928903579712e-02
6.856943368911743164e-01 1.360304951667785645e-01 1.093124598264694214e-01
6.780363917350769043e-01 1.408936828374862671e-01 9.838892519474029541e-02
1.220528315752744675e-02 -3.881170153617858887e-01 1.969849020242691040e-01
1.447112485766410828e-02 -3.788193166255950928e-01 2.044324576854705811e-01
-4.830703139305114746e-03 -3.848751783370971680e-01 2.053462415933609009e-01
-2.595214406028389931e-03 -3.753047287464141846e-01 2.126474380493164062e-01
6.782952547073364258e-01 1.738836467266082764e-01 5.220673047006130219e-03
6.874187588691711426e-01 1.889630854129791260e-01 9.225590154528617859e-03
6.645262241363525391e-01 1.695285141468048096e-01 1.601123064756393433e-02
6.746872663497924805e-01 1.845549345016479492e-01 1.920633390545845032e-02
-3.171565234661102295e-01 -2.328696250915527344e-01 -2.486494481563568115e-01
-3.446714580059051514e-01 -2.217972129583358765e-01 -2.490595579147338867e-01
-3.282607495784759521e-01 -2.464804202318191528e-01 -2.415425181388854980e-01
-3.530131578445434570e-01 -2.345224320888519287e-01 -2.432072907686233521e-01
-3.930061459541320801e-01 -1.999879721552133560e-03 -1.669576019048690796e-01
-3.828288018703460693e-01 1.193152181804180145e-02 -1.690752208232879639e-01
-4.000337123870849609e-01 -2.790399361401796341e-03 -1.471769213676452637e-01
-3.899540007114410400e-01 1.077563315629959106e-02 -1.491061747074127197e-01
-5.717881321907043457e-01 -2.648096978664398193e-01 2.080901265144348145e-01
-5.903555750846862793e-01 -2.502012848854064941e-01 2.079575508832931519e-01
-5.652548670768737793e-01 -2.536252140998840332e-01 2.200369089841842651e-01
-5.845644474029541016e-01 -2.390747070312500000e-01 2.185461968183517456e-01
-6.793605089187622070e-01 -1.584945917129516602e-01 7.470470666885375977e-02
-6.762332916259765625e-01 -1.454751789569854736e-01 6.958003342151641846e-02
-6.827611923217773438e-01 -1.581587791442871094e-01 9.403439611196517944e-02
-6.797342896461486816e-01 -1.446175575256347656e-01 8.826173841953277588e-02
-5.697939395904541016e-01 2.016687691211700439e-01 -1.440208852291107178e-01
-5.704782009124755859e-01 2.122607827186584473e-01 -1.455847322940826416e-01
-5.632610917091369629e-01 2.018819451332092285e-01 -1.324021667242050171e-01
-5.633836984634399414e-01 2.127351015806198120e-01 -1.346863955259323120e-01
-6.503318250179290771e-02 -1.327000409364700317e-01 -2.632509768009185791e-01
-9.090501815080642700e-02 -1.300115883350372314e-01 -2.667412757873535156e-01
-8.324609696865081787e-02 -1.335541903972625732e-01 -2.660733163356781006e-01
-1.098772585391998291e-01 -1.294766366481781006e-01 -2.687823176383972168e-01
-2.444406449794769287e-01 -4.788167774677276611e-01 7.759623229503631592e-02
-2.601404190063476562e-01 -4.792830646038055420e-01 7.468125969171524048e-02
-2.424106448888778687e-01 -4.692185223102569580e-01 9.359157830476760864e-02
-2.579541206359863281e-01 -4.698753654956817627e-01 9.146445989608764648e-02
5.565438047051429749e-02 4.002444446086883545e-01 1.910954713821411133e-01
5.322848632931709290e-02 4.175089299678802490e-01 1.874434202909469604e-01
5.802901834249496460e-02 3.935004472732543945e-01 2.027624398469924927e-01
5.381795391440391541e-02 4.097918868064880371e-01 1.993101984262466431e-01
-5.864431262016296387e-01 3.152329027652740479e-01 -3.920584544539451599e-02
-6.034312248229980469e-01 3.193258643150329590e-01 -4.376121237874031067e-02
-6.001576185226440430e-01 3.056974411010742188e-01 -2.449025772511959076e-02
-6.156112551689147949e-01 3.133910894393920898e-01 -2.984929829835891724e-02
2.027004063129425049e-01 3.781330585479736328e-01 1.684219241142272949e-01
2.060092687606811523e-01 4.016982614994049072e-01 1.750957965850830078e-01
1.871136426925659180e-01 3.744790256023406982e-01 1.810781806707382202e-01
1.905499547719955444e-01 3.994190394878387451e-01 1.883719563484191895e-01
-6.410833001136779785e-01 7.510817795991897583e-02 -1.543525308370590210e-01
-6.407942771911621094e-01 9.150123596191406250e-02 -1.546484380960464478e-01
-6.557710766792297363e-01 7.433889806270599365e-02 -1.434413939714431763e-01
-6.545190811157226562e-01 9.067486971616744995e-02 -1.434726119041442871e-01
6.840388178825378418e-01 -7.028249092400074005e-04 1.410935521125793457e-01
6.776495575904846191e-01 1.027810387313365936e-02 1.399749964475631714e-01
6.715654134750366211e-01 -1.632152125239372253e-02 1.382043212652206421e-01
6.649066209793090820e-01 -5.754924379289150238e-03 1.366575211286544800e-01
-4.336479008197784424e-01 -4.964025020599365234e-01 3.033217787742614746e-02
-4.494596123695373535e-01 -4.917465448379516602e-01 2.187975496053695679e-02
-4.313014149665832520e-01 -4.905810356140136719e-01 4.312359169125556946e-02
-4.464417397975921631e-01 -4.874091148376464844e-01 3.578357398509979248e-02
6.009325385093688965e-01 8.939604461193084717e-02 1.545165292918682098e-02
6.153702735900878906e-01 9.965166449546813965e-02 1.729663647711277008e-02
5.956508517265319824e-01 8.938462287187576294e-02 3.445564582943916321e-02
6.093621850013732910e-01 9.951914846897125244e-02 3.373184800148010254e-02
-2.241588085889816284e-01 1.010143235325813293e-01 1.532891690731048584e-01
-2.352749109268188477e-01 1.024155989289283752e-01 1.422392576932907104e-01
-2.264731526374816895e-01 9.505068510770797729e-02 1.684932857751846313e-01
-2.383065372705459595e-01 9.672732651233673096e-02 1.585281789302825928e-01
-6.592749953269958496e-01 5.991547927260398865e-02 -1.423640549182891846e-01
-6.557543277740478516e-01 7.634589076042175293e-02 -1.419703215360641479e-01
-6.678429245948791504e-01 6.165929883718490601e-02 -1.293914765119552612e-01
-6.643284559249877930e-01 7.772856950759887695e-02 -1.294688135385513306e-01
-3.482734560966491699e-01 5.656105279922485352e-02 -3.072592243552207947e-02
-3.595812916755676270e-01 5.014960840344429016e-02 -4.644641652703285217e-02
-3.503508269786834717e-01 4.872287064790725708e-02 -1.508988812565803528e-02
-3.629542589187622070e-01 4.184792190790176392e-02 -2.997534908354282379e-02
-4.659166336059570312e-01 -2.871797382831573486e-01 -2.029951512813568115e-01
-4.831553101539611816e-01 -2.704464495182037354e-01 -2.113120257854461670e-01
-4.701738357543945312e-01 -3.056296408176422119e-01 -1.921872049570083618e-01
-4.870480597019195557e-01 -2.890665829181671143e-01 -2.007120400667190552e-01
-9.072682261466979980e-02 6.224277615547180176e-02 1.965371221303939819e-01
-9.769552946090698242e-02 7.481443881988525391e-02 1.868021488189697266e-01
-1.022725775837898254e-01 4.708627611398696899e-02 2.130870372056961060e-01
-1.072896942496299744e-01 6.080827116966247559e-02 2.014892101287841797e-01
8.683655858039855957e-01 2.190139293670654297e-01 -2.441630139946937561e-02
8.529071807861328125e-01 2.174483537673950195e-01 -2.760201133787631989e-02
8.663676977157592773e-01 2.318150401115417480e-01 -1.697841286659240723e-02
8.523802757263183594e-01 2.322009056806564331e-01 -1.889814808964729309e-02
-3.928802609443664551e-01 -4.904903471469879150e-01 5.394271388649940491e-02
-4.058755934238433838e-01 -4.911138117313385010e-01 5.149777233600616455e-02
-3.904256820678710938e-01 -4.827014803886413574e-01 6.583994626998901367e-02
-4.052088260650634766e-01 -4.827673435211181641e-01 6.465223431587219238e-02
-3.115074932575225830e-01 7.278331369161605835e-02 6.364260613918304443e-02
-3.211344480514526367e-01 6.607805937528610229e-02 4.983650892972946167e-02
-3.170509338378906250e-01 7.395224273204803467e-02 8.616968989372253418e-02
-3.272134959697723389e-01 6.679942458868026733e-02 7.112360745668411255e-02
5.276396125555038452e-02 -2.692094445228576660e-01 2.531856596469879150e-01
5.448597297072410583e-02 -2.537844479084014893e-01 2.593553066253662109e-01
3.340980038046836853e-02 -2.730337381362915039e-01 2.532893717288970947e-01
3.441235423088073730e-02 -2.573551237583160400e-01 2.596579492092132568e-01
-2.293890118598937988e-01 -1.076671183109283447e-01 2.992751896381378174e-01
-2.400709837675094604e-01 -9.489219635725021362e-02 2.954956889152526855e-01
-2.376692146062850952e-01 -1.209240630269050598e-01 2.988934814929962158e-01
-2.487042546272277832e-01 -1.084180548787117004e-01 2.961634099483489990e-01
-3.522879183292388916e-01 -2.742124721407890320e-02 -2.473328858613967896e-01
-3.491608798503875732e-01 -1.450468879193067551e-02 -2.396635115146636963e-01
-3.690851628780364990e-01 -2.797897160053253174e-02 -2.406325936317443848e-01
-3.616764843463897705e-01 -8.897454477846622467e-03 -2.276351004838943481e-01
-3.876618295907974243e-02 -4.366928040981292725e-01 -1.353592425584793091e-01
-5.707493051886558533e-02 -4.342606365680694580e-01 -1.442172527313232422e-01
-4.248015955090522766e-02 -4.455583691596984863e-01 -1.234620809555053711e-01
-5.716674402356147766e-02 -4.427236020565032959e-01 -1.325947046279907227e-01
-4.246857166290283203e-01 -5.031616091728210449e-01 -4.656712524592876434e-03
-4.408619403839111328e-01 -4.976598620414733887e-01 -1.434474159032106400e-02
-4.242433011531829834e-01 -5.043305158615112305e-01 9.640156291425228119e-03
-4.408670365810394287e-01 -4.985652565956115723e-01 -2.567577175796031952e-04
-1.843198984861373901e-01 9.766102582216262817e-02 1.798507869243621826e-01
-1.916899383068084717e-01 1.037491858005523682e-01 1.704485416412353516e-01
-1.923967897891998291e-01 8.908733725547790527e-02 1.948910951614379883e-01
-1.999422907829284668e-01 9.621083736419677734e-02 1.840896308422088623e-01
4.451249539852142334e-01 -2.366050332784652710e-01 1.357374936342239380e-01
4.475825130939483643e-01 -2.237407565116882324e-01 1.397492736577987671e-01
4.274320602416992188e-01 -2.391997724771499634e-01 1.364672183990478516e-01
4.299957752227783203e-01 -2.261274307966232300e-01 1.402705609798431396e-01
1.805195361375808716e-01 -1.094142496585845947e-01 2.221494615077972412e-01
1.760713309049606323e-01 -9.001492708921432495e-02 2.182062119245529175e-01
1.682109385728836060e-01 -1.198386847972869873e-01 2.228094190359115601e-01
1.645399034023284912e-01 -1.016565710306167603e-01 2.182786315679550171e-01
-5.008882284164428711e-01 -4.035384058952331543e-01 1.244340464472770691e-01
-5.160942077636718750e-01 -4.009112119674682617e-01 1.213679686188697815e-01
-4.996281564235687256e-01 -3.897076845169067383e-01 1.338493824005126953e-01
-5.171596407890319824e-01 -3.884835541248321533e-01 1.302311122417449951e-01
-1.103145107626914978e-01 -3.514373302459716797e-01 2.503131031990051270e-01
-1.135187447071075439e-01 -3.392994701862335205e-01 2.590708136558532715e-01
-1.204036921262741089e-01 -3.351887762546539307e-01 2.580587267875671387e-01
-1.279556900262832642e-01 -3.246168196201324463e-01 2.647243142127990723e-01
-6.703442931175231934e-01 3.472172096371650696e-02 -1.022154167294502258e-01
-6.678410172462463379e-01 5.164209008216857910e-02 -1.052500009536743164e-01
-6.676239967346191406e-01 3.270810097455978394e-02 -8.496603369712829590e-02
-6.657423377037048340e-01 5.003488808870315552e-02 -8.747246116399765015e-02
-3.276077806949615479e-01 -3.768836259841918945e-01 1.700708270072937012e-01
-3.448901474475860596e-01 -3.714933395385742188e-01 1.690030694007873535e-01
-3.262766003608703613e-01 -3.613671362400054932e-01 1.841670870780944824e-01
-3.429625034332275391e-01 -3.579284846782684326e-01 1.813675165176391602e-01
4.435880184173583984e-01 -8.087501674890518188e-02 1.453101485967636108e-01
4.343378841876983643e-01 -6.812443584203720093e-02 1.421675533056259155e-01
4.321636557579040527e-01 -9.467913210391998291e-02 1.470664739608764648e-01
4.246816039085388184e-01 -8.219160139560699463e-02 1.445972174406051636e-01
4.262702539563179016e-02 -3.580501377582550049e-01 2.076572179794311523e-01
4.593701288104057312e-02 -3.468141853809356689e-01 2.140773534774780273e-01
2.704645320773124695e-02 -3.543490171432495117e-01 2.149357050657272339e-01
2.942330949008464813e-02 -3.430943489074707031e-01 2.215883582830429077e-01
-3.553784489631652832e-01 5.310624092817306519e-02 -1.459890902042388916e-01
-3.558163642883300781e-01 5.317934229969978333e-02 -1.560249924659729004e-01
-3.599707782268524170e-01 5.250580236315727234e-02 -1.307431906461715698e-01
-3.624326586723327637e-01 5.082238093018531799e-02 -1.427174955606460571e-01
-3.139404058456420898e-01 8.528139442205429077e-02 -1.251289397478103638e-01
-3.260430693626403809e-01 7.641011476516723633e-02 -1.404496133327484131e-01
-3.190405666828155518e-01 8.398200571537017822e-02 -1.055877953767776489e-01
-3.322725892066955566e-01 7.447338104248046875e-02 -1.220699846744537354e-01
7.731338143348693848e-01 -1.214673519134521484e-01 1.277751475572586060e-01
7.714722156524658203e-01 -1.040616035461425781e-01 1.290210038423538208e-01
7.553561329841613770e-01 -1.328456550836563110e-01 1.279167085886001587e-01
7.536306977272033691e-01 -1.154130697250366211e-01 1.293381452560424805e-01
-1.301548816263675690e-02 -4.660159349441528320e-01 -6.004727259278297424e-02
-2.445534989237785339e-02 -4.664793014526367188e-01 -6.970569491386413574e-02
-1.413503848016262054e-02 -4.702070951461791992e-01 -4.276320338249206543e-02
-2.676370739936828613e-02 -4.712241888046264648e-01 -5.286093801259994507e-02
2.158385366201400757e-01 -2.792638540267944336e-01 -1.745625585317611694e-01
2.006599158048629761e-01 -2.707270979881286621e-01 -1.799032390117645264e-01
2.097412049770355225e-01 -2.953359484672546387e-01 -1.685601770877838135e-01
1.940058618783950806e-01 -2.881720960140228271e-01 -1.739656031131744385e-01
1.973675340414047241e-01 2.272814884781837463e-02 -1.707697808742523193e-01
1.958856582641601562e-01 3.368353098630905151e-02 -1.697212904691696167e-01
1.844818592071533203e-01 1.459813490509986877e-02 -1.709817349910736084e-01
1.827648878097534180e-01 2.604293450713157654e-02 -1.699709892272949219e-01
-5.499603152275085449e-01 -4.173118174076080322e-01 9.746439754962921143e-02
-5.597386956214904785e-01 -4.099798202514648438e-01 9.660446643829345703e-02
-5.463286042213439941e-01 -4.074343740940093994e-01 1.102563217282295227e-01
-5.557354092597961426e-01 -4.001453816890716553e-01 1.106805950403213501e-01
5.603922009468078613e-01 -1.179807558655738831e-01 -9.270128607749938965e-02
5.467285513877868652e-01 -1.039807870984077454e-01 -9.014192968606948853e-02
5.421328544616699219e-01 -1.234667301177978516e-01 -9.615956246852874756e-02
5.282118320465087891e-01 -1.093897223472595215e-01 -9.424664080142974854e-02
8.088305592536926270e-01 -1.015162542462348938e-01 6.517340242862701416e-02
8.152667284011840820e-01 -8.785022795200347900e-02 6.835626810789108276e-02
7.980616092681884766e-01 -1.062315106391906738e-01 7.533373683691024780e-02
8.037437796592712402e-01 -9.329047054052352905e-02 7.862126827239990234e-02
-4.675384759902954102e-01 3.077177517116069794e-02 9.875220060348510742e-02
-4.788547754287719727e-01 3.723260387778282166e-02 9.254321455955505371e-02
-4.616943001747131348e-01 3.922462835907936096e-02 1.105875596404075623e-01
-4.725474715232849121e-01 4.634816572070121765e-02 1.046952009201049805e-01
3.728428184986114502e-01 -6.739824265241622925e-02 1.466853171586990356e-01
3.651447296142578125e-01 -5.787177756428718567e-02 1.411330699920654297e-01
3.624377846717834473e-01 -7.754361629486083984e-02 1.578355282545089722e-01
3.548468947410583496e-01 -6.798136979341506958e-02 1.523485779762268066e-01
-5.797320008277893066e-01 3.150906860828399658e-01 -1.700628995895385742e-01
-5.994530916213989258e-01 3.134066164493560791e-01 -1.765834093093872070e-01
-5.795333981513977051e-01 3.189057409763336182e-01 -1.523702442646026611e-01
-6.000608205795288086e-01 3.167172670364379883e-01 -1.596712321043014526e-01
8.072986006736755371e-01 -4.311896860599517822e-02 1.185464039444923401e-01
8.115632534027099609e-01 -3.137540444731712341e-02 1.238469406962394714e-01
7.937026619911193848e-01 -4.397407919168472290e-02 1.228626593947410583e-01
7.978497743606567383e-01 -3.146717697381973267e-02 1.279507279396057129e-01
1.363440155982971191e-01 4.531742632389068604e-01 -4.164502024650573730e-02
1.220642775297164917e-01 4.578224718570709229e-01 -5.134853720664978027e-02
1.291165947914123535e-01 4.419215321540832520e-01 -2.987517230212688446e-02
1.151651665568351746e-01 4.469974935054779053e-01 -4.054633155465126038e-02
-4.643558263778686523e-01 -2.515436708927154541e-02 -2.978527732193470001e-02
-4.792755246162414551e-01 -2.429195307195186615e-02 -3.673557564616203308e-02
-4.686817526817321777e-01 -2.816281281411647797e-02 -1.688744127750396729e-02
-4.841310977935791016e-01 -2.843046374619007111e-02 -2.394571900367736816e-02
5.644174218177795410e-01 3.409226611256599426e-02 1.023062393069267273e-01
5.555037856101989746e-01 3.256185352802276611e-02 9.227585047483444214e-02
5.608794689178466797e-01 2.200864441692829132e-02 1.125750616192817688e-01
5.507599711418151855e-01 2.294655330479145050e-02 1.031514257192611694e-01
-5.321533679962158203e-01 -3.690073639154434204e-02 -3.204501420259475708e-02
-5.459219217300415039e-01 -3.293475136160850525e-02 -4.010914638638496399e-02
-5.382523536682128906e-01 -4.709509760141372681e-02 -1.869263686239719391e-02
-5.532770156860351562e-01 -4.327945038676261902e-02 -2.671723440289497375e-02
-5.840244293212890625e-01 3.220006227493286133e-01 -9.723404794931411743e-02
-6.028900742530822754e-01 3.199118077754974365e-01 -1.026125848293304443e-01
-5.927761793136596680e-01 3.195348978042602539e-01 -7.973460108041763306e-02
-6.106216311454772949e-01 3.174273371696472168e-01 -8.511814475059509277e-02
5.261003971099853516e-01 2.386679500341415405e-02 -1.850636675953865051e-02
5.192970037460327148e-01 2.356634475290775299e-02 -1.483767665922641754e-02
5.192894339561462402e-01 2.884617075324058533e-02 2.863814297597855330e-04
5.078928470611572266e-01 2.540565468370914459e-02 -4.538778448477387428e-04
-2.451786845922470093e-01 -3.963665068149566650e-01 1.811618506908416748e-01
-2.625190615653991699e-01 -3.937510550022125244e-01 1.780181378126144409e-01
-2.403303533792495728e-01 -3.830421864986419678e-01 1.941300928592681885e-01
-2.569394409656524658e-01 -3.799697756767272949e-01 1.918160319328308105e-01
1.439215689897537231e-01 1.500432044267654419e-01 -1.465779542922973633e-01
1.422360539436340332e-01 1.625719666481018066e-01 -1.435748934745788574e-01
1.264704763889312744e-01 1.475459933280944824e-01 -1.441605389118194580e-01
1.249742805957794189e-01 1.609121263027191162e-01 -1.410615742206573486e-01
2.437101900577545166e-01 -3.765242397785186768e-01 1.400638222694396973e-01
2.241749167442321777e-01 -3.785580694675445557e-01 1.462896317243576050e-01
2.283058613538742065e-01 -3.652824461460113525e-01 1.535566151142120361e-01
2.101232558488845825e-01 -3.660546243190765381e-01 1.598138213157653809e-01
5.590149164199829102e-01 5.139246955513954163e-02 -8.248500525951385498e-04
5.583600401878356934e-01 5.139033123850822449e-02 1.494502648711204529e-03
5.535361170768737793e-01 5.355172976851463318e-02 1.946121267974376678e-02
5.461874604225158691e-01 4.762493073940277100e-02 1.369190309196710587e-02
1.743057221174240112e-01 -3.064826428890228271e-01 -1.767069697380065918e-01
1.574642807245254517e-01 -3.022591173648834229e-01 -1.823619455099105835e-01
1.671791970729827881e-01 -3.249762058258056641e-01 -1.702141314744949341e-01
1.495909392833709717e-01 -3.222789764404296875e-01 -1.763177663087844849e-01
-6.745745539665222168e-01 2.676511183381080627e-02 1.207870021462440491e-01
-6.724374890327453613e-01 4.247856885194778442e-02 1.160549372434616089e-01
-6.771145462989807129e-01 2.656952664256095886e-02 1.384139955043792725e-01
-6.749645471572875977e-01 4.299614951014518738e-02 1.333999186754226685e-01
1.150661706924438477e-02 -3.637207448482513428e-01 2.154793888330459595e-01
1.356077846139669418e-02 -3.530954122543334961e-01 2.224838137626647949e-01
-5.404188297688961029e-03 -3.610606789588928223e-01 2.221795171499252319e-01
-3.346999641507863998e-03 -3.503180146217346191e-01 2.292026579380035400e-01
3.668466508388519287e-01 -1.148659959435462952e-01 1.657024472951889038e-01
3.618509471416473389e-01 -1.012168079614639282e-01 1.640860438346862793e-01
3.556036651134490967e-01 -1.228769943118095398e-01 1.714316457509994507e-01
3.504863083362579346e-01 -1.087986603379249573e-01 1.699455529451370239e-01
-4.617881476879119873e-01 -3.821172416210174561e-01 -1.454849690198898315e-01
-4.808101952075958252e-01 -3.721687495708465576e-01 -1.477110534906387329e-01
-4.699100255966186523e-01 -3.943764865398406982e-01 -1.339342147111892700e-01
-4.881953895092010498e-01 -3.844641745090484619e-01 -1.362423449754714966e-01
-6.757006049156188965e-01 2.421842515468597412e-02 1.237162724137306213e-01
-6.733760833740234375e-01 4.021182656288146973e-02 1.191740557551383972e-01
-6.783326268196105957e-01 2.386800572276115417e-02 1.412785202264785767e-01
-6.760143637657165527e-01 4.054612293839454651e-02 1.364319622516632080e-01
-3.450481891632080078e-01 3.737417981028556824e-02 2.166343182325363159e-01
-3.581545948982238770e-01 3.150486201047897339e-02 2.028575837612152100e-01
-3.465562164783477783e-01 2.556172572076320648e-02 2.285660654306411743e-01
-3.597279191017150879e-01 2.292609959840774536e-02 2.175918817520141602e-01
3.336180746555328369e-01 1.728008873760700226e-02 1.135999783873558044e-01
3.229399621486663818e-01 3.154662624001502991e-02 1.134427338838577271e-01
3.263131380081176758e-01 1.279890537261962891e-02 1.246555745601654053e-01
3.174339830875396729e-01 2.638182602822780609e-02 1.238185763359069824e-01
-6.980731487274169922e-01 2.220436483621597290e-01 9.864047914743423462e-02
-6.979882121086120605e-01 2.343333065509796143e-01 9.548828005790710449e-02
-7.091284394264221191e-01 2.219473868608474731e-01 1.123999208211898804e-01
-7.092267274856567383e-01 2.341610044240951538e-01 1.092925369739532471e-01
1.091163754463195801e-01 -4.286208450794219971e-01 -8.627340942621231079e-02
1.010650470852851868e-01 -4.251514971256256104e-01 -9.726800769567489624e-02
1.018343716859817505e-01 -4.356625080108642578e-01 -7.113528251647949219e-02
9.383573383092880249e-02 -4.324792325496673584e-01 -8.178009837865829468e-02
6.421959400177001953e-01 -2.690685093402862549e-01 1.779213249683380127e-01
6.447479128837585449e-01 -2.507145404815673828e-01 1.859048157930374146e-01
6.315494179725646973e-01 -2.734455764293670654e-01 1.886584907770156860e-01
6.342583894729614258e-01 -2.550531923770904541e-01 1.966567486524581909e-01
-5.239868164062500000e-01 1.537490449845790863e-02 -2.272563725709915161e-01
-5.196008682250976562e-01 3.295140340924263000e-02 -2.184691876173019409e-01
-5.371376276016235352e-01 2.243329212069511414e-02 -2.230752706527709961e-01
-5.322179794311523438e-01 3.979120403528213501e-02 -2.147984653711318970e-01
1.400343030691146851e-01 1.009428426623344421e-01 -2.882705815136432648e-02
1.276296377182006836e-01 1.114151701331138611e-01 -2.799647115170955658e-02
1.386768519878387451e-01 1.057356372475624084e-01 -2.244997397065162659e-02
1.263766884803771973e-01 1.160387694835662842e-01 -2.156096510589122772e-02
6.722522377967834473e-01 -3.016307353973388672e-01 -4.165307618677616119e-04
6.629501581192016602e-01 -3.061859905719757080e-01 -1.112077943980693817e-02
6.655362844467163086e-01 -3.068036139011383057e-01 1.939848065376281738e-02
6.563218235969543457e-01 -3.114873766899108887e-01 8.672639727592468262e-03
-4.769408404827117920e-01 -4.717690348625183105e-01 6.595923751592636108e-02
-4.962284564971923828e-01 -4.667385220527648926e-01 6.180304661393165588e-02
-4.757855534553527832e-01 -4.626184701919555664e-01 8.161745220422744751e-02
-4.940822422504425049e-01 -4.574299454689025879e-01 7.830888032913208008e-02
8.057663440704345703e-01 -1.498258560895919800e-01 -3.883599862456321716e-02
8.057742714881896973e-01 -1.381131857633590698e-01 -4.045683890581130981e-02
8.076468706130981445e-01 -1.541603952646255493e-01 -2.631055749952793121e-02
8.085142970085144043e-01 -1.410938352346420288e-01 -2.947609312832355499e-02
-6.175832748413085938e-01 -2.824873626232147217e-01 -1.567725390195846558e-01
-6.203153133392333984e-01 -2.633903026580810547e-01 -1.666485220193862915e-01
-6.257109045982360840e-01 -2.876994311809539795e-01 -1.432155370712280273e-01
-6.283615231513977051e-01 -2.707668840885162354e-01 -1.520391553640365601e-01
-6.205382943153381348e-01 3.634540364146232605e-02 -5.865162611007690430e-02
-6.437922120094299316e-01 3.941369056701660156e-02 -6.619141995906829834e-02
-6.185097694396972656e-01 3.587521612644195557e-02 -5.452021583914756775e-02
-6.417636871337890625e-01 3.894350677728652954e-02 -6.206001341342926025e-02
7.611134648323059082e-01 2.281386256217956543e-01 7.059515453875064850e-03
7.587523460388183594e-01 2.308926582336425781e-01 1.157953217625617981e-02
7.526815533638000488e-01 2.290213555097579956e-01 2.323736250400543213e-02
7.474845051765441895e-01 2.276845723390579224e-01 2.035341784358024597e-02
-2.389914542436599731e-01 -2.240131199359893799e-01 -2.662849128246307373e-01
-2.532223463058471680e-01 -2.127198129892349243e-01 -2.681415677070617676e-01
-2.500511705875396729e-01 -2.363364249467849731e-01 -2.619843482971191406e-01
-2.643711268901824951e-01 -2.251376956701278687e-01 -2.637595534324645996e-01
-5.909252166748046875e-01 3.111618459224700928e-01 1.712999045848846436e-01
-6.045349240303039551e-01 3.106169700622558594e-01 1.607444286346435547e-01
-5.981703996658325195e-01 3.070867359638214111e-01 1.868238449096679688e-01
-6.106376647949218750e-01 3.071422874927520752e-01 1.770452558994293213e-01
-6.020005345344543457e-01 -2.071348130702972412e-01 -2.083677053451538086e-01
-6.032278537750244141e-01 -1.881998032331466675e-01 -2.115969061851501465e-01
-6.155856847763061523e-01 -2.133195400238037109e-01 -1.966751068830490112e-01
-6.163722276687622070e-01 -1.957216262817382812e-01 -2.000532597303390503e-01
-5.336481332778930664e-01 2.753436267375946045e-01 -1.325285136699676514e-01
-5.377425551414489746e-01 2.916547060012817383e-01 -1.348290294408798218e-01
-5.282477140426635742e-01 2.727156579494476318e-01 -1.143981739878654480e-01
-5.317271947860717773e-01 2.903237938880920410e-01 -1.154703795909881592e-01
4.065837264060974121e-01 -3.838784098625183105e-01 3.581095114350318909e-02
3.942000269889831543e-01 -3.902216851711273193e-01 2.685819007456302643e-02
4.048052728176116943e-01 -3.866245150566101074e-01 5.185100808739662170e-02
3.903495669364929199e-01 -3.946784734725952148e-01 4.503339156508445740e-02
2.637505531311035156e-01 -6.144230719655752182e-04 2.036044299602508545e-01
2.616723775863647461e-01 1.369929593056440353e-02 2.011635601520538330e-01
2.515317797660827637e-01 -5.935832392424345016e-03 2.112599760293960571e-01
2.491392940282821655e-01 8.388649672269821167e-03 2.091688215732574463e-01
-5.062499046325683594e-01 -4.541410803794860840e-01 -7.882729172706604004e-02
-5.157097578048706055e-01 -4.382872283458709717e-01 -9.305500239133834839e-02
-5.102869272232055664e-01 -4.593321382999420166e-01 -6.179708987474441528e-02
-5.195391774177551270e-01 -4.441472291946411133e-01 -7.593175023794174194e-02
5.384017825126647949e-01 -3.155894279479980469e-01 8.883679658174514771e-02
5.249236822128295898e-01 -3.179454803466796875e-01 9.038041532039642334e-02
5.309262275695800781e-01 -3.107886016368865967e-01 1.005748063325881958e-01
5.201798081398010254e-01 -3.077578246593475342e-01 1.058958992362022400e-01
3.090822398662567139e-01 -1.112734600901603699e-01 -1.475755572319030762e-01
2.920480370521545410e-01 -9.742653369903564453e-02 -1.497389227151870728e-01
3.193304240703582764e-01 -1.050682812929153442e-01 -1.433195918798446655e-01
3.025217652320861816e-01 -9.174793958663940430e-02 -1.452427655458450317e-01
8.140371739864349365e-02 -3.769713044166564941e-01 1.762094795703887939e-01
8.870883285999298096e-02 -3.626024723052978516e-01 1.869275718927383423e-01
6.641996651887893677e-02 -3.721815049648284912e-01 1.861785948276519775e-01
7.352351397275924683e-02 -3.578487336635589600e-01 1.956304013729095459e-01
7.448239922523498535e-01 -2.260367423295974731e-01 -1.077827345579862595e-02
7.458984255790710449e-01 -2.216649949550628662e-01 -1.631055399775505066e-02
7.424029111862182617e-01 -2.280780225992202759e-01 3.624708857387304306e-03
7.516393661499023438e-01 -2.191309630870819092e-01 1.111269928514957428e-03
3.352958243340253830e-03 -8.697849698364734650e-04 -1.805493533611297607e-01
-1.303204335272312164e-02 4.771563224494457245e-03 -1.883582919836044312e-01
1.198735646903514862e-02 4.415833856910467148e-03 -1.676602512598037720e-01
-4.432385321706533432e-03 1.018149312585592270e-02 -1.756033003330230713e-01
7.335992455482482910e-01 -2.337528467178344727e-01 2.439215406775474548e-02
7.448285818099975586e-01 -2.238888740539550781e-01 2.256260626018047333e-02
7.324784994125366211e-01 -2.345219701528549194e-01 4.337681457400321960e-02
7.455132007598876953e-01 -2.227665334939956665e-01 4.294089227914810181e-02
-8.509647101163864136e-02 -2.141612172126770020e-01 2.934123873710632324e-01
-9.318909049034118652e-02 -1.984004974365234375e-01 2.957349121570587158e-01
-1.019910424947738647e-01 -2.174522280693054199e-01 2.940873503684997559e-01
-1.088727340102195740e-01 -2.016690820455551147e-01 2.965512573719024658e-01
-3.012967109680175781e-01 -4.552490413188934326e-01 -1.034458130598068237e-01
-3.130099475383758545e-01 -4.478718936443328857e-01 -1.128191724419593811e-01
-3.063435256481170654e-01 -4.667743444442749023e-01 -9.046983718872070312e-02
-3.183965981006622314e-01 -4.598721563816070557e-01 -9.967717528343200684e-02
-3.606383800506591797e-01 4.233817104250192642e-03 -2.196132242679595947e-01
-3.528552353382110596e-01 1.780469715595245361e-02 -2.092233002185821533e-01
-3.752648234367370605e-01 8.093563839793205261e-03 -2.062070965766906738e-01
-3.658082485198974609e-01 2.159595862030982971e-02 -2.019612789154052734e-01
-6.302958726882934570e-02 1.324750930070877075e-01 1.757549494504928589e-02
-7.639724761247634888e-02 1.352653652429580688e-01 5.997090600430965424e-03
-7.467784732580184937e-02 1.300041079521179199e-01 4.027668759226799011e-02
-8.781114220619201660e-02 1.332531124353408813e-01 2.868357114493846893e-02
-9.865666925907135010e-02 -6.597520411014556885e-02 2.820556759834289551e-01
-1.094224676489830017e-01 -4.938283562660217285e-02 2.784004211425781250e-01
-1.115223616361618042e-01 -7.845737785100936890e-02 2.868984341621398926e-01
-1.210995391011238098e-01 -6.174303218722343445e-02 2.832308709621429443e-01
4.892386496067047119e-01 -3.185535222291946411e-02 1.309341639280319214e-01
4.740657210350036621e-01 -2.312784455716609955e-02 1.247982382774353027e-01
4.804472625255584717e-01 -4.576514661312103271e-02 1.396593451499938965e-01
4.663814902305603027e-01 -3.558310493826866150e-02 1.348493397235870361e-01
2.260544709861278534e-02 -4.480166137218475342e-01 1.158813014626502991e-01
4.461043514311313629e-03 -4.523863196372985840e-01 1.133654490113258362e-01
1.907457411289215088e-02 -4.437265396118164062e-01 1.335276663303375244e-01
2.051393501460552216e-03 -4.479647874832153320e-01 1.314901709556579590e-01
-3.933541774749755859e-01 2.076790854334831238e-02 8.542878925800323486e-02
-4.064346551895141602e-01 1.328482478857040405e-02 7.305408269166946411e-02
-3.953489959239959717e-01 1.621999777853488922e-02 1.015347242355346680e-01
-4.081408977508544922e-01 9.614560753107070923e-03 8.908101171255111694e-02
5.041084289550781250e-01 -2.393970340490341187e-01 1.310793757438659668e-01
5.015532970428466797e-01 -2.270544171333312988e-01 1.364978998899459839e-01
4.849292635917663574e-01 -2.402726560831069946e-01 1.315685659646987915e-01
4.836314618587493896e-01 -2.278906404972076416e-01 1.364793628454208374e-01
1.088766679167747498e-01 8.672645688056945801e-02 2.261748723685741425e-02
9.596817195415496826e-02 8.886559307575225830e-02 1.746856048703193665e-02
1.104840859770774841e-01 8.711487799882888794e-02 3.693538159132003784e-02
9.728144109249114990e-02 8.987990766763687134e-02 3.292337432503700256e-02
8.124462962150573730e-01 -1.652328483760356903e-02 -4.594344645738601685e-02
7.937515974044799805e-01 -5.959791596978902817e-03 -5.527284741401672363e-02
8.074587583541870117e-01 -2.977715432643890381e-02 -4.309454187750816345e-02
7.885292172431945801e-01 -2.006087079644203186e-02 -5.268106237053871155e-02
6.865727305412292480e-01 3.622235730290412903e-02 1.349464505910873413e-01
6.740379929542541504e-01 4.302536696195602417e-02 1.305586993694305420e-01
6.739668846130371094e-01 1.977722160518169403e-02 1.367309987545013428e-01
6.626596450805664062e-01 2.744122780859470367e-02 1.336064189672470093e-01
-3.745174109935760498e-01 -1.015975326299667358e-01 -2.686295807361602783e-01
-3.747036457061767578e-01 -8.655868470668792725e-02 -2.639442086219787598e-01
-3.860091865062713623e-01 -1.026707962155342102e-01 -2.664825618267059326e-01
