9.581099999999999339e-02 1.672599999999999920e-01 4.818709999999999938e-01
2.089890000000000081e-01 2.804320000000000146e-01 2.770079999999999765e-01
2.237490000000000034e-01 1.460589999999999944e-01 5.026960000000000317e-01
9.873899999999999344e-02 1.923040000000000027e-01 5.911500000000000088e-02
2.393609999999999904e-01 2.782089999999999841e-01 4.052350000000000119e-01
1.212349999999999955e-01 2.440080000000000027e-01 5.282919999999999838e-01
2.323000000000000065e-01 1.575310000000000044e-01 2.474089999999999900e-01
1.875960000000000127e-01 2.720739999999999825e-01 7.210560000000000302e-01
1.416050000000000086e-01 1.693139999999999923e-01 2.112519999999999953e-01
2.829119999999999968e-01 2.321449999999999902e-01 2.529529999999999834e-01
3.588000000000000217e-02 1.884109999999999951e-01 7.337989999999999791e-01
1.584309999999999885e-01 2.665440000000000031e-01 5.487560000000000215e-01
1.863519999999999899e-01 2.774900000000000144e-01 6.963219999999999965e-01
1.861420000000000019e-01 1.562830000000000052e-01 2.419000000000000039e-01
1.898009999999999975e-01 2.853479999999999905e-01 1.001760000000000012e-01
2.529159999999999742e-01 2.328820000000000057e-01 8.023510000000000364e-01
1.874119999999999953e-01 1.524020000000000097e-01 2.059739999999999904e-01
2.488269999999999926e-01 2.657329999999999970e-01 4.787710000000000021e-01
1.449699999999999878e-01 2.604480000000000128e-01 5.033889999999999754e-01
1.939049999999999940e-01 2.848510000000000209e-01 1.183010000000000034e-01
1.109040000000000026e-01 2.019980000000000109e-01 4.377050000000000107e-01
1.411380000000000134e-01 2.902179999999999760e-01 5.204099999999999698e-02
1.612439999999999984e-01 1.979160000000000086e-01 7.165510000000000490e-01
1.595959999999999879e-01 2.130189999999999861e-01 8.782370000000000454e-01
2.345329999999999915e-01 1.526349999999999929e-01 1.812400000000000122e-01
1.729680000000000106e-01 2.762060000000000071e-01 6.583930000000000060e-01
2.683920000000000194e-01 1.570100000000000107e-01 4.434060000000000223e-01
2.146349999999999925e-01 1.888980000000000103e-01 6.006580000000000252e-01
1.722289999999999932e-01 1.965939999999999910e-01 7.257989999999999720e-01
7.840099999999999847e-02 1.941219999999999890e-01 7.390020000000000477e-01
2.068399999999999961e-01 1.315199999999999980e-01 4.364500000000000324e-02
2.734559999999999769e-01 1.657980000000000009e-01 8.540210000000000301e-01
2.652570000000000205e-01 1.595229999999999981e-01 7.349700000000000677e-02
1.774489999999999956e-01 2.255189999999999972e-01 2.500000000000000139e-02
2.233980000000000132e-01 2.761419999999999986e-01 7.141260000000000385e-01
2.865690000000000182e-01 2.239929999999999977e-01 3.329380000000000117e-01
2.288540000000000019e-01 1.445549999999999891e-01 4.591790000000000038e-01
2.621709999999999874e-01 2.313979999999999926e-01 8.022850000000000259e-01
1.908590000000000009e-01 2.123770000000000102e-01 7.798300000000000232e-01
2.324549999999999950e-01 1.774499999999999966e-01 2.500000000000000139e-02
2.803910000000000013e-01 1.867929999999999868e-01 6.174939999999999873e-01
1.859949999999999937e-01 1.529399999999999926e-01 2.083129999999999982e-01
2.975059999999999927e-01 2.710810000000000164e-01 6.700019999999999865e-01
5.093799999999999717e-02 1.756929999999999881e-01 7.693520000000000358e-01
1.073289999999999939e-01 2.024749999999999883e-01 4.706139999999999768e-01
2.710620000000000251e-01 1.216099999999999959e-01 7.656760000000000232e-01
1.164450000000000068e-01 2.473200000000000121e-01 6.351120000000000099e-01
1.595940000000000136e-01 1.571480000000000099e-01 4.277299999999999991e-01
1.668669999999999876e-01 1.630530000000000035e-01 2.603949999999999876e-01
2.469040000000000123e-01 2.662829999999999919e-01 2.351090000000000124e-01
3.148409999999999820e-01 1.229650000000000049e-01 6.280360000000000387e-01
2.399090000000000111e-01 1.535930000000000073e-01 1.702569999999999917e-01
1.952319999999999889e-01 1.402420000000000055e-01 1.122879999999999989e-01
2.005649999999999933e-01 2.853700000000000125e-01 1.902040000000000119e-01
9.897200000000000442e-02 1.494570000000000065e-01 6.101079999999999837e-01
1.107849999999999946e-01 1.963260000000000005e-01 1.749310000000000032e-01
1.741580000000000072e-01 1.834240000000000037e-01 6.221659999999999968e-01
2.808849999999999958e-01 2.276829999999999965e-01 1.857499999999999984e-01
2.391790000000000027e-01 1.526929999999999954e-01 4.316969999999999974e-01
2.855880000000000085e-01 2.266430000000000111e-01 3.117650000000000143e-01
1.906079999999999997e-01 2.084999999999999909e-01 8.037539999999999685e-01
3.299949999999999828e-01 1.778619999999999923e-01 7.705809999999999604e-01
1.841839999999999866e-01 2.253819999999999990e-01 9.058429999999999538e-01
2.022539999999999893e-01 2.820420000000000149e-01 2.724489999999999967e-01
2.275270000000000070e-01 1.628719999999999890e-01 3.363329999999999931e-01
2.542429999999999968e-01 1.487920000000000076e-01 4.506020000000000025e-01
2.877930000000000210e-01 1.611539999999999917e-01 5.309679999999999955e-01
1.498639999999999972e-01 2.633150000000000213e-01 5.599709999999999965e-01
3.279159999999999853e-01 2.178620000000000001e-01 5.373219999999999663e-01
2.264009999999999911e-01 2.747490000000000210e-01 5.691899999999999737e-01
1.335399999999999920e-01 2.532229999999999759e-01 5.155349999999999655e-01
6.492399999999999560e-02 2.197320000000000106e-01 5.803129999999999677e-01
2.890719999999999956e-01 1.330989999999999951e-01 6.714350000000000041e-01
2.085299999999999931e-01 2.387309999999999988e-01 8.204529999999999879e-01
3.012199999999999878e-01 1.826389999999999958e-01 8.095109999999999806e-01
2.745409999999999795e-01 2.626680000000000126e-01 3.950980000000000047e-01
6.036500000000000199e-02 2.246070000000000011e-01 6.360240000000000338e-01
6.881900000000000517e-02 1.578070000000000028e-01 5.413189999999999946e-01
1.539570000000000105e-01 2.359680000000000111e-01 8.461410000000000320e-01
1.934259999999999868e-01 1.465349999999999986e-01 1.614710000000000034e-01
1.568469999999999864e-01 2.692339999999999733e-01 7.359700000000000131e-01
7.130300000000000527e-02 1.493619999999999948e-01 6.105249999999999844e-01
1.311579999999999968e-01 2.307160000000000044e-01 7.010520000000000085e-01
1.413979999999999959e-01 1.801240000000000063e-01 3.238510000000000000e-01
2.903490000000000237e-01 2.580790000000000028e-01 5.495759999999999534e-01
4.902000000000000107e-02 1.694589999999999985e-01 5.684599999999999653e-01
2.319140000000000090e-01 2.839260000000000117e-01 3.612810000000000188e-01
2.103599999999999914e-01 2.807430000000000203e-01 2.496009999999999895e-01
1.654869999999999952e-01 2.657439999999999802e-01 7.877650000000000485e-01
1.576170000000000071e-01 2.897989999999999733e-01 8.988500000000000656e-02
1.793939999999999979e-01 1.376110000000000111e-01 5.276300000000000434e-01
3.229819999999999913e-01 1.845330000000000026e-01 6.847980000000000178e-01
3.344730000000000203e-01 2.255469999999999975e-01 6.663280000000000314e-01
2.734860000000000069e-01 2.443649999999999989e-01 1.685719999999999996e-01
1.368040000000000089e-01 1.808359999999999967e-01 2.884530000000000149e-01
1.094259999999999955e-01 2.285220000000000029e-01 3.422430000000000194e-01
1.702110000000000012e-01 1.491480000000000028e-01 5.630349999999999522e-01
4.983800000000000036e-02 1.776270000000000071e-01 7.620940000000000492e-01
2.468660000000000021e-01 1.503609999999999947e-01 1.112059999999999993e-01
4.552500000000000296e-02 1.851549999999999863e-01 5.674890000000000212e-01
1.887310000000000099e-01 2.647090000000000276e-01 7.822850000000000081e-01
1.099460000000000021e-01 2.223330000000000028e-01 3.856660000000000088e-01
3.267930000000000001e-01 2.122960000000000125e-01 7.388139999999999707e-01
2.912190000000000056e-01 1.359170000000000100e-01 6.505790000000000184e-01
7.079199999999999382e-02 1.851679999999999993e-01 7.644469999999999876e-01
2.683909999999999907e-01 2.627749999999999808e-01 5.279160000000000519e-01
8.641400000000000470e-02 2.124570000000000070e-01 6.452919999999999767e-01
1.888269999999999949e-01 2.478879999999999972e-01 8.645420000000000327e-01
2.828160000000000118e-01 1.032760000000000067e-01 7.412260000000000515e-01
1.574349999999999916e-01 2.447499999999999953e-01 8.435000000000000275e-01
1.836180000000000034e-01 2.877379999999999938e-01 1.633370000000000100e-01
2.003850000000000076e-01 1.990659999999999930e-01 6.494079999999999853e-01
2.921489999999999920e-01 2.350180000000000047e-01 4.567720000000000113e-01
1.074029999999999985e-01 2.220870000000000066e-01 2.685359999999999969e-01
2.219389999999999974e-01 1.926209999999999867e-01 6.940309999999999535e-01
2.514859999999999873e-01 1.934569999999999901e-01 8.486759999999999859e-01
2.778700000000000059e-01 7.281200000000000172e-02 8.254850000000000243e-01
3.144979999999999998e-01 1.241960000000000008e-01 6.973040000000000349e-01
1.549339999999999884e-01 1.547099999999999864e-01 5.833789999999999809e-01
3.345870000000000233e-01 2.192560000000000064e-01 6.690340000000000176e-01
9.049000000000000099e-02 2.105670000000000042e-01 3.413499999999999868e-02
2.306860000000000022e-01 1.630030000000000090e-01 3.647589999999999999e-01
2.754139999999999922e-01 1.933429999999999871e-01 2.539620000000000211e-01
1.716969999999999885e-01 1.445049999999999946e-01 1.194260000000000044e-01
2.807129999999999903e-01 2.360019999999999896e-01 2.344140000000000112e-01
2.709349999999999814e-01 2.744349999999999845e-01 6.726100000000000412e-01
3.013379999999999947e-01 1.930419999999999914e-01 6.996820000000000261e-01
5.922299999999999787e-02 1.721119999999999872e-01 5.458849999999999536e-01
1.266420000000000046e-01 1.778639999999999943e-01 6.415600000000000191e-01
1.696920000000000095e-01 2.826890000000000236e-01 3.937269999999999937e-01
1.979299999999999948e-01 2.556899999999999729e-01 7.615709999999999980e-01
2.739679999999999893e-01 1.784439999999999915e-01 1.241740000000000066e-01
1.790549999999999919e-01 2.646930000000000116e-01 8.040629999999999722e-01
1.947750000000000037e-01 2.823629999999999751e-01 3.800270000000000037e-01
5.347099999999999770e-02 1.645409999999999928e-01 7.949490000000000167e-01
2.024110000000000076e-01 2.751009999999999844e-01 4.889299999999999757e-01
2.438710000000000044e-01 1.566039999999999932e-01 1.828940000000000010e-01
2.412519999999999942e-01 2.685739999999999794e-01 4.798689999999999900e-01
2.472660000000000136e-01 2.813950000000000062e-01 6.829699999999999660e-01
1.643050000000000066e-01 2.605580000000000118e-01 8.116370000000000529e-01
2.761140000000000261e-01 2.317339999999999955e-01 1.188990000000000047e-01
6.317200000000000593e-02 1.705119999999999969e-01 7.928209999999999980e-01
8.699300000000000088e-02 2.115809999999999913e-01 6.455199999999999827e-01
1.963390000000000135e-01 2.780409999999999826e-01 6.818840000000000456e-01
2.621249999999999969e-01 2.451119999999999965e-01 6.720800000000000385e-02
2.133279999999999899e-01 2.806069999999999953e-01 1.522670000000000134e-01
1.581160000000000065e-01 2.521059999999999968e-01 8.261960000000000415e-01
2.719940000000000135e-01 2.417960000000000109e-01 7.348050000000000415e-01
2.377690000000000081e-01 2.224369999999999958e-01 8.100519999999999943e-01
8.306199999999999695e-02 1.529899999999999871e-01 7.569069999999999965e-01
1.926249999999999907e-01 2.623269999999999769e-01 7.750609999999999999e-01
1.159329999999999944e-01 2.445319999999999994e-01 3.720669999999999811e-01
2.324539999999999940e-01 1.960669999999999913e-01 6.406300000000000328e-01
2.762270000000000003e-01 2.609659999999999758e-01 3.941990000000000216e-01
1.050439999999999985e-01 2.327450000000000074e-01 1.481280000000000097e-01
3.363869999999999916e-01 1.521000000000000130e-01 6.451590000000000380e-01
1.174029999999999935e-01 2.542940000000000200e-01 2.268719999999999903e-01
3.139770000000000061e-01 2.030250000000000110e-01 7.200469999999999926e-01
2.509879999999999889e-01 1.671549999999999980e-01 2.699480000000000213e-01
2.922200000000000145e-02 1.779550000000000021e-01 7.295509999999999495e-01
3.343590000000000173e-01 2.538569999999999993e-01 6.451649999999999885e-01
1.145400000000000029e-01 2.015540000000000109e-01 3.722199999999999953e-01
1.089180000000000009e-01 2.160569999999999991e-01 3.235779999999999768e-01
2.666910000000000114e-01 2.746640000000000192e-01 6.347429999999999461e-01
1.896710000000000063e-01 2.712109999999999799e-01 7.207639999999999603e-01
2.172969999999999902e-01 2.759539999999999771e-01 5.221099999999999630e-01
1.586319999999999952e-01 2.089660000000000128e-01 7.972010000000000485e-01
1.145589999999999942e-01 1.916889999999999983e-01 1.862649999999999861e-01
1.187290000000000012e-01 2.283239999999999992e-01 6.608690000000000397e-01
1.558420000000000083e-01 2.110200000000000131e-01 7.940989999999999993e-01
8.733499999999999597e-02 1.425589999999999913e-01 5.355849999999999778e-01
1.513140000000000041e-01 1.587250000000000050e-01 1.685359999999999914e-01
3.476699999999999791e-01 2.053310000000000135e-01 6.603980000000000405e-01
2.207689999999999930e-01 1.432670000000000055e-01 4.665170000000000150e-01
2.029440000000000133e-01 2.505160000000000164e-01 7.914980000000000349e-01
1.399229999999999918e-01 2.165289999999999992e-01 2.500000000000000139e-02
1.213940000000000019e-01 1.955020000000000091e-01 3.296109999999999873e-01
2.403210000000000068e-01 4.609800000000000009e-02 8.455719999999999903e-01
8.588500000000000301e-02 1.784169999999999923e-01 4.964850000000000096e-01
2.853149999999999853e-01 2.743720000000000048e-01 6.757609999999999451e-01
1.760299999999999920e-01 1.950060000000000127e-01 7.084690000000000154e-01
1.843519999999999881e-01 1.530549999999999966e-01 2.062809999999999921e-01
1.241720000000000046e-01 2.532539999999999791e-01 6.210449999999999582e-01
1.116960000000000036e-01 2.073010000000000130e-01 3.022039999999999726e-01
2.711259999999999781e-01 1.669589999999999963e-01 7.732100000000000084e-02
2.885570000000000079e-01 1.822100000000000108e-01 4.458670000000000133e-01
2.864499999999999824e-01 2.401270000000000071e-01 3.730029999999999735e-01
2.643139999999999934e-01 2.603509999999999991e-01 4.299080000000000124e-01
7.265399999999999636e-02 1.795950000000000046e-01 5.201900000000000412e-01
1.571110000000000007e-01 2.214980000000000004e-01 8.677030000000000021e-01
2.841330000000000244e-01 1.341539999999999955e-01 8.219109999999999472e-01
2.110180000000000111e-01 1.972780000000000089e-01 6.674039999999999973e-01
1.517209999999999948e-01 1.487989999999999868e-01 5.756489999999999663e-01
8.502700000000000535e-02 2.151619999999999922e-01 5.339479999999999782e-01
7.205799999999999705e-02 2.264319999999999944e-01 6.344720000000000359e-01
1.807840000000000003e-01 2.411800000000000055e-01 8.770059999999999523e-01
3.375020000000000242e-01 2.442940000000000111e-01 5.977740000000000276e-01
1.921980000000000077e-01 1.401820000000000010e-01 1.101310000000000067e-01
2.377690000000000081e-01 1.968789999999999984e-01 7.429409999999999625e-01
2.427980000000000138e-01 2.856389999999999763e-01 3.727579999999999782e-01
3.122770000000000268e-01 1.687339999999999951e-01 6.171860000000000124e-01
2.096580000000000110e-01 2.809229999999999783e-01 1.297540000000000082e-01
2.533409999999999829e-01 2.597030000000000172e-01 7.360320000000000196e-01
2.566320000000000268e-01 1.987240000000000117e-01 7.366660000000000430e-01
1.752829999999999944e-01 2.856480000000000130e-01 3.135970000000000146e-01
2.262059999999999904e-01 1.849919999999999898e-01 7.875250000000000306e-01
3.291600000000000081e-01 2.382900000000000018e-01 6.644539999999999891e-01
2.784869999999999846e-01 1.949309999999999932e-01 1.628179999999999905e-01
1.067990000000000050e-01 2.146530000000000105e-01 2.049630000000000063e-01
1.355179999999999996e-01 2.743090000000000250e-01 2.339060000000000028e-01
1.168509999999999965e-01 2.471299999999999886e-01 5.872020000000000017e-01
3.092940000000000134e-01 2.309839999999999949e-01 4.967500000000000249e-01
2.543190000000000173e-01 2.443130000000000024e-01 2.500399999999999845e-02
2.301799999999999957e-01 2.738929999999999976e-01 1.330860000000000098e-01
2.346270000000000022e-01 2.790810000000000235e-01 7.156080000000000219e-01
2.797299999999999787e-01 1.587770000000000015e-01 4.603459999999999774e-01
2.485610000000000042e-01 2.306769999999999932e-01 2.500000000000000139e-02
2.194589999999999874e-01 1.319289999999999907e-01 2.946299999999999961e-02
2.052130000000000065e-01 2.771759999999999780e-01 4.419290000000000163e-01
1.475829999999999920e-01 2.635879999999999890e-01 7.294450000000000101e-01
1.562639999999999862e-01 1.431600000000000095e-01 8.647599999999999731e-02
1.117070000000000007e-01 2.087960000000000094e-01 3.284730000000000150e-01
5.501799999999999746e-02 1.563410000000000077e-01 7.974069999999999769e-01
2.545680000000000165e-01 1.071079999999999949e-01 7.283990000000000187e-01
2.047690000000000066e-01 1.597399999999999931e-01 3.442410000000000192e-01
2.329730000000000134e-01 1.778740000000000043e-01 7.873179999999999623e-01
2.917739999999999778e-01 2.336920000000000108e-01 4.477030000000000176e-01
8.943399999999999961e-02 1.779729999999999923e-01 6.716130000000000155e-01
2.225989999999999913e-01 2.752620000000000067e-01 5.324309999999999876e-01
1.504800000000000026e-01 1.708220000000000016e-01 3.754569999999999852e-01
2.505780000000000229e-01 1.672319999999999918e-01 3.928719999999999990e-01
1.384039999999999992e-01 2.754800000000000026e-01 3.189279999999999893e-01
1.732579999999999953e-01 2.741959999999999953e-01 6.268590000000000551e-01
9.475300000000000389e-02 2.336110000000000131e-01 5.619169999999999998e-01
5.730500000000000177e-02 1.566240000000000132e-01 6.313260000000000538e-01
2.234690000000000010e-01 2.111550000000000094e-01 7.967379999999999463e-01
3.213650000000000118e-01 2.158309999999999951e-01 7.201030000000000486e-01
2.995369999999999977e-01 2.350899999999999934e-01 4.801799999999999957e-01
2.953359999999999874e-01 2.716180000000000261e-01 6.744729999999999892e-01
2.469590000000000118e-01 1.163779999999999953e-01 7.054610000000000047e-01
2.667820000000000191e-01 2.548009999999999997e-01 2.098279999999999867e-01
3.329500000000000237e-01 1.933459999999999901e-01 7.963069999999999871e-01
2.682039999999999980e-01 1.782030000000000003e-01 1.875390000000000112e-01
2.085259999999999891e-01 2.343379999999999908e-01 8.199549999999999894e-01
8.541600000000000581e-02 1.684769999999999879e-01 7.787830000000000030e-01
1.422769999999999868e-01 2.366550000000000042e-01 2.500000000000000139e-02
2.728990000000000027e-01 2.642019999999999924e-01 6.999589999999999979e-01
4.316699999999999704e-02 1.776490000000000014e-01 7.509700000000000264e-01
1.825479999999999881e-01 1.524870000000000114e-01 1.973519999999999996e-01
1.101560000000000039e-01 1.352160000000000029e-01 5.075439999999999952e-01
1.450990000000000058e-01 2.913459999999999939e-01 5.064099999999999852e-02
2.034789999999999932e-01 2.166289999999999882e-01 8.262359999999999705e-01
3.808000000000000274e-02 1.693709999999999938e-01 6.028710000000000457e-01
1.634269999999999889e-01 1.942329999999999890e-01 6.657929999999999682e-01
7.682899999999999452e-02 1.904210000000000069e-01 5.171069999999999833e-01
1.874020000000000130e-01 2.443700000000000039e-01 8.715389999999999526e-01
2.203330000000000011e-01 1.759900000000000075e-01 5.685350000000000126e-01
1.493510000000000115e-01 1.592419999999999947e-01 1.660149999999999959e-01
1.601519999999999888e-01 2.777299999999999769e-01 4.134459999999999802e-01
1.419080000000000064e-01 2.667680000000000051e-01 6.825470000000000148e-01
1.060470000000000024e-01 2.494790000000000063e-01 1.042659999999999976e-01
2.081429999999999947e-01 2.805799999999999961e-01 2.819559999999999844e-01
2.495429999999999870e-01 1.827779999999999960e-01 5.788379999999999637e-01
1.417720000000000091e-01 1.532769999999999966e-01 1.098279999999999951e-01
1.897290000000000088e-01 1.959780000000000133e-01 6.789589999999999792e-01
1.490390000000000048e-01 2.683189999999999742e-01 6.604499999999999815e-01
1.834820000000000062e-01 1.765490000000000115e-01 5.978430000000000133e-01
2.183769999999999878e-01 2.393010000000000137e-01 7.605709999999999971e-01
2.188799999999999912e-01 1.605669999999999875e-01 3.763210000000000166e-01
1.143809999999999966e-01 2.465970000000000106e-01 2.593090000000000117e-01
3.102190000000000225e-01 1.292139999999999955e-01 6.333029999999999493e-01
2.978729999999999989e-01 1.311700000000000088e-01 6.148919999999999941e-01
2.251509999999999900e-01 2.737959999999999838e-01 4.479870000000000241e-01
3.264340000000000019e-01 1.648350000000000093e-01 6.245749999999999913e-01
1.150530000000000025e-01 1.989319999999999977e-01 3.841860000000000275e-01
2.059620000000000062e-01 1.983070000000000110e-01 8.739559999999999551e-01
7.219000000000000417e-02 1.970780000000000032e-01 7.379040000000000044e-01
1.968429999999999902e-01 2.769460000000000255e-01 5.371489999999999876e-01
1.851039999999999908e-01 1.486840000000000106e-01 5.497649999999999482e-01
1.020550000000000068e-01 2.496180000000000065e-01 7.643600000000000394e-02
5.606699999999999878e-02 1.534220000000000028e-01 6.000379999999999603e-01
2.815659999999999830e-01 1.973209999999999964e-01 1.113159999999999983e-01
2.910820000000000074e-01 1.883769999999999889e-01 8.216290000000000537e-01
1.467819999999999958e-01 2.375049999999999939e-01 7.961920000000000108e-01
2.487540000000000029e-01 1.541970000000000007e-01 1.331289999999999973e-01
3.026289999999999814e-01 1.716100000000000125e-01 6.189890000000000114e-01
1.611400000000000055e-01 1.537429999999999908e-01 4.330229999999999912e-01
2.651640000000000108e-01 1.723310000000000120e-01 5.596410000000000551e-01
2.816040000000000210e-01 1.562240000000000018e-01 5.077049999999999619e-01
3.204629999999999979e-01 1.320719999999999950e-01 6.405079999999999663e-01
1.878910000000000025e-01 1.538829999999999920e-01 2.205660000000000120e-01
2.478059999999999985e-01 1.687420000000000031e-01 3.293690000000000229e-01
1.057479999999999948e-01 2.527479999999999727e-01 9.231699999999999628e-02
1.056310000000000027e-01 2.647889999999999966e-01 5.065499999999999864e-02
2.695839999999999903e-01 7.713499999999999523e-02 8.214150000000000063e-01
1.505610000000000004e-01 1.551420000000000021e-01 4.387989999999999946e-01
1.486679999999999946e-01 2.404330000000000078e-01 8.052679999999999838e-01
1.148119999999999974e-01 2.284549999999999914e-01 6.520590000000000552e-01
2.769659999999999900e-01 2.255669999999999897e-01 8.726000000000000423e-02
2.490570000000000006e-01 1.662250000000000116e-01 2.728769999999999807e-01
1.122299999999999964e-01 2.349269999999999969e-01 3.833989999999999898e-01
1.669829999999999925e-01 2.061600000000000099e-01 7.526030000000000220e-01
2.553960000000000119e-01 1.692849999999999910e-01 3.956410000000000204e-01
1.913910000000000056e-01 2.233769999999999922e-01 9.088159999999999572e-01
2.834940000000000238e-01 1.792269999999999974e-01 4.385479999999999934e-01
2.842609999999999859e-01 1.922949999999999937e-01 8.429560000000000386e-01
1.641459999999999864e-01 1.652720000000000022e-01 3.601360000000000117e-01
2.322059999999999957e-01 2.063500000000000056e-01 2.500000000000000139e-02
1.494640000000000135e-01 2.040140000000000009e-01 7.218179999999999596e-01
5.150500000000000217e-02 1.487459999999999893e-01 7.005040000000000155e-01
2.650910000000000211e-01 1.136230000000000018e-01 6.939680000000000293e-01
5.089099999999999874e-02 1.707490000000000119e-01 5.633190000000000142e-01
2.812790000000000012e-01 1.836289999999999867e-01 6.932639999999999914e-01
1.182229999999999948e-01 1.753830000000000111e-01 1.266390000000000016e-01
3.178190000000000182e-01 1.707049999999999956e-01 6.115310000000000468e-01
3.017219999999999902e-01 1.356209999999999916e-01 7.367780000000000440e-01
1.077670000000000017e-01 2.358999999999999986e-01 6.313619999999999788e-01
1.085590000000000027e-01 2.327009999999999912e-01 2.316860000000000031e-01
6.890100000000000391e-02 2.095899999999999985e-01 6.958750000000000213e-01
2.838519999999999932e-01 1.448689999999999978e-01 8.188640000000000363e-01
1.139700000000000019e-01 1.723059999999999869e-01 8.800800000000000289e-02
5.786299999999999777e-02 2.205660000000000120e-01 6.537650000000000405e-01
1.484969999999999901e-01 2.620179999999999731e-01 4.911860000000000115e-01
1.528930000000000011e-01 2.744070000000000120e-01 4.169160000000000088e-01
8.910999999999999477e-02 1.869159999999999988e-01 7.103739999999999499e-01
2.163549999999999918e-01 2.469230000000000036e-01 7.508029999999999982e-01
2.970979999999999732e-01 1.409239999999999937e-01 6.547230000000000549e-01
1.083329999999999987e-01 2.451639999999999930e-01 1.389869999999999994e-01
2.589960000000000040e-01 2.589790000000000147e-01 2.035579999999999889e-01
1.330780000000000018e-01 1.589599999999999902e-01 4.497220000000000106e-01
6.637899999999999356e-02 1.609210000000000085e-01 5.421799999999999953e-01
1.806649999999999923e-01 1.851309999999999900e-01 9.576299999999999812e-01
1.901639999999999997e-01 1.538170000000000093e-01 4.166770000000000196e-01
3.336219999999999741e-01 1.912850000000000106e-01 6.795710000000000361e-01
2.160930000000000073e-01 2.778820000000000179e-01 5.882389999999999564e-01
2.416919999999999902e-01 1.960349999999999870e-01 7.476209999999999800e-01
1.596940000000000026e-01 1.643739999999999923e-01 2.444020000000000081e-01
1.250350000000000072e-01 2.545569999999999777e-01 6.321799999999999642e-01
1.243230000000000030e-01 2.140690000000000093e-01 2.500000000000000139e-02
4.873700000000000254e-02 1.552540000000000031e-01 6.825369999999999493e-01
1.245010000000000006e-01 1.655469999999999997e-01 1.097619999999999985e-01
3.307450000000000112e-01 2.032140000000000057e-01 6.772590000000000554e-01
2.164719999999999978e-01 2.815810000000000257e-01 6.957710000000000283e-01
2.858910000000000062e-01 2.577499999999999791e-01 7.140929999999999778e-01
2.474439999999999973e-01 1.863029999999999964e-01 7.164249999999999785e-01
1.533740000000000103e-01 1.493460000000000065e-01 1.168600000000000055e-01
2.826989999999999781e-01 1.973509999999999986e-01 3.375199999999999728e-02
2.701529999999999765e-01 1.826639999999999930e-01 2.006320000000000048e-01
1.970880000000000132e-01 2.869979999999999754e-01 4.603700000000000153e-02
1.655580000000000107e-01 1.663900000000000101e-01 3.064609999999999834e-01
7.152699999999999336e-02 2.177949999999999886e-01 6.599040000000000461e-01
2.853749999999999898e-01 1.802330000000000043e-01 7.394749999999999934e-01
2.530080000000000107e-01 2.522670000000000190e-01 3.495399999999999896e-02
3.259880000000000000e-01 1.434219999999999939e-01 6.418319999999999581e-01
1.459550000000000014e-01 1.648020000000000040e-01 6.057940000000000547e-01
5.394000000000000183e-02 2.142300000000000038e-01 5.882579999999999476e-01
2.706999999999999962e-01 1.278360000000000052e-01 8.625190000000000357e-01
3.253159999999999941e-01 2.569589999999999930e-01 6.153600000000000181e-01
3.147240000000000038e-01 1.876909999999999967e-01 8.098619999999999708e-01
2.048909999999999898e-01 1.686549999999999994e-01 9.428670000000000107e-01
6.129500000000000226e-02 1.413149999999999962e-01 7.204369999999999941e-01
1.260580000000000034e-01 2.638639999999999874e-01 3.126010000000000177e-01
3.241330000000000044e-01 1.264369999999999938e-01 6.410890000000000200e-01
2.930099999999999927e-01 1.632579999999999865e-01 4.905709999999999793e-01
8.411100000000000521e-02 1.577500000000000013e-01 5.073280000000000012e-01
3.250950000000000228e-01 2.358599999999999863e-01 5.458300000000000374e-01
3.172960000000000225e-01 2.437570000000000014e-01 6.843240000000000434e-01
2.200419999999999876e-01 2.474600000000000133e-01 2.500000000000000139e-02
1.194739999999999969e-01 2.521709999999999785e-01 3.431279999999999886e-01
1.357190000000000063e-01 1.300929999999999864e-01 5.199179999999999913e-01
2.813160000000000105e-01 2.059539999999999982e-01 4.428100000000000092e-02
2.756959999999999966e-01 1.789640000000000120e-01 8.513490000000000224e-01
1.553920000000000023e-01 2.715279999999999916e-01 4.334950000000000192e-01
2.664579999999999727e-01 1.308739999999999903e-01 6.022739999999999760e-01
2.429870000000000085e-01 2.702609999999999735e-01 2.898990000000000178e-01
2.554790000000000116e-01 2.561470000000000136e-01 7.409930000000000128e-01
1.269180000000000030e-01 1.843100000000000016e-01 2.516700000000000048e-01
1.722390000000000032e-01 2.702430000000000110e-01 4.915630000000000277e-01
1.866019999999999901e-01 1.958920000000000106e-01 8.642269999999999675e-01
1.798510000000000109e-01 1.484939999999999871e-01 5.539159999999999640e-01
2.456039999999999890e-01 2.688440000000000274e-01 2.858029999999999737e-01
1.904530000000000112e-01 2.838319999999999732e-01 3.030780000000000141e-01
2.222030000000000116e-01 1.975339999999999874e-01 6.376840000000000286e-01
2.855599999999999805e-01 1.130390000000000006e-01 6.634849999999999914e-01
2.759489999999999998e-01 2.390869999999999940e-01 1.581789999999999863e-01
1.432539999999999925e-01 2.789130000000000220e-01 2.381209999999999993e-01
3.270190000000000041e-01 2.445009999999999961e-01 5.702220000000000066e-01
1.072469999999999951e-01 2.425420000000000076e-01 2.500000000000000139e-02
3.246709999999999874e-01 1.573670000000000069e-01 7.729080000000000394e-01
7.316999999999999893e-02 1.408770000000000022e-01 7.736100000000000199e-01
8.271399999999999586e-02 1.595870000000000066e-01 7.178280000000000216e-01
2.001459999999999906e-01 2.820639999999999814e-01 3.986629999999999896e-01
1.486870000000000136e-01 1.734179999999999888e-01 2.500000000000000139e-02
1.402309999999999945e-01 1.326630000000000031e-01 4.883959999999999968e-01
1.932909999999999906e-01 2.543889999999999763e-01 8.445150000000000157e-01
3.260939999999999950e-01 2.231630000000000003e-01 6.720990000000000020e-01
3.050089999999999746e-01 1.809820000000000040e-01 6.859469999999999734e-01
1.761590000000000100e-01 2.059469999999999912e-01 8.077349999999999808e-01
1.971150000000000124e-01 2.596109999999999807e-01 7.359909999999999508e-01
2.470620000000000038e-01 2.736190000000000011e-01 7.176270000000000149e-01
2.774220000000000019e-01 2.239949999999999997e-01 7.964170000000000416e-01
2.196990000000000054e-01 2.829909999999999926e-01 3.931589999999999807e-01
5.606400000000000272e-02 2.233890000000000042e-01 6.098689999999999944e-01
2.337750000000000106e-01 1.631660000000000055e-01 3.109410000000000229e-01
2.601089999999999791e-01 2.618610000000000104e-01 2.957230000000000136e-01
2.642430000000000057e-01 1.791010000000000102e-01 3.444729999999999737e-01
6.262299999999999811e-02 2.153599999999999959e-01 6.793160000000000309e-01
2.679949999999999832e-01 1.764499999999999957e-01 4.050590000000000024e-01
1.366269999999999984e-01 2.752189999999999914e-01 2.199659999999999949e-01
1.562030000000000085e-01 1.977119999999999989e-01 6.851150000000000295e-01
2.887089999999999934e-01 2.195390000000000119e-01 3.565019999999999856e-01
1.502660000000000107e-01 1.791510000000000047e-01 6.328749999999999654e-01
1.201369999999999938e-01 1.691459999999999908e-01 6.334560000000000191e-01
2.432610000000000050e-01 2.799019999999999841e-01 6.623210000000000486e-01
6.332300000000000428e-02 2.196470000000000089e-01 6.608030000000000292e-01
3.529269999999999907e-01 2.141490000000000060e-01 6.427859999999999685e-01
1.828619999999999968e-01 2.746179999999999732e-01 7.187999999999999945e-01
1.209149999999999947e-01 2.363879999999999870e-01 4.589269999999999738e-01
3.089080000000000159e-01 2.605990000000000251e-01 6.058409999999999629e-01
2.647619999999999973e-01 2.679429999999999867e-01 5.608300000000000507e-01
1.548440000000000094e-01 2.837029999999999830e-01 2.835590000000000055e-01
2.863539999999999974e-01 2.568429999999999880e-01 5.274069999999999592e-01
2.422630000000000061e-01 1.702210000000000112e-01 8.494930000000000536e-01
1.592570000000000097e-01 1.952579999999999871e-01 6.709399999999999809e-01
1.464159999999999906e-01 2.798979999999999801e-01 3.239290000000000225e-01
3.538999999999999924e-01 2.195290000000000019e-01 6.300280000000000324e-01
2.101270000000000082e-01 2.230620000000000103e-01 8.789040000000000186e-01
2.825559999999999738e-01 2.165559999999999985e-01 2.309090000000000031e-01
5.404400000000000176e-02 1.390889999999999904e-01 7.327050000000000507e-01
2.320859999999999868e-01 1.826160000000000005e-01 5.787529999999999619e-01
2.766549999999999843e-01 2.644250000000000211e-01 5.646999999999999797e-01
1.836240000000000094e-01 2.065009999999999901e-01 7.958560000000000079e-01
2.982730000000000103e-01 2.588389999999999858e-01 5.706069999999999753e-01
1.187060000000000060e-01 2.780759999999999899e-01 6.021100000000000063e-02
1.443579999999999863e-01 2.607079999999999953e-01 5.496140000000000470e-01
1.574540000000000106e-01 2.054700000000000137e-01 7.421659999999999924e-01
1.165380000000000027e-01 2.470489999999999908e-01 3.469639999999999946e-01
2.775329999999999742e-01 2.230020000000000058e-01 7.562699999999999978e-02
2.334299999999999986e-01 1.774840000000000029e-01 5.678339999999999499e-01
2.220900000000000096e-01 2.275099999999999900e-01 7.793959999999999777e-01
2.508150000000000102e-01 2.756279999999999841e-01 4.020190000000000152e-01
5.507499999999999896e-02 2.165950000000000097e-01 5.916639999999999677e-01
2.606510000000000216e-01 1.202949999999999992e-01 6.971910000000000052e-01
2.795449999999999879e-01 2.503770000000000162e-01 4.527079999999999993e-01
1.146609999999999990e-01 2.480580000000000007e-01 2.384229999999999960e-01
7.569399999999999740e-02 2.154429999999999956e-01 6.588580000000000547e-01
1.205549999999999955e-01 1.534999999999999976e-01 3.624100000000000238e-02
2.809789999999999788e-01 2.066570000000000074e-01 1.811939999999999940e-01
1.714610000000000023e-01 2.921520000000000228e-01 2.545299999999999993e-02
1.933789999999999953e-01 1.542620000000000102e-01 2.329799999999999927e-01
2.578679999999999861e-01 1.554200000000000026e-01 9.291399999999999659e-02
1.147750000000000020e-01 1.858440000000000092e-01 4.267909999999999759e-01
1.194739999999999969e-01 2.568110000000000115e-01 2.506169999999999787e-01
2.303290000000000060e-01 1.955320000000000114e-01 6.488420000000000298e-01
1.999370000000000036e-01 1.326749999999999874e-01 5.575900000000000301e-02
2.578230000000000244e-01 2.597079999999999944e-01 7.281149999999999567e-01
2.722330000000000028e-01 1.985359999999999903e-01 2.500000000000000139e-02
1.138109999999999955e-01 1.744640000000000080e-01 4.495959999999999956e-01
2.499939999999999940e-01 1.590590000000000059e-01 1.729849999999999999e-01
2.235999999999999932e-01 2.850239999999999996e-01 6.791920000000000179e-01
5.973599999999999743e-02 1.734779999999999933e-01 5.441470000000000473e-01
1.139389999999999986e-01 2.227709999999999968e-01 4.402349999999999874e-01
2.794220000000000037e-01 2.171760000000000079e-01 7.528700000000000669e-02
1.121280000000000054e-01 2.184850000000000125e-01 6.493780000000000108e-01
6.959400000000000308e-02 2.049420000000000130e-01 5.435050000000000159e-01
1.185490000000000016e-01 2.037090000000000012e-01 6.540209999999999635e-01
2.834220000000000073e-01 1.733810000000000073e-01 4.438179999999999903e-01
2.224109999999999976e-01 1.894520000000000093e-01 5.998250000000000526e-01
2.116059999999999885e-01 1.974499999999999866e-01 6.661920000000000064e-01
3.244830000000000214e-01 1.590429999999999899e-01 7.782219999999999693e-01
1.225099999999999939e-01 2.623210000000000264e-01 2.258070000000000077e-01
1.165609999999999979e-01 2.715230000000000143e-01 8.835099999999999898e-02
1.363810000000000022e-01 1.996330000000000049e-01 6.677089999999999970e-01
4.614399999999999752e-02 2.111520000000000064e-01 5.978390000000000093e-01
6.004400000000000015e-02 1.665999999999999981e-01 5.484719999999999596e-01
2.116730000000000000e-01 1.603910000000000058e-01 3.295500000000000096e-01
1.411530000000000007e-01 2.777290000000000036e-01 2.639920000000000044e-01
2.220509999999999984e-01 2.804039999999999866e-01 7.059640000000000359e-01
2.522989999999999955e-01 1.618910000000000071e-01 8.041129999999999667e-01
1.979859999999999953e-01 2.805329999999999768e-01 4.187480000000000091e-01
1.309619999999999951e-01 1.766359999999999875e-01 2.126820000000000099e-01
8.290699999999999459e-02 2.016890000000000072e-01 6.800140000000000073e-01
2.254379999999999995e-01 2.742740000000000178e-01 5.167859999999999676e-01
1.082670000000000021e-01 1.675709999999999977e-01 3.472000000000000086e-02
8.227500000000000091e-02 2.285439999999999972e-01 6.227719999999999922e-01
2.238209999999999922e-01 1.905669999999999864e-01 7.240090000000000137e-01
2.360019999999999896e-01 2.768800000000000150e-01 3.289250000000000229e-01
2.656609999999999805e-01 2.587320000000000175e-01 4.630540000000000211e-01
3.427259999999999751e-01 2.410899999999999987e-01 6.044119999999999493e-01
1.267220000000000013e-01 2.732160000000000144e-01 1.441780000000000006e-01
1.778609999999999913e-01 2.881719999999999837e-01 1.698510000000000020e-01
2.963480000000000003e-01 2.217330000000000134e-01 4.535290000000000155e-01
1.680959999999999954e-01 2.727649999999999797e-01 4.467679999999999985e-01
2.000079999999999913e-01 1.506899999999999906e-01 4.306679999999999953e-01
2.727339999999999764e-01 2.462249999999999994e-01 7.250020000000000353e-01
1.913310000000000011e-01 2.741700000000000248e-01 4.851900000000000102e-01
2.939680000000000071e-01 1.659670000000000034e-01 5.496029999999999527e-01
2.400549999999999906e-01 7.244000000000000439e-02 8.461269999999999625e-01
1.158600000000000046e-01 1.883100000000000052e-01 1.791729999999999989e-01
3.197110000000000229e-01 2.139340000000000130e-01 7.176439999999999486e-01
1.177229999999999943e-01 2.453049999999999953e-01 4.068570000000000242e-01
1.247560000000000058e-01 2.531809999999999894e-01 6.485809999999999631e-01
2.159520000000000051e-01 2.798640000000000017e-01 4.846199999999999813e-02
1.093019999999999964e-01 2.418659999999999977e-01 6.263579999999999703e-01
3.398729999999999807e-01 2.266589999999999994e-01 6.614929999999999977e-01
1.276450000000000085e-01 1.841909999999999936e-01 3.816930000000000045e-01
1.225440000000000002e-01 1.314899999999999958e-01 5.173969999999999958e-01
2.081820000000000059e-01 2.833450000000000135e-01 3.910299999999999887e-02
2.464349999999999874e-01 1.407829999999999915e-01 3.450999999999999901e-02
2.805289999999999728e-01 2.150370000000000059e-01 9.931700000000000250e-02
3.283630000000000160e-01 1.629140000000000033e-01 6.305420000000000469e-01
1.812169999999999892e-01 1.611559999999999937e-01 3.281939999999999857e-01
1.244939999999999936e-01 2.813749999999999862e-01 2.500300000000000092e-02
2.948700000000000210e-01 1.621620000000000006e-01 5.046089999999999742e-01
1.019380000000000008e-01 1.866089999999999971e-01 4.708780000000000188e-01
2.781230000000000091e-01 1.987690000000000012e-01 2.272500000000000075e-01
2.932850000000000179e-01 1.056509999999999949e-01 6.646300000000000541e-01
1.439670000000000116e-01 2.194530000000000092e-01 7.470320000000000293e-01
2.213310000000000000e-01 1.938340000000000063e-01 7.805980000000000141e-01
2.813519999999999910e-01 1.393850000000000089e-01 7.305819999999999537e-01
3.455360000000000098e-01 1.558889999999999998e-01 6.587690000000000490e-01
1.776949999999999918e-01 2.082229999999999914e-01 7.766840000000000410e-01
1.040770000000000028e-01 1.890060000000000073e-01 4.678260000000000196e-01
7.598100000000000687e-02 2.291390000000000093e-01 5.844799999999999995e-01
2.777660000000000129e-01 1.048649999999999999e-01 5.928489999999999593e-01
1.449499999999999955e-01 2.272599999999999898e-01 2.500000000000000139e-02
1.070190000000000030e-01 2.376590000000000091e-01 1.538529999999999898e-01
1.193570000000000048e-01 1.852199999999999958e-01 1.901259999999999895e-01
2.568779999999999952e-01 1.887840000000000074e-01 6.665520000000000334e-01
1.905799999999999994e-01 2.631089999999999818e-01 7.952789999999999582e-01
2.375909999999999966e-01 2.777350000000000096e-01 6.247049999999999548e-01
1.790210000000000135e-01 1.593070000000000042e-01 2.603460000000000218e-01
2.510379999999999834e-01 7.793200000000000127e-02 8.637759999999999883e-01
2.586319999999999730e-01 1.991789999999999949e-01 7.355690000000000284e-01
2.063039999999999874e-01 1.923839999999999995e-01 7.022559999999999913e-01
1.770349999999999979e-01 1.578640000000000043e-01 2.369779999999999942e-01
2.761819999999999831e-01 1.532330000000000081e-01 4.830720000000000014e-01
2.714400000000000146e-01 2.261569999999999969e-01 2.794500000000000109e-02
3.100160000000000138e-01 1.788119999999999987e-01 7.423999999999999488e-01
1.709549999999999959e-01 2.435620000000000007e-01 8.685450000000000115e-01
7.607899999999999385e-02 2.114910000000000123e-01 5.429800000000000182e-01
1.197470000000000062e-01 1.756830000000000058e-01 1.368360000000000132e-01
2.326209999999999944e-01 1.615800000000000014e-01 2.939240000000000186e-01
2.813260000000000205e-01 2.034980000000000122e-01 3.085950000000000082e-01
1.090939999999999965e-01 2.188340000000000007e-01 3.595550000000000135e-01
1.849739999999999995e-01 1.481280000000000097e-01 5.487999999999999545e-01
2.788240000000000163e-01 1.171029999999999988e-01 6.481139999999999679e-01
1.127910000000000024e-01 2.629960000000000075e-01 1.082940000000000014e-01
3.085760000000000169e-01 1.369410000000000072e-01 7.778279999999999639e-01
3.105550000000000255e-01 1.279949999999999977e-01 6.308169999999999611e-01
3.799600000000000199e-02 1.661749999999999894e-01 6.286840000000000206e-01
2.541399999999999770e-01 2.600819999999999799e-01 1.577089999999999881e-01
2.715830000000000188e-01 1.947409999999999974e-01 7.454579999999999540e-01
1.658930000000000127e-01 2.863680000000000114e-01 2.867520000000000069e-01
7.915400000000000214e-02 2.146579999999999877e-01 6.541510000000000380e-01
3.299179999999999890e-01 1.861949999999999994e-01 7.646889999999999521e-01
1.821290000000000131e-01 1.568730000000000124e-01 5.662949999999999928e-01
2.923299999999999788e-01 1.555020000000000013e-01 7.957009999999999916e-01
1.887830000000000064e-01 2.391109999999999902e-01 2.500000000000000139e-02
2.004779999999999895e-01 2.477739999999999942e-01 7.630590000000000428e-01
2.847410000000000219e-01 2.027450000000000085e-01 3.505940000000000167e-01
2.108720000000000039e-01 1.445230000000000126e-01 5.106309999999999460e-01
2.136039999999999883e-01 2.797220000000000262e-01 1.300550000000000039e-01
2.744320000000000093e-01 1.647780000000000078e-01 7.874179999999999513e-01
8.843199999999999672e-02 1.876099999999999990e-01 6.840030000000000276e-01
1.559530000000000083e-01 1.436590000000000089e-01 8.876699999999999868e-02
1.205750000000000016e-01 1.857739999999999947e-01 2.058300000000000129e-01
8.090999999999999581e-02 2.101329999999999865e-01 6.601669999999999483e-01
8.137300000000000089e-02 1.572580000000000089e-01 7.180969999999999853e-01
2.128649999999999987e-01 1.439519999999999966e-01 4.566859999999999808e-01
2.429070000000000118e-01 1.524520000000000042e-01 1.464509999999999978e-01
8.410800000000000221e-02 1.536039999999999905e-01 7.515410000000000146e-01
2.419509999999999994e-01 2.652789999999999870e-01 8.802799999999999514e-02
2.217709999999999959e-01 1.394289999999999974e-01 9.231100000000000416e-02
1.513400000000000023e-01 2.829039999999999888e-01 2.022279999999999911e-01
1.556879999999999931e-01 2.262349999999999917e-01 2.500000000000000139e-02
1.716729999999999923e-01 2.586049999999999738e-01 8.316799999999999748e-01
1.524210000000000009e-01 2.144689999999999930e-01 7.613839999999999497e-01
2.759699999999999931e-01 2.358010000000000106e-01 1.393199999999999994e-01
2.251569999999999960e-01 2.631680000000000130e-01 7.345749999999999780e-01
3.246200000000000196e-01 1.603179999999999883e-01 6.364220000000000432e-01
1.692940000000000000e-01 1.361150000000000138e-01 5.334449999999999470e-01
2.556069999999999731e-01 2.655859999999999888e-01 3.113839999999999941e-01
1.765269999999999895e-01 2.063750000000000029e-01 7.867979999999999974e-01
2.794849999999999834e-01 2.013109999999999900e-01 2.913310000000000066e-01
2.533030000000000004e-01 1.715089999999999948e-01 3.188869999999999760e-01
2.486009999999999887e-01 2.624830000000000219e-01 1.121459999999999957e-01
4.160699999999999815e-02 1.608179999999999887e-01 7.734130000000000171e-01
9.169700000000000073e-02 1.790970000000000062e-01 6.591350000000000264e-01
1.400109999999999966e-01 1.769219999999999959e-01 2.700839999999999907e-01
1.919399999999999995e-01 2.850179999999999936e-01 8.361499999999999488e-02
1.022880000000000039e-01 2.056020000000000070e-01 1.182369999999999949e-01
1.856460000000000055e-01 1.603310000000000013e-01 3.178699999999999859e-01
2.714590000000000058e-01 1.846339999999999926e-01 1.951630000000000031e-01
1.994180000000000119e-01 2.844400000000000261e-01 1.452199999999999880e-01
3.263800000000000034e-01 2.547229999999999772e-01 6.044519999999999893e-01
2.051209999999999978e-01 2.689690000000000136e-01 7.155569999999999986e-01
3.542370000000000241e-01 2.168940000000000035e-01 6.311160000000000103e-01
2.315149999999999986e-01 2.054449999999999887e-01 2.500000000000000139e-02
2.630930000000000213e-01 1.741489999999999982e-01 2.186619999999999953e-01
2.032090000000000007e-01 1.347720000000000029e-01 7.126000000000000389e-02
2.523989999999999845e-01 2.735819999999999919e-01 6.051699999999999857e-01
3.036280000000000090e-01 2.043429999999999969e-01 4.678320000000000256e-01
3.059720000000000217e-01 1.385510000000000075e-01 6.949910000000000254e-01
7.235199999999999965e-02 1.884889999999999899e-01 5.231679999999999664e-01
1.064959999999999934e-01 2.199949999999999961e-01 2.073490000000000055e-01
2.560490000000000266e-01 1.030760000000000010e-01 7.265899999999999581e-01
1.963030000000000053e-01 1.754340000000000066e-01 9.692880000000000384e-01
3.110299999999999732e-01 2.238930000000000087e-01 7.868000000000000549e-01
2.332660000000000011e-01 2.726720000000000255e-01 2.271559999999999968e-01
9.435499999999999443e-02 2.363260000000000083e-01 4.642299999999999899e-02
7.269799999999999873e-02 2.050829999999999875e-01 5.383740000000000192e-01
1.211259999999999976e-01 1.838670000000000027e-01 1.960570000000000090e-01
1.519149999999999945e-01 2.007529999999999870e-01 7.136860000000000426e-01
2.418369999999999964e-01 1.892439999999999956e-01 6.733179999999999721e-01
2.119260000000000033e-01 2.148089999999999999e-01 8.815939999999999888e-01
2.647700000000000053e-02 1.792999999999999872e-01 6.953200000000000491e-01
1.199179999999999968e-01 2.397710000000000119e-01 5.109629999999999450e-01
1.386439999999999895e-01 1.782960000000000100e-01 3.725399999999999823e-01
2.464890000000000136e-01 1.616950000000000054e-01 8.081450000000000022e-01
2.412940000000000085e-01 2.682539999999999925e-01 1.365290000000000115e-01
2.446149999999999991e-01 2.585210000000000008e-01 7.460750000000000437e-01
1.166139999999999954e-01 2.262339999999999907e-01 4.670030000000000014e-01
1.807819999999999983e-01 2.256229999999999902e-01 2.500000000000000139e-02
8.445900000000000629e-02 1.987750000000000072e-01 6.855050000000000310e-01
1.105690000000000006e-01 2.389000000000000012e-01 2.192429999999999934e-01
2.242460000000000009e-01 1.532380000000000131e-01 2.169179999999999997e-01
2.359670000000000101e-01 1.524060000000000137e-01 1.741989999999999927e-01
2.015480000000000049e-01 2.289269999999999916e-01 7.513039999999999718e-01
3.112110000000000154e-01 1.010729999999999962e-01 6.234929999999999639e-01
2.246130000000000071e-01 2.770029999999999992e-01 1.805970000000000075e-01
1.847630000000000106e-01 2.778360000000000274e-01 6.541099999999999692e-01
1.630739999999999967e-01 2.666499999999999981e-01 2.500000000000000139e-02
2.820550000000000002e-01 2.081369999999999887e-01 1.410359999999999947e-01
3.122449999999999948e-01 2.536100000000000021e-01 6.847929999999999851e-01
2.919700000000000073e-01 1.791020000000000112e-01 8.326729999999999965e-01
2.890119999999999911e-01 1.342569999999999875e-01 6.669549999999999645e-01
2.708200000000000052e-01 1.631869999999999987e-01 6.061799999999999827e-02
1.810940000000000050e-01 2.351989999999999914e-01 2.500000000000000139e-02
1.807840000000000003e-01 2.681310000000000082e-01 7.489360000000000461e-01
