2.648047208786010742e-01 1.789341270923614502e-01 2.880533933639526367e-01
3.321909606456756592e-01 1.790010631084442139e-01 7.839908599853515625e-01
3.328974246978759766e-01 1.845909655094146729e-01 7.828043699264526367e-01
3.317619264125823975e-01 1.780874580144882202e-01 7.893931269645690918e-01
3.328004479408264160e-01 1.836339086294174194e-01 7.885591387748718262e-01
1.517463624477386475e-01 1.354387104511260986e-01 2.695164643228054047e-02
1.475799679756164551e-01 1.409742832183837891e-01 2.630079537630081177e-02
1.471609324216842651e-01 1.331623494625091553e-01 3.066493012011051178e-02
1.428895443677902222e-01 1.381186395883560181e-01 2.954595163464546204e-02
2.213631719350814819e-01 2.773944735527038574e-01 2.660532891750335693e-01
2.155077904462814331e-01 2.798469364643096924e-01 2.639565467834472656e-01
2.201931476593017578e-01 2.765106260776519775e-01 2.745320498943328857e-01
2.149202674627304077e-01 2.791446447372436523e-01 2.722744941711425781e-01
1.351119875907897949e-01 2.359224259853363037e-01 7.327511906623840332e-01
1.345723867416381836e-01 2.416265457868576050e-01 7.297765612602233887e-01
1.374612897634506226e-01 2.370724827051162720e-01 7.398607730865478516e-01
1.372461766004562378e-01 2.427869141101837158e-01 7.369399070739746094e-01
2.811655700206756592e-01 2.266213893890380859e-01 2.204494774341583252e-01
2.800965011119842529e-01 2.327932715415954590e-01 2.175841927528381348e-01
2.822128236293792725e-01 2.262977063655853271e-01 2.295860350131988525e-01
2.810837030410766602e-01 2.326985448598861694e-01 2.270205020904541016e-01
1.821999251842498779e-01 2.732889950275421143e-01 5.260770320892333984e-01
1.782570332288742065e-01 2.726533710956573486e-01 5.226252079010009766e-01
1.794238537549972534e-01 2.727991640567779541e-01 5.352839231491088867e-01
1.748339682817459106e-01 2.718960642814636230e-01 5.308452248573303223e-01
1.137981042265892029e-01 2.687572538852691650e-01 8.267898112535476685e-02
1.179541200399398804e-01 2.736625075340270996e-01 8.030841499567031860e-02
1.133140921592712402e-01 2.660510241985321045e-01 9.177812933921813965e-02
1.182972043752670288e-01 2.715708911418914795e-01 8.914259076118469238e-02
1.755551397800445557e-01 1.972173750400543213e-01 8.656275868415832520e-01
1.713888049125671387e-01 2.003101110458374023e-01 8.614738583564758301e-01
1.758940368890762329e-01 1.950533390045166016e-01 8.732895255088806152e-01
1.721827387809753418e-01 1.981704682111740112e-01 8.690897226333618164e-01
3.283643424510955811e-01 2.051807194948196411e-01 7.958221435546875000e-01
3.283990919589996338e-01 2.119771838188171387e-01 7.943988442420959473e-01
3.252851366996765137e-01 2.006379961967468262e-01 8.020554184913635254e-01
3.252364695072174072e-01 2.072842419147491455e-01 8.008720874786376953e-01
2.889866828918457031e-01 1.044793426990509033e-01 7.372745871543884277e-01
2.841085195541381836e-01 1.021573469042778015e-01 7.345816493034362793e-01
2.909566760063171387e-01 1.067526713013648987e-01 7.434200048446655273e-01
2.849313020706176758e-01 1.036754101514816284e-01 7.405458092689514160e-01
2.239704430103302002e-01 1.546422392129898071e-01 2.321852892637252808e-01
2.159007787704467773e-01 1.524547785520553589e-01 2.305014878511428833e-01
2.210202217102050781e-01 1.553218811750411987e-01 2.410735785961151123e-01
2.133403420448303223e-01 1.533715724945068359e-01 2.387392818927764893e-01
1.813166290521621704e-01 1.956647336483001709e-01 9.485463500022888184e-01
1.790714710950851440e-01 1.981241255998611450e-01 9.440501928329467773e-01
1.838400810956954956e-01 1.931962370872497559e-01 9.533395171165466309e-01
1.818222105503082275e-01 1.962678879499435425e-01 9.492631554603576660e-01
1.677142381668090820e-01 2.258727401494979858e-01 8.918520212173461914e-01
1.697940826416015625e-01 2.309741824865341187e-01 8.884927630424499512e-01
1.697477102279663086e-01 2.232938557863235474e-01 8.983563780784606934e-01
1.717867851257324219e-01 2.290413677692413330e-01 8.950802683830261230e-01
9.723363816738128662e-02 2.145407199859619141e-01 9.153307229280471802e-02
9.644829481840133667e-02 2.234387099742889404e-01 9.103345125913619995e-02
9.853040426969528198e-02 2.138244360685348511e-01 9.771107882261276245e-02
9.709792584180831909e-02 2.237776070833206177e-01 9.781406074762344360e-02
1.704074442386627197e-01 2.657784223556518555e-01 7.927029728889465332e-01
1.667392700910568237e-01 2.654037177562713623e-01 7.896312475204467773e-01
1.665735244750976562e-01 2.643686830997467041e-01 7.975643873214721680e-01
1.626338660717010498e-01 2.638970613479614258e-01 7.939279079437255859e-01
8.081457763910293579e-02 1.645503491163253784e-01 6.590610146522521973e-01
7.913485169410705566e-02 1.649036109447479248e-01 6.593202948570251465e-01
7.875922322273254395e-02 1.645260751247406006e-01 6.670428514480590820e-01
7.814705371856689453e-02 1.650566160678863525e-01 6.651536822319030762e-01
2.261033356189727783e-01 2.539309561252593994e-01 7.490345835685729980e-01
2.229800224304199219e-01 2.558869123458862305e-01 7.442728877067565918e-01
2.241573929786682129e-01 2.501256167888641357e-01 7.546847462654113770e-01
2.217077612876892090e-01 2.517420947551727295e-01 7.502796649932861328e-01
2.807425558567047119e-01 6.177661567926406860e-02 8.322423100471496582e-01
2.829548120498657227e-01 6.863554567098617554e-02 8.317769169807434082e-01
2.814941704273223877e-01 6.114433333277702332e-02 8.373106718063354492e-01
2.838874459266662598e-01 6.784986704587936401e-02 8.366286754608154297e-01
1.890190541744232178e-01 2.785487473011016846e-01 4.348781108856201172e-01
1.835519224405288696e-01 2.782994508743286133e-01 4.315010905265808105e-01
1.854850798845291138e-01 2.772534489631652832e-01 4.420871734619140625e-01
1.800470948219299316e-01 2.769516706466674805e-01 4.382983148097991943e-01
3.011666834354400635e-01 1.733366400003433228e-01 6.817695498466491699e-01
2.993988096714019775e-01 1.776851266622543335e-01 6.832452416419982910e-01
2.964163422584533691e-01 1.735524088144302368e-01 6.844922900199890137e-01
2.943586111068725586e-01 1.773073673248291016e-01 6.857225298881530762e-01
1.643698215484619141e-01 2.859689295291900635e-01 2.918608188629150391e-01
1.586699187755584717e-01 2.845995724201202393e-01 2.866153120994567871e-01
1.606823652982711792e-01 2.847738862037658691e-01 2.990379333496093750e-01
1.553570330142974854e-01 2.834844589233398438e-01 2.940555214881896973e-01
2.759249806404113770e-01 1.898407191038131714e-01 7.509540319442749023e-01
2.688245475292205811e-01 1.911982744932174683e-01 7.514448165893554688e-01
2.722151577472686768e-01 1.881858557462692261e-01 7.546176910400390625e-01
2.644794285297393799e-01 1.901259422302246094e-01 7.551339864730834961e-01
2.303459644317626953e-01 1.626722812652587891e-01 3.753809928894042969e-01
2.253370285034179688e-01 1.618671715259552002e-01 3.711288571357727051e-01
2.272075265645980835e-01 1.619897335767745972e-01 3.834189176559448242e-01
2.214283794164657593e-01 1.610970497131347656e-01 3.787344992160797119e-01
1.457265466451644897e-01 2.393597215414047241e-01 7.901110053062438965e-01
1.485051810741424561e-01 2.465597242116928101e-01 7.882018685340881348e-01
1.462798118591308594e-01 2.386701852083206177e-01 7.969587445259094238e-01
1.493957042694091797e-01 2.463287115097045898e-01 7.955354452133178711e-01
2.222806811332702637e-01 2.537592351436614990e-01 2.581852674484252930e-02
2.140666544437408447e-01 2.563104629516601562e-01 2.534961886703968048e-02
2.162481099367141724e-01 2.533154189586639404e-01 2.514684945344924927e-02
2.078949064016342163e-01 2.559961080551147461e-01 2.466590330004692078e-02
1.331529617309570312e-01 2.575125098228454590e-01 6.154825091361999512e-01
1.286707818508148193e-01 2.542798221111297607e-01 6.098825335502624512e-01
1.328958570957183838e-01 2.573463916778564453e-01 6.226671934127807617e-01
1.296992003917694092e-01 2.549349069595336914e-01 6.172112822532653809e-01
3.159675002098083496e-02 1.781495213508605957e-01 6.482198238372802734e-01
2.822575345635414124e-02 1.824645549058914185e-01 6.462386250495910645e-01
3.234267234802246094e-02 1.773557215929031372e-01 6.564629077911376953e-01
2.860341407358646393e-02 1.823885142803192139e-01 6.547404527664184570e-01
1.003453060984611511e-01 2.065013796091079712e-01 1.050191894173622131e-01
9.809611737728118896e-02 2.167675644159317017e-01 1.056804656982421875e-01
1.014329791069030762e-01 2.070583701133728027e-01 1.116970032453536987e-01
9.923501312732696533e-02 2.163602858781814575e-01 1.120240390300750732e-01
2.229360044002532959e-01 1.937279403209686279e-01 6.899411678314208984e-01
2.161107808351516724e-01 1.946316510438919067e-01 6.860774755477905273e-01
2.241755574941635132e-01 1.925439685583114624e-01 6.969019770622253418e-01
2.173601090908050537e-01 1.935257613658905029e-01 6.935236454010009766e-01
3.225099444389343262e-01 1.762877851724624634e-01 5.692133307456970215e-01
3.243537247180938721e-01 1.795915961265563965e-01 5.642616152763366699e-01
3.247688412666320801e-01 1.753334701061248779e-01 5.782347917556762695e-01
3.260702490806579590e-01 1.785996407270431519e-01 5.730161666870117188e-01
1.856533885002136230e-01 2.087854444980621338e-01 2.494177222251892090e-02
1.826009154319763184e-01 2.143259793519973755e-01 2.523257769644260406e-02
1.798477023839950562e-01 2.026429921388626099e-01 2.449601329863071442e-02
1.769305467605590820e-01 2.081437855958938599e-01 2.493083290755748749e-02
2.739298939704895020e-01 1.640852987766265869e-01 8.540525436401367188e-01
2.726042270660400391e-01 1.712285280227661133e-01 8.526722192764282227e-01
2.680736184120178223e-01 1.605768054723739624e-01 8.571353554725646973e-01
2.664161920547485352e-01 1.677317768335342407e-01 8.556169867515563965e-01
2.840602695941925049e-01 1.252119541168212891e-01 6.590365767478942871e-01
2.860226631164550781e-01 1.302731931209564209e-01 6.582489013671875000e-01
2.854923307895660400e-01 1.244507953524589539e-01 6.661710739135742188e-01
2.875907123088836670e-01 1.305574476718902588e-01 6.649772524833679199e-01
3.000922501087188721e-01 2.714432477951049805e-01 6.599038839340209961e-01
2.928789258003234863e-01 2.728462219238281250e-01 6.555346250534057617e-01
2.993023097515106201e-01 2.704303264617919922e-01 6.668751835823059082e-01
2.916983962059020996e-01 2.720524370670318604e-01 6.623826622962951660e-01
2.580028772354125977e-01 1.169260367751121521e-01 6.968458890914916992e-01
2.503434717655181885e-01 1.162204593420028687e-01 6.975690722465515137e-01
2.550561130046844482e-01 1.214168295264244080e-01 7.036132812500000000e-01
2.479604184627532959e-01 1.205361187458038330e-01 7.054394483566284180e-01
1.838781088590621948e-01 2.121923863887786865e-01 2.494961395859718323e-02
1.800175160169601440e-01 2.173888981342315674e-01 2.516938373446464539e-02
1.782270967960357666e-01 2.064455151557922363e-01 2.461891993880271912e-02
1.746248006820678711e-01 2.114267796277999878e-01 2.495102211833000183e-02
1.740859746932983398e-01 1.460887193679809570e-01 2.461594715714454651e-02
1.718243211507797241e-01 1.542639881372451782e-01 2.423166483640670776e-02
1.671974509954452515e-01 1.394220888614654541e-01 2.566512301564216614e-02
1.649064868688583374e-01 1.475412249565124512e-01 2.537811361253261566e-02
1.057651937007904053e-01 2.119469344615936279e-01 2.374470047652721405e-02
1.042004898190498352e-01 2.182277888059616089e-01 2.289952337741851807e-02
1.016776338219642639e-01 2.102628350257873535e-01 2.807623893022537231e-02
1.004114747047424316e-01 2.171192318201065063e-01 2.698084339499473572e-02
1.888572424650192261e-01 2.736272215843200684e-01 4.762085974216461182e-01
1.827974617481231689e-01 2.731387615203857422e-01 4.711133837699890137e-01
1.881150156259536743e-01 2.733619213104248047e-01 4.846168160438537598e-01
1.823754459619522095e-01 2.729815542697906494e-01 4.794693291187286377e-01
2.882343232631683350e-01 1.047984287142753601e-01 7.374472022056579590e-01
2.823423743247985840e-01 1.017514988780021667e-01 7.345622181892395020e-01
2.896432578563690186e-01 1.065128669142723083e-01 7.436032295227050781e-01
2.836178839206695557e-01 1.034356057643890381e-01 7.407290339469909668e-01
1.698664128780364990e-01 2.892427742481231689e-01 1.002942323684692383e-01
1.650063097476959229e-01 2.898084223270416260e-01 9.636960178613662720e-02
1.694441139698028564e-01 2.892087101936340332e-01 1.073331832885742188e-01
1.641533821821212769e-01 2.894529104232788086e-01 1.029746085405349731e-01
2.553115785121917725e-01 1.471967995166778564e-01 2.931616269052028656e-02
2.480640262365341187e-01 1.432579457759857178e-01 2.323649451136589050e-02
2.551642060279846191e-01 1.453089267015457153e-01 3.512655943632125854e-02
2.482606172561645508e-01 1.410934776067733765e-01 2.924710325896739960e-02
2.036687582731246948e-01 1.991667896509170532e-01 6.589035391807556152e-01
1.968282014131546021e-01 1.992605030536651611e-01 6.548024415969848633e-01
2.030838429927825928e-01 1.982088238000869751e-01 6.664109826087951660e-01
1.963590681552886963e-01 1.983319222927093506e-01 6.624888181686401367e-01
1.404963284730911255e-01 2.579417526721954346e-01 5.804643630981445312e-01
1.336103677749633789e-01 2.547076046466827393e-01 5.759015083312988281e-01
1.354776769876480103e-01 2.566117644309997559e-01 5.892334580421447754e-01
1.290192306041717529e-01 2.536311745643615723e-01 5.846232771873474121e-01
1.553317010402679443e-01 1.377061903476715088e-01 5.606369674205780029e-02
1.486295908689498901e-01 1.396814286708831787e-01 5.491115897893905640e-02
1.540382057428359985e-01 1.394522935152053833e-01 6.236565858125686646e-02
1.477514654397964478e-01 1.412114948034286499e-01 6.131089478731155396e-02
2.868648767471313477e-01 1.600019931793212891e-01 5.201521515846252441e-01
2.798953652381896973e-01 1.572907865047454834e-01 5.152003765106201172e-01
2.833025753498077393e-01 1.600095629692077637e-01 5.291559696197509766e-01
2.761889100074768066e-01 1.578020602464675903e-01 5.250269174575805664e-01
1.716281473636627197e-01 1.624409258365631104e-01 3.576965928077697754e-01
1.668653190135955811e-01 1.643316447734832764e-01 3.528105616569519043e-01
1.708797663450241089e-01 1.622714102268218994e-01 3.660240173339843750e-01
1.662079840898513794e-01 1.642442792654037476e-01 3.613976240158081055e-01
4.158069565892219543e-02 2.058113664388656616e-01 5.959949493408203125e-01
4.647424817085266113e-02 2.114374339580535889e-01 5.949254035949707031e-01
3.886242583394050598e-02 2.056096941232681274e-01 6.051447391510009766e-01
4.350491613149642944e-02 2.108615934848785400e-01 6.032332777976989746e-01
2.614266276359558105e-01 7.532344758510589600e-02 8.646249175071716309e-01
2.530240714550018311e-01 7.595451921224594116e-02 8.633490204811096191e-01
2.601848542690277100e-01 7.934767752885818481e-02 8.657217621803283691e-01
2.520810961723327637e-01 8.004955947399139404e-02 8.644379973411560059e-01
2.819178402423858643e-01 2.698679566383361816e-01 6.891990900039672852e-01
2.764609158039093018e-01 2.718104720115661621e-01 6.863186955451965332e-01
2.809710502624511719e-01 2.685512304306030273e-01 6.940076351165771484e-01
2.754518687725067139e-01 2.705678045749664307e-01 6.911612153053283691e-01
2.378599792718887329e-01 1.637611687183380127e-01 3.072280287742614746e-01
2.315213233232498169e-01 1.631361097097396851e-01 3.057983815670013428e-01
2.347452640533447266e-01 1.627391725778579712e-01 3.145731985569000244e-01
2.287002354860305786e-01 1.622127592563629150e-01 3.129139244556427002e-01
3.043106794357299805e-01 1.155533045530319214e-01 6.887972950935363770e-01
3.003572523593902588e-01 1.237217113375663757e-01 6.915017366409301758e-01
3.033998608589172363e-01 1.158019900321960449e-01 6.914666295051574707e-01
2.994063198566436768e-01 1.239568293094635010e-01 6.941586732864379883e-01
1.854881197214126587e-01 1.479777246713638306e-01 2.472815103828907013e-02
1.821180284023284912e-01 1.552631705999374390e-01 2.421194687485694885e-02
1.795303225517272949e-01 1.412445306777954102e-01 2.610055170953273773e-02
1.764049828052520752e-01 1.484176665544509888e-01 2.511130273342132568e-02
3.456143289804458618e-02 1.805458515882492065e-01 5.939764976501464844e-01
3.559076786041259766e-02 1.870643496513366699e-01 5.918773412704467773e-01
3.412191942334175110e-02 1.799781024456024170e-01 6.016227602958679199e-01
3.423957899212837219e-02 1.862574070692062378e-01 5.992775559425354004e-01
1.536192446947097778e-01 2.284433394670486450e-01 8.570006489753723145e-01
1.544881016016006470e-01 2.342430204153060913e-01 8.540966510772705078e-01
1.545242220163345337e-01 2.280576676130294800e-01 8.625803589820861816e-01
1.553391963243484497e-01 2.339170873165130615e-01 8.596757650375366211e-01
2.424973100423812866e-01 1.659495830535888672e-01 3.208412528038024902e-01
2.373534739017486572e-01 1.651996523141860962e-01 3.181121945381164551e-01
2.390774488449096680e-01 1.647015810012817383e-01 3.281773328781127930e-01
2.344130575656890869e-01 1.634969562292098999e-01 3.250642716884613037e-01
1.268313378095626831e-01 2.188446670770645142e-01 6.826374530792236328e-01
1.262348592281341553e-01 2.269185185432434082e-01 6.813006401062011719e-01
1.293758898973464966e-01 2.186657637357711792e-01 6.899711489677429199e-01
1.283776164054870605e-01 2.255980819463729858e-01 6.882632374763488770e-01
2.377440035343170166e-01 1.824259757995605469e-01 8.401534557342529297e-01
2.367478311061859131e-01 1.895009875297546387e-01 8.382048606872558594e-01
2.417413890361785889e-01 1.790831834077835083e-01 8.438345193862915039e-01
2.386850714683532715e-01 1.868963837623596191e-01 8.433098793029785156e-01
1.305139809846878052e-01 2.646320462226867676e-01 3.858051002025604248e-01
1.260600835084915161e-01 2.627563476562500000e-01 3.808002173900604248e-01
1.284249275922775269e-01 2.619167268276214600e-01 3.921111822128295898e-01
1.249349936842918396e-01 2.607254683971405029e-01 3.875845968723297119e-01
2.146327644586563110e-01 1.998245120048522949e-01 2.477615326642990112e-02
2.108827382326126099e-01 2.088725566864013672e-01 2.572581358253955841e-02
2.069684714078903198e-01 1.943200528621673584e-01 2.476974204182624817e-02
2.034514993429183960e-01 2.023032903671264648e-01 2.521933056414127350e-02
1.914794296026229858e-01 2.047044932842254639e-01 8.439993858337402344e-01
1.865559071302413940e-01 2.044632136821746826e-01 8.380709290504455566e-01
1.920811682939529419e-01 2.018711119890213013e-01 8.522319197654724121e-01
1.870854943990707397e-01 2.027694731950759888e-01 8.451979160308837891e-01
2.153611630201339722e-01 1.994489878416061401e-01 6.384801268577575684e-01
2.085692733526229858e-01 2.004990726709365845e-01 6.342989206314086914e-01
2.137231677770614624e-01 1.987670660018920898e-01 6.452797055244445801e-01
2.069529443979263306e-01 1.996772587299346924e-01 6.411402821540832520e-01
1.647636145353317261e-01 2.683403193950653076e-01 5.528828501701354980e-01
1.584426313638687134e-01 2.661503553390502930e-01 5.472114086151123047e-01
1.625742912292480469e-01 2.676629722118377686e-01 5.619156360626220703e-01
1.557420194149017334e-01 2.649058103561401367e-01 5.560764074325561523e-01
2.169726341962814331e-01 1.320028007030487061e-01 3.331796079874038696e-02
2.117797583341598511e-01 1.312067657709121704e-01 3.174594417214393616e-02
2.147998362779617310e-01 1.313674598932266235e-01 3.941442444920539856e-02
2.096593677997589111e-01 1.307454705238342285e-01 3.768881037831306458e-02
3.262555003166198730e-01 2.202928662300109863e-01 7.319315671920776367e-01
3.250111639499664307e-01 2.250190526247024536e-01 7.290791869163513184e-01
3.273390233516693115e-01 2.203787565231323242e-01 7.372145056724548340e-01
3.254456520080566406e-01 2.248376160860061646e-01 7.342973947525024414e-01
2.813370525836944580e-01 1.264170855283737183e-01 7.144100069999694824e-01
2.773516178131103516e-01 1.294305771589279175e-01 7.141128778457641602e-01
2.824599742889404297e-01 1.283044070005416870e-01 7.197085022926330566e-01
2.796584963798522949e-01 1.315442770719528198e-01 7.206760048866271973e-01
1.658953130245208740e-01 2.876176834106445312e-01 1.706990897655487061e-01
1.577197909355163574e-01 2.857826650142669678e-01 1.656536310911178589e-01
1.652911007404327393e-01 2.871558070182800293e-01 1.789447367191314697e-01
1.569663286209106445e-01 2.852468192577362061e-01 1.739877164363861084e-01
3.344584405422210693e-01 1.868337243795394897e-01 5.784907341003417969e-01
3.372364342212677002e-01 1.929411292076110840e-01 5.752959251403808594e-01
3.360706269741058350e-01 1.856404542922973633e-01 5.877845883369445801e-01
3.390069603919982910e-01 1.916422843933105469e-01 5.846860408782958984e-01
2.738600969314575195e-01 1.859259903430938721e-01 7.592887282371520996e-01
2.654093801975250244e-01 1.886678040027618408e-01 7.592977881431579590e-01
2.693925797939300537e-01 1.833772361278533936e-01 7.652612924575805664e-01
2.611108720302581787e-01 1.866235584020614624e-01 7.647867798805236816e-01
2.175851464271545410e-01 1.475630551576614380e-01 1.655944436788558960e-01
2.119255363941192627e-01 1.462190896272659302e-01 1.628720909357070923e-01
2.167976349592208862e-01 1.481435298919677734e-01 1.720401644706726074e-01
2.110271751880645752e-01 1.467743366956710815e-01 1.695092320442199707e-01
1.986949592828750610e-01 2.674655616283416748e-01 2.406253665685653687e-02
1.906169652938842773e-01 2.709349393844604492e-01 2.376557141542434692e-02
1.959466636180877686e-01 2.707651853561401367e-01 2.650306560099124908e-02
1.878862231969833374e-01 2.739933133125305176e-01 2.611378207802772522e-02
1.702565252780914307e-01 2.712120711803436279e-01 4.602683484554290771e-01
1.640084832906723022e-01 2.702574431896209717e-01 4.549487233161926270e-01
1.694816201925277710e-01 2.697673141956329346e-01 4.688186943531036377e-01
1.628015786409378052e-01 2.685899436473846436e-01 4.626232981681823730e-01
3.094817101955413818e-01 2.630416750907897949e-01 6.347634792327880859e-01
3.041261136531829834e-01 2.651321291923522949e-01 6.309180259704589844e-01
3.091752231121063232e-01 2.629951238632202148e-01 6.431314945220947266e-01
3.037659227848052979e-01 2.651840746402740479e-01 6.395034790039062500e-01
2.026556730270385742e-01 1.573127806186676025e-01 4.008939266204833984e-01
1.939159929752349854e-01 1.569942086935043335e-01 3.956508636474609375e-01
2.027098983526229858e-01 1.558260023593902588e-01 4.086478054523468018e-01
1.937742680311203003e-01 1.557399928569793701e-01 4.030857980251312256e-01
2.683657109737396240e-01 1.802284121513366699e-01 3.729806840419769287e-01
2.628758251667022705e-01 1.764595210552215576e-01 3.643117845058441162e-01
2.660540044307708740e-01 1.784762442111968994e-01 3.831009566783905029e-01
2.601781785488128662e-01 1.743936240673065186e-01 3.744550347328186035e-01
2.732681334018707275e-01 2.020565271377563477e-01 7.331090569496154785e-01
2.680324316024780273e-01 2.017154693603515625e-01 7.325593829154968262e-01
2.710658609867095947e-01 2.019531577825546265e-01 7.386867403984069824e-01
2.662411332130432129e-01 2.018442749977111816e-01 7.381818890571594238e-01
9.083364903926849365e-02 2.120319455862045288e-01 6.396067142486572266e-01
8.829332888126373291e-02 2.153654545545578003e-01 6.381492614746093750e-01
8.979222923517227173e-02 2.101461738348007202e-01 6.441860198974609375e-01
8.744929730892181396e-02 2.140448838472366333e-01 6.427126526832580566e-01
2.746765017509460449e-01 1.765546202659606934e-01 1.073419302701950073e-01
2.784415781497955322e-01 1.835872530937194824e-01 1.035794317722320557e-01
2.728397548198699951e-01 1.742320656776428223e-01 1.151816397905349731e-01
2.764194905757904053e-01 1.811890602111816406e-01 1.123360469937324524e-01
6.366802006959915161e-02 1.860352009534835815e-01 7.585715651512145996e-01
5.980397760868072510e-02 1.876287162303924561e-01 7.545632123947143555e-01
6.235418468713760376e-02 1.813969165086746216e-01 7.643778920173645020e-01
5.822914466261863708e-02 1.831233203411102295e-01 7.603451013565063477e-01
1.715386211872100830e-01 2.830763459205627441e-01 3.634980916976928711e-01
1.642444282770156860e-01 2.824963033199310303e-01 3.594554066658020020e-01
1.701701581478118896e-01 2.830606102943420410e-01 3.715322017669677734e-01
1.644769757986068726e-01 2.825267016887664795e-01 3.670902848243713379e-01
2.806127965450286865e-01 2.652558088302612305e-01 5.791054964065551758e-01
2.745045721530914307e-01 2.657945454120635986e-01 5.747079849243164062e-01
2.824205756187438965e-01 2.663471400737762451e-01 5.883404612541198730e-01
2.763002812862396240e-01 2.670736908912658691e-01 5.839157104492187500e-01
1.768767088651657104e-01 2.458549439907073975e-01 8.662754893302917480e-01
1.732594072818756104e-01 2.486343234777450562e-01 8.610348701477050781e-01
1.740676462650299072e-01 2.430099546909332275e-01 8.715221881866455078e-01
1.705713570117950439e-01 2.454611808061599731e-01 8.664911985397338867e-01
2.321877330541610718e-01 1.495335400104522705e-01 1.605326086282730103e-01
2.268351465463638306e-01 1.476255506277084351e-01 1.582222133874893188e-01
2.302338927984237671e-01 1.501607745885848999e-01 1.673519015312194824e-01
2.248274832963943481e-01 1.484936624765396118e-01 1.651303470134735107e-01
7.737080752849578857e-02 1.494968235492706299e-01 5.408849120140075684e-01
7.334580272436141968e-02 1.530904918909072876e-01 5.367457270622253418e-01
7.642225176095962524e-02 1.480341851711273193e-01 5.489973425865173340e-01
7.293713837862014771e-02 1.520365476608276367e-01 5.452377200126647949e-01
2.691466510295867920e-01 1.487980335950851440e-01 8.102974891662597656e-01
2.673102915287017822e-01 1.526655405759811401e-01 8.098735809326171875e-01
2.668911516666412354e-01 1.470103710889816284e-01 8.153876662254333496e-01
2.649827301502227783e-01 1.506861597299575806e-01 8.138815760612487793e-01
1.391393393278121948e-01 2.594065070152282715e-01 4.503543078899383545e-01
1.376468539237976074e-01 2.602107524871826172e-01 4.438991248607635498e-01
1.384838968515396118e-01 2.573966085910797119e-01 4.580841362476348877e-01
1.376252770423889160e-01 2.580692470073699951e-01 4.517641067504882812e-01
6.631220877170562744e-02 1.479298770427703857e-01 7.901203632354736328e-01
6.368397921323776245e-02 1.528004109859466553e-01 7.931780815124511719e-01
6.281267106533050537e-02 1.495363116264343262e-01 7.948094010353088379e-01
5.942110717296600342e-02 1.540973931550979614e-01 7.965050935745239258e-01
3.131690323352813721e-01 1.907665729522705078e-01 7.320653200149536133e-01
3.091158568859100342e-01 1.911953985691070557e-01 7.257381677627563477e-01
3.120187520980834961e-01 1.883592754602432251e-01 7.386855483055114746e-01
3.082675337791442871e-01 1.888069063425064087e-01 7.326095104217529297e-01
2.638918161392211914e-01 2.429705262184143066e-01 7.475225627422332764e-02
2.609497904777526855e-01 2.478886842727661133e-01 7.265559583902359009e-02
2.642616629600524902e-01 2.431316375732421875e-01 8.110550791025161743e-02
2.612687349319458008e-01 2.478129714727401733e-01 7.879309356212615967e-02
2.553176879882812500e-01 2.654598653316497803e-01 4.238977432250976562e-01
2.521060705184936523e-01 2.688070237636566162e-01 4.208144545555114746e-01
2.520301342010498047e-01 2.638823390007019043e-01 4.308515191078186035e-01
2.486725300550460815e-01 2.672911286354064941e-01 4.278269708156585693e-01
2.854532897472381592e-01 1.630143374204635620e-01 4.620276987552642822e-01
2.851637005805969238e-01 1.647411882877349854e-01 4.577525854110717773e-01
2.865864038467407227e-01 1.615594625473022461e-01 4.694027304649353027e-01
2.845795154571533203e-01 1.614455729722976685e-01 4.637748003005981445e-01
1.564276665449142456e-01 2.843324542045593262e-01 2.701541781425476074e-01
1.519532650709152222e-01 2.828031778335571289e-01 2.658875882625579834e-01
1.543546617031097412e-01 2.834188938140869141e-01 2.777087986469268799e-01
1.495493948459625244e-01 2.816658020019531250e-01 2.731434404850006104e-01
9.830652922391891479e-02 1.767612844705581665e-01 6.367404460906982422e-01
9.930410236120223999e-02 1.811270862817764282e-01 6.394680142402648926e-01
9.434141218662261963e-02 1.775638312101364136e-01 6.409139633178710938e-01
9.661475569009780884e-02 1.819015890359878540e-01 6.438047289848327637e-01
3.851898387074470520e-02 1.894942820072174072e-01 5.795162320137023926e-01
4.333853721618652344e-02 1.969774067401885986e-01 5.783153176307678223e-01
3.595187142491340637e-02 1.882534027099609375e-01 5.867238640785217285e-01
4.105509072542190552e-02 1.953781247138977051e-01 5.854770541191101074e-01
2.731373608112335205e-01 1.717681437730789185e-01 9.036675095558166504e-02
2.775765359401702881e-01 1.784636080265045166e-01 8.620532602071762085e-02
2.690476477146148682e-01 1.684622615575790405e-01 9.839709103107452393e-02
2.733384966850280762e-01 1.751192957162857056e-01 9.432290494441986084e-02
2.414509505033493042e-01 1.619124263525009155e-01 2.703140079975128174e-01
2.352984547615051270e-01 1.601620316505432129e-01 2.681549787521362305e-01
2.402174621820449829e-01 1.626004725694656372e-01 2.775977253913879395e-01
2.337655723094940186e-01 1.598732620477676392e-01 2.749831378459930420e-01
2.805256545543670654e-01 2.444091886281967163e-01 2.855738401412963867e-01
2.775299847126007080e-01 2.497032582759857178e-01 2.832492291927337646e-01
2.792953252792358398e-01 2.455527335405349731e-01 2.932184934616088867e-01
2.766030430793762207e-01 2.513358891010284424e-01 2.909569442272186279e-01
2.783664166927337646e-01 1.823875606060028076e-01 6.358281970024108887e-01
2.737907469272613525e-01 1.853785067796707153e-01 6.330892443656921387e-01
2.789449691772460938e-01 1.818960011005401611e-01 6.411963701248168945e-01
2.747982740402221680e-01 1.851070076227188110e-01 6.377718448638916016e-01
2.306968271732330322e-01 2.749086618423461914e-01 7.192923426628112793e-01
2.282709330320358276e-01 2.775257825851440430e-01 7.149640917778015137e-01
2.269386202096939087e-01 2.710905969142913818e-01 7.245519161224365234e-01
2.244283258914947510e-01 2.736886143684387207e-01 7.201907038688659668e-01
2.808612287044525146e-01 2.197795212268829346e-01 1.565238684415817261e-01
2.802383899688720703e-01 2.267352491617202759e-01 1.561806797981262207e-01
2.808499336242675781e-01 2.196016758680343628e-01 1.645361036062240601e-01
2.800808548927307129e-01 2.265059351921081543e-01 1.638368666172027588e-01
2.804864048957824707e-01 2.097270041704177856e-01 3.278060257434844971e-02
2.780163884162902832e-01 2.162427157163619995e-01 3.057324700057506561e-02
2.817318141460418701e-01 2.083955407142639160e-01 4.036225378513336182e-02
2.791688442230224609e-01 2.157327383756637573e-01 3.896845504641532898e-02
1.652979850769042969e-01 2.614424824714660645e-01 8.095103502273559570e-01
1.615114808082580566e-01 2.612137496471405029e-01 8.048409819602966309e-01
1.649267822504043579e-01 2.600192725658416748e-01 8.155035376548767090e-01
1.613431572914123535e-01 2.597675025463104248e-01 8.108804821968078613e-01
2.858233749866485596e-01 2.340378612279891968e-01 7.525240778923034668e-01
2.802602350711822510e-01 2.369621843099594116e-01 7.520233392715454102e-01
2.826023101806640625e-01 2.315837740898132324e-01 7.596465945243835449e-01
2.774275541305541992e-01 2.340958267450332642e-01 7.592918872833251953e-01
1.374478191137313843e-01 2.152119725942611694e-01 7.164430618286132812e-01
1.341469585895538330e-01 2.199249267578125000e-01 7.138609886169433594e-01
1.402867883443832397e-01 2.159769386053085327e-01 7.242556214332580566e-01
1.367762237787246704e-01 2.210756838321685791e-01 7.219065427780151367e-01
1.708911955356597900e-01 1.830735802650451660e-01 9.239616990089416504e-01
1.689750999212265015e-01 1.899532526731491089e-01 9.223018288612365723e-01
1.722850948572158813e-01 1.839190572500228882e-01 9.319990873336791992e-01
1.707960963249206543e-01 1.895006299018859863e-01 9.301897883415222168e-01
1.085813716053962708e-01 2.260651141405105591e-01 3.629124462604522705e-01
1.100039929151535034e-01 2.306641489267349243e-01 3.604040443897247314e-01
1.082296594977378845e-01 2.246376425027847290e-01 3.698943555355072021e-01
1.096774712204933167e-01 2.293309718370437622e-01 3.674554824829101562e-01
2.886466979980468750e-01 1.833431124687194824e-01 8.402528166770935059e-01
2.881737947463989258e-01 1.890763044357299805e-01 8.377991318702697754e-01
2.854968309402465820e-01 1.809762269258499146e-01 8.454942107200622559e-01
2.849959135055541992e-01 1.868248432874679565e-01 8.432227969169616699e-01
1.242487207055091858e-01 1.310353726148605347e-01 5.257241725921630859e-01
1.166355311870574951e-01 1.323418319225311279e-01 5.245256423950195312e-01
1.235296055674552917e-01 1.328985840082168579e-01 5.341880917549133301e-01
1.154187619686126709e-01 1.340194493532180786e-01 5.329712629318237305e-01
2.841421365737915039e-01 1.224667280912399292e-01 8.257389068603515625e-01
2.836210429668426514e-01 1.272438913583755493e-01 8.243744373321533203e-01
2.873408198356628418e-01 1.206570416688919067e-01 8.303467035293579102e-01
2.869333326816558838e-01 1.254713833332061768e-01 8.291956186294555664e-01
1.784625798463821411e-01 1.596701443195343018e-01 3.726803958415985107e-01
1.740493476390838623e-01 1.616339087486267090e-01 3.689642250537872314e-01
1.778596192598342896e-01 1.595013588666915894e-01 3.803862035274505615e-01
1.731875687837600708e-01 1.614287793636322021e-01 3.771157562732696533e-01
1.852860152721405029e-01 2.115029245615005493e-01 7.757578492164611816e-01
1.790736615657806396e-01 2.080287933349609375e-01 7.697408795356750488e-01
1.863543987274169922e-01 2.106909006834030151e-01 7.833330035209655762e-01
1.797977983951568604e-01 2.073318660259246826e-01 7.774561047554016113e-01
1.968618780374526978e-01 2.810442149639129639e-01 4.132731854915618896e-01
1.898122727870941162e-01 2.812069952487945557e-01 4.098479449748992920e-01
1.947383135557174683e-01 2.801181674003601074e-01 4.217567741870880127e-01
1.876575499773025513e-01 2.803943157196044922e-01 4.182976186275482178e-01
2.159576565027236938e-01 1.993012577295303345e-01 9.046564698219299316e-01
2.169079929590225220e-01 2.038878649473190308e-01 9.018495082855224609e-01
2.158869951963424683e-01 1.999668926000595093e-01 9.120575189590454102e-01
2.161102890968322754e-01 2.038442492485046387e-01 9.080387949943542480e-01
2.861888408660888672e-01 2.664068937301635742e-01 5.999377369880676270e-01
2.794207632541656494e-01 2.674435973167419434e-01 5.954298377037048340e-01
2.867676317691802979e-01 2.679656445980072021e-01 6.079202890396118164e-01
2.797378599643707275e-01 2.695088386535644531e-01 6.040675640106201172e-01
2.007196694612503052e-01 2.518049478530883789e-01 7.734556794166564941e-01
1.976445615291595459e-01 2.561531364917755127e-01 7.705112099647521973e-01
2.011147290468215942e-01 2.509938180446624756e-01 7.782677412033081055e-01
1.987432092428207397e-01 2.556025683879852295e-01 7.756502628326416016e-01
1.800929009914398193e-01 2.853229939937591553e-01 3.117715716361999512e-01
1.749797612428665161e-01 2.856926321983337402e-01 3.081094622611999512e-01
1.779494732618331909e-01 2.849239706993103027e-01 3.209766447544097900e-01
1.731397956609725952e-01 2.853499352931976318e-01 3.181297183036804199e-01
2.060919404029846191e-01 2.320131957530975342e-01 8.744171857833862305e-01
2.038730680942535400e-01 2.366221100091934204e-01 8.716839551925659180e-01
2.052020877599716187e-01 2.335569709539413452e-01 8.798182010650634766e-01
2.028330564498901367e-01 2.383419126272201538e-01 8.771601915359497070e-01
2.957445085048675537e-01 1.532877683639526367e-01 6.561542749404907227e-01
2.942159175872802734e-01 1.601588279008865356e-01 6.550337672233581543e-01
2.940820157527923584e-01 1.523555070161819458e-01 6.610902547836303711e-01
2.930963337421417236e-01 1.594303548336029053e-01 6.604006290435791016e-01
2.710117399692535400e-01 1.845882534980773926e-01 2.379527986049652100e-01
2.745894193649291992e-01 1.909585744142532349e-01 2.365709990262985229e-01
2.697795927524566650e-01 1.842070966958999634e-01 2.470270395278930664e-01
2.742214202880859375e-01 1.905546784400939941e-01 2.463720291852951050e-01
2.635193169116973877e-01 2.573362886905670166e-01 2.483303099870681763e-01
2.591657936573028564e-01 2.609107494354248047e-01 2.453071475028991699e-01
2.647814750671386719e-01 2.566467821598052979e-01 2.536611557006835938e-01
2.600358426570892334e-01 2.599409520626068115e-01 2.531942427158355713e-01
1.878999471664428711e-01 1.475303620100021362e-01 5.450720787048339844e-01
1.836827099323272705e-01 1.472122371196746826e-01 5.466879606246948242e-01
1.832226216793060303e-01 1.488914042711257935e-01 5.522139072418212891e-01
1.791301518678665161e-01 1.484279334545135498e-01 5.537442564964294434e-01
2.908651828765869141e-01 2.471423596143722534e-01 4.878982305526733398e-01
2.865912020206451416e-01 2.508338093757629395e-01 4.850845336914062500e-01
2.926526963710784912e-01 2.475276291370391846e-01 4.958902597427368164e-01
2.886947989463806152e-01 2.512767314910888672e-01 4.932308197021484375e-01
1.082318350672721863e-01 1.961431205272674561e-01 4.607214629650115967e-01
1.092524975538253784e-01 2.022885382175445557e-01 4.592073559761047363e-01
1.071681827306747437e-01 1.951191872358322144e-01 4.657642245292663574e-01
1.085126399993896484e-01 2.013202011585235596e-01 4.639150202274322510e-01
1.446615457534790039e-01 1.512132883071899414e-01 4.503283798694610596e-01
1.408771723508834839e-01 1.569450944662094116e-01 4.442260563373565674e-01
1.410772651433944702e-01 1.492527723312377930e-01 4.571920633316040039e-01
1.363209187984466553e-01 1.535806059837341309e-01 4.531167745590209961e-01
1.649618744850158691e-01 2.083691954612731934e-01 7.740600109100341797e-01
1.615789830684661865e-01 2.101047784090042114e-01 7.709380984306335449e-01
1.640581637620925903e-01 2.088355869054794312e-01 7.805300354957580566e-01
1.604182124137878418e-01 2.107783108949661255e-01 7.773867845535278320e-01
3.994082286953926086e-02 1.718203872442245483e-01 5.876480340957641602e-01
3.849843889474868774e-02 1.773863881826400757e-01 5.855857133865356445e-01
3.970959782600402832e-02 1.705705076456069946e-01 5.927335023880004883e-01
3.835042193531990051e-02 1.761637181043624878e-01 5.906245708465576172e-01
3.259494602680206299e-01 1.588028371334075928e-01 7.747291922569274902e-01
3.284348547458648682e-01 1.643471866846084595e-01 7.752216458320617676e-01
3.233696818351745605e-01 1.586389690637588501e-01 7.804836034774780273e-01
3.257979750633239746e-01 1.641114056110382080e-01 7.811998724937438965e-01
2.818231880664825439e-01 2.137572467327117920e-01 8.131496906280517578e-01
2.773322165012359619e-01 2.173890471458435059e-01 8.123062252998352051e-01
2.797256410121917725e-01 2.124421447515487671e-01 8.167869448661804199e-01
2.757254242897033691e-01 2.159981429576873779e-01 8.157203793525695801e-01
1.716020107269287109e-01 2.569409906864166260e-01 8.355740904808044434e-01
1.695892959833145142e-01 2.584406137466430664e-01 8.309672474861145020e-01
1.697752326726913452e-01 2.538686692714691162e-01 8.431246876716613770e-01
1.685591191053390503e-01 2.559677660465240479e-01 8.383585810661315918e-01
1.028330847620964050e-01 2.515921294689178467e-01 8.027434349060058594e-02
1.053090915083885193e-01 2.588406801223754883e-01 7.793182879686355591e-02
1.034052371978759766e-01 2.485812008380889893e-01 8.994596451520919800e-02
1.056591868400573730e-01 2.556341588497161865e-01 8.717023581266403198e-02
1.670184433460235596e-01 1.480539441108703613e-01 1.368064135313034058e-01
1.599229276180267334e-01 1.507211178541183472e-01 1.362795680761337280e-01
1.659525036811828613e-01 1.500703245401382446e-01 1.463591754436492920e-01
1.589891016483306885e-01 1.520324647426605225e-01 1.448797732591629028e-01
1.481133550405502319e-01 1.318892687559127808e-01 4.905083477497100830e-01
1.409574449062347412e-01 1.329708695411682129e-01 4.872470498085021973e-01
1.460410654544830322e-01 1.308505982160568237e-01 4.992136061191558838e-01
1.392527073621749878e-01 1.317287236452102661e-01 4.956904053688049316e-01
1.358473896980285645e-01 2.823637425899505615e-01 1.070883199572563171e-01
1.338279694318771362e-01 2.826929688453674316e-01 1.008456051349639893e-01
1.338603347539901733e-01 2.793117463588714600e-01 1.160965710878372192e-01
1.330326348543167114e-01 2.806655466556549072e-01 1.103594526648521423e-01
6.639311462640762329e-02 2.281350642442703247e-01 6.068703532218933105e-01
6.291002780199050903e-02 2.251526117324829102e-01 6.011384725570678711e-01
6.450088322162628174e-02 2.276621609926223755e-01 6.146672964096069336e-01
6.093008071184158325e-02 2.246834635734558105e-01 6.087248921394348145e-01
2.095833718776702881e-01 2.000949382781982422e-01 6.397866606712341309e-01
2.027988880872726440e-01 2.008969038724899292e-01 6.359721422195434570e-01
2.083321958780288696e-01 1.993355453014373779e-01 6.470088958740234375e-01
2.014766186475753784e-01 1.996982842683792114e-01 6.428860425949096680e-01
1.721195131540298462e-01 1.448525935411453247e-01 5.519773364067077637e-01
1.659359037876129150e-01 1.431480199098587036e-01 5.529022812843322754e-01
1.685499101877212524e-01 1.470214277505874634e-01 5.596601963043212891e-01
1.607172787189483643e-01 1.439806371927261353e-01 5.600892901420593262e-01
1.241146773099899292e-01 1.788352280855178833e-01 1.857415586709976196e-01
1.195148602128028870e-01 1.843889802694320679e-01 1.862437874078750610e-01
1.254490315914154053e-01 1.791666746139526367e-01 1.929658353328704834e-01
1.211233586072921753e-01 1.844234764575958252e-01 1.930928230285644531e-01
2.446034699678421021e-01 2.669549286365509033e-01 1.661471277475357056e-01
2.396557927131652832e-01 2.705180943012237549e-01 1.636623740196228027e-01
2.451920360326766968e-01 2.665308713912963867e-01 1.741325855255126953e-01
2.402655333280563354e-01 2.697862684726715088e-01 1.713216751813888550e-01
2.819245159626007080e-01 1.933393031358718872e-01 4.012933373451232910e-01
2.858963012695312500e-01 1.998719125986099243e-01 3.990428745746612549e-01
2.820920646190643311e-01 1.921504437923431396e-01 4.090443551540374756e-01
2.858651876449584961e-01 1.983531266450881958e-01 4.067688286304473877e-01
2.162602692842483521e-01 2.806692719459533691e-01 1.996067017316818237e-01
2.096994817256927490e-01 2.821041047573089600e-01 1.965422034263610840e-01
2.157036215066909790e-01 2.807356119155883789e-01 2.053470760583877563e-01
2.102232426404953003e-01 2.825912535190582275e-01 2.025799602270126343e-01
1.740414202213287354e-01 2.765707373619079590e-01 4.350959956645965576e-01
1.684687733650207520e-01 2.756136953830718994e-01 4.311231970787048340e-01
1.709429621696472168e-01 2.739176154136657715e-01 4.431723356246948242e-01
1.653068214654922485e-01 2.730051279067993164e-01 4.384441375732421875e-01
1.856734901666641235e-01 1.501174271106719971e-01 1.863081008195877075e-01
1.809068173170089722e-01 1.506538838148117065e-01 1.828265637159347534e-01
1.875166893005371094e-01 1.508461982011795044e-01 1.934974938631057739e-01
1.826243102550506592e-01 1.516534686088562012e-01 1.897010803222656250e-01
2.828570902347564697e-01 2.384728193283081055e-01 2.706555724143981934e-01
2.797470390796661377e-01 2.442564666271209717e-01 2.672799825668334961e-01
2.836762070655822754e-01 2.381680458784103394e-01 2.785958349704742432e-01
2.806669175624847412e-01 2.437608987092971802e-01 2.758392989635467529e-01
2.603446841239929199e-01 1.105229333043098450e-01 7.419433593750000000e-01
2.560546696186065674e-01 1.138959676027297974e-01 7.403079867362976074e-01
2.617633938789367676e-01 1.125702932476997375e-01 7.467442750930786133e-01
2.574475407600402832e-01 1.161297112703323364e-01 7.454270124435424805e-01
1.852304935455322266e-01 1.724126636981964111e-01 5.873979926109313965e-01
1.774782687425613403e-01 1.684526801109313965e-01 5.863590836524963379e-01
1.808348149061203003e-01 1.744823008775711060e-01 5.951606035232543945e-01
1.731493622064590454e-01 1.705759465694427490e-01 5.942575931549072266e-01
2.317729294300079346e-01 2.739948630332946777e-01 1.934916973114013672e-01
2.265332639217376709e-01 2.758182883262634277e-01 1.903969049453735352e-01
2.328183501958847046e-01 2.733735144138336182e-01 2.019639164209365845e-01
2.277670651674270630e-01 2.753662467002868652e-01 1.989243328571319580e-01
1.638419926166534424e-01 2.734598517417907715e-01 6.542506814002990723e-01
1.581350862979888916e-01 2.716598808765411377e-01 6.484712958335876465e-01
1.634086668491363525e-01 2.733566164970397949e-01 6.623395085334777832e-01
1.576941907405853271e-01 2.708760201930999756e-01 6.577674746513366699e-01
9.194578230381011963e-02 2.275486886501312256e-01 3.919351100921630859e-02
9.331995248794555664e-02 2.355189174413681030e-01 3.825743868947029114e-02
9.139031916856765747e-02 2.271164953708648682e-01 4.544709250330924988e-02
9.335865825414657593e-02 2.354345917701721191e-01 4.427286237478256226e-02
2.629891633987426758e-01 2.645250260829925537e-01 4.109658300876617432e-01
2.601216435432434082e-01 2.685640454292297363e-01 4.072076976299285889e-01
2.620855867862701416e-01 2.623150944709777832e-01 4.173930585384368896e-01
2.594352662563323975e-01 2.660974860191345215e-01 4.140422046184539795e-01
2.728895246982574463e-01 2.381481230258941650e-01 1.228211596608161926e-01
2.704435288906097412e-01 2.433318793773651123e-01 1.225477978587150574e-01
2.729426920413970947e-01 2.384010553359985352e-01 1.295113563537597656e-01
2.705948054790496826e-01 2.437914460897445679e-01 1.292982548475265503e-01
2.484402209520339966e-01 1.832340359687805176e-01 6.988728642463684082e-01
2.435469925403594971e-01 1.836079508066177368e-01 6.972292065620422363e-01
2.480002343654632568e-01 1.850678175687789917e-01 7.041606307029724121e-01
2.431949526071548462e-01 1.852943748235702515e-01 7.039967775344848633e-01
2.812431752681732178e-01 2.086946517229080200e-01 2.230974435806274414e-01
2.828418314456939697e-01 2.156578600406646729e-01 2.203121483325958252e-01
2.817816436290740967e-01 2.084168493747711182e-01 2.324928939342498779e-01
2.829802036285400391e-01 2.154659777879714966e-01 2.298952341079711914e-01
6.593060493469238281e-02 1.598783582448959351e-01 6.644731760025024414e-01
5.931404978036880493e-02 1.582707315683364868e-01 6.574054360389709473e-01
6.391824781894683838e-02 1.583669036626815796e-01 6.738842725753784180e-01
5.725193396210670471e-02 1.566864997148513794e-01 6.669705510139465332e-01
2.599763572216033936e-01 2.564539015293121338e-01 1.671703159809112549e-01
2.552944123744964600e-01 2.603085339069366455e-01 1.650283038616180420e-01
2.609880268573760986e-01 2.555693089962005615e-01 1.750972121953964233e-01
2.554990649223327637e-01 2.596460282802581787e-01 1.732908338308334351e-01
2.913948893547058105e-01 1.220024377107620239e-01 7.718966603279113770e-01
2.864366471767425537e-01 1.242825984954833984e-01 7.731991410255432129e-01
2.917363345623016357e-01 1.267896741628646851e-01 7.765520215034484863e-01
2.868995666503906250e-01 1.292123496532440186e-01 7.779946327209472656e-01
1.399467438459396362e-01 2.162602245807647705e-01 7.281245589256286621e-01
1.364271789789199829e-01 2.215242832899093628e-01 7.259021997451782227e-01
1.423045545816421509e-01 2.173605859279632568e-01 7.351210713386535645e-01
1.389185190200805664e-01 2.225504368543624878e-01 7.330231666564941406e-01
2.905566096305847168e-01 2.021851688623428345e-01 4.330771863460540771e-01
2.911714911460876465e-01 2.081612050533294678e-01 4.316167235374450684e-01
2.922137081623077393e-01 2.006814032793045044e-01 4.395906329154968262e-01
2.919484674930572510e-01 2.070165127515792847e-01 4.382274448871612549e-01
1.404991298913955688e-01 1.692001670598983765e-01 4.120099544525146484e-01
1.353896558284759521e-01 1.727058291435241699e-01 4.129035174846649170e-01
1.387487947940826416e-01 1.683459877967834473e-01 4.204328060150146484e-01
1.346645355224609375e-01 1.719144880771636963e-01 4.198037385940551758e-01
2.721290290355682373e-01 1.375807523727416992e-01 7.743054628372192383e-01
2.712540328502655029e-01 1.429865956306457520e-01 7.737580537796020508e-01
2.737500071525573730e-01 1.396204978227615356e-01 7.798455953598022461e-01
2.728063762187957764e-01 1.445318013429641724e-01 7.796437740325927734e-01
1.884646862745285034e-01 1.599756181240081787e-01 3.101516067981719971e-01
1.838521212339401245e-01 1.606773734092712402e-01 3.073035776615142822e-01
1.876308023929595947e-01 1.600821018218994141e-01 3.161726593971252441e-01
