-1.933157593011856079e-01 -1.806611865758895874e-01 -2.133072614669799805e-01
-2.030848264694213867e-01 -1.660282313823699951e-01 -2.101258337497711182e-01
-2.153355330228805542e-01 -1.854610145092010498e-01 -2.167900353670120239e-01
-2.255107462406158447e-01 -1.702391952276229858e-01 -2.123998254537582397e-01
8.072883486747741699e-01 1.327099651098251343e-01 1.800469122827053070e-02
8.061682581901550293e-01 1.565836817026138306e-01 1.441809162497520447e-02
8.042325973510742188e-01 1.288437545299530029e-01 3.585905581712722778e-02
8.038033843040466309e-01 1.528285890817642212e-01 3.265180438756942749e-02
-3.681060969829559326e-01 5.455835163593292236e-02 -1.691117510199546814e-02
-3.614866733551025391e-01 8.286656439304351807e-02 -1.543412730097770691e-02
-3.579193055629730225e-01 4.787718877196311951e-02 7.109919097274541855e-04
-3.501415848731994629e-01 7.578952610492706299e-02 1.804444589652121067e-03
4.357982426881790161e-02 -2.661168575286865234e-01 1.410222351551055908e-01
4.645022377371788025e-02 -2.434637546539306641e-01 1.526406407356262207e-01
9.174859151244163513e-03 -2.669199109077453613e-01 1.519901007413864136e-01
1.151789911091327667e-02 -2.454818487167358398e-01 1.625995486974716187e-01
-3.541215509176254272e-02 3.688876628875732422e-01 8.615115284919738770e-02
-5.365249514579772949e-02 3.877565562725067139e-01 7.239727675914764404e-02
-4.881065711379051208e-02 3.514709174633026123e-01 1.027643755078315735e-01
-6.652180850505828857e-02 3.699423372745513916e-01 8.926492184400558472e-02
-4.487331211566925049e-01 -8.561197668313980103e-02 -2.519917301833629608e-02
-4.462759196758270264e-01 -6.620832532644271851e-02 -2.394683286547660828e-02
-4.590500891208648682e-01 -9.466013312339782715e-02 -8.368273265659809113e-03
-4.549590349197387695e-01 -7.776223868131637573e-02 -4.109402187168598175e-03
-8.850390911102294922e-01 2.541192993521690369e-02 -3.610597923398017883e-02
-8.960011601448059082e-01 4.932929575443267822e-02 -3.904922679066658020e-02
-8.914115428924560547e-01 2.318902499973773956e-02 -1.783082261681556702e-02
-9.029408693313598633e-01 4.582046344876289368e-02 -2.199536003172397614e-02
-6.602430343627929688e-02 3.504918813705444336e-01 9.905230998992919922e-02
-8.410620689392089844e-02 3.684487044811248779e-01 8.564411103725433350e-02
-7.751487195491790771e-02 3.338797986507415771e-01 1.154459938406944275e-01
-9.625183045864105225e-02 3.503460288047790527e-01 1.030817553400993347e-01
-6.796265244483947754e-01 1.649292260408401489e-01 3.668792545795440674e-03
-6.814408898353576660e-01 1.874820590019226074e-01 -7.698075845837593079e-03
-6.828976273536682129e-01 1.679091155529022217e-01 2.573042549192905426e-02
-6.854944825172424316e-01 1.936075985431671143e-01 1.205188501626253128e-02
-3.348887264728546143e-01 1.962795853614807129e-03 -1.470596194267272949e-01
-3.394542932510375977e-01 1.904927194118499756e-02 -1.450715661048889160e-01
-3.517286181449890137e-01 2.359807491302490234e-03 -1.327626705169677734e-01
-3.562670648097991943e-01 1.952865719795227051e-02 -1.295192092657089233e-01
-5.452851057052612305e-01 3.082556724548339844e-01 6.261984258890151978e-02
-5.638217926025390625e-01 3.183863461017608643e-01 5.103216692805290222e-02
-5.407662391662597656e-01 3.148096799850463867e-01 8.325408399105072021e-02
-5.590924620628356934e-01 3.248913586139678955e-01 7.177083194255828857e-02
8.289005160331726074e-01 -2.743139863014221191e-01 7.104436308145523071e-02
8.066008090972900391e-01 -2.692425549030303955e-01 6.114142388105392456e-02
8.261293172836303711e-01 -2.669692337512969971e-01 8.702471852302551270e-02
8.023430705070495605e-01 -2.638438642024993896e-01 7.626323401927947998e-02
3.233302757143974304e-02 1.553246825933456421e-01 -1.118237078189849854e-01
1.950671896338462830e-02 1.691518872976303101e-01 -1.095431074500083923e-01
1.768475770950317383e-02 1.604263335466384888e-01 -1.127960458397865295e-01
4.321291111409664154e-03 1.745591908693313599e-01 -1.103398874402046204e-01
5.111321210861206055e-01 1.997812688350677490e-01 4.157297685742378235e-02
5.028356313705444336e-01 2.216276526451110840e-01 3.695954009890556335e-02
4.961659908294677734e-01 1.870506852865219116e-01 5.127770081162452698e-02
4.965247809886932373e-01 2.062983661890029907e-01 4.973864182829856873e-02
-3.907654285430908203e-01 -2.093567848205566406e-01 -9.844281524419784546e-02
-3.877893686294555664e-01 -1.901615709066390991e-01 -9.603047370910644531e-02
-3.986050486564636230e-01 -2.135152965784072876e-01 -9.108297526836395264e-02
-3.958660662174224854e-01 -1.947173327207565308e-01 -8.881838619709014893e-02
7.288433313369750977e-01 -2.817710936069488525e-01 9.575320780277252197e-02
7.046740055084228516e-01 -2.748886942863464355e-01 9.261568635702133179e-02
7.258281111717224121e-01 -2.817223668098449707e-01 1.079718247056007385e-01
7.009996771812438965e-01 -2.756642401218414307e-01 1.055728346109390259e-01
-2.897694110870361328e-01 -3.643228113651275635e-01 2.695986330509185791e-01
-3.149729967117309570e-01 -3.535440266132354736e-01 2.714031934738159180e-01
-2.943636775016784668e-01 -3.576517105102539062e-01 2.917219400405883789e-01
-3.197743594646453857e-01 -3.469196259975433350e-01 2.938438057899475098e-01
-2.207806557416915894e-01 -1.342992633581161499e-01 8.745970577001571655e-02
-2.262542247772216797e-01 -1.236004009842872620e-01 8.427160978317260742e-02
-2.210361063480377197e-01 -1.362427175045013428e-01 9.953857213258743286e-02
-2.261917442083358765e-01 -1.255548894405364990e-01 9.625153988599777222e-02
4.908559918403625488e-01 2.121943831443786621e-01 -1.621556729078292847e-01
4.720999598503112793e-01 2.352968752384185791e-01 -1.610342860221862793e-01
4.723996818065643311e-01 2.052539885044097900e-01 -1.427367031574249268e-01
4.531255960464477539e-01 2.282599061727523804e-01 -1.428703069686889648e-01
6.066408157348632812e-01 -1.827380806207656860e-02 -6.357616279274225235e-03
5.950873494148254395e-01 -1.009988784790039062e-02 -1.336834393441677094e-02
5.985354185104370117e-01 -2.160788699984550476e-02 1.055134925991296768e-02
5.863968729972839355e-01 -1.331443153321743011e-02 4.026428796350955963e-03
6.764725446701049805e-01 -2.612854540348052979e-01 6.517580151557922363e-02
6.583001613616943359e-01 -2.541351020336151123e-01 6.030512973666191101e-02
6.771370172500610352e-01 -2.621711790561676025e-01 7.975990325212478638e-02
6.584514975547790527e-01 -2.538484036922454834e-01 7.534180581569671631e-02
-3.542476296424865723e-01 -2.899936959147453308e-02 -1.519245356321334839e-01
-3.581709861755371094e-01 -1.162607036530971527e-02 -1.475283950567245483e-01
-3.644156455993652344e-01 -2.935284003615379333e-02 -1.355647444725036621e-01
-3.681120276451110840e-01 -1.130046136677265167e-02 -1.312480717897415161e-01
-4.230355620384216309e-01 -3.011201620101928711e-01 -2.302925735712051392e-01
-4.371713995933532715e-01 -2.729404866695404053e-01 -2.412821352481842041e-01
-4.499259591102600098e-01 -3.276870548725128174e-01 -2.180362790822982788e-01
-4.650275111198425293e-01 -2.967040538787841797e-01 -2.305996716022491455e-01
7.341033220291137695e-01 3.489943742752075195e-01 7.935824990272521973e-02
7.142415642738342285e-01 3.606529533863067627e-01 7.579416036605834961e-02
7.322350740432739258e-01 3.654943108558654785e-01 9.378115832805633545e-02
7.121676802635192871e-01 3.770551681518554688e-01 9.156897664070129395e-02
-2.958431243896484375e-01 3.088352084159851074e-01 -1.948846504092216492e-02
-3.148531019687652588e-01 3.183501958847045898e-01 -2.967656031250953674e-02
-2.877345085144042969e-01 3.103654980659484863e-01 -5.211658775806427002e-03
-3.064893484115600586e-01 3.197591006755828857e-01 -1.516636833548545837e-02
-2.365196645259857178e-01 -4.806301556527614594e-03 7.333648949861526489e-02
-2.574149966239929199e-01 4.320025444030761719e-03 7.188015431165695190e-02
-2.444865107536315918e-01 -9.138565510511398315e-03 8.084660023450851440e-02
-2.655295431613922119e-01 4.031350836157798767e-04 7.974405586719512939e-02
2.116342335939407349e-01 -1.458218842744827271e-01 -6.685776263475418091e-02
1.960148811340332031e-01 -1.389617472887039185e-01 -6.935001164674758911e-02
2.132012248039245605e-01 -1.417774409055709839e-01 -5.070393159985542297e-02
1.977088004350662231e-01 -1.355100870132446289e-01 -5.306310206651687622e-02
-4.177426993846893311e-01 -1.767409741878509521e-01 -6.572298239916563034e-03
-4.120715260505676270e-01 -1.616450697183609009e-01 -1.541992183774709702e-03
-4.248424768447875977e-01 -1.709851026535034180e-01 1.350318826735019684e-02
-4.188968837261199951e-01 -1.528876870870590210e-01 1.679754815995693207e-02
3.574713468551635742e-01 -3.311288729310035706e-02 7.484572380781173706e-02
3.496437370777130127e-01 -1.763857528567314148e-02 6.521107256412506104e-02
3.538545072078704834e-01 -3.371299058198928833e-02 9.617462754249572754e-02
3.455102145671844482e-01 -1.931759156286716461e-02 8.659447729587554932e-02
-4.150398075580596924e-01 -2.563599348068237305e-01 -7.856394350528717041e-02
-4.394120573997497559e-01 -2.509638965129852295e-01 -8.822618424892425537e-02
-4.184935390949249268e-01 -2.443964630365371704e-01 -6.620080024003982544e-02
-4.402481913566589355e-01 -2.394739836454391479e-01 -7.395225763320922852e-02
9.475138783454895020e-01 -2.776782810688018799e-01 1.515476405620574951e-01
9.278785586357116699e-01 -2.704402804374694824e-01 1.404926329851150513e-01
9.428657889366149902e-01 -2.845483720302581787e-01 1.686989068984985352e-01
9.227526187896728516e-01 -2.774588465690612793e-01 1.577709913253784180e-01
5.023192763328552246e-01 -2.208499908447265625e-01 -1.558407396078109741e-01
4.934454262256622314e-01 -2.167800664901733398e-01 -1.642217487096786499e-01
5.035848021507263184e-01 -2.251455038785934448e-01 -1.444192975759506226e-01
4.948987364768981934e-01 -2.212493717670440674e-01 -1.529685109853744507e-01
5.894665122032165527e-01 -2.208841592073440552e-01 9.316769987344741821e-02
5.792524814605712891e-01 -2.148918062448501587e-01 8.782789856195449829e-02
5.891079306602478027e-01 -2.282882034778594971e-01 1.108372807502746582e-01
5.768361091613769531e-01 -2.205291986465454102e-01 1.063979789614677429e-01
5.240280032157897949e-01 1.814149506390094757e-02 6.681735068559646606e-02
5.273720622062683105e-01 3.653097152709960938e-02 7.172302901744842529e-02
5.194528102874755859e-01 1.432411186397075653e-02 8.463580161333084106e-02
5.177015066146850586e-01 3.314682841300964355e-02 8.855600655078887939e-02
4.296076893806457520e-01 8.435725420713424683e-02 6.985540688037872314e-02
4.198482930660247803e-01 9.658490121364593506e-02 6.939117610454559326e-02
4.216857850551605225e-01 8.235451579093933105e-02 7.415875047445297241e-02
4.106125533580780029e-01 9.271401166915893555e-02 7.412245124578475952e-02
-1.668893396854400635e-01 1.472318470478057861e-01 1.244595423340797424e-01
-1.803228110074996948e-01 1.670993417501449585e-01 1.268702000379562378e-01
-1.860951036214828491e-01 1.431401669979095459e-01 1.321501135826110840e-01
-1.976505517959594727e-01 1.626597046852111816e-01 1.335838735103607178e-01
6.510072350502014160e-01 -3.228281065821647644e-02 9.008027613162994385e-03
6.373510360717773438e-01 -2.850696444511413574e-02 2.604737412184476852e-03
6.486130952835083008e-01 -3.645705431699752808e-02 2.780214510858058929e-02
6.343165636062622070e-01 -3.204693272709846497e-02 2.107862569391727448e-02
-5.868144631385803223e-01 3.260263800621032715e-01 5.932608246803283691e-02
-6.091733574867248535e-01 3.365727365016937256e-01 5.668405815958976746e-02
-5.844839811325073242e-01 3.338769376277923584e-01 7.842348515987396240e-02
-6.070959568023681641e-01 3.451257646083831787e-01 7.491128146648406982e-02
-7.817997038364410400e-02 1.124679595232009888e-01 -6.243171542882919312e-02
-9.461668133735656738e-02 1.266601979732513428e-01 -6.603000313043594360e-02
-8.408109843730926514e-02 1.055534854531288147e-01 -5.033477768301963806e-02
-9.884849190711975098e-02 1.217984259128570557e-01 -5.418938025832176208e-02
-5.192332267761230469e-01 7.046470046043395996e-02 1.049595549702644348e-01
-5.322282314300537109e-01 9.048855304718017578e-02 1.034269705414772034e-01
-5.312722325325012207e-01 5.877064540982246399e-02 1.163382679224014282e-01
-5.442079901695251465e-01 7.726535946130752563e-02 1.136850789189338684e-01
-6.745365262031555176e-01 -3.017621636390686035e-01 7.117601484060287476e-02
-6.924258470535278320e-01 -2.805223166942596436e-01 6.501291692256927490e-02
-6.628987193107604980e-01 -2.945375144481658936e-01 1.014716178178787231e-01
-6.816897392272949219e-01 -2.723524570465087891e-01 9.433325380086898804e-02
-1.716565787792205811e-01 -1.822429597377777100e-01 -1.757479608058929443e-01
-1.799055337905883789e-01 -1.657768487930297852e-01 -1.741642653942108154e-01
-1.853471994400024414e-01 -1.842412501573562622e-01 -1.730441451072692871e-01
-1.941353976726531982e-01 -1.688690334558486938e-01 -1.722199767827987671e-01
1.349162459373474121e-01 1.806609630584716797e-01 -6.661032140254974365e-02
1.320318579673767090e-01 2.007041424512863159e-01 -6.317191570997238159e-02
1.295093297958374023e-01 1.771164685487747192e-01 -5.669005215167999268e-02
1.270128488540649414e-01 1.976694166660308838e-01 -5.501221865415573120e-02
7.169107794761657715e-01 -1.397714912891387939e-01 1.681845486164093018e-01
7.015977501869201660e-01 -1.228875964879989624e-01 1.660106033086776733e-01
7.214387059211730957e-01 -1.282755136489868164e-01 1.859590262174606323e-01
7.072110176086425781e-01 -1.093956753611564636e-01 1.848443597555160522e-01
6.958181858062744141e-01 -2.507156431674957275e-01 -5.636683106422424316e-02
6.769947409629821777e-01 -2.467727065086364746e-01 -6.493397802114486694e-02
6.958412528038024902e-01 -2.471189498901367188e-01 -3.866808488965034485e-02
6.790136694908142090e-01 -2.428047209978103638e-01 -4.857227951288223267e-02
4.807644188404083252e-01 -1.947226673364639282e-01 1.102653443813323975e-01
4.724283218383789062e-01 -1.813006848096847534e-01 1.006812900304794312e-01
4.729107916355133057e-01 -1.940087527036666870e-01 1.213622987270355225e-01
4.640181958675384521e-01 -1.824533194303512573e-01 1.141055673360824585e-01
5.103574395179748535e-01 -3.653740137815475464e-02 5.581614375114440918e-02
5.007598400115966797e-01 -2.249681390821933746e-02 5.582617968320846558e-02
5.011272430419921875e-01 -4.218116775155067444e-02 6.914322078227996826e-02
4.906108677387237549e-01 -2.850693464279174805e-02 7.046031951904296875e-02
3.006851375102996826e-01 2.942072451114654541e-01 5.381746962666511536e-02
2.815650999546051025e-01 3.038697540760040283e-01 4.497459903359413147e-02
2.969494163990020752e-01 2.896623015403747559e-01 7.158801704645156860e-02
2.802951335906982422e-01 2.982334792613983154e-01 6.634239107370376587e-02
4.066736400127410889e-01 -2.315161973237991333e-01 4.376289248466491699e-02
3.971369862556457520e-01 -2.268835157155990601e-01 3.371808305382728577e-02
4.104714989662170410e-01 -2.344450801610946655e-01 6.326659768819808960e-02
3.993422687053680420e-01 -2.293730080127716064e-01 5.502968654036521912e-02
3.339478373527526855e-01 -1.268804967403411865e-01 -1.143551617860794067e-01
3.167492747306823730e-01 -1.136906445026397705e-01 -1.160194128751754761e-01
3.273377120494842529e-01 -1.152150705456733704e-01 -1.001421436667442322e-01
3.042852878570556641e-01 -1.080481633543968201e-01 -1.062481924891471863e-01
-1.052404642105102539e-01 3.823865354061126709e-01 1.151863113045692444e-02
-1.391907185316085815e-01 3.787176609039306641e-01 7.425891235470771790e-03
-1.227344796061515808e-01 3.826744258403778076e-01 3.366756439208984375e-02
-1.534101814031600952e-01 3.842770457267761230e-01 2.583431079983711243e-02
-5.202716588973999023e-01 -7.755728811025619507e-02 -1.393133550882339478e-01
-5.148926973342895508e-01 -6.387555599212646484e-02 -1.302768290042877197e-01
-5.416917800903320312e-01 -8.064243197441101074e-02 -1.239602118730545044e-01
-5.364469289779663086e-01 -6.595876067876815796e-02 -1.141716912388801575e-01
2.145640403032302856e-01 2.498612105846405029e-01 1.647175662219524384e-02
1.950431317090988159e-01 2.567222416400909424e-01 4.618124105036258698e-03
2.148354351520538330e-01 2.388260811567306519e-01 3.355770185589790344e-02
1.960410922765731812e-01 2.468243986368179321e-01 2.147570811212062836e-02
9.639599919319152832e-02 -1.095946282148361206e-01 1.347059905529022217e-01
7.314983755350112915e-02 -1.024510562419891357e-01 1.341265738010406494e-01
7.683598995208740234e-02 -1.118453890085220337e-01 1.453444659709930420e-01
5.592958256602287292e-02 -1.003763526678085327e-01 1.463145315647125244e-01
-5.592517256736755371e-01 1.305522322654724121e-01 -8.100640028715133667e-02
-5.686050057411193848e-01 1.464010030031204224e-01 -7.547207176685333252e-02
-5.776746869087219238e-01 1.363247632980346680e-01 -7.432875037193298340e-02
-5.882803201675415039e-01 1.508558392524719238e-01 -7.029196619987487793e-02
-2.696059942245483398e-01 -3.748694956302642822e-01 -2.267269492149353027e-01
-2.888503670692443848e-01 -3.586176037788391113e-01 -2.433820366859436035e-01
-2.744520902633666992e-01 -3.861295878887176514e-01 -2.089522629976272583e-01
-2.931304574012756348e-01 -3.696701526641845703e-01 -2.273874878883361816e-01
-2.150411307811737061e-01 -1.255967915058135986e-01 -8.202759176492691040e-02
-2.292491197586059570e-01 -1.121458262205123901e-01 -8.604602515697479248e-02
-2.148500978946685791e-01 -1.289877891540527344e-01 -6.519658863544464111e-02
-2.290673255920410156e-01 -1.130905896425247192e-01 -6.757424771785736084e-02
4.708868861198425293e-01 -9.311417490243911743e-02 4.517120867967605591e-02
4.639891088008880615e-01 -7.464034110307693481e-02 4.402699321508407593e-02
4.565664827823638916e-01 -1.097365617752075195e-01 5.565746128559112549e-02
4.489361941814422607e-01 -9.085438400506973267e-02 5.496293306350708008e-02
-1.728384494781494141e-01 -2.014023363590240479e-01 -5.066635459661483765e-02
-1.833641082048416138e-01 -1.969891935586929321e-01 -5.211733654141426086e-02
-1.851832866668701172e-01 -2.028225511312484741e-01 -3.256107494235038757e-02
-1.930185258388519287e-01 -1.951568573713302612e-01 -3.260490670800209045e-02
7.217633724212646484e-01 -2.872033715248107910e-01 9.422274678945541382e-02
6.969349384307861328e-01 -2.811452448368072510e-01 9.182375669479370117e-02
7.112811207771301270e-01 -2.863066494464874268e-01 1.057583317160606384e-01
6.867259740829467773e-01 -2.805827260017395020e-01 1.041627973318099976e-01
-1.976973712444305420e-01 2.796241343021392822e-01 -5.822181329131126404e-02
-1.937441676855087280e-01 3.027527630329132080e-01 -5.016170814633369446e-02
-2.064315378665924072e-01 2.750211656093597412e-01 -3.560901433229446411e-02
-2.028781324625015259e-01 3.021171092987060547e-01 -2.584192156791687012e-02
8.273099064826965332e-01 3.275590538978576660e-01 -2.640726976096630096e-02
8.046430349349975586e-01 3.521043658256530762e-01 -3.316720575094223022e-02
8.312302231788635254e-01 3.322846293449401855e-01 -1.295064925216138363e-03
8.067453503608703613e-01 3.586370944976806641e-01 -7.452872116118669510e-03
-1.074539497494697571e-01 1.231915876269340515e-01 -1.197727024555206299e-01
-1.125658452510833740e-01 1.435660868883132935e-01 -1.128526255488395691e-01
-1.220065280795097351e-01 1.124568432569503784e-01 -1.157230138778686523e-01
-1.260027438402175903e-01 1.335746049880981445e-01 -1.103099808096885681e-01
-5.487288236618041992e-01 3.064647316932678223e-01 4.496360942721366882e-02
-5.648061037063598633e-01 3.161491751670837402e-01 3.361878544092178345e-02
-5.431641936302185059e-01 3.136049807071685791e-01 6.644840538501739502e-02
-5.617008805274963379e-01 3.237356543540954590e-01 5.486072599887847900e-02
1.081126779317855835e-01 -7.402617484331130981e-02 -1.142786145210266113e-01
9.109954535961151123e-02 -6.913885474205017090e-02 -1.201000735163688660e-01
1.044628918170928955e-01 -8.498717844486236572e-02 -1.073684915900230408e-01
8.632287383079528809e-02 -8.129512518644332886e-02 -1.119074746966362000e-01
7.257468104362487793e-01 -2.538467943668365479e-01 3.776407241821289062e-02
7.115016579627990723e-01 -2.495880275964736938e-01 3.107870183885097504e-02
7.254925966262817383e-01 -2.554853558540344238e-01 5.386199057102203369e-02
7.079441547393798828e-01 -2.488708198070526123e-01 4.898285493254661560e-02
-6.028105616569519043e-01 9.266252070665359497e-02 -1.282413862645626068e-02
-6.161703467369079590e-01 1.118771582841873169e-01 -8.951181545853614807e-03
-6.071208715438842773e-01 9.123674035072326660e-02 6.182484794408082962e-03
-6.206128001213073730e-01 1.113169118762016296e-01 1.021610107272863388e-02
-3.490028083324432373e-01 -3.703844249248504639e-01 -9.627056121826171875e-02
-3.576810359954833984e-01 -3.555057644844055176e-01 -9.834599494934082031e-02
-3.568292260169982910e-01 -3.662072718143463135e-01 -7.471725344657897949e-02
-3.682612478733062744e-01 -3.517814874649047852e-01 -7.684242725372314453e-02
8.682153224945068359e-01 -1.827591955661773682e-01 -2.474916130304336548e-01
8.566867709159851074e-01 -1.653153449296951294e-01 -2.511374652385711670e-01
8.575633168220520020e-01 -1.836452335119247437e-01 -2.354104220867156982e-01
8.431549072265625000e-01 -1.663716435432434082e-01 -2.394716590642929077e-01
-1.866114884614944458e-01 -2.879276871681213379e-02 -2.428603731095790863e-02
-1.849843263626098633e-01 -1.676703430712223053e-02 -3.115037269890308380e-02
-1.855169236660003662e-01 -3.410281240940093994e-02 -6.785752251744270325e-03
-1.845182031393051147e-01 -2.093334309756755829e-02 -1.239446178078651428e-02
7.198311090469360352e-01 1.034093368798494339e-02 9.794456884264945984e-03
6.998701691627502441e-01 7.491776719689369202e-03 5.845578853040933609e-03
7.109008431434631348e-01 8.123503997921943665e-03 3.143439069390296936e-02
6.912466287612915039e-01 5.343821365386247635e-03 2.661793678998947144e-02
-1.567969024181365967e-01 -7.805179059505462646e-02 1.877562552690505981e-01
-1.607024371623992920e-01 -6.316556781530380249e-02 1.852920651435852051e-01
-1.768486499786376953e-01 -8.124405890703201294e-02 1.918537467718124390e-01
-1.831122040748596191e-01 -6.652388721704483032e-02 1.891662627458572388e-01
5.135439634323120117e-01 4.151410758495330811e-01 1.852723956108093262e-02
4.915376603603363037e-01 4.067340195178985596e-01 6.381612271070480347e-03
4.956176280975341797e-01 4.032692909240722656e-01 3.769431635737419128e-02
4.741378724575042725e-01 3.966124951839447021e-01 2.603763155639171600e-02
-5.193346738815307617e-01 -3.902499377727508545e-02 -8.307813107967376709e-02
-5.193336009979248047e-01 -1.467919163405895233e-02 -7.760271430015563965e-02
-5.431144237518310547e-01 -4.639788717031478882e-02 -7.539381086826324463e-02
-5.451679825782775879e-01 -2.543114311993122101e-02 -7.112062722444534302e-02
-7.581602036952972412e-02 1.760907843708992004e-02 -1.796174943447113037e-01
-8.412210643291473389e-02 3.323446214199066162e-02 -1.828419417142868042e-01
-7.571674883365631104e-02 1.716352626681327820e-02 -1.707565933465957642e-01
-8.402283489704132080e-02 3.278890997171401978e-02 -1.739810407161712646e-01
-1.196673661470413208e-01 2.769387066364288330e-01 -1.175975194200873375e-03
-1.327931880950927734e-01 2.834097743034362793e-01 -1.059046387672424316e-02
-1.308016180992126465e-01 2.663454711437225342e-01 1.916998624801635742e-02
-1.439710259437561035e-01 2.754291892051696777e-01 1.103884261101484299e-02
1.557606309652328491e-01 7.379698008298873901e-02 -6.265342980623245239e-02
1.519207060337066650e-01 8.766988664865493774e-02 -6.861443817615509033e-02
1.540183275938034058e-01 6.958347558975219727e-02 -4.669844731688499451e-02
1.506288200616836548e-01 8.286110311746597290e-02 -5.408174917101860046e-02
3.107975423336029053e-01 -2.024679929018020630e-01 1.025994773954153061e-02
2.984693646430969238e-01 -1.994749307632446289e-01 1.385613810271024704e-03
3.085244297981262207e-01 -2.009827494621276855e-01 2.636154741048812866e-02
2.966406345367431641e-01 -1.980571150779724121e-01 1.950834318995475769e-02
-9.376784414052963257e-02 -1.516534835100173950e-01 1.688612848520278931e-01
-9.610413759946823120e-02 -1.373712271451950073e-01 1.664902716875076294e-01
-1.061327755451202393e-01 -1.583871394395828247e-01 1.805443614721298218e-01
-1.101794242858886719e-01 -1.432328969240188599e-01 1.783872097730636597e-01
8.648628592491149902e-01 -4.394520819187164307e-02 -1.640512049198150635e-02
8.705247640609741211e-01 -2.203119359910488129e-02 -1.002593152225017548e-02
8.474987149238586426e-01 -4.737371578812599182e-02 -5.290808621793985367e-03
8.546784520149230957e-01 -2.548681199550628662e-02 1.196237397380173206e-03
2.488160878419876099e-02 2.699245810508728027e-01 -7.353958487510681152e-02
2.720038406550884247e-03 2.719287276268005371e-01 -7.719118893146514893e-02
1.712846383452415466e-02 2.727182209491729736e-01 -5.958390235900878906e-02
-4.752351902425289154e-03 2.746393978595733643e-01 -6.342475116252899170e-02
3.209114372730255127e-01 -7.495576143264770508e-02 -2.171477489173412323e-02
3.023661077022552490e-01 -6.572619080543518066e-02 -2.465575747191905975e-02
3.178525865077972412e-01 -7.550410926342010498e-02 4.387512803077697754e-03
3.016127943992614746e-01 -6.817892193794250488e-02 -8.535480592399835587e-04
4.675905108451843262e-01 5.992216989398002625e-02 1.511243544518947601e-02
4.646871984004974365e-01 8.383192121982574463e-02 4.119706805795431137e-03
4.665492475032806396e-01 5.065003409981727600e-02 3.547957912087440491e-02
4.615397155284881592e-01 7.395102083683013916e-02 2.989249676465988159e-02
-4.570558369159698486e-01 2.148011922836303711e-01 -1.611341908574104309e-02
-4.576832652091979980e-01 2.293157130479812622e-01 -2.428286150097846985e-02
-4.598385393619537354e-01 2.091403454542160034e-01 2.377331256866455078e-04
-4.607262611389160156e-01 2.241570800542831421e-01 -7.859552279114723206e-03
6.560248732566833496e-01 -3.859492540359497070e-01 7.358986139297485352e-02
6.273243427276611328e-01 -3.760387003421783447e-01 8.535137772560119629e-02
6.370683908462524414e-01 -3.621981143951416016e-01 9.199696779251098633e-02
6.090364456176757812e-01 -3.516748249530792236e-01 1.036964431405067444e-01
-8.059442043304443359e-04 -6.379322707653045654e-02 1.763691753149032593e-01
-7.015287876129150391e-03 -4.603351280093193054e-02 1.798425465822219849e-01
-3.800570592284202576e-02 -6.458512693643569946e-02 1.770261079072952271e-01
-4.332849755883216858e-02 -4.761674255132675171e-02 1.788037717342376709e-01
-6.107407808303833008e-01 -3.596366345882415771e-01 -9.758064895868301392e-02
-6.235638260841369629e-01 -3.389717340469360352e-01 -1.072951257228851318e-01
-6.208493113517761230e-01 -3.634923100471496582e-01 -6.848917156457901001e-02
-6.342247724533081055e-01 -3.423310816287994385e-01 -7.963028550148010254e-02
-2.035961002111434937e-01 -1.564518511295318604e-01 -3.185289725661277771e-02
-2.185118794441223145e-01 -1.469029188156127930e-01 -3.685916960239410400e-02
-2.099608629941940308e-01 -1.532573252916336060e-01 -1.383980363607406616e-02
-2.223657071590423584e-01 -1.423585414886474609e-01 -1.852372474968433380e-02
3.229993879795074463e-01 -4.248588532209396362e-02 -1.073412820696830750e-01
2.940769493579864502e-01 -4.437373578548431396e-02 -1.133700907230377197e-01
3.118398487567901611e-01 -4.592548310756683350e-02 -1.030111312866210938e-01
2.830527126789093018e-01 -4.769784212112426758e-02 -1.091926395893096924e-01
-7.964537292718887329e-02 2.774669229984283447e-01 -1.208784338086843491e-02
-9.546048939228057861e-02 2.815046608448028564e-01 -2.003190666437149048e-02
-8.484023064374923706e-02 2.737582623958587646e-01 1.294706203043460846e-02
-1.013479381799697876e-01 2.771848440170288086e-01 2.066333312541246414e-03
4.396195411682128906e-01 1.938629150390625000e-01 1.108835078775882721e-02
4.476671516895294189e-01 2.125770151615142822e-01 1.546593662351369858e-02
4.212519228458404541e-01 1.914107501506805420e-01 3.151428326964378357e-02
4.305691719055175781e-01 2.103633284568786621e-01 3.539898619055747986e-02
5.101305246353149414e-01 3.718665540218353271e-01 7.919472455978393555e-02
4.897463023662567139e-01 3.679021000862121582e-01 6.843378394842147827e-02
4.897149205207824707e-01 3.691452145576477051e-01 8.682635426521301270e-02
4.757920503616333008e-01 3.695518076419830322e-01 7.938079535961151123e-02
2.327814400196075439e-01 -4.192568734288215637e-02 1.112383529543876648e-01
2.266333103179931641e-01 -2.581977844238281250e-02 1.094344109296798706e-01
2.236375808715820312e-01 -5.025123059749603271e-02 1.147925630211830139e-01
2.168568223714828491e-01 -3.507233038544654846e-02 1.133744642138481140e-01
-8.975626826286315918e-01 1.562629044055938721e-01 7.385314255952835083e-02
-9.001303315162658691e-01 1.849830150604248047e-01 7.202332466840744019e-02
-8.888169527053833008e-01 1.503745317459106445e-01 9.205090999603271484e-02
-8.919925093650817871e-01 1.801946014165878296e-01 8.981083333492279053e-02
-2.101689577102661133e-01 -7.471282035112380981e-02 1.185203939676284790e-01
-2.281121164560317993e-01 -6.724862009286880493e-02 1.116455644369125366e-01
-2.156433314085006714e-01 -7.805748283863067627e-02 1.314670145511627197e-01
-2.343532741069793701e-01 -7.059153169393539429e-02 1.243280470371246338e-01
1.854852288961410522e-01 -8.498023450374603271e-02 1.340411603450775146e-01
1.706233471632003784e-01 -6.875964254140853882e-02 1.356833875179290771e-01
1.606660932302474976e-01 -9.539932012557983398e-02 1.396642029285430908e-01
1.495177894830703735e-01 -7.766370475292205811e-02 1.426782011985778809e-01
4.475046694278717041e-01 2.594418823719024658e-01 -3.928607702255249023e-02
4.529661834239959717e-01 2.771834433078765869e-01 -3.458804264664649963e-02
4.288027584552764893e-01 2.518672943115234375e-01 -3.229258581995964050e-02
4.350425302982330322e-01 2.703472673892974854e-01 -2.848543040454387665e-02
-1.172540783882141113e-01 -7.000730186700820923e-02 1.724173277616500854e-01
-1.201124638319015503e-01 -5.683368444442749023e-02 1.703972518444061279e-01
-1.330133378505706787e-01 -7.558643817901611328e-02 1.781397759914398193e-01
-1.361032724380493164e-01 -6.253506243228912354e-02 1.760667860507965088e-01
5.081995725631713867e-01 3.068908154964447021e-01 -2.187035046517848969e-02
5.002233386039733887e-01 3.093737661838531494e-01 -2.091279812157154083e-02
4.895512461662292480e-01 3.017848432064056396e-01 -1.439192611724138260e-02
4.869952797889709473e-01 3.095871508121490479e-01 -9.743451140820980072e-03
4.979755282402038574e-01 -3.328198790550231934e-01 -5.636385083198547363e-02
4.924416542053222656e-01 -3.192228674888610840e-01 -6.992650032043457031e-02
4.928450286388397217e-01 -3.437747955322265625e-01 -4.011659324169158936e-02
4.876855909824371338e-01 -3.310096859931945801e-01 -5.309494212269783020e-02
-2.451641112565994263e-01 1.133536174893379211e-01 1.305044442415237427e-02
-2.428306043148040771e-01 1.312862634658813477e-01 6.597871892154216766e-03
-2.438116669654846191e-01 1.101732626557350159e-01 3.356344997882843018e-02
-2.430801689624786377e-01 1.288324147462844849e-01 2.852095477283000946e-02
2.751933932304382324e-01 -9.255985915660858154e-02 2.232419699430465698e-02
2.456826120615005493e-01 -9.653312712907791138e-02 1.223360002040863037e-02
2.707625925540924072e-01 -9.067872166633605957e-02 4.511763527989387512e-02
2.409488111734390259e-01 -9.553621709346771240e-02 3.598140552639961243e-02
-3.876445889472961426e-01 2.446513772010803223e-01 -2.181012369692325592e-02
-4.067128300666809082e-01 2.715554535388946533e-01 -2.122496441006660461e-02
-3.734182715415954590e-01 2.481432408094406128e-01 -9.550319053232669830e-03
-3.928668498992919922e-01 2.750923335552215576e-01 -8.791615255177021027e-03
2.849026918411254883e-01 6.869861483573913574e-02 1.376895606517791748e-01
2.849591672420501709e-01 8.724182844161987305e-02 1.395298391580581665e-01
2.671935856342315674e-01 5.717812106013298035e-02 1.389824301004409790e-01
2.661902308464050293e-01 7.463112473487854004e-02 1.402007341384887695e-01
-8.704286217689514160e-01 -7.341801188886165619e-03 -3.523403778672218323e-02
-8.838716149330139160e-01 1.453366130590438843e-02 -4.064894840121269226e-02
-8.749155998229980469e-01 -8.900597691535949707e-03 -1.739805191755294800e-02
-8.878042101860046387e-01 1.109202392399311066e-02 -2.312939986586570740e-02
3.818005621433258057e-01 -1.440048962831497192e-01 1.430010944604873657e-01
3.690338432788848877e-01 -1.281443238258361816e-01 1.472712755203247070e-01
3.682304024696350098e-01 -1.489822715520858765e-01 1.483454406261444092e-01
3.551316261291503906e-01 -1.331411898136138916e-01 1.528772413730621338e-01
-5.482690930366516113e-01 -1.184404492378234863e-01 5.413163080811500549e-02
-5.708975195884704590e-01 -1.120723411440849304e-01 4.832093790173530579e-02
-5.533310174942016602e-01 -1.241713389754295349e-01 6.756890565156936646e-02
-5.731334090232849121e-01 -1.169738098978996277e-01 6.198234856128692627e-02
-4.096590578556060791e-01 2.960709035396575928e-01 7.123604416847229004e-02
-4.291874766349792480e-01 3.154251873493194580e-01 7.004820555448532104e-02
-4.277267754077911377e-01 2.927844226360321045e-01 8.196026831865310669e-02
-4.471624791622161865e-01 3.122809529304504395e-01 8.089584857225418091e-02
-6.507913023233413696e-02 1.735869497060775757e-01 -8.281575888395309448e-02
-7.087610661983489990e-02 1.925504505634307861e-01 -8.150409907102584839e-02
-6.627133488655090332e-02 1.629847586154937744e-01 -7.302610576152801514e-02
-7.604113221168518066e-02 1.800193041563034058e-01 -7.256563752889633179e-02
-5.042217373847961426e-01 -2.663629651069641113e-01 -2.213392555713653564e-01
-5.122920870780944824e-01 -2.320455014705657959e-01 -2.192743420600891113e-01
-5.300059318542480469e-01 -2.851129472255706787e-01 -2.111188471317291260e-01
-5.388312935829162598e-01 -2.498719096183776855e-01 -2.116637378931045532e-01
8.359114527702331543e-01 -1.182860657572746277e-01 -7.804458588361740112e-02
8.393589258193969727e-01 -8.735121786594390869e-02 -6.310883164405822754e-02
8.144187927246093750e-01 -1.225122511386871338e-01 -5.641233175992965698e-02
8.193726539611816406e-01 -9.097409993410110474e-02 -4.102545604109764099e-02
-3.587722778320312500e-01 -1.175868585705757141e-01 -4.326996952295303345e-02
-3.741306066513061523e-01 -1.147061958909034729e-01 -5.078110098838806152e-02
-3.561493158340454102e-01 -1.162004843354225159e-01 -1.889356039464473724e-02
-3.720023930072784424e-01 -1.136495247483253479e-01 -2.929608523845672607e-02
1.453196108341217041e-01 3.973267599940299988e-02 1.424777656793594360e-01
1.257936656475067139e-01 5.323024466633796692e-02 1.406625658273696899e-01
1.288631260395050049e-01 3.282642737030982971e-02 1.459318995475769043e-01
1.091437712311744690e-01 4.583222046494483948e-02 1.454800367355346680e-01
-2.782221436500549316e-01 -2.272641099989414215e-02 6.101121008396148682e-02
-2.993021905422210693e-01 -1.917262375354766846e-02 5.564732849597930908e-02
-2.867857813835144043e-01 -2.603755146265029907e-02 7.025430351495742798e-02
-3.062457144260406494e-01 -2.256731688976287842e-02 6.469929963350296021e-02
6.503290534019470215e-01 -3.121259808540344238e-02 -1.625473201274871826e-01
6.246855854988098145e-01 -1.450478099286556244e-02 -1.664308458566665649e-01
6.494424343109130859e-01 -2.759799733757972717e-02 -1.520446687936782837e-01
6.230602860450744629e-01 -1.116158347576856613e-02 -1.561579704284667969e-01
-2.821784019470214844e-01 -2.843479812145233154e-01 1.285034865140914917e-01
-3.048492372035980225e-01 -2.831701040267944336e-01 1.258440315723419189e-01
-2.793449163436889648e-01 -2.691828310489654541e-01 1.447339206933975220e-01
-3.027431666851043701e-01 -2.704992294311523438e-01 1.397091150283813477e-01
-3.889856338500976562e-01 -8.751019090414047241e-02 1.139342188835144043e-01
-3.854968845844268799e-01 -7.635857909917831421e-02 1.104424074292182922e-01
-3.873156905174255371e-01 -8.872960507869720459e-02 1.299954950809478760e-01
-3.843527138233184814e-01 -7.677675783634185791e-02 1.260392963886260986e-01
-3.805784285068511963e-01 -3.797077834606170654e-01 -1.730687171220779419e-01
-3.842003047466278076e-01 -3.652246892452239990e-01 -1.791936308145523071e-01
-3.944865167140960693e-01 -3.860664069652557373e-01 -1.529024839401245117e-01
-3.977991640567779541e-01 -3.712857067584991455e-01 -1.587076336145401001e-01
-7.637196779251098633e-01 -1.260089129209518433e-01 1.915971376001834869e-02
-7.798268795013427734e-01 -1.026678979396820068e-01 1.536622457206249237e-02
-7.724779248237609863e-01 -1.310295760631561279e-01 3.559347614645957947e-02
-7.890371084213256836e-01 -1.069875806570053101e-01 3.250654414296150208e-02
3.462048768997192383e-01 2.472412288188934326e-01 -8.149079978466033936e-03
3.518650233745574951e-01 2.670454084873199463e-01 -1.663713250309228897e-03
3.308350443840026855e-01 2.453566640615463257e-01 6.109222304075956345e-03
3.368105292320251465e-01 2.644850611686706543e-01 1.214404590427875519e-02
5.231361985206604004e-01 -1.180293336510658264e-01 -4.515669122338294983e-02
5.021874308586120605e-01 -1.084408238530158997e-01 -4.101280122995376587e-02
5.106008052825927734e-01 -1.064262539148330688e-01 -2.149658091366291046e-02
4.896874129772186279e-01 -9.719543159008026123e-02 -2.027746476233005524e-02
-6.132352352142333984e-01 -1.442753523588180542e-01 -1.670040376484394073e-02
-6.361571550369262695e-01 -1.363427937030792236e-01 -2.112290635704994202e-02
-6.222087144851684570e-01 -1.525472402572631836e-01 -9.127344936132431030e-03
-6.496896147727966309e-01 -1.451502889394760132e-01 -1.349569763988256454e-02
5.288393497467041016e-01 4.204303026199340820e-01 3.925857692956924438e-02
5.052222609519958496e-01 4.137324392795562744e-01 2.635449543595314026e-02
5.126300454139709473e-01 4.110419154167175293e-01 5.799918994307518005e-02
4.898759424686431885e-01 4.054882526397705078e-01 4.558987170457839966e-02
-8.561950922012329102e-02 -3.263041079044342041e-01 1.403423696756362915e-01
-1.066529750823974609e-01 -3.270633816719055176e-01 1.365971416234970093e-01
-8.646249771118164062e-02 -3.143936097621917725e-01 1.577702015638351440e-01
-1.077558249235153198e-01 -3.146691322326660156e-01 1.542478501796722412e-01
4.768373072147369385e-01 -2.145734429359436035e-01 1.407593339681625366e-01
4.617345929145812988e-01 -2.084191143512725830e-01 1.400659680366516113e-01
4.638636112213134766e-01 -2.141953706741333008e-01 1.518342196941375732e-01
4.475936889648437500e-01 -2.087532430887222290e-01 1.515318751335144043e-01
-2.073210477828979492e-01 -2.143409848213195801e-01 -4.949134588241577148e-02
-2.220801711082458496e-01 -2.105821222066879272e-01 -5.511180311441421509e-02
-2.087146192789077759e-01 -2.144076824188232422e-01 -3.427513316273689270e-02
-2.238062769174575806e-01 -2.112681120634078979e-01 -4.103151336312294006e-02
-1.972070783376693726e-01 5.331045947968959808e-03 -1.131014227867126465e-01
-2.088144570589065552e-01 1.383848115801811218e-02 -1.163195893168449402e-01
-2.077309191226959229e-01 8.138404227793216705e-04 -9.510149061679840088e-02
-2.185898423194885254e-01 9.626764804124832153e-03 -9.684623032808303833e-02
7.747860252857208252e-02 6.571874022483825684e-02 -4.962448403239250183e-02
6.795370578765869141e-02 7.607311010360717773e-02 -4.711088910698890686e-02
6.261410564184188843e-02 6.560537219047546387e-02 -3.176425769925117493e-02
5.718019604682922363e-02 7.558740675449371338e-02 -2.901901677250862122e-02
-4.913038015365600586e-01 -3.201454579830169678e-01 -2.960871206596493721e-03
-5.062337517738342285e-01 -3.023141622543334961e-01 -1.677425927482545376e-03
-4.845149517059326172e-01 -3.193446099758148193e-01 8.219966664910316467e-03
-4.990547597408294678e-01 -3.002766668796539307e-01 9.495358914136886597e-03
6.670590639114379883e-01 -4.158560335636138916e-01 9.544107131659984589e-03
6.401055455207824707e-01 -4.190884530544281006e-01 1.080698892474174500e-02
6.599568724632263184e-01 -4.124911725521087646e-01 2.984254807233810425e-02
6.331281065940856934e-01 -4.111188352108001709e-01 3.574225679039955139e-02
8.637424111366271973e-01 7.741770148277282715e-02 5.881357565522193909e-02
8.658213019371032715e-01 1.083047389984130859e-01 6.020674109458923340e-02
8.444154858589172363e-01 6.678169220685958862e-02 7.117825001478195190e-02
8.459723591804504395e-01 9.524419903755187988e-02 7.146213203668594360e-02
-5.734916925430297852e-01 7.164601981639862061e-02 1.079829409718513489e-01
-5.868959426879882812e-01 8.596955239772796631e-02 1.061668470501899719e-01
-5.823377370834350586e-01 7.398059219121932983e-02 1.185129210352897644e-01
-5.943596959114074707e-01 8.689528703689575195e-02 1.158960163593292236e-01
4.651425480842590332e-01 -2.850315272808074951e-01 2.313252724707126617e-02
4.540701508522033691e-01 -2.768016755580902100e-01 1.765388622879981995e-02
4.602980315685272217e-01 -2.800092399120330811e-01 4.563233628869056702e-02
4.440862536430358887e-01 -2.758390903472900391e-01 3.864242136478424072e-02
-5.386452674865722656e-01 -1.279592141509056091e-02 1.100818291306495667e-01
-5.572590827941894531e-01 -6.479997653514146805e-03 1.052423343062400818e-01
-5.409355163574218750e-01 -3.258399665355682373e-02 1.147498339414596558e-01
-5.597009062767028809e-01 -2.583355456590652466e-02 1.100735738873481750e-01
-4.333761930465698242e-01 -2.462783828377723694e-02 -4.102608561515808105e-02
-4.273303747177124023e-01 -5.088672973215579987e-03 -3.995397686958312988e-02
-4.396695792675018311e-01 -3.605163842439651489e-02 -3.050775825977325439e-02
-4.354561567306518555e-01 -1.754106953740119934e-02 -2.938724122941493988e-02
-3.426694869995117188e-01 1.150621473789215088e-02 1.431881338357925415e-01
-3.327283859252929688e-01 2.463940717279911041e-02 1.362372934818267822e-01
-3.412422239780426025e-01 -8.944864384829998016e-04 1.621570438146591187e-01
-3.385410606861114502e-01 9.774579666554927826e-03 1.539568752050399780e-01
-2.005929350852966309e-01 -2.118630409240722656e-01 4.286509938538074493e-03
-1.978451460599899292e-01 -1.957578063011169434e-01 7.848331704735755920e-03
-2.053287029266357422e-01 -2.096063345670700073e-01 2.132612466812133789e-02
-2.033336460590362549e-01 -1.938997805118560791e-01 2.089997753500938416e-02
6.065001487731933594e-01 -1.763949729502201080e-02 1.632348746061325073e-01
5.876839756965637207e-01 8.387502282857894897e-03 1.580453217029571533e-01
6.034885644912719727e-01 -2.275744080543518066e-02 1.810309737920761108e-01
5.843573808670043945e-01 4.333216696977615356e-03 1.768494397401809692e-01
7.386820316314697266e-01 -1.415765881538391113e-01 4.294915590435266495e-03
7.033120393753051758e-01 -1.314079314470291138e-01 6.800362374633550644e-03
7.251172065734863281e-01 -1.399788409471511841e-01 2.547373995184898376e-02
6.873341798782348633e-01 -1.325903981924057007e-01 2.683107368648052216e-02
5.246616601943969727e-01 6.516746431589126587e-02 -9.230543673038482666e-02
5.096217989921569824e-01 7.030400633811950684e-02 -1.027982532978057861e-01
5.247278809547424316e-01 5.812135711312294006e-02 -7.724123448133468628e-02
5.088060498237609863e-01 6.314792484045028687e-02 -8.781506121158599854e-02
1.190547496080398560e-01 -1.036194339394569397e-01 7.112008053809404373e-03
9.691437333822250366e-02 -1.091845557093620300e-01 1.197815407067537308e-03
1.192875131964683533e-01 -1.040015742182731628e-01 2.730654738843441010e-02
9.606158733367919922e-02 -1.085278764367103577e-01 2.132522873580455780e-02
-1.732802987098693848e-01 -1.410595327615737915e-01 1.895829886198043823e-01
-1.782462745904922485e-01 -1.260588765144348145e-01 1.864832937717437744e-01
-1.930754482746124268e-01 -1.501627117395401001e-01 1.975867897272109985e-01
-1.983309090137481689e-01 -1.345048099756240845e-01 1.947484910488128662e-01
7.209280878305435181e-02 1.913696527481079102e-01 -1.031855866312980652e-02
6.679806113243103027e-02 2.057869583368301392e-01 -1.115240063518285751e-02
6.925145536661148071e-02 1.939251124858856201e-01 1.297434046864509583e-02
6.246759742498397827e-02 2.091938704252243042e-01 1.299143489450216293e-02
7.259261608123779297e-01 3.834441602230072021e-01 -3.083509393036365509e-02
7.028154134750366211e-01 3.947733640670776367e-01 -3.900886699557304382e-02
7.134984731674194336e-01 3.992920517921447754e-01 -2.012687362730503082e-02
6.883547306060791016e-01 4.073146283626556396e-01 -2.658579498529434204e-02
4.765942692756652832e-01 -1.795615404844284058e-01 -4.602216184139251709e-02
4.647454619407653809e-01 -1.717377603054046631e-01 -5.199519172310829163e-02
4.779563248157501221e-01 -1.817186772823333740e-01 -2.938873507082462311e-02
4.645377397537231445e-01 -1.735724508762359619e-01 -3.717010468244552612e-02
1.466216295957565308e-01 -1.094841063022613525e-01 1.265206038951873779e-01
1.376241445541381836e-01 -9.410898387432098389e-02 1.290832906961441040e-01
1.369059681892395020e-01 -1.133335977792739868e-01 1.353683918714523315e-01
1.225920394062995911e-01 -9.852616488933563232e-02 1.370219439268112183e-01
-7.927631139755249023e-01 2.231857031583786011e-01 1.446818374097347260e-02
-7.850329279899597168e-01 2.450073808431625366e-01 1.422949600964784622e-02
-7.980647087097167969e-01 2.078399360179901123e-01 2.494741976261138916e-02
-7.908717989921569824e-01 2.306654453277587891e-01 2.500054612755775452e-02
3.539668917655944824e-01 -2.103256285190582275e-01 7.227607816457748413e-02
3.392752110958099365e-01 -2.066668123006820679e-01 6.875180453062057495e-02
3.525348603725433350e-01 -2.080655694007873535e-01 8.783202618360519409e-02
3.376879990100860596e-01 -2.040808647871017456e-01 8.566063642501831055e-02
2.049383819103240967e-01 1.846020668745040894e-01 -1.055034920573234558e-01
1.973382234573364258e-01 2.036186307668685913e-01 -1.027503609657287598e-01
1.928530931472778320e-01 1.857091784477233887e-01 -9.797538816928863525e-02
1.870933473110198975e-01 2.050081044435501099e-01 -9.473817050457000732e-02
5.467780828475952148e-01 -2.239981293678283691e-01 9.874497354030609131e-02
5.313873887062072754e-01 -2.137189209461212158e-01 9.573341906070709229e-02
5.390024781227111816e-01 -2.303091883659362793e-01 1.093901842832565308e-01
5.232499837875366211e-01 -2.193866819143295288e-01 1.064000055193901062e-01
7.142704129219055176e-01 -4.023463428020477295e-01 -6.098809093236923218e-02
6.866319775581359863e-01 -4.031319618225097656e-01 -6.531968712806701660e-02
7.083115577697753906e-01 -4.042725861072540283e-01 -3.999896347522735596e-02
6.788881421089172363e-01 -4.051122665405273438e-01 -4.288701713085174561e-02
-5.553717017173767090e-01 3.133968114852905273e-01 -6.952815223485231400e-03
-5.773370265960693359e-01 3.228492438793182373e-01 -7.281615398824214935e-03
-5.556125044822692871e-01 3.214702308177947998e-01 1.408644765615463257e-02
-5.764696598052978516e-01 3.293867111206054688e-01 1.232539303600788116e-02
-5.089064836502075195e-01 -6.076131761074066162e-02 -1.359714120626449585e-01
-5.053422451019287109e-01 -4.758603870868682861e-02 -1.270271986722946167e-01
-5.274435281753540039e-01 -6.294939666986465454e-02 -1.193727701902389526e-01
-5.241911411285400391e-01 -4.686643555760383606e-02 -1.108820959925651550e-01
5.855535268783569336e-01 -3.059317469596862793e-01 -1.419258862733840942e-01
5.725409388542175293e-01 -2.912419736385345459e-01 -1.456286907196044922e-01
5.689064860343933105e-01 -3.185843527317047119e-01 -1.335337907075881958e-01
5.550972223281860352e-01 -3.021636903285980225e-01 -1.371417343616485596e-01
-8.607397973537445068e-02 -1.517210006713867188e-01 -5.594785138964653015e-02
-1.106195077300071716e-01 -1.613465100526809692e-01 -6.595741212368011475e-02
-9.139026701450347900e-02 -1.573682576417922974e-01 -3.834671154618263245e-02
-1.122001335024833679e-01 -1.661434024572372437e-01 -4.696498066186904907e-02
1.787479072809219360e-01 -1.470119357109069824e-01 -6.947450339794158936e-02
1.627562344074249268e-01 -1.425497531890869141e-01 -7.079720497131347656e-02
1.746628582477569580e-01 -1.398569196462631226e-01 -5.107864737510681152e-02
1.583060473203659058e-01 -1.365131139755249023e-01 -5.266135185956954956e-02
-6.750411391258239746e-01 4.062765836715698242e-01 8.516938984394073486e-02
-6.865254640579223633e-01 4.186197221279144287e-01 7.299315184354782104e-02
-6.856892704963684082e-01 3.917768895626068115e-01 9.466452896595001221e-02
