-2.437337785959243774e-01 -1.187281757593154907e-01 2.759826779365539551e-01
-1.249362528324127197e-02 3.760528266429901123e-01 2.375485897064208984e-01
-2.246629446744918823e-02 3.852600157260894775e-01 2.337874174118041992e-01
-2.044511400163173676e-02 3.672753870487213135e-01 2.460539937019348145e-01
-3.048694133758544922e-02 3.759522438049316406e-01 2.417725026607513428e-01
-4.230242967605590820e-02 7.722235471010208130e-02 -1.556865423917770386e-01
-5.388095974922180176e-02 8.019242435693740845e-02 -1.586306244134902954e-01
-4.632459208369255066e-02 6.821690499782562256e-02 -1.550535559654235840e-01
-5.826590955257415771e-02 7.049593329429626465e-02 -1.591447144746780396e-01
-4.553596302866935730e-02 4.428734779357910156e-01 1.409070193767547607e-01
-5.496612936258316040e-02 4.385629594326019287e-01 1.308077722787857056e-01
-4.483292996883392334e-02 4.402825236320495605e-01 1.541583985090255737e-01
-5.450323224067687988e-02 4.364276528358459473e-01 1.442305743694305420e-01
-1.411506384611129761e-01 1.342143863439559937e-01 2.969824671745300293e-01
-1.378421336412429810e-01 1.449472457170486450e-01 2.977520525455474854e-01
-1.479280591011047363e-01 1.286702007055282593e-01 3.014410138130187988e-01
-1.453815996646881104e-01 1.395939439535140991e-01 3.020877242088317871e-01
-6.498033553361892700e-02 -4.629182517528533936e-01 -1.389835625886917114e-01
-7.378872483968734741e-02 -4.519945979118347168e-01 -1.417071074247360229e-01
-7.173728197813034058e-02 -4.692401587963104248e-01 -1.357705742120742798e-01
-8.043477684259414673e-02 -4.583980441093444824e-01 -1.384723335504531860e-01
1.183461397886276245e-01 4.385707378387451172e-01 -8.498614281415939331e-02
1.108101904392242432e-01 4.442723691463470459e-01 -8.686284720897674561e-02
1.118158102035522461e-01 4.336813092231750488e-01 -7.653453946113586426e-02
1.072618216276168823e-01 4.391886293888092041e-01 -7.952290028333663940e-02
-3.983404487371444702e-02 4.132041335105895996e-01 -1.089111268520355225e-01
-3.322347626090049744e-02 4.238034188747406006e-01 -1.091208308935165405e-01
-4.601769521832466125e-02 4.137677252292633057e-01 -9.671117365360260010e-02
-3.912796080112457275e-02 4.245031774044036865e-01 -9.840105473995208740e-02
8.139690384268760681e-03 -6.650944948196411133e-01 2.781281061470508575e-02
1.034071017056703568e-02 -6.576129198074340820e-01 2.762130461633205414e-02
3.533065784722566605e-03 -6.695345640182495117e-01 3.481980040669441223e-02
5.887942388653755188e-03 -6.622905135154724121e-01 3.459912911057472229e-02
-1.136757284402847290e-01 -3.815273195505142212e-02 1.645700782537460327e-01
-1.192879229784011841e-01 -2.663750201463699341e-02 1.594330072402954102e-01
-1.205971911549568176e-01 -4.634671285748481750e-02 1.656400114297866821e-01
-1.264296174049377441e-01 -3.575626388192176819e-02 1.606739014387130737e-01
-1.147734820842742920e-01 3.042365312576293945e-01 1.665777266025543213e-01
-1.138157919049263000e-01 3.130981326103210449e-01 1.649298667907714844e-01
-1.194110810756683350e-01 3.014136850833892822e-01 1.764385104179382324e-01
-1.185139641165733337e-01 3.105899095535278320e-01 1.750528663396835327e-01
1.276663839817047119e-01 -2.736405134201049805e-01 2.213221741840243340e-03
1.143514364957809448e-01 -2.664025723934173584e-01 -1.684555667452514172e-03
1.301435083150863647e-01 -2.697131037712097168e-01 2.105521969497203827e-03
1.168285533785820007e-01 -2.624751627445220947e-01 -1.792255323380231857e-03
-9.789080172777175903e-02 3.916296660900115967e-01 8.162966370582580566e-02
-8.986566960811614990e-02 4.077467024326324463e-01 8.258559554815292358e-02
-9.936727583408355713e-02 3.874032199382781982e-01 9.750321507453918457e-02
-9.174613654613494873e-02 4.026458263397216797e-01 9.778262674808502197e-02
-3.117944300174713135e-01 -6.934737563133239746e-01 -1.730201691389083862e-01
-3.155963718891143799e-01 -6.852100491523742676e-01 -1.722061783075332642e-01
-3.188734054565429688e-01 -6.934370398521423340e-01 -1.697966754436492920e-01
-3.226897418498992920e-01 -6.853265166282653809e-01 -1.693757027387619019e-01
-1.953932195901870728e-01 -1.553237140178680420e-01 7.818894833326339722e-02
-2.029458731412887573e-01 -1.470697075128555298e-01 7.515796273946762085e-02
-1.920880228281021118e-01 -1.528856009244918823e-01 8.965574949979782104e-02
-1.998544335365295410e-01 -1.435785889625549316e-01 8.801158517599105835e-02
6.153490021824836731e-02 -4.673490524291992188e-01 7.820694893598556519e-02
6.708116829395294189e-02 -4.537154138088226318e-01 7.811076194047927856e-02
6.175742670893669128e-02 -4.700680077075958252e-01 8.905873447656631470e-02
6.592674553394317627e-02 -4.566702246665954590e-01 8.868287503719329834e-02
2.643819749355316162e-01 7.139506340026855469e-01 -1.617569327354431152e-01
2.682624161243438721e-01 7.269252538681030273e-01 -1.598159074783325195e-01
2.643538415431976318e-01 7.147707939147949219e-01 -1.549583375453948975e-01
2.681439816951751709e-01 7.277507185935974121e-01 -1.531001776456832886e-01
1.309249252080917358e-01 6.338717937469482422e-01 8.333437889814376831e-02
1.282480657100677490e-01 6.430239677429199219e-01 8.122275769710540771e-02
1.244591772556304932e-01 6.259035468101501465e-01 8.793244510889053345e-02
1.221510171890258789e-01 6.361185312271118164e-01 8.622284978628158569e-02
-1.038439758121967316e-02 5.681433677673339844e-01 -5.648249294608831406e-03
-1.162581611424684525e-02 5.778132677078247070e-01 -6.414686795324087143e-03
-1.487441454082727432e-02 5.703432559967041016e-01 4.974002484232187271e-03
-1.696791127324104309e-02 5.801167488098144531e-01 3.680115099996328354e-03
1.419740319252014160e-01 5.459685325622558594e-01 -2.804892063140869141e-01
1.449595540761947632e-01 5.555346012115478516e-01 -2.798322141170501709e-01
1.356211155652999878e-01 5.442327260971069336e-01 -2.731456160545349121e-01
1.396069824695587158e-01 5.539968013763427734e-01 -2.725670337677001953e-01
1.382960528135299683e-01 3.422241806983947754e-01 -9.404289722442626953e-02
1.384092569351196289e-01 3.555524945259094238e-01 -9.615857899188995361e-02
1.409418731927871704e-01 3.406006395816802979e-01 -8.136358112096786499e-02
1.409097313880920410e-01 3.540019392967224121e-01 -8.348698914051055908e-02
1.141400858759880066e-01 -1.606844365596771240e-01 6.917943060398101807e-02
1.059947460889816284e-01 -1.543566286563873291e-01 6.438229233026504517e-02
1.178875863552093506e-01 -1.592484563589096069e-01 7.989243417978286743e-02
1.093951612710952759e-01 -1.522348970174789429e-01 7.536710798740386963e-02
-1.625531613826751709e-01 -2.996429987251758575e-02 -1.716953516006469727e-01
-1.619308143854141235e-01 -2.068670094013214111e-02 -1.685800552368164062e-01
-1.720341891050338745e-01 -2.963969483971595764e-02 -1.672775894403457642e-01
-1.713110655546188354e-01 -2.040844224393367767e-02 -1.643456220626831055e-01
-4.964816942811012268e-02 -3.903689682483673096e-01 -1.603490561246871948e-01
-5.894485861063003540e-02 -3.848071396350860596e-01 -1.622620522975921631e-01
-5.212081968784332275e-02 -3.932738602161407471e-01 -1.547834724187850952e-01
-6.155759841203689575e-02 -3.883172869682312012e-01 -1.564798504114151001e-01
5.076549202203750610e-02 -3.389794230461120605e-01 -1.491271704435348511e-01
5.420870706439018250e-02 -3.249019384384155273e-01 -1.503262370824813843e-01
4.167217016220092773e-02 -3.416187167167663574e-01 -1.408651322126388550e-01
4.607943072915077209e-02 -3.275898694992065430e-01 -1.403316557407379150e-01
1.222993060946464539e-01 4.509017467498779297e-01 3.594224154949188232e-02
1.292853802442550659e-01 4.588795304298400879e-01 4.058592021465301514e-02
1.147563531994819641e-01 4.492394328117370605e-01 4.299128800630569458e-02
1.189326494932174683e-01 4.597412645816802979e-01 4.816965013742446899e-02
9.957049787044525146e-02 1.550932824611663818e-01 5.951215326786041260e-02
1.047702580690383911e-01 1.655175089836120605e-01 5.610634014010429382e-02
9.275594353675842285e-02 1.536623388528823853e-01 6.901361048221588135e-02
9.793321043252944946e-02 1.627450585365295410e-01 6.815725564956665039e-02
-5.453999713063240051e-02 3.983385860919952393e-01 2.226149588823318481e-01
-6.191034987568855286e-02 4.022215902805328369e-01 2.153550237417221069e-01
-5.900965258479118347e-02 3.847211003303527832e-01 2.318564355373382568e-01
-6.625901162624359131e-02 3.895839154720306396e-01 2.248508185148239136e-01
-7.457669079303741455e-02 4.221792519092559814e-01 1.543098837137222290e-01
-8.190762251615524292e-02 4.193869829177856445e-01 1.459667533636093140e-01
-7.774129509925842285e-02 4.160650074481964111e-01 1.668274253606796265e-01
-8.383937180042266846e-02 4.138710498809814453e-01 1.586605608463287354e-01
1.171262711286544800e-01 3.455374538898468018e-01 3.914994373917579651e-02
1.153236404061317444e-01 3.545461893081665039e-01 3.845680505037307739e-02
1.147218346595764160e-01 3.461054265499114990e-01 4.889719560742378235e-02
1.129279434680938721e-01 3.547304272651672363e-01 4.802361130714416504e-02
1.808236390352249146e-01 5.680975317955017090e-01 -3.034561276435852051e-01
1.802031397819519043e-01 5.773353576660156250e-01 -3.031845390796661377e-01
1.710459887981414795e-01 5.631415843963623047e-01 -2.999736666679382324e-01
1.709402650594711304e-01 5.722734928131103516e-01 -2.992744147777557373e-01
-1.298395395278930664e-01 2.053108215332031250e-01 9.646948426961898804e-02
-1.291268318891525269e-01 2.160182595252990723e-01 9.450438618659973145e-02
-1.251682490110397339e-01 2.019507139921188354e-01 1.051938012242317200e-01
-1.245991438627243042e-01 2.131745219230651855e-01 1.036759465932846069e-01
-2.142491042613983154e-01 -1.362118571996688843e-01 1.255129929631948471e-02
-2.184075266122817993e-01 -1.274474859237670898e-01 8.008239790797233582e-03
-2.135671526193618774e-01 -1.329946815967559814e-01 2.763002924621105194e-02
-2.183333784341812134e-01 -1.241583153605461121e-01 2.291206642985343933e-02
1.927197873592376709e-01 4.898528158664703369e-01 -2.311519235372543335e-01
1.994598507881164551e-01 4.984463751316070557e-01 -2.337423712015151978e-01
1.878661811351776123e-01 4.893930852413177490e-01 -2.197268903255462646e-01
1.960085332393646240e-01 4.982049465179443359e-01 -2.228133678436279297e-01
1.665073931217193604e-01 5.405953526496887207e-01 -2.947177886962890625e-01
1.647361069917678833e-01 5.483365654945373535e-01 -2.945777773857116699e-01
1.588329672813415527e-01 5.360592007637023926e-01 -2.908087372779846191e-01
1.569034904241561890e-01 5.434755086898803711e-01 -2.911236286163330078e-01
8.107668720185756683e-03 6.557048559188842773e-01 7.207644730806350708e-02
1.308756880462169647e-02 6.684602499008178711e-01 7.023550570011138916e-02
1.225103251636028290e-02 6.496657133102416992e-01 8.250563591718673706e-02
1.282486598938703537e-02 6.612299084663391113e-01 7.890028506517410278e-02
9.955389797687530518e-02 -4.135109186172485352e-01 1.116314679384231567e-01
9.350398927927017212e-02 -4.119825959205627441e-01 1.042040213942527771e-01
1.039769202470779419e-01 -4.235613346099853516e-01 1.222914978861808777e-01
9.670269489288330078e-02 -4.224422574043273926e-01 1.142126470804214478e-01
1.131564751267433167e-01 -7.212988734245300293e-01 2.382413856685161591e-02
1.095856875181198120e-01 -7.069349884986877441e-01 2.471105568110942841e-02
1.003624498844146729e-01 -7.290382981300354004e-01 2.674156427383422852e-02
9.713806957006454468e-02 -7.143583893775939941e-01 2.776770293712615967e-02
-1.677728593349456787e-01 2.178052365779876709e-01 2.941515445709228516e-01
-1.732483208179473877e-01 2.258361876010894775e-01 2.902508974075317383e-01
-1.727739572525024414e-01 2.069555371999740601e-01 2.951386272907257080e-01
-1.750610321760177612e-01 2.175609171390533447e-01 2.912713587284088135e-01
1.682070493698120117e-01 4.980052709579467773e-01 3.832067176699638367e-02
1.720869690179824829e-01 5.071828365325927734e-01 3.781598806381225586e-02
1.633866131305694580e-01 4.947922527790069580e-01 4.752339422702789307e-02
1.670189648866653442e-01 5.043048858642578125e-01 4.794776439666748047e-02
-7.204277068376541138e-02 4.005702733993530273e-01 2.086539864540100098e-01
-7.714810967445373535e-02 4.009360373020172119e-01 2.003259509801864624e-01
-7.595663517713546753e-02 3.897063136100769043e-01 2.184535413980484009e-01
-8.112690597772598267e-02 3.913696408271789551e-01 2.098004370927810669e-01
2.517422474920749664e-02 -6.307376027107238770e-01 6.558655202388763428e-02
2.414656803011894226e-02 -6.184132099151611328e-01 6.733808666467666626e-02
2.666532248258590698e-02 -6.277593970298767090e-01 7.020282745361328125e-02
2.564466372132301331e-02 -6.152326464653015137e-01 7.191790640354156494e-02
4.246524721384048462e-02 4.752552211284637451e-01 -1.582152843475341797e-01
4.540329053997993469e-02 4.770841002464294434e-01 -1.637288928031921387e-01
4.178786650300025940e-02 4.753653109073638916e-01 -1.460547000169754028e-01
4.054927825927734375e-02 4.748074412345886230e-01 -1.528967916965484619e-01
4.034783318638801575e-02 4.700370132923126221e-01 -1.842001527547836304e-01
4.969913139939308167e-02 4.775298535823822021e-01 -1.857017129659652710e-01
3.740767389535903931e-02 4.705105423927307129e-01 -1.728318035602569580e-01
4.667077213525772095e-02 4.773517251014709473e-01 -1.748043000698089600e-01
-1.462391912937164307e-01 -4.802339375019073486e-01 -2.372760325670242310e-01
-1.398051083087921143e-01 -4.704475104808807373e-01 -2.358992099761962891e-01
-1.563961803913116455e-01 -4.801044464111328125e-01 -2.281098961830139160e-01
-1.503054052591323853e-01 -4.704099595546722412e-01 -2.269465327262878418e-01
1.065946519374847412e-01 4.182312190532684326e-01 3.259185701608657837e-02
1.038780808448791504e-01 4.277782738208770752e-01 3.307200595736503601e-02
1.024819910526275635e-01 4.184143841266632080e-01 3.943779319524765015e-02
1.011130213737487793e-01 4.277972877025604248e-01 3.912574425339698792e-02
2.811313234269618988e-02 -4.746805131435394287e-01 -2.224079370498657227e-01
3.273424133658409119e-02 -4.678766727447509766e-01 -2.248090505599975586e-01
2.708302810788154602e-02 -4.794177412986755371e-01 -2.124218195676803589e-01
3.195361047983169556e-02 -4.729452729225158691e-01 -2.144899815320968628e-01
-2.144310325384140015e-01 -5.490677058696746826e-02 1.029270514845848083e-01
-2.151394337415695190e-01 -3.873731195926666260e-02 9.930751472711563110e-02
-2.056952863931655884e-01 -5.900466814637184143e-02 1.143114566802978516e-01
-2.068049162626266479e-01 -4.360730946063995361e-02 1.107243970036506653e-01
1.319083273410797119e-01 4.248582720756530762e-01 -9.183398634195327759e-02
1.311630159616470337e-01 4.354435801506042480e-01 -9.640184044837951660e-02
1.285946965217590332e-01 4.205408096313476562e-01 -8.251855522394180298e-02
1.272038072347640991e-01 4.297387897968292236e-01 -8.667130768299102783e-02
-5.293387919664382935e-02 4.480006992816925049e-01 5.928385257720947266e-02
-4.125135019421577454e-02 4.568372368812561035e-01 5.651989206671714783e-02
-6.014230847358703613e-02 4.438093900680541992e-01 7.256518304347991943e-02
-4.615116864442825317e-02 4.527931511402130127e-01 6.822264194488525391e-02
1.224683746695518494e-01 5.042940974235534668e-01 -4.183729737997055054e-02
1.092509627342224121e-01 5.088290572166442871e-01 -4.610877484083175659e-02
1.199265867471694946e-01 4.915591776371002197e-01 -3.907544165849685669e-02
1.067519932985305786e-01 4.956415891647338867e-01 -4.369902983307838440e-02
1.818892210721969604e-01 5.512228012084960938e-01 -3.013375997543334961e-01
1.799225509166717529e-01 5.597669482231140137e-01 -3.017118275165557861e-01
1.715760976076126099e-01 5.464819073677062988e-01 -2.987349033355712891e-01
1.703454107046127319e-01 5.548038482666015625e-01 -2.985903918743133545e-01
1.129750162363052368e-01 -3.926698565483093262e-01 1.068791821599006653e-01
1.058248355984687805e-01 -3.921374082565307617e-01 1.001109555363655090e-01
1.132241487503051758e-01 -4.039937555789947510e-01 1.160492524504661560e-01
1.056226342916488647e-01 -4.028587043285369873e-01 1.086093187332153320e-01
-1.752580702304840088e-01 -3.222334198653697968e-03 -1.548465639352798462e-01
-1.699188202619552612e-01 6.231524981558322906e-03 -1.519891470670700073e-01
-1.818944215774536133e-01 -4.697440192103385925e-03 -1.477351039648056030e-01
-1.764509081840515137e-01 4.563176073133945465e-03 -1.452257782220840454e-01
-2.781413495540618896e-02 1.760644614696502686e-01 -1.548887342214584351e-01
-2.814094349741935730e-02 1.878143548965454102e-01 -1.550253629684448242e-01
-3.976373746991157532e-02 1.680930405855178833e-01 -1.534407883882522583e-01
-4.004223272204399109e-02 1.792700886726379395e-01 -1.536414623260498047e-01
3.309480845928192139e-01 7.695250511169433594e-01 -7.319574803113937378e-02
3.259110450744628906e-01 7.747587561607360840e-01 -7.943708449602127075e-02
3.339297473430633545e-01 7.657756209373474121e-01 -6.274926662445068359e-02
3.302466869354248047e-01 7.741855382919311523e-01 -6.726360321044921875e-02
9.543126448988914490e-03 9.074067324399948120e-02 1.229510605335235596e-01
1.009633578360080719e-02 9.931854158639907837e-02 1.254785954952239990e-01
-2.361876890063285828e-03 8.930332213640213013e-02 1.303669363260269165e-01
-2.092308131977915764e-03 9.836761653423309326e-02 1.334880143404006958e-01
-2.259063124656677246e-01 -5.932214483618736267e-02 -7.789973914623260498e-02
-2.235141396522521973e-01 -4.586886987090110779e-02 -7.989869266748428345e-02
-2.269058078527450562e-01 -5.866681039333343506e-02 -6.176149100065231323e-02
-2.254788577556610107e-01 -4.582894593477249146e-02 -6.401057541370391846e-02
-1.333953589200973511e-01 1.591472476720809937e-01 -8.611399680376052856e-02
-1.253991425037384033e-01 1.719887256622314453e-01 -8.773124217987060547e-02
-1.386197805404663086e-01 1.572589874267578125e-01 -7.399325817823410034e-02
-1.326127201318740845e-01 1.698188781738281250e-01 -7.660128921270370483e-02
2.786374390125274658e-01 6.487332582473754883e-01 -1.988424807786941528e-01
2.745309770107269287e-01 6.560080051422119141e-01 -1.975374966859817505e-01
2.800509929656982422e-01 6.557345986366271973e-01 -1.932078450918197632e-01
2.759924232959747314e-01 6.624463200569152832e-01 -1.914487183094024658e-01
1.009792983531951904e-01 -2.185528129339218140e-01 7.989716716110706329e-03
8.647531270980834961e-02 -2.131539732217788696e-01 2.889628522098064423e-03
1.053438186645507812e-01 -2.121914625167846680e-01 1.358295138925313950e-02
9.063043445348739624e-02 -2.071932554244995117e-01 8.234336040914058685e-03
-1.036373674869537354e-01 -5.176614522933959961e-01 -2.394572198390960693e-01
-1.109108626842498779e-01 -5.099407434463500977e-01 -2.428940683603286743e-01
-1.110010817646980286e-01 -5.306878089904785156e-01 -2.335870414972305298e-01
-1.172780916094779968e-01 -5.206255316734313965e-01 -2.380726784467697144e-01
3.874088823795318604e-02 -5.961549282073974609e-01 7.749000936746597290e-02
3.797924518585205078e-02 -5.857570171356201172e-01 7.907526195049285889e-02
4.610046371817588806e-02 -5.948624610900878906e-01 8.558093756437301636e-02
4.520263150334358215e-02 -5.843175053596496582e-01 8.666940033435821533e-02
1.683193743228912354e-01 -2.573183774948120117e-01 2.318144589662551880e-02
1.573129892349243164e-01 -2.483268082141876221e-01 2.025375328958034515e-02
1.746261864900588989e-01 -2.507572472095489502e-01 3.142364695668220520e-02
1.648541986942291260e-01 -2.427611202001571655e-01 2.860091812908649445e-02
2.612884342670440674e-02 -4.225662052631378174e-01 -1.553232073783874512e-01
3.006930463016033173e-02 -4.108608067035675049e-01 -1.519132256507873535e-01
1.683949120342731476e-02 -4.272225797176361084e-01 -1.510656923055648804e-01
2.051916904747486115e-02 -4.159610569477081299e-01 -1.471998542547225952e-01
3.493595868349075317e-02 2.102637737989425659e-01 1.531981974840164185e-01
3.666334971785545349e-02 2.202361524105072021e-01 1.568588167428970337e-01
2.112515829503536224e-02 2.098204046487808228e-01 1.540313810110092163e-01
2.230395190417766571e-02 2.199660837650299072e-01 1.574485301971435547e-01
-1.017294302582740784e-01 -5.747840553522109985e-02 -1.922158300876617432e-01
-1.013486534357070923e-01 -4.757221043109893799e-02 -1.890137195587158203e-01
-1.142119914293289185e-01 -5.638942867517471313e-02 -1.928265094757080078e-01
-1.131789907813072205e-01 -4.744729027152061462e-02 -1.911173462867736816e-01
2.096007019281387329e-01 5.912027955055236816e-01 -2.207953035831451416e-01
2.086369544267654419e-01 6.012478470802307129e-01 -2.172620445489883423e-01
2.020500451326370239e-01 5.950352549552917480e-01 -2.169026732444763184e-01
2.006288021802902222e-01 6.049389839172363281e-01 -2.143769115209579468e-01
1.396165639162063599e-01 4.284157454967498779e-01 -1.152066588401794434e-01
1.400209367275238037e-01 4.395941495895385742e-01 -1.201627105474472046e-01
1.365379691123962402e-01 4.259932637214660645e-01 -1.058838218450546265e-01
1.359473913908004761e-01 4.369323253631591797e-01 -1.105460152029991150e-01
-1.709312759339809418e-02 6.323883533477783203e-01 1.587584055960178375e-02
-1.321542449295520782e-02 6.446498632431030273e-01 1.420741900801658630e-02
-1.675553247332572937e-02 6.295367479324340820e-01 2.824661135673522949e-02
-1.306204963475465775e-02 6.424151659011840820e-01 2.684606611728668213e-02
3.936465457081794739e-02 -1.118278875946998596e-01 1.930841803550720215e-02
3.523742407560348511e-02 -1.001912131905555725e-01 2.091974765062332153e-02
4.246743023395538330e-02 -1.087770387530326843e-01 3.057198971509933472e-02
3.815595805644989014e-02 -9.792293608188629150e-02 3.155579790472984314e-02
-2.578693032264709473e-01 -7.563801407814025879e-01 -2.059439867734909058e-01
-2.671911120414733887e-01 -7.473294734954833984e-01 -2.090396881103515625e-01
-2.605815231800079346e-01 -7.574563622474670410e-01 -1.951501369476318359e-01
-2.693734467029571533e-01 -7.490535974502563477e-01 -1.981179863214492798e-01
-3.490179032087326050e-02 1.915732920169830322e-01 -1.542661041021347046e-01
-3.427143394947052002e-02 2.029603123664855957e-01 -1.543588936328887939e-01
-4.793041944503784180e-02 1.851844340562820435e-01 -1.520449668169021606e-01
-4.610479623079299927e-02 1.954152137041091919e-01 -1.519518494606018066e-01
2.735291235148906708e-02 2.091854959726333618e-01 1.543364673852920532e-01
2.927358448505401611e-02 2.192630320787429810e-01 1.576924026012420654e-01
1.494544651359319687e-02 2.088566124439239502e-01 1.551611274480819702e-01
1.544446032494306564e-02 2.192828208208084106e-01 1.585822105407714844e-01
1.166041940450668335e-02 -1.952849179506301880e-01 -8.614944666624069214e-02
1.506771147251129150e-02 -1.847794204950332642e-01 -9.006654471158981323e-02
6.236879620701074600e-03 -2.005339860916137695e-01 -7.677623629570007324e-02
9.997707791626453400e-03 -1.905408203601837158e-01 -8.042445033788681030e-02
2.562209069728851318e-01 6.321864724159240723e-01 -2.754569649696350098e-01
2.534653544425964355e-01 6.416084170341491699e-01 -2.744103074073791504e-01
2.642271816730499268e-01 6.373863220214843750e-01 -2.643504142761230469e-01
2.616213560104370117e-01 6.466630101203918457e-01 -2.645250558853149414e-01
-1.326265633106231689e-01 -9.619653970003128052e-02 1.635159850120544434e-01
-1.398376375436782837e-01 -8.528756350278854370e-02 1.627391278743743896e-01
-1.289921998977661133e-01 -9.475208818912506104e-02 1.660787314176559448e-01
-1.369872689247131348e-01 -8.361224830150604248e-02 1.659097820520401001e-01
2.049810998141765594e-02 -1.327894628047943115e-01 -1.440102010965347290e-01
1.574815064668655396e-02 -1.228493228554725647e-01 -1.462466269731521606e-01
2.194128744304180145e-02 -1.343456655740737915e-01 -1.301759481430053711e-01
1.820521801710128784e-02 -1.242113634943962097e-01 -1.336147040128707886e-01
-1.610178127884864807e-02 -2.104610055685043335e-01 -2.319298088550567627e-01
-2.970864996314048767e-02 -2.005981504917144775e-01 -2.306340783834457397e-01
-2.889906987547874451e-02 -2.075415849685668945e-01 -2.325478941202163696e-01
-3.881175071001052856e-02 -1.973250508308410645e-01 -2.308355718851089478e-01
1.446171998977661133e-01 4.244576692581176758e-01 -1.803831756114959717e-01
1.528806835412979126e-01 4.337395131587982178e-01 -1.830858737230300903e-01
1.393206268548965454e-01 4.188246130943298340e-01 -1.704946011304855347e-01
1.468517631292343140e-01 4.281873106956481934e-01 -1.732526421546936035e-01
1.244918480515480042e-01 2.055588215589523315e-01 -3.884319588541984558e-02
1.275783926248550415e-01 2.164013236761093140e-01 -3.991202637553215027e-02
1.270094513893127441e-01 2.077402025461196899e-01 -2.572803385555744171e-02
1.293308585882186890e-01 2.185302525758743286e-01 -2.711750566959381104e-02
-2.178332507610321045e-01 -1.119999364018440247e-01 -1.056325659155845642e-01
-2.190599292516708374e-01 -9.846792370080947876e-02 -1.111154556274414062e-01
-2.183766663074493408e-01 -1.161267682909965515e-01 -9.115969389677047729e-02
-2.204493731260299683e-01 -1.025388389825820923e-01 -9.701192378997802734e-02
-6.739207357168197632e-02 2.602284550666809082e-01 2.547494173049926758e-01
-6.665874272584915161e-02 2.725250720977783203e-01 2.583618462085723877e-01
-7.548990845680236816e-02 2.576940357685089111e-01 2.612444758415222168e-01
-7.268886268138885498e-02 2.678107619285583496e-01 2.636224627494812012e-01
-1.728575378656387329e-01 7.313419133424758911e-03 1.342286169528961182e-01
-1.698179990053176880e-01 2.115264162421226501e-02 1.315436661243438721e-01
-1.691284924745559692e-01 -5.578746087849140167e-03 1.402641534805297852e-01
-1.685145646333694458e-01 7.083998061716556549e-03 1.369244009256362915e-01
2.895766682922840118e-02 -2.065672352910041809e-02 1.518187951296567917e-02
3.271218389272689819e-02 -1.126679312437772751e-02 1.588110253214836121e-02
2.551166899502277374e-02 -2.331887930631637573e-02 2.691851742565631866e-02
2.993902564048767090e-02 -1.322990097105503082e-02 2.872887440025806427e-02
8.887818455696105957e-02 3.552449941635131836e-01 1.120727136731147766e-01
8.328487724065780640e-02 3.679680824279785156e-01 1.150140538811683655e-01
8.221574872732162476e-02 3.531829118728637695e-01 1.240319162607192993e-01
7.536971569061279297e-02 3.660055696964263916e-01 1.293869614601135254e-01
-9.940211474895477295e-02 2.012836039066314697e-01 2.126954346895217896e-01
-9.558247774839401245e-02 2.066593915224075317e-01 2.087682038545608521e-01
-1.047931239008903503e-01 1.955791264772415161e-01 2.212659418582916260e-01
-9.972976148128509521e-02 2.017574459314346313e-01 2.171661704778671265e-01
-1.179523542523384094e-01 -2.920463681221008301e-01 -1.525427401065826416e-01
-1.226269453763961792e-01 -2.816224396228790283e-01 -1.552181541919708252e-01
-1.181145310401916504e-01 -2.934136390686035156e-01 -1.373722702264785767e-01
-1.231658086180686951e-01 -2.829071283340454102e-01 -1.411490291357040405e-01
-2.158899903297424316e-01 -5.183180570602416992e-01 -1.422787755727767944e-01
-2.229921519756317139e-01 -5.144858956336975098e-01 -1.484667509794235229e-01
-2.199952304363250732e-01 -5.303238630294799805e-01 -1.368466764688491821e-01
-2.276355177164077759e-01 -5.256482362747192383e-01 -1.423497349023818970e-01
-6.539304554462432861e-02 4.105961918830871582e-01 2.537461556494235992e-02
-5.980325862765312195e-02 4.204085767269134521e-01 2.699483558535575867e-02
-7.183349877595901489e-02 4.091820120811462402e-01 3.778986632823944092e-02
-6.598499417304992676e-02 4.190201759338378906e-01 3.874854370951652527e-02
1.464099884033203125e-01 -7.813943624496459961e-01 8.512558043003082275e-02
1.354544907808303833e-01 -7.795416116714477539e-01 8.520887792110443115e-02
1.410622745752334595e-01 -7.791169881820678711e-01 9.396488964557647705e-02
1.302915662527084351e-01 -7.773442268371582031e-01 9.422816336154937744e-02
-3.850515559315681458e-02 -4.092289507389068604e-01 -1.617098152637481689e-01
-4.616998881101608276e-02 -4.039885103702545166e-01 -1.641811281442642212e-01
-4.383519291877746582e-02 -4.180851578712463379e-01 -1.576991975307464600e-01
-5.159207433462142944e-02 -4.129342734813690186e-01 -1.599792391061782837e-01
3.599978983402252197e-02 -1.724870949983596802e-01 -1.666781902313232422e-01
3.228404745459556580e-02 -1.634232550859451294e-01 -1.674051731824874878e-01
3.507367148995399475e-02 -1.707398295402526855e-01 -1.547075212001800537e-01
3.322748467326164246e-02 -1.629497259855270386e-01 -1.571093201637268066e-01
2.302510896697640419e-03 4.746685028076171875e-01 -3.143246844410896301e-02
6.720438133925199509e-03 4.821952283382415771e-01 -2.667861804366111755e-02
-2.882032888010144234e-03 4.752912819385528564e-01 -2.346013300120830536e-02
2.229909412562847137e-03 4.828936159610748291e-01 -1.894851215183734894e-02
1.375384777784347534e-01 4.997577369213104248e-01 -1.617388129234313965e-01
1.295545846223831177e-01 5.071952342987060547e-01 -1.655494570732116699e-01
1.332744657993316650e-01 4.951629638671875000e-01 -1.550433933734893799e-01
1.246747002005577087e-01 5.027131438255310059e-01 -1.584307253360748291e-01
-4.098499938845634460e-02 -4.502173662185668945e-01 -1.495533734560012817e-01
-4.655417427420616150e-02 -4.416828453540802002e-01 -1.475008577108383179e-01
-4.793008416891098022e-02 -4.571815729141235352e-01 -1.486580818891525269e-01
-5.340229719877243042e-02 -4.486996233463287354e-01 -1.469189077615737915e-01
-1.128092184662818909e-01 2.498723417520523071e-01 2.869951128959655762e-01
-1.229828000068664551e-01 2.560195028781890869e-01 2.854531109333038330e-01
-1.182553619146347046e-01 2.418340146541595459e-01 2.902570962905883789e-01
-1.295507699251174927e-01 2.480870187282562256e-01 2.883197367191314697e-01
3.042395040392875671e-02 3.037336468696594238e-01 -1.790938824415206909e-01
2.486413903534412384e-02 3.148012161254882812e-01 -1.796416938304901123e-01
1.859652437269687653e-02 2.946535646915435791e-01 -1.773425787687301636e-01
1.366254314780235291e-02 3.059391379356384277e-01 -1.769803911447525024e-01
-3.448174595832824707e-01 -6.218906641006469727e-01 -1.351887881755828857e-01
-3.404612839221954346e-01 -6.109381914138793945e-01 -1.328030228614807129e-01
-3.536067903041839600e-01 -6.301527023315429688e-01 -1.267327368259429932e-01
-3.483400940895080566e-01 -6.182598471641540527e-01 -1.246029287576675415e-01
-2.276610881090164185e-01 -1.079825460910797119e-01 4.729260876774787903e-02
-2.310502827167510986e-01 -9.776022285223007202e-02 4.283943027257919312e-02
-2.244726568460464478e-01 -1.075067669153213501e-01 5.972899496555328369e-02
-2.280036211013793945e-01 -9.655219316482543945e-02 5.567401647567749023e-02
-5.842937529087066650e-02 4.374408423900604248e-01 1.348209232091903687e-01
-6.731340289115905762e-02 4.331707954406738281e-01 1.245534196496009827e-01
-5.688820034265518188e-02 4.347088634967803955e-01 1.471819430589675903e-01
-6.647124141454696655e-02 4.303499162197113037e-01 1.372288614511489868e-01
-8.054472506046295166e-02 -5.128822922706604004e-01 -2.449949979782104492e-01
-8.738823235034942627e-02 -5.074678063392639160e-01 -2.473464012145996094e-01
-8.803371340036392212e-02 -5.235545039176940918e-01 -2.383961379528045654e-01
-9.539025276899337769e-02 -5.163903832435607910e-01 -2.417242825031280518e-01
8.451708406209945679e-02 4.264714419841766357e-01 -4.829107597470283508e-02
7.680904865264892578e-02 4.325613081455230713e-01 -5.045679956674575806e-02
8.399163186550140381e-02 4.272540211677551270e-01 -4.069271311163902283e-02
7.598161697387695312e-02 4.334343075752258301e-01 -4.250915348529815674e-02
-2.096807509660720825e-01 1.618382930755615234e-01 2.612527012825012207e-01
-2.051762342453002930e-01 1.737586706876754761e-01 2.585794627666473389e-01
-2.108159661293029785e-01 1.617959588766098022e-01 2.725553512573242188e-01
-2.079118639230728149e-01 1.741778254508972168e-01 2.697831094264984131e-01
2.801964245736598969e-02 -1.563543975353240967e-01 -1.435270607471466064e-01
2.567603066563606262e-02 -1.476419419050216675e-01 -1.455135047435760498e-01
2.889274805784225464e-02 -1.591608971357345581e-01 -1.302590668201446533e-01
2.668462693691253662e-02 -1.501162499189376831e-01 -1.329512894153594971e-01
3.963711112737655640e-02 -1.802067458629608154e-01 1.605688631534576416e-01
3.374572470784187317e-02 -1.666100025177001953e-01 1.614972054958343506e-01
2.698292955756187439e-02 -1.872472167015075684e-01 1.623563319444656372e-01
2.105408906936645508e-02 -1.750855892896652222e-01 1.643528640270233154e-01
-1.902469098567962646e-01 3.730757907032966614e-02 7.096797227859497070e-02
-1.853452622890472412e-01 4.713409394025802612e-02 6.905244290828704834e-02
-1.876822263002395630e-01 3.559459373354911804e-02 8.353999257087707520e-02
-1.835511475801467896e-01 4.471682384610176086e-02 8.045136183500289917e-02
1.066195517778396606e-01 -1.885888576507568359e-01 1.421160846948623657e-01
1.035087183117866516e-01 -1.785696744918823242e-01 1.384229958057403564e-01
9.931129217147827148e-02 -1.939334422349929810e-01 1.480296105146408081e-01
9.549541771411895752e-02 -1.835714727640151978e-01 1.450146734714508057e-01
-1.459739059209823608e-01 2.885498106479644775e-01 2.628177702426910400e-01
-1.415069848299026489e-01 2.988745868206024170e-01 2.560917139053344727e-01
-1.424993127584457397e-01 2.847998440265655518e-01 2.751534283161163330e-01
-1.384639590978622437e-01 2.952396869659423828e-01 2.693094909191131592e-01
1.412898153066635132e-01 -7.613254785537719727e-01 9.467133879661560059e-02
1.341221779584884644e-01 -7.559108138084411621e-01 9.244810789823532104e-02
1.346017718315124512e-01 -7.603164315223693848e-01 1.021500602364540100e-01
1.267860084772109985e-01 -7.556363940238952637e-01 1.005212813615798950e-01
1.050532385706901550e-01 4.898990988731384277e-01 7.526525855064392090e-02
1.040779724717140198e-01 5.013146996498107910e-01 8.042084425687789917e-02
9.367753565311431885e-02 4.888049066066741943e-01 7.591225951910018921e-02
9.193066507577896118e-02 5.005013346672058105e-01 8.017009496688842773e-02
3.184283152222633362e-02 -1.396602392196655273e-01 -1.756669767200946808e-02
3.200874477624893188e-02 -1.313027590513229370e-01 -2.256956510245800018e-02
3.628792613744735718e-02 -1.395622193813323975e-01 -6.539040245115756989e-03
3.536402061581611633e-02 -1.311351209878921509e-01 -1.106773503124713898e-02
-2.161703407764434814e-01 -9.153056144714355469e-02 -1.209755837917327881e-01
-2.148495316505432129e-01 -7.667930424213409424e-02 -1.232448145747184753e-01
-2.176889479160308838e-01 -9.667177498340606689e-02 -1.057895049452781677e-01
-2.176833599805831909e-01 -8.184811472892761230e-02 -1.082950159907341003e-01
5.564854294061660767e-02 -7.653643488883972168e-01 4.666221886873245239e-02
4.582796245813369751e-02 -7.589225769042968750e-01 4.278270527720451355e-02
5.030182003974914551e-02 -7.674297094345092773e-01 5.542493611574172974e-02
4.124817997217178345e-02 -7.609261870384216309e-01 5.209464952349662781e-02
1.745644658803939819e-01 6.099786162376403809e-01 4.648325592279434204e-02
1.739006638526916504e-01 6.210349798202514648e-01 4.550372809171676636e-02
1.656161099672317505e-01 6.087772250175476074e-01 5.814457312226295471e-02
1.650796383619308472e-01 6.197478771209716797e-01 5.724561586976051331e-02
9.592422842979431152e-02 1.382403522729873657e-01 -6.465892493724822998e-02
1.019855216145515442e-01 1.522196531295776367e-01 -6.570000946521759033e-02
1.009537056088447571e-01 1.356819570064544678e-01 -5.167135968804359436e-02
1.065506339073181152e-01 1.489978134632110596e-01 -5.324069038033485413e-02
-3.877089172601699829e-02 -2.378469854593276978e-01 1.336416304111480713e-01
-5.178184807300567627e-02 -2.324575036764144897e-01 1.297953128814697266e-01
-3.145649656653404236e-02 -2.283569872379302979e-01 1.456052064895629883e-01
-4.473334178328514099e-02 -2.226431071758270264e-01 1.422756314277648926e-01
7.785643637180328369e-02 5.050165057182312012e-01 -2.040883749723434448e-01
8.789840340614318848e-02 5.128754377365112305e-01 -2.047015279531478882e-01
7.432454079389572144e-02 5.041550397872924805e-01 -1.922549009323120117e-01
8.423398435115814209e-02 5.114882588386535645e-01 -1.936268955469131470e-01
-1.017054617404937744e-01 -5.527125597000122070e-01 -1.842091828584671021e-01
-1.209125816822052002e-01 -5.606710314750671387e-01 -1.843422204256057739e-01
-1.080602481961250305e-01 -5.494521856307983398e-01 -1.708761453628540039e-01
-1.273696124553680420e-01 -5.572905540466308594e-01 -1.709744930267333984e-01
-1.841978579759597778e-01 -5.601249933242797852e-01 -2.064332813024520874e-01
-1.881152391433715820e-01 -5.528495311737060547e-01 -2.088374793529510498e-01
-1.959691941738128662e-01 -5.693103671073913574e-01 -1.998823434114456177e-01
-1.991641372442245483e-01 -5.615480542182922363e-01 -2.020958662033081055e-01
-2.343371696770191193e-02 -8.256107568740844727e-02 1.594673991203308105e-01
-2.786413952708244324e-02 -7.166519016027450562e-02 1.568189859390258789e-01
-3.018768504261970520e-02 -8.801236748695373535e-02 1.626682281494140625e-01
-3.493516147136688232e-02 -7.805584371089935303e-02 1.613656282424926758e-01
-1.635331064462661743e-01 -1.927225291728973389e-01 7.335537672042846680e-02
-1.715877205133438110e-01 -1.878727823495864868e-01 6.740164756774902344e-02
-1.591439843177795410e-01 -1.915466338396072388e-01 8.898642659187316895e-02
-1.676432788372039795e-01 -1.860256046056747437e-01 8.327846974134445190e-02
-5.461986362934112549e-02 -4.245942533016204834e-01 -2.426847368478775024e-01
-5.117115378379821777e-02 -4.128267168998718262e-01 -2.379388213157653809e-01
-6.529884040355682373e-02 -4.256665706634521484e-01 -2.394108474254608154e-01
-6.150329113006591797e-02 -4.140118956565856934e-01 -2.348316311836242676e-01
1.880120933055877686e-01 -7.606406211853027344e-01 5.746437609195709229e-02
1.784519255161285400e-01 -7.578934431076049805e-01 5.330062285065650940e-02
1.811958849430084229e-01 -7.620341777801513672e-01 7.100198417901992798e-02
1.715680211782455444e-01 -7.598085403442382812e-01 6.630834192037582397e-02
1.681454330682754517e-01 -4.529708027839660645e-01 2.343432232737541199e-02
1.671208441257476807e-01 -4.429776668548583984e-01 2.093813382089138031e-02
1.645195186138153076e-01 -4.638771414756774902e-01 2.499885484576225281e-02
1.610471755266189575e-01 -4.543542265892028809e-01 2.175987511873245239e-02
-4.393397644162178040e-02 -9.865793585777282715e-02 1.713113933801651001e-01
-4.831385612487792969e-02 -8.914522081613540649e-02 1.711449623107910156e-01
-5.067983269691467285e-02 -1.042429357767105103e-01 1.724299639463424683e-01
-5.597363412380218506e-02 -9.629474580287933350e-02 1.727207154035568237e-01
4.787269607186317444e-02 3.469971120357513428e-01 -1.871234923601150513e-01
4.312916100025177002e-02 3.610112369060516357e-01 -1.903369724750518799e-01
4.126521572470664978e-02 3.376334905624389648e-01 -1.854453980922698975e-01
3.630003705620765686e-02 3.519476950168609619e-01 -1.873593628406524658e-01
1.789916120469570160e-02 -6.572778224945068359e-01 2.609917521476745605e-02
1.964687742292881012e-02 -6.492487192153930664e-01 2.587922103703022003e-02
1.277612801641225815e-02 -6.608386039733886719e-01 3.200808539986610413e-02
1.480288058519363403e-02 -6.529392004013061523e-01 3.184713423252105713e-02
9.190870821475982666e-02 6.988770365715026855e-01 2.315711416304111481e-02
8.190013468265533447e-02 7.016760706901550293e-01 1.723171956837177277e-02
8.959217369556427002e-02 6.939919590950012207e-01 3.577182441949844360e-02
8.007460087537765503e-02 6.974493265151977539e-01 2.848444320261478424e-02
-1.918378770351409912e-01 -5.237806439399719238e-01 -2.119944840669631958e-01
-1.878930628299713135e-01 -5.128279924392700195e-01 -2.108990848064422607e-01
-2.017001062631607056e-01 -5.300236940383911133e-01 -2.069663107395172119e-01
-1.979341208934783936e-01 -5.192402005195617676e-01 -2.065785825252532959e-01
-5.593215674161911011e-02 -2.633940279483795166e-01 7.767637073993682861e-02
-6.608458608388900757e-02 -2.593697607517242432e-01 7.419003546237945557e-02
-5.392130836844444275e-02 -2.603251934051513672e-01 8.887299895286560059e-02
-6.533867865800857544e-02 -2.561974525451660156e-01 8.590051531791687012e-02
-2.077263891696929932e-01 1.512310840189456940e-02 3.032900094985961914e-01
-2.102895081043243408e-01 2.826073765754699707e-02 3.051403760910034180e-01
-2.113419175148010254e-01 1.247443445026874542e-02 3.067892193794250488e-01
-2.139833569526672363e-01 2.583409473299980164e-02 3.086723685264587402e-01
7.692054379731416702e-03 -1.569539010524749756e-01 -2.069235146045684814e-01
1.021603122353553772e-03 -1.455235928297042847e-01 -2.044920623302459717e-01
1.403348613530397415e-02 -1.534059345722198486e-01 -1.997935026884078979e-01
7.055957335978746414e-03 -1.422335803508758545e-01 -1.976826488971710205e-01
1.260307431221008301e-01 6.288967728614807129e-01 -4.631868004798889160e-02
1.186711490154266357e-01 6.361054778099060059e-01 -4.668776690959930420e-02
1.311668008565902710e-01 6.369392275810241699e-01 -4.100217670202255249e-02
1.238482296466827393e-01 6.441221237182617188e-01 -4.141680523753166199e-02
-8.220417052507400513e-02 -1.057826913893222809e-02 1.511426866054534912e-01
-8.700369298458099365e-02 2.009276766330003738e-03 1.457291990518569946e-01
-8.950167149305343628e-02 -1.970699988305568695e-02 1.584860086441040039e-01
-9.436551481485366821e-02 -7.216124329715967178e-03 1.529284864664077759e-01
-1.488386467099189758e-02 6.448187828063964844e-01 3.403830155730247498e-02
-9.343737736344337463e-03 6.581715941429138184e-01 3.556422144174575806e-02
-1.029668655246496201e-02 6.419515609741210938e-01 4.551470652222633362e-02
-5.209892988204956055e-03 6.556749343872070312e-01 4.680050536990165710e-02
-5.448706820607185364e-02 -3.891478180885314941e-01 -1.625686883926391602e-01
-6.275575608015060425e-02 -3.820059895515441895e-01 -1.643837839365005493e-01
-5.741694569587707520e-02 -3.904302120208740234e-01 -1.572238057851791382e-01
-6.628940999507904053e-02 -3.831269741058349609e-01 -1.587451398372650146e-01
1.186117827892303467e-01 2.538338899612426758e-01 1.142311394214630127e-01
1.170621737837791443e-01 2.672557234764099121e-01 1.175176575779914856e-01
1.121953651309013367e-01 2.532055377960205078e-01 1.244716495275497437e-01
1.118325442075729370e-01 2.655947506427764893e-01 1.264175474643707275e-01
-2.260766178369522095e-01 -4.911135882139205933e-02 -1.256068237125873566e-03
-2.236455231904983521e-01 -3.867112845182418823e-02 -5.199354141950607300e-03
-2.277233302593231201e-01 -4.884137585759162903e-02 8.444024249911308289e-03
-2.249398827552795410e-01 -3.834432736039161682e-02 4.415097646415233612e-03
-1.161563247442245483e-01 2.050099819898605347e-01 1.214915663003921509e-01
-1.160121858119964600e-01 2.168984264135360718e-01 1.207611113786697388e-01
-1.092049553990364075e-01 2.036281526088714600e-01 1.286645084619522095e-01
-1.095163822174072266e-01 2.148391902446746826e-01 1.282926350831985474e-01
5.213685333728790283e-02 -6.376258134841918945e-01 7.585929334163665771e-02
4.956483840942382812e-02 -6.260787844657897949e-01 7.959470897912979126e-02
5.433658510446548462e-02 -6.333851814270019531e-01 8.125186711549758911e-02
5.149846896529197693e-02 -6.220290660858154297e-01 8.368971198797225952e-02
-2.816699743270874023e-01 -6.508440375328063965e-01 -1.556400060653686523e-01
-2.864351868629455566e-01 -6.439796686172485352e-01 -1.560602188110351562e-01
-2.887453138828277588e-01 -6.571724414825439453e-01 -1.547397524118423462e-01
-2.934451699256896973e-01 -6.497155427932739258e-01 -1.550021469593048096e-01
-2.158117741346359253e-01 -1.118940301239490509e-02 7.529772073030471802e-02
-2.123736739158630371e-01 -1.324346056208014488e-03 7.223044335842132568e-02
-2.153176516294479370e-01 -1.549294497817754745e-02 8.686152845621109009e-02
-2.116314619779586792e-01 -5.685458891093730927e-03 8.410790562629699707e-02
1.259310245513916016e-01 -7.703294754028320312e-01 2.982269786298274994e-02
1.158508360385894775e-01 -7.639051079750061035e-01 2.630935795605182648e-02
1.200786232948303223e-01 -7.753295898437500000e-01 3.634469956159591675e-02
1.102892160415649414e-01 -7.691401243209838867e-01 3.248227760195732117e-02
-1.436258852481842041e-01 1.551873385906219482e-01 1.254693232476711273e-02
-1.408060342073440552e-01 1.667653173208236694e-01 1.190576981753110886e-02
-1.451636999845504761e-01 1.552068889141082764e-01 2.537961862981319427e-02
-1.422047019004821777e-01 1.663568764925003052e-01 2.438940480351448059e-02
5.622263625264167786e-02 -4.953727424144744873e-01 5.965175479650497437e-02
6.148776784539222717e-02 -4.815845191478729248e-01 6.035774573683738708e-02
5.440313741564750671e-02 -4.949016571044921875e-01 7.442060858011245728e-02
5.874468758702278137e-02 -4.819178581237792969e-01 7.414387911558151245e-02
-1.652597635984420776e-01 3.906477242708206177e-02 1.240061447024345398e-01
-1.598147302865982056e-01 5.114605650305747986e-02 1.228015571832656860e-01
-1.630234271287918091e-01 3.058454021811485291e-02 1.296317577362060547e-01
-1.582371592521667480e-01 4.252034425735473633e-02 1.284432560205459595e-01
-7.777245342731475830e-02 -3.614177405834197998e-01 -1.619391888380050659e-01
-8.368480950593948364e-02 -3.513410389423370361e-01 -1.636344790458679199e-01
-7.914152741432189941e-02 -3.596918284893035889e-01 -1.516453921794891357e-01
-8.585996180772781372e-02 -3.499482572078704834e-01 -1.531212031841278076e-01
-2.825500071048736572e-01 -6.329967379570007324e-01 -9.860422462224960327e-02
-2.843107879161834717e-01 -6.189814805984497070e-01 -9.775173664093017578e-02
-2.941060364246368408e-01 -6.390079855918884277e-01 -9.765093773603439331e-02
-2.967506647109985352e-01 -6.246964931488037109e-01 -9.624126553535461426e-02
4.024646803736686707e-02 1.041770875453948975e-01 -1.109526157379150391e-01
4.672886803746223450e-02 1.197918653488159180e-01 -1.112401783466339111e-01
4.406911507248878479e-02 9.321004152297973633e-02 -1.024208515882492065e-01
5.046735331416130066e-02 1.084280982613563538e-01 -1.027840077877044678e-01
3.204346448183059692e-02 -1.888222843408584595e-01 -1.996411532163619995e-01
2.833962440490722656e-02 -1.768400669097900391e-01 -1.955783069133758545e-01
3.526293113827705383e-02 -1.854792088270187378e-01 -1.908580809831619263e-01
3.144888952374458313e-02 -1.738467067480087280e-01 -1.872292011976242065e-01
-2.323859557509422302e-02 -5.019068717956542969e-01 -1.849292218685150146e-01
-3.285044804215431213e-02 -5.088710188865661621e-01 -1.870070397853851318e-01
-2.959319576621055603e-02 -5.054305791854858398e-01 -1.765249371528625488e-01
-3.547094017267227173e-02 -5.065821409225463867e-01 -1.744807660579681396e-01
8.892401307821273804e-02 -3.403015136718750000e-01 5.668852105736732483e-02
8.110000193119049072e-02 -3.354128599166870117e-01 5.380530655384063721e-02
8.950550854206085205e-02 -3.385699987411499023e-01 6.668487936258316040e-02
8.146382868289947510e-02 -3.336891829967498779e-01 6.378741562366485596e-02
4.820377379655838013e-02 -4.451644122600555420e-01 -2.416076362133026123e-01
5.281643196940422058e-02 -4.332647621631622314e-01 -2.442783564329147339e-01
5.214335769414901733e-02 -4.502763748168945312e-01 -2.334364801645278931e-01
5.671982467174530029e-02 -4.385779201984405518e-01 -2.356151789426803589e-01
-1.147660892456769943e-02 1.367005407810211182e-01 1.453692018985748291e-01
-1.003525778651237488e-02 1.471202075481414795e-01 1.471988409757614136e-01
-2.085286937654018402e-02 1.336395740509033203e-01 1.472959220409393311e-01
-2.158905752003192902e-02 1.443109512329101562e-01 1.493339389562606812e-01
-1.786172688007354736e-01 -1.187105476856231689e-02 2.629224658012390137e-01
-1.798728853464126587e-01 3.780558239668607712e-03 2.607770860195159912e-01
-1.836057454347610474e-01 -1.483120210468769073e-02 2.708994448184967041e-01
-1.848183721303939819e-01 7.515545003116130829e-04 2.685416340827941895e-01
1.053115725517272949e-01 -2.926414012908935547e-01 1.312250792980194092e-01
9.330578893423080444e-02 -2.883858084678649902e-01 1.312336176633834839e-01
1.058881431818008423e-01 -2.824570536613464355e-01 1.375459581613540649e-01
9.388013929128646851e-02 -2.781993746757507324e-01 1.378492712974548340e-01
3.702429309487342834e-02 2.871043384075164795e-01 -1.744094789028167725e-01
3.060259483754634857e-02 2.977244853973388672e-01 -1.758222877979278564e-01
