1.637881845235824585e-01 7.670854777097702026e-02 8.763335347175598145e-01
1.657846868038177490e-01 7.217708230018615723e-02 8.930032849311828613e-01
1.524145305156707764e-01 7.357177883386611938e-02 8.871344923973083496e-01
3.777962028980255127e-01 2.624647505581378937e-02 8.251330256462097168e-01
3.650626838207244873e-01 2.688644267618656158e-02 8.154844641685485840e-01
3.760907053947448730e-01 2.577247098088264465e-02 8.422575592994689941e-01
3.634265661239624023e-01 2.645572461187839508e-02 8.334437012672424316e-01
3.580569326877593994e-01 1.091390773653984070e-01 6.965477019548416138e-02
3.591416180133819580e-01 1.221722736954689026e-01 7.331722974777221680e-02
3.424514830112457275e-01 1.060199514031410217e-01 6.885769218206405640e-02
3.408009707927703857e-01 1.173189282417297363e-01 7.205690443515777588e-02
6.116492152214050293e-01 3.017588891088962555e-02 5.023896694183349609e-01
6.013391017913818359e-01 2.666337788105010986e-02 4.912700951099395752e-01
6.060547232627868652e-01 2.824517898261547089e-02 5.204375386238098145e-01
5.982582569122314453e-01 2.633338980376720428e-02 5.080093741416931152e-01
9.101861715316772461e-02 6.568571925163269043e-02 6.100192666053771973e-01
8.231749385595321655e-02 7.594446837902069092e-02 6.073674559593200684e-01
8.958912640810012817e-02 5.575152486562728882e-02 6.140282750129699707e-01
7.950118929147720337e-02 6.483086198568344116e-02 6.111779212951660156e-01
1.367729157209396362e-01 2.955598011612892151e-02 7.893410921096801758e-01
1.242944598197937012e-01 2.977774478495121002e-02 7.810642123222351074e-01
1.363678425550460815e-01 3.108792193233966827e-02 8.064514994621276855e-01
1.235411465167999268e-01 3.147087991237640381e-02 7.984305024147033691e-01
1.170792728662490845e-01 1.459935456514358521e-01 1.125889047980308533e-01
1.062775254249572754e-01 1.423293650150299072e-01 1.054423972964286804e-01
1.110717728734016418e-01 1.487093120813369751e-01 1.313169896602630615e-01
1.004538461565971375e-01 1.447662413120269775e-01 1.228708401322364807e-01
5.219440460205078125e-01 6.084951162338256836e-01 1.558258682489395142e-01
5.116102099418640137e-01 6.153319478034973145e-01 1.518776714801788330e-01
5.229310393333435059e-01 6.082609295845031738e-01 1.731520593166351318e-01
5.129351615905761719e-01 6.150140166282653809e-01 1.692210137844085693e-01
5.157014131546020508e-01 2.432011961936950684e-01 3.746565282344818115e-01
5.004480481147766113e-01 2.408436983823776245e-01 3.664380013942718506e-01
5.146517157554626465e-01 2.412136346101760864e-01 3.906118273735046387e-01
5.011875629425048828e-01 2.384060323238372803e-01 3.821811974048614502e-01
1.400020420551300049e-01 3.097574412822723389e-01 5.655765533447265625e-01
1.398314386606216431e-01 3.311204910278320312e-01 5.652456283569335938e-01
1.267810910940170288e-01 2.986952066421508789e-01 5.662155747413635254e-01
1.266395449638366699e-01 3.200133442878723145e-01 5.655202865600585938e-01
5.675800442695617676e-01 4.341924190521240234e-01 3.729365766048431396e-01
5.666764974594116211e-01 4.531196951866149902e-01 3.678759634494781494e-01
5.767977833747863770e-01 4.311594963073730469e-01 3.869807422161102295e-01
5.758465528488159180e-01 4.489874541759490967e-01 3.818784058094024658e-01
4.787319898605346680e-01 7.263981699943542480e-01 5.805660486221313477e-01
4.676500856876373291e-01 7.299289107322692871e-01 5.760544538497924805e-01
4.753482341766357422e-01 7.237098217010498047e-01 5.898774862289428711e-01
4.641981124877929688e-01 7.271749377250671387e-01 5.858253240585327148e-01
5.723507404327392578e-01 4.933555722236633301e-01 3.801815509796142578e-01
5.711701512336730957e-01 5.081090927124023438e-01 3.796788156032562256e-01
5.811489820480346680e-01 4.931198358535766602e-01 3.928024172782897949e-01
5.800929665565490723e-01 5.072435736656188965e-01 3.916402459144592285e-01
2.590752840042114258e-01 2.761229872703552246e-02 3.930924534797668457e-01
2.413518428802490234e-01 2.668462134897708893e-02 3.846051394939422607e-01
2.561726868152618408e-01 2.845196053385734558e-02 4.103867113590240479e-01
2.393643856048583984e-01 2.769773453474044800e-02 3.999031484127044678e-01
4.544489383697509766e-01 6.411468982696533203e-01 2.233199179172515869e-01
4.412913918495178223e-01 6.417384743690490723e-01 2.203157693147659302e-01
4.517553150653839111e-01 6.449684500694274902e-01 2.438487410545349121e-01
4.381468892097473145e-01 6.450021862983703613e-01 2.398860752582550049e-01
2.538015246391296387e-01 6.176702976226806641e-01 8.987382054328918457e-02
2.418085336685180664e-01 6.179527640342712402e-01 8.683197200298309326e-02
2.493370175361633301e-01 6.209824085235595703e-01 1.042819619178771973e-01
2.363641262054443359e-01 6.201449036598205566e-01 1.001289933919906616e-01
4.739426970481872559e-01 2.827353402972221375e-02 1.443455666303634644e-01
4.608345627784729004e-01 2.888029627501964569e-02 1.342814266681671143e-01
4.737542271614074707e-01 2.863952144980430603e-02 1.584199070930480957e-01
4.597266316413879395e-01 2.864875085651874542e-02 1.494037061929702759e-01
2.919948995113372803e-01 4.181952476501464844e-01 2.764577977359294891e-02
2.864511013031005859e-01 4.366410672664642334e-01 2.764711342751979828e-02
2.770432829856872559e-01 4.073722958564758301e-01 2.566618658602237701e-02
2.711499035358428955e-01 4.268873929977416992e-01 2.524404227733612061e-02
2.531755566596984863e-01 3.694996237754821777e-01 5.653347969055175781e-01
2.437498271465301514e-01 3.837811946868896484e-01 5.667115449905395508e-01
2.429168224334716797e-01 3.568130135536193848e-01 5.644595623016357422e-01
2.340418994426727295e-01 3.720418512821197510e-01 5.659465789794921875e-01
1.717658340930938721e-01 2.185106277465820312e-01 4.479801654815673828e-01
1.581124812364578247e-01 2.213694006204605103e-01 4.433040022850036621e-01
1.705914884805679321e-01 2.161079943180084229e-01 4.616506993770599365e-01
1.562407761812210083e-01 2.198897898197174072e-01 4.589520692825317383e-01
1.884959638118743896e-01 2.540484815835952759e-02 7.638469934463500977e-01
1.759690046310424805e-01 2.715759724378585815e-02 7.559310197830200195e-01
1.848247498273849487e-01 2.422691509127616882e-02 7.811858654022216797e-01
1.715977042913436890e-01 2.514399588108062744e-02 7.741962075233459473e-01
2.304700911045074463e-01 3.323571681976318359e-01 5.650014877319335938e-01
2.217423170804977417e-01 3.461840152740478516e-01 5.659331083297729492e-01
2.163823693990707397e-01 3.229389488697052002e-01 5.632495284080505371e-01
2.074249833822250366e-01 3.347429037094116211e-01 5.642753243446350098e-01
2.620302736759185791e-01 2.627652287483215332e-01 8.794189989566802979e-02
2.503953874111175537e-01 2.632006406784057617e-01 8.217776566743850708e-02
2.560347318649291992e-01 2.605294287204742432e-01 1.030068174004554749e-01
2.435388863086700439e-01 2.607284486293792725e-01 9.702158719301223755e-02
5.119907855987548828e-01 3.457269072532653809e-01 5.720118880271911621e-01
4.964302480220794678e-01 3.585651814937591553e-01 5.729025602340698242e-01
5.010324716567993164e-01 3.367163538932800293e-01 5.715264081954956055e-01
4.846088886260986328e-01 3.491320610046386719e-01 5.726683139801025391e-01
3.896448612213134766e-01 2.807221375405788422e-02 2.302087694406509399e-01
3.769412040710449219e-01 2.751634642481803894e-02 2.211357951164245605e-01
3.882722854614257812e-01 2.908854559063911438e-02 2.489313781261444092e-01
3.755654692649841309e-01 2.875753305852413177e-02 2.400056719779968262e-01
3.429671525955200195e-01 3.099134266376495361e-01 2.751069329679012299e-02
3.366958498954772949e-01 3.208469748497009277e-01 2.453165128827095032e-02
3.365622460842132568e-01 2.997469305992126465e-01 3.191171213984489441e-02
3.302523493766784668e-01 3.098793625831604004e-01 2.782426215708255768e-02
6.254935860633850098e-01 2.938944846391677856e-02 5.242345333099365234e-01
6.200978159904479980e-01 3.106613457202911377e-02 5.122029781341552734e-01
6.220927834510803223e-01 2.678831852972507477e-02 5.404134988784790039e-01
6.166638731956481934e-01 2.835047245025634766e-02 5.285920500755310059e-01
1.242566108703613281e-01 2.610797882080078125e-01 5.649484992027282715e-01
1.097857728600502014e-01 2.704370915889739990e-01 5.651245117187500000e-01
1.132063791155815125e-01 2.561725974082946777e-01 5.667597055435180664e-01
9.781870990991592407e-02 2.643306553363800049e-01 5.654177069664001465e-01
4.780463874340057373e-01 3.724678158760070801e-01 2.949648164212703705e-02
4.681692421436309814e-01 3.830332458019256592e-01 2.809962444007396698e-02
4.830365777015686035e-01 3.675387203693389893e-01 3.626281395554542542e-02
4.763724505901336670e-01 3.802256286144256592e-01 3.478889539837837219e-02
5.404711961746215820e-01 3.257471621036529541e-01 2.967230081558227539e-01
5.391667485237121582e-01 3.390489220619201660e-01 2.907817959785461426e-01
5.436285734176635742e-01 3.225242793560028076e-01 3.098770976066589355e-01
5.427178740501403809e-01 3.362709283828735352e-01 3.054192662239074707e-01
6.524873375892639160e-01 5.109949782490730286e-02 9.402992129325866699e-01
6.390069127082824707e-01 5.338533222675323486e-02 9.372634887695312500e-01
6.462051868438720703e-01 4.919279366731643677e-02 9.569664597511291504e-01
6.320264935493469238e-01 5.073616281151771545e-02 9.538758993148803711e-01
3.059431910514831543e-01 8.467549085617065430e-02 7.744506597518920898e-01
2.913369834423065186e-01 8.652789145708084106e-02 7.681841850280761719e-01
3.014122545719146729e-01 8.355303108692169189e-02 7.909218668937683105e-01
2.885618805885314941e-01 8.518609404563903809e-02 7.852385640144348145e-01
5.697293281555175781e-01 2.871348895132541656e-02 2.645564079284667969e-01
5.581283569335937500e-01 2.717133052647113800e-02 2.549718916416168213e-01
5.720614790916442871e-01 2.864789776504039764e-02 2.822715640068054199e-01
5.603779554367065430e-01 2.719934843480587006e-02 2.730191349983215332e-01
3.958550393581390381e-01 7.327178120613098145e-02 8.904089331626892090e-01
3.877837657928466797e-01 7.486842572689056396e-02 8.818758726119995117e-01
3.939701616764068604e-01 6.990283727645874023e-02 9.012430906295776367e-01
3.854228854179382324e-01 7.197336852550506592e-02 8.931412100791931152e-01
6.008509993553161621e-01 6.707233935594558716e-02 8.004959821701049805e-01
5.894067287445068359e-01 6.894525885581970215e-02 7.953115701675415039e-01
5.974588990211486816e-01 6.692106276750564575e-02 8.132207393646240234e-01
5.862053036689758301e-01 6.824029982089996338e-02 8.077450394630432129e-01
5.863335728645324707e-01 2.787713147699832916e-02 2.301284223794937134e-01
5.759543776512145996e-01 2.691135741770267487e-02 2.201760411262512207e-01
5.867945551872253418e-01 3.035804443061351776e-02 2.478517591953277588e-01
5.763158798217773438e-01 2.913708239793777466e-02 2.378915399312973022e-01
1.608693450689315796e-01 4.052455723285675049e-01 1.949457675218582153e-01
1.620947569608688354e-01 4.192912280559539795e-01 1.888538897037506104e-01
1.587165743112564087e-01 4.020504653453826904e-01 2.087344974279403687e-01
1.599558740854263306e-01 4.160258471965789795e-01 2.025987803936004639e-01
3.979743421077728271e-01 2.742269821465015411e-02 5.394809842109680176e-01
3.787609934806823730e-01 2.736896649003028870e-02 5.352694392204284668e-01
3.936603367328643799e-01 2.841738983988761902e-02 5.557819604873657227e-01
3.742430806159973145e-01 2.833292447030544281e-02 5.527833104133605957e-01
6.394226551055908203e-01 7.791242748498916626e-02 7.129244208335876465e-01
6.286322474479675293e-01 7.837839424610137939e-02 7.087815403938293457e-01
6.407149434089660645e-01 7.682228833436965942e-02 7.205832600593566895e-01
6.299092769622802734e-01 7.725741714239120483e-02 7.165973186492919922e-01
4.848799705505371094e-01 3.627994656562805176e-02 7.300451397895812988e-01
4.713951349258422852e-01 3.611883148550987244e-02 7.262017130851745605e-01
4.819901287555694580e-01 3.783839941024780273e-02 7.446684837341308594e-01
4.678757488727569580e-01 3.757691755890846252e-02 7.417171597480773926e-01
6.109139919281005859e-01 3.352463990449905396e-02 2.610068023204803467e-01
5.990263223648071289e-01 3.025373630225658417e-02 2.494430094957351685e-01
6.084710955619812012e-01 3.289891779422760010e-02 2.775231301784515381e-01
5.962835550308227539e-01 2.878029085695743561e-02 2.648011445999145508e-01
4.510228931903839111e-01 5.491725802421569824e-01 5.720475912094116211e-01
4.435707628726959229e-01 5.631610155105590820e-01 5.728747844696044922e-01
4.401918649673461914e-01 5.380026102066040039e-01 5.697845220565795898e-01
4.325381219387054443e-01 5.528283119201660156e-01 5.708203315734863281e-01
4.291847050189971924e-01 3.417166322469711304e-02 9.495627284049987793e-01
4.163946211338043213e-01 3.632486611604690552e-02 9.448477625846862793e-01
4.256550669670104980e-01 3.231822326779365540e-02 9.612669348716735840e-01
4.133123457431793213e-01 3.517469018697738647e-02 9.568698406219482422e-01
1.291613131761550903e-01 3.622771799564361572e-02 9.553355574607849121e-01
1.132843941450119019e-01 4.121354222297668457e-02 9.484018087387084961e-01
1.188404485583305359e-01 3.329053148627281189e-02 9.643093943595886230e-01
1.037831231951713562e-01 3.729415684938430786e-02 9.589452147483825684e-01
1.915985345840454102e-01 7.785402238368988037e-02 8.663322925567626953e-01
1.800035387277603149e-01 7.858868688344955444e-02 8.615434765815734863e-01
1.869810819625854492e-01 7.794584333896636963e-02 8.802424073219299316e-01
1.753143221139907837e-01 7.804786413908004761e-02 8.764994144439697266e-01
2.567231059074401855e-01 2.669146656990051270e-02 4.435393810272216797e-01
2.432211190462112427e-01 2.614608034491539001e-02 4.311925172805786133e-01
2.575183808803558350e-01 2.766055241227149963e-02 4.641155600547790527e-01
2.451677322387695312e-01 2.728476002812385559e-02 4.516610503196716309e-01
5.376816391944885254e-01 2.789876051247119904e-02 1.767176389694213867e-01
5.248836874961853027e-01 2.747327834367752075e-02 1.713354289531707764e-01
5.338212251663208008e-01 2.918563969433307648e-02 1.935385614633560181e-01
5.200178027153015137e-01 2.822799049317836761e-02 1.876496672630310059e-01
2.029087841510772705e-01 2.643469534814357758e-02 5.361510515213012695e-01
1.904766559600830078e-01 2.465113811194896698e-02 5.284215807914733887e-01
2.039800137281417847e-01 2.765523269772529602e-02 5.535860061645507812e-01
1.905235797166824341e-01 2.560357749462127686e-02 5.462881922721862793e-01
2.629699110984802246e-01 6.748147606849670410e-01 5.717791914939880371e-01
2.520167231559753418e-01 6.847047209739685059e-01 5.732493996620178223e-01
2.543393969535827637e-01 6.672882437705993652e-01 5.705531239509582520e-01
2.427649945020675659e-01 6.789186596870422363e-01 5.731542110443115234e-01
4.123046696186065674e-01 7.307900488376617432e-02 8.740069270133972168e-01
4.032609164714813232e-01 7.344767451286315918e-02 8.651834130287170410e-01
4.101540148258209229e-01 7.042452692985534668e-02 8.838217854499816895e-01
4.005803763866424561e-01 7.116569578647613525e-02 8.742392063140869141e-01
2.329779267311096191e-01 5.864533782005310059e-01 3.220644593238830566e-02
2.213105708360671997e-01 5.904128551483154297e-01 3.274088725447654724e-02
2.270644754171371460e-01 5.931097865104675293e-01 4.308873414993286133e-02
2.139319777488708496e-01 5.958943963050842285e-01 4.403951391577720642e-02
2.379351407289505005e-01 6.194063425064086914e-01 9.615242481231689453e-02
2.249797731637954712e-01 6.189991235733032227e-01 9.268996119499206543e-02
2.323143184185028076e-01 6.223948001861572266e-01 1.114392057061195374e-01
2.192212939262390137e-01 6.212512850761413574e-01 1.072089970111846924e-01
1.559789925813674927e-01 2.809327095746994019e-02 2.864558994770050049e-01
1.435886174440383911e-01 2.829605713486671448e-02 2.811708450317382812e-01
1.502792090177536011e-01 2.808673679828643799e-02 3.030456900596618652e-01
1.365791261196136475e-01 2.794116921722888947e-02 2.974929511547088623e-01
8.578338474035263062e-02 7.778120040893554688e-02 8.799648284912109375e-01
7.858714461326599121e-02 7.653471082448959351e-02 8.709135055541992188e-01
8.008405566215515137e-02 7.325249910354614258e-02 8.928652405738830566e-01
7.301775366067886353e-02 7.294037193059921265e-02 8.845533728599548340e-01
1.787722110748291016e-01 2.710779756307601929e-02 3.476857542991638184e-01
1.611705273389816284e-01 2.720444463193416595e-02 3.450169563293457031e-01
1.761775314807891846e-01 2.735558338463306427e-02 3.665004670619964600e-01
1.588357686996459961e-01 2.771248295903205872e-02 3.636308610439300537e-01
6.170531511306762695e-01 6.941133141517639160e-01 4.552811086177825928e-01
6.117485761642456055e-01 7.076419591903686523e-01 4.530889689922332764e-01
6.180609464645385742e-01 6.911143660545349121e-01 4.691767394542694092e-01
6.136541962623596191e-01 7.052865028381347656e-01 4.676726758480072021e-01
3.961407542228698730e-01 1.954570561647415161e-01 4.050159156322479248e-01
3.894717395305633545e-01 2.038979977369308472e-01 4.043104946613311768e-01
3.836971223354339600e-01 1.889240890741348267e-01 4.074210524559020996e-01
3.785174190998077393e-01 2.002533376216888428e-01 4.067949652671813965e-01
1.841774731874465942e-01 2.654607221484184265e-02 4.738097488880157471e-01
1.748156696557998657e-01 2.636290527880191803e-02 4.633142650127410889e-01
1.830143630504608154e-01 2.704579569399356842e-02 4.908777475357055664e-01
1.738911569118499756e-01 2.672161161899566650e-02 4.808358252048492432e-01
2.192572206258773804e-01 5.121335983276367188e-01 5.658971071243286133e-01
2.108126878738403320e-01 5.235270261764526367e-01 5.645952820777893066e-01
2.029730677604675293e-01 5.031880736351013184e-01 5.677502751350402832e-01
1.950984001159667969e-01 5.141754150390625000e-01 5.662975907325744629e-01
8.017734289169311523e-01 6.944213807582855225e-02 7.857743501663208008e-01
7.924875617027282715e-01 6.727586686611175537e-02 7.795077562332153320e-01
8.010433316230773926e-01 6.891309469938278198e-02 7.995225787162780762e-01
7.911562919616699219e-01 6.665290892124176025e-02 7.934629917144775391e-01
4.999940097332000732e-01 7.167542576789855957e-01 4.073133468627929688e-01
4.875682294368743896e-01 7.151156067848205566e-01 4.051843583583831787e-01
4.968211054801940918e-01 7.252150774002075195e-01 4.187824726104736328e-01
4.834766983985900879e-01 7.241882681846618652e-01 4.173023104667663574e-01
5.995512008666992188e-02 4.042314589023590088e-01 5.413058996200561523e-01
5.617915093898773193e-02 4.189608991146087646e-01 5.422318577766418457e-01
6.118993461132049561e-02 4.017479419708251953e-01 5.487073063850402832e-01
5.644760653376579285e-02 4.168120920658111572e-01 5.513356328010559082e-01
4.247643947601318359e-01 2.103752195835113525e-01 3.403649628162384033e-01
4.274798631668090820e-01 2.240693122148513794e-01 3.321023285388946533e-01
4.232740402221679688e-01 2.133376151323318481e-01 3.558053374290466309e-01
4.257978796958923340e-01 2.268011569976806641e-01 3.476984798908233643e-01
4.931168556213378906e-01 2.449078410863876343e-01 2.768405973911285400e-01
4.859417974948883057e-01 2.452175021171569824e-01 2.694617807865142822e-01
4.946503639221191406e-01 2.445864528417587280e-01 2.911834120750427246e-01
4.833242893218994141e-01 2.427991479635238647e-01 2.831075787544250488e-01
6.145815253257751465e-01 1.256937831640243530e-01 4.372079968452453613e-01
6.085654497146606445e-01 1.356304734945297241e-01 4.328229725360870361e-01
6.133107542991638184e-01 1.245950311422348022e-01 4.514790475368499756e-01
6.075559854507446289e-01 1.346512436866760254e-01 4.470677375793457031e-01
7.522326707839965820e-02 1.441096961498260498e-01 4.878008663654327393e-01
6.587620824575424194e-02 1.424114853143692017e-01 4.834081232547760010e-01
7.028371840715408325e-02 1.439727395772933960e-01 5.028089880943298340e-01
6.228667497634887695e-02 1.438031494617462158e-01 4.954040646553039551e-01
6.137392520904541016e-01 3.527914881706237793e-01 5.349474549293518066e-01
6.129776239395141602e-01 3.695833683013916016e-01 5.283535122871398926e-01
6.123045086860656738e-01 3.487400412559509277e-01 5.486515760421752930e-01
6.114124059677124023e-01 3.655008971691131592e-01 5.422284007072448730e-01
1.144372001290321350e-01 6.474409103393554688e-01 3.520087003707885742e-01
1.197478696703910828e-01 6.625767946243286133e-01 3.553229272365570068e-01
1.048203334212303162e-01 6.434611678123474121e-01 3.606513738632202148e-01
1.095710843801498413e-01 6.600913405418395996e-01 3.640369772911071777e-01
1.262669712305068970e-01 7.862745970487594604e-02 8.547021746635437012e-01
1.165435537695884705e-01 7.944368571043014526e-02 8.501762747764587402e-01
1.229063794016838074e-01 7.924782484769821167e-02 8.707123994827270508e-01
1.124693378806114197e-01 8.017492294311523438e-02 8.659046292304992676e-01
1.324620097875595093e-01 2.627304196357727051e-02 5.546506047248840332e-01
1.197493746876716614e-01 2.714183367788791656e-02 5.472312569618225098e-01
1.339955925941467285e-01 2.957713603973388672e-02 5.673727989196777344e-01
1.200496926903724670e-01 3.015948832035064697e-02 5.649774074554443359e-01
8.759584277868270874e-02 1.494543105363845825e-01 1.670873016119003296e-01
7.576532661914825439e-02 1.444430947303771973e-01 1.542730927467346191e-01
8.862273395061492920e-02 1.476871669292449951e-01 1.824017614126205444e-01
7.684094458818435669e-02 1.427802890539169312e-01 1.694245785474777222e-01
4.375046193599700928e-01 2.847225591540336609e-02 4.620744287967681885e-01
4.187339246273040771e-01 2.768963016569614410e-02 4.524338245391845703e-01
4.361897408962249756e-01 2.866576239466667175e-02 4.758300781250000000e-01
4.173529744148254395e-01 2.770537510514259338e-02 4.657000899314880371e-01
6.289875507354736328e-01 6.973953545093536377e-02 1.707608103752136230e-01
6.321704983711242676e-01 8.513721823692321777e-02 1.666076630353927612e-01
6.303468942642211914e-01 6.728379428386688232e-02 1.846273690462112427e-01
6.326583623886108398e-01 8.287792652845382690e-02 1.798908114433288574e-01
3.361476063728332520e-01 2.238858044147491455e-01 4.022836387157440186e-01
3.260732889175415039e-01 2.294649779796600342e-01 4.006618559360504150e-01
3.234407901763916016e-01 2.207396477460861206e-01 4.064592719078063965e-01
3.134156167507171631e-01 2.262002080678939819e-01 4.046977758407592773e-01
5.206201076507568359e-01 8.213949948549270630e-02 8.310346603393554688e-01
5.103342533111572266e-01 8.163888752460479736e-02 8.243265151977539062e-01
5.183820128440856934e-01 8.303652703762054443e-02 8.452353477478027344e-01
5.084626078605651855e-01 8.260485529899597168e-02 8.389691710472106934e-01
2.440576553344726562e-01 7.330598235130310059e-01 4.043817818164825439e-01
2.298723161220550537e-01 7.312749028205871582e-01 4.029994606971740723e-01
2.407204210758209229e-01 7.353051304817199707e-01 4.171288907527923584e-01
2.264533042907714844e-01 7.338186502456665039e-01 4.152776896953582764e-01
5.315631031990051270e-01 5.546627193689346313e-02 6.224822402000427246e-01
5.175029039382934570e-01 6.093364953994750977e-02 6.213800907135009766e-01
5.167229771614074707e-01 5.183269083499908447e-02 6.220085620880126953e-01
5.027378201484680176e-01 5.693833157420158386e-02 6.226911544799804688e-01
5.187236666679382324e-01 2.685000561177730560e-02 5.026564002037048340e-01
5.058034658432006836e-01 2.591157332062721252e-02 4.897608160972595215e-01
5.216695666313171387e-01 2.752528153359889984e-02 5.214390754699707031e-01
5.084483027458190918e-01 2.667581103742122650e-02 5.079917907714843750e-01
5.123504400253295898e-01 7.293403148651123047e-02 7.620974630117416382e-02
5.005618333816528320e-01 8.040246367454528809e-02 7.521605491638183594e-02
5.034869313240051270e-01 6.255869567394256592e-02 7.670236378908157349e-02
4.926675856113433838e-01 7.144937664270401001e-02 7.396585494279861450e-02
2.663380503654479980e-01 7.974692434072494507e-02 7.289715409278869629e-01
2.520717382431030273e-01 8.117315918207168579e-02 7.236727476119995117e-01
2.611272931098937988e-01 8.203192055225372314e-02 7.410535812377929688e-01
2.496009320020675659e-01 8.278934657573699951e-02 7.346032857894897461e-01
2.743087112903594971e-01 2.857706546783447266e-01 3.355587646365165710e-02
2.668390572071075439e-01 2.948020696640014648e-01 2.997054532170295715e-02
2.678140401840209961e-01 2.765704095363616943e-01 4.062383621931076050e-02
2.592431604862213135e-01 2.841136157512664795e-01 3.663203120231628418e-02
3.417704105377197266e-01 1.444895863533020020e-01 1.105867475271224976e-01
3.301423788070678711e-01 1.456182599067687988e-01 1.113061234354972839e-01
3.385480046272277832e-01 1.487730294466018677e-01 1.207822114229202271e-01
3.271352052688598633e-01 1.502115428447723389e-01 1.208915114402770996e-01
2.842181324958801270e-01 2.913549914956092834e-02 1.268760114908218384e-01
2.690854072570800781e-01 2.886414527893066406e-02 1.175333261489868164e-01
2.832486331462860107e-01 2.850078791379928589e-02 1.422820985317230225e-01
2.671353220939636230e-01 2.833897806704044342e-02 1.320807933807373047e-01
4.835162460803985596e-01 2.844584546983242035e-02 1.238204464316368103e-01
4.712569415569305420e-01 2.919176034629344940e-02 1.136560738086700439e-01
4.824822247028350830e-01 2.887951582670211792e-02 1.396524608135223389e-01
4.697897136211395264e-01 2.956193126738071442e-02 1.294486969709396362e-01
2.814514636993408203e-01 6.302112936973571777e-01 1.571513563394546509e-01
2.673706114292144775e-01 6.304607391357421875e-01 1.569502651691436768e-01
2.751351594924926758e-01 6.323752403259277344e-01 1.733172833919525146e-01
2.601053118705749512e-01 6.330142617225646973e-01 1.746865212917327881e-01
5.553589761257171631e-02 4.272223711013793945e-01 5.170890688896179199e-01
5.569178238511085510e-02 4.426392316818237305e-01 5.102024674415588379e-01
5.859769508242607117e-02 4.271554648876190186e-01 5.303126573562622070e-01
5.715419724583625793e-02 4.428168237209320068e-01 5.274252891540527344e-01
3.570772707462310791e-01 6.569935083389282227e-01 3.044982254505157471e-01
3.400043547153472900e-01 6.568651795387268066e-01 3.052338957786560059e-01
3.506672978401184082e-01 6.623907089233398438e-01 3.173922598361968994e-01
3.337460756301879883e-01 6.627554297447204590e-01 3.174681961536407471e-01
1.138587817549705505e-01 6.273558139801025391e-01 3.500192463397979736e-01
1.193055436015129089e-01 6.417583227157592773e-01 3.521703779697418213e-01
1.056660264730453491e-01 6.232829689979553223e-01 3.571259081363677979e-01
1.104452759027481079e-01 6.392545700073242188e-01 3.597904741764068604e-01
2.129364609718322754e-01 2.393303960561752319e-01 3.707061707973480225e-01
1.980545520782470703e-01 2.407500445842742920e-01 3.672473132610321045e-01
2.092959582805633545e-01 2.418905943632125854e-01 3.918260037899017334e-01
1.970713436603546143e-01 2.425331175327301025e-01 3.868316709995269775e-01
3.654718697071075439e-01 1.610317975282669067e-01 1.923202574253082275e-01
3.513319194316864014e-01 1.604735255241394043e-01 1.857224255800247192e-01
3.644397854804992676e-01 1.651644259691238403e-01 2.072792500257492065e-01
3.512957394123077393e-01 1.641490906476974487e-01 2.003669291734695435e-01
1.388510018587112427e-01 5.181391537189483643e-02 9.466961026191711426e-01
1.229889467358589172e-01 5.640953779220581055e-02 9.387700557708740234e-01
1.335511207580566406e-01 5.053038150072097778e-02 9.579903483390808105e-01
1.181005090475082397e-01 5.556273460388183594e-02 9.514216780662536621e-01
4.266437888145446777e-01 8.096015453338623047e-02 7.861781716346740723e-01
4.167391061782836914e-01 8.153541386127471924e-02 7.801373004913330078e-01
4.234271049499511719e-01 8.135908842086791992e-02 8.001857995986938477e-01
4.133956134319305420e-01 8.205522596836090088e-02 7.943412065505981445e-01
8.022046089172363281e-02 9.905222803354263306e-02 5.597966536879539490e-02
7.912392169237136841e-02 1.138342469930648804e-01 5.819644033908843994e-02
7.413888722658157349e-02 9.705541282892227173e-02 7.047811150550842285e-02
7.149358093738555908e-02 1.145998835563659668e-01 7.269489020109176636e-02
6.200592517852783203e-01 3.287325426936149597e-02 2.039653956890106201e-01
6.087968349456787109e-01 2.874122932553291321e-02 1.928533762693405151e-01
6.173184514045715332e-01 3.121728077530860901e-02 2.209355980157852173e-01
6.071974635124206543e-01 2.828561142086982727e-02 2.103808224201202393e-01
7.014741897583007812e-01 3.145788609981536865e-02 7.959749102592468262e-01
6.898780465126037598e-01 3.247940912842750549e-02 7.907755374908447266e-01
6.996156573295593262e-01 3.085687197744846344e-02 8.114430904388427734e-01
6.860991716384887695e-01 3.240657225251197815e-02 8.067123293876647949e-01
1.066077575087547302e-01 4.911558330059051514e-01 3.659618496894836426e-01
1.085881367325782776e-01 5.048678517341613770e-01 3.616749346256256104e-01
9.940482676029205322e-02 4.913407862186431885e-01 3.783023655414581299e-01
1.014744937419891357e-01 5.034270882606506348e-01 3.755326867103576660e-01
2.236205339431762695e-01 1.610003411769866943e-01 3.712921440601348877e-01
2.169510573148727417e-01 1.655021458864212036e-01 3.672004342079162598e-01
2.216247916221618652e-01 1.625569313764572144e-01 3.834583461284637451e-01
2.104198783636093140e-01 1.626251488924026489e-01 3.768244683742523193e-01
1.527757197618484497e-01 6.308373808860778809e-01 5.644025206565856934e-01
1.497253775596618652e-01 6.440134644508361816e-01 5.648640394210815430e-01
1.377871781587600708e-01 6.205120682716369629e-01 5.627633333206176758e-01
1.330008506774902344e-01 6.341424584388732910e-01 5.627638697624206543e-01
5.204321742057800293e-01 7.337372004985809326e-02 8.221383690834045410e-01
5.095505714416503906e-01 7.242450118064880371e-02 8.146859407424926758e-01
5.197380781173706055e-01 7.362847030162811279e-02 8.358282446861267090e-01
5.095596313476562500e-01 7.294564694166183472e-02 8.288010954856872559e-01
5.426604151725769043e-01 3.849172890186309814e-01 3.134160041809082031e-01
5.402749776840209961e-01 3.985102474689483643e-01 3.044355809688568115e-01
5.480756163597106934e-01 3.831096887588500977e-01 3.294346928596496582e-01
5.457218289375305176e-01 3.967898190021514893e-01 3.209412992000579834e-01
1.638833731412887573e-01 7.102306187152862549e-02 8.186658024787902832e-01
1.528371870517730713e-01 7.103378325700759888e-02 8.099482655525207520e-01
1.645651310682296753e-01 7.177879661321640015e-02 8.339019417762756348e-01
1.529269814491271973e-01 7.211329042911529541e-02 8.257096409797668457e-01
1.897700279951095581e-01 1.598049551248550415e-01 2.264811396598815918e-01
1.746103018522262573e-01 1.580919772386550903e-01 2.150412052869796753e-01
1.908482909202575684e-01 1.619149595499038696e-01 2.457809001207351685e-01
1.758581548929214478e-01 1.603080034255981445e-01 2.344268858432769775e-01
6.207385659217834473e-01 6.917934119701385498e-02 5.784486532211303711e-01
6.213971376419067383e-01 8.332531899213790894e-02 5.777733922004699707e-01
6.184872388839721680e-01 6.761682033538818359e-02 5.913673043251037598e-01
6.184626221656799316e-01 7.918195426464080811e-02 5.901752114295959473e-01
1.701458692550659180e-01 2.364774793386459351e-02 8.796589374542236328e-01
1.555813699960708618e-01 2.557490579783916473e-02 8.733149766921997070e-01
1.707066297531127930e-01 2.458200603723526001e-02 9.003642797470092773e-01
1.547770351171493530e-01 2.699359506368637085e-02 8.928992748260498047e-01
2.571715116500854492e-01 1.769245266914367676e-01 2.863234877586364746e-01
2.627094686031341553e-01 1.883155405521392822e-01 2.837232947349548340e-01
2.565350532531738281e-01 1.744835674762725830e-01 3.003973364830017090e-01
2.605880498886108398e-01 1.849825978279113770e-01 2.965151965618133545e-01
5.979932546615600586e-01 1.443380862474441528e-01 2.375067025423049927e-01
5.864438414573669434e-01 1.468677669763565063e-01 2.336254417896270752e-01
5.934093594551086426e-01 1.437456011772155762e-01 2.515771090984344482e-01
5.817615985870361328e-01 1.470510959625244141e-01 2.477881908416748047e-01
2.064864337444305420e-01 6.639585494995117188e-01 3.251888155937194824e-01
1.889585256576538086e-01 6.661708354949951172e-01 3.312338292598724365e-01
2.014024108648300171e-01 6.741071939468383789e-01 3.394910991191864014e-01
1.829693019390106201e-01 6.760130524635314941e-01 3.445883691310882568e-01
3.242958337068557739e-02 6.030999869108200073e-02 7.724766731262207031e-01
2.235217764973640442e-02 6.406414508819580078e-02 7.608850002288818359e-01
3.155241161584854126e-02 5.999388545751571655e-02 7.941560745239257812e-01
2.287209779024124146e-02 6.273832917213439941e-02 7.836990356445312500e-01
6.500466465950012207e-01 6.540033966302871704e-02 7.874904870986938477e-01
6.416480541229248047e-01 7.025000452995300293e-02 7.809364199638366699e-01
6.457335352897644043e-01 6.329925358295440674e-02 8.021005392074584961e-01
6.363425850868225098e-01 6.786675006151199341e-02 7.953721284866333008e-01
3.871262371540069580e-01 6.892920732498168945e-01 3.337035477161407471e-01
3.726686537265777588e-01 6.928990483283996582e-01 3.349051177501678467e-01
3.850479423999786377e-01 7.011051177978515625e-01 3.452259898185729980e-01
3.714035749435424805e-01 7.054662108421325684e-01 3.467833697795867920e-01
1.497008651494979858e-01 6.124683618545532227e-01 2.513947188854217529e-01
1.532572060823440552e-01 6.343274712562561035e-01 2.512354552745819092e-01
1.471315026283264160e-01 6.065866351127624512e-01 2.674481868743896484e-01
1.504363268613815308e-01 6.285086870193481445e-01 2.672229111194610596e-01
8.599443435668945312e-01 3.119379281997680664e-02 8.743410110473632812e-01
8.507241010665893555e-01 3.213135153055191040e-02 8.694318532943725586e-01
8.585796952247619629e-01 3.076354414224624634e-02 8.865314722061157227e-01
8.494732379913330078e-01 3.189145773649215698e-02 8.819047212600708008e-01
7.723553478717803955e-02 6.348152756690979004e-01 3.954149186611175537e-01
7.841895520687103271e-02 6.537947654724121094e-01 3.971116244792938232e-01
6.989724934101104736e-02 6.310794353485107422e-01 4.064780473709106445e-01
7.129821181297302246e-02 6.475809812545776367e-01 4.073735773563385010e-01
5.973854660987854004e-01 2.966588549315929413e-02 2.222418934106826782e-01
5.868920087814331055e-01 2.750657685101032257e-02 2.120282351970672607e-01
5.971295833587646484e-01 3.045210987329483032e-02 2.389357835054397583e-01
5.869872570037841797e-01 2.903199568390846252e-02 2.287837862968444824e-01
6.470633745193481445e-01 6.720004975795745850e-02 8.206077218055725098e-01
6.368424296379089355e-01 7.005037367343902588e-02 8.119630217552185059e-01
6.472244858741760254e-01 6.685313582420349121e-02 8.370193243026733398e-01
6.371072530746459961e-01 6.914547830820083618e-02 8.280717730522155762e-01
1.458410918712615967e-01 4.880616962909698486e-01 5.639664530754089355e-01
1.377403885126113892e-01 4.998409748077392578e-01 5.634301900863647461e-01
1.358953565359115601e-01 4.811225533485412598e-01 5.631421208381652832e-01
1.275484561920166016e-01 4.931743741035461426e-01 5.629394054412841797e-01
1.864688396453857422e-01 7.709541916847229004e-02 6.950716376304626465e-01
1.698783338069915771e-01 8.135830610990524292e-02 6.907187700271606445e-01
1.809646785259246826e-01 7.273049652576446533e-02 7.044482827186584473e-01
1.648992449045181274e-01 7.675451040267944336e-02 6.999741196632385254e-01
2.729048430919647217e-01 6.583813428878784180e-01 3.129195868968963623e-01
2.584301531314849854e-01 6.558464169502258301e-01 3.103938400745391846e-01
2.728946805000305176e-01 6.643089652061462402e-01 3.282963633537292480e-01
2.579849660396575928e-01 6.617702245712280273e-01 3.261720538139343262e-01
5.343681573867797852e-01 6.777709126472473145e-01 5.761614441871643066e-01
5.205471515655517578e-01 6.908420324325561523e-01 5.793828368186950684e-01
5.243525505065917969e-01 6.695523262023925781e-01 5.741257071495056152e-01
5.108002424240112305e-01 6.827014088630676270e-01 5.774685740470886230e-01
4.877274334430694580e-01 6.551207304000854492e-01 3.008846938610076904e-01
4.741496741771697998e-01 6.542974114418029785e-01 2.969787120819091797e-01
4.848012924194335938e-01 6.592633128166198730e-01 3.136851787567138672e-01
4.711461365222930908e-01 6.582645773887634277e-01 3.100669085979461670e-01
6.459380686283111572e-02 3.795260190963745117e-01 4.067016839981079102e-01
6.635428220033645630e-02 3.930756151676177979e-01 4.021447598934173584e-01
5.542838200926780701e-02 3.780460059642791748e-01 4.179005920886993408e-01
5.665500834584236145e-02 3.914768099784851074e-01 4.137703776359558105e-01
2.537738978862762451e-01 2.398930191993713379e-01 4.117220044136047363e-01
2.429337501525878906e-01 2.412801086902618408e-01 4.059389531612396240e-01
2.466360479593276978e-01 2.408009320497512817e-01 4.229705333709716797e-01
2.362773716449737549e-01 2.414484322071075439e-01 4.168353676795959473e-01
5.763226002454757690e-02 6.674122214317321777e-01 4.698127508163452148e-01
6.199236214160919189e-02 6.828371882438659668e-01 4.611027836799621582e-01
5.559192225337028503e-02 6.656314134597778320e-01 4.813651740550994873e-01
5.938847735524177551e-02 6.802896857261657715e-01 4.726715683937072754e-01
3.793028891086578369e-01 2.516774535179138184e-01 2.023329734802246094e-01
3.665190935134887695e-01 2.522358894348144531e-01 1.926402747631072998e-01
3.787673115730285645e-01 2.451579421758651733e-01 2.187462896108627319e-01
3.666355609893798828e-01 2.463117539882659912e-01 2.091177403926849365e-01
4.595848321914672852e-01 2.336704917252063751e-02 6.151235103607177734e-01
4.447847008705139160e-01 3.004530072212219238e-02 6.186329722404479980e-01
4.462289512157440186e-01 2.822269685566425323e-02 6.207478046417236328e-01
4.323579072952270508e-01 3.403705358505249023e-02 6.245431900024414062e-01
5.647540092468261719e-01 4.440725222229957581e-02 8.136888146400451660e-01
5.521937012672424316e-01 4.682705178856849670e-02 8.091822266578674316e-01
5.572892427444458008e-01 4.460903629660606384e-02 8.285208940505981445e-01
5.450434684753417969e-01 4.681612178683280945e-02 8.237049579620361328e-01
2.390249967575073242e-01 7.876626402139663696e-02 7.314158678054809570e-01
2.266664355993270874e-01 8.026947081089019775e-02 7.257310748100280762e-01
2.351225763559341431e-01 8.084794878959655762e-02 7.462970614433288574e-01
2.255443930625915527e-01 8.232960850000381470e-02 7.384392023086547852e-01
1.610843986272811890e-01 5.555031895637512207e-01 1.977836340665817261e-01
1.636171489953994751e-01 5.723324418067932129e-01 1.902557313442230225e-01
1.559179723262786865e-01 5.538756847381591797e-01 2.165439724922180176e-01
1.582423001527786255e-01 5.702236294746398926e-01 2.095657587051391602e-01
2.591618001461029053e-01 1.445301026105880737e-01 9.066049754619598389e-02
2.467389404773712158e-01 1.444297134876251221e-01 8.971123397350311279e-02
2.576511502265930176e-01 1.481963843107223511e-01 1.027916744351387024e-01
2.454597949981689453e-01 1.478407233953475952e-01 1.008786261081695557e-01
5.548875927925109863e-01 2.680733986198902130e-02 4.532822370529174805e-01
5.407822728157043457e-01 2.528211846947669983e-02 4.434399902820587158e-01
5.553403496742248535e-01 2.805608324706554413e-02 4.735597968101501465e-01
5.416400432586669922e-01 2.704482153058052063e-02 4.645952582359313965e-01
2.221702635288238525e-01 2.387203872203826904e-01 3.880089819431304932e-01
2.096657007932662964e-01 2.397279739379882812e-01 3.829002678394317627e-01
2.208711355924606323e-01 2.420605123043060303e-01 4.062908589839935303e-01
2.087875306606292725e-01 2.428966313600540161e-01 4.004707634449005127e-01
3.064914345741271973e-01 3.309972584247589111e-01 2.574625425040721893e-02
3.037952780723571777e-01 3.417079150676727295e-01 2.253041043877601624e-02
2.945015430450439453e-01 3.158932924270629883e-01 2.932475507259368896e-02
2.905014455318450928e-01 3.270151615142822266e-01 2.635487914085388184e-02
8.841685205698013306e-02 4.061891436576843262e-01 5.614713430404663086e-01
8.376903831958770752e-02 4.205228984355926514e-01 5.647878050804138184e-01
8.715689182281494141e-02 4.012050032615661621e-01 5.637269616127014160e-01
8.250907808542251587e-02 4.155387580394744873e-01 5.670434236526489258e-01
4.145210087299346924e-01 2.711173146963119507e-02 1.365616321563720703e-01
4.030778110027313232e-01 2.774963900446891785e-02 1.273342818021774292e-01
4.122368097305297852e-01 2.950605377554893494e-02 1.529002040624618530e-01
4.005572795867919922e-01 2.939261123538017273e-02 1.424911618232727051e-01
2.084608078002929688e-01 3.140541911125183105e-01 5.637979507446289062e-01
1.990908235311508179e-01 3.247984349727630615e-01 5.648199319839477539e-01
1.924733072519302368e-01 3.059994876384735107e-01 5.616554021835327148e-01
1.837997585535049438e-01 3.176306486129760742e-01 5.636041164398193359e-01
6.147248744964599609e-01 5.414993762969970703e-01 5.015713572502136230e-01
6.157991886138916016e-01 5.524131059646606445e-01 4.970988333225250244e-01
6.132306456565856934e-01 5.426605343818664551e-01 5.140610337257385254e-01
6.153702139854431152e-01 5.543715953826904297e-01 5.073651671409606934e-01
7.251117229461669922e-01 3.179514408111572266e-02 8.179446458816528320e-01
7.141721844673156738e-01 3.180124610662460327e-02 8.092764616012573242e-01
7.265471220016479492e-01 3.109876997768878937e-02 8.322421908378601074e-01
7.151483893394470215e-01 3.134249150753021240e-02 8.244001269340515137e-01
1.438555121421813965e-01 2.655272744596004486e-02 9.198184013366699219e-01
1.277718394994735718e-01 2.887735515832901001e-02 9.098868370056152344e-01
1.344086527824401855e-01 2.391251921653747559e-02 9.343890547752380371e-01
1.185571253299713135e-01 2.844118699431419373e-02 9.247584342956542969e-01
5.508083105087280273e-01 3.907896280288696289e-01 5.740989446640014648e-01
5.419474244117736816e-01 4.053294956684112549e-01 5.743194818496704102e-01
5.412864685058593750e-01 3.805939555168151855e-01 5.723039507865905762e-01
5.313236713409423828e-01 3.942495882511138916e-01 5.729949474334716797e-01
6.151059269905090332e-01 5.702360868453979492e-01 4.124146103858947754e-01
6.127266883850097656e-01 5.809671282768249512e-01 4.037694036960601807e-01
6.173937916755676270e-01 5.696455240249633789e-01 4.273450970649719238e-01
6.153942346572875977e-01 5.803641080856323242e-01 4.192506372928619385e-01
4.527997672557830811e-01 7.316165566444396973e-01 4.094910919666290283e-01
4.384511113166809082e-01 7.292658090591430664e-01 4.042826294898986816e-01
4.547684490680694580e-01 7.373586297035217285e-01 4.249455630779266357e-01
4.387238025665283203e-01 7.347348332405090332e-01 4.171699881553649902e-01
3.383598923683166504e-01 2.878006361424922943e-02 1.497550010681152344e-01
3.229030668735504150e-01 2.912284247577190399e-02 1.389316171407699585e-01
3.380298614501953125e-01 2.958098612725734711e-02 1.660721749067306519e-01
3.213063776493072510e-01 2.968096360564231873e-02 1.557206213474273682e-01
7.641239762306213379e-01 3.121508471667766571e-02 6.717481613159179688e-01
7.536630630493164062e-01 3.182006627321243286e-02 6.646412611007690430e-01
7.614721655845642090e-01 3.373084962368011475e-02 6.843715906143188477e-01
7.514104247093200684e-01 3.419471159577369690e-02 6.776994466781616211e-01
8.039767742156982422e-01 3.400077298283576965e-02 7.161659002304077148e-01
7.959966659545898438e-01 3.461020812392234802e-02 7.141011357307434082e-01
8.022031188011169434e-01 3.641350939869880676e-02 7.273652553558349609e-01
7.937849760055541992e-01 3.715838864445686340e-02 7.247790694236755371e-01
2.897502183914184570e-01 2.374623864889144897e-01 4.211026728153228760e-01
2.800678014755249023e-01 2.392717003822326660e-01 4.140180349349975586e-01
2.881139516830444336e-01 2.379014045000076294e-01 4.322641193866729736e-01
2.782627046108245850e-01 2.397175282239913940e-01 4.252378046512603760e-01
4.510848820209503174e-01 2.446862459182739258e-01 2.765663266181945801e-01
4.362199008464813232e-01 2.461902797222137451e-01 2.707433700561523438e-01
4.385024011135101318e-01 2.418308556079864502e-01 2.913084328174591064e-01
4.264815449714660645e-01 2.442122995853424072e-01 2.865097522735595703e-01
6.181556582450866699e-01 3.420982882380485535e-02 2.803524732589721680e-01
6.062479615211486816e-01 3.032705746591091156e-02 2.666482329368591309e-01
6.143861413002014160e-01 2.868666127324104309e-02 2.969199419021606445e-01
6.046299338340759277e-01 2.505216002464294434e-02 2.830799221992492676e-01
5.032230615615844727e-01 3.896017670631408691e-01 6.621066480875015259e-02
4.995139241218566895e-01 4.064472317695617676e-01 6.279371678829193115e-02
5.101154446601867676e-01 3.901094496250152588e-01 8.013105392456054688e-02
5.064712166786193848e-01 4.052228331565856934e-01 7.511971890926361084e-02
8.216221928596496582e-01 3.640495985746383667e-02 7.443559169769287109e-01
8.151177167892456055e-01 3.671190142631530762e-02 7.387244105339050293e-01
8.265251517295837402e-01 4.044436290860176086e-02 7.574957013130187988e-01
8.191232085227966309e-01 4.117009043693542480e-02 7.521187067031860352e-01
5.763325840234756470e-02 5.689985752105712891e-01 5.408840179443359375e-01
5.826469138264656067e-02 5.857998728752136230e-01 5.425265431404113770e-01
5.386564135551452637e-02 5.617443919181823730e-01 5.472159981727600098e-01
5.373207852244377136e-02 5.785692334175109863e-01 5.486304163932800293e-01
1.641717851161956787e-01 2.715353071689605713e-01 1.873944997787475586e-01
1.611792147159576416e-01 2.817865610122680664e-01 1.815216392278671265e-01
1.603413820266723633e-01 2.718573510646820068e-01 2.062547057867050171e-01
1.578030586242675781e-01 2.819831073284149170e-01 2.012260705232620239e-01
1.418276280164718628e-01 4.503617286682128906e-01 2.968406677246093750e-01
1.421138644218444824e-01 4.631512761116027832e-01 2.943082153797149658e-01
1.363063901662826538e-01 4.489429295063018799e-01 3.098955452442169189e-01
1.364286839962005615e-01 4.609030485153198242e-01 3.077578842639923096e-01
7.525778412818908691e-01 3.146677091717720032e-02 8.559964299201965332e-01
7.427236437797546387e-01 3.288368135690689087e-02 8.495011329650878906e-01
7.575414776802062988e-01 2.859045192599296570e-02 8.678002357482910156e-01
7.470384240150451660e-01 2.974125742912292480e-02 8.622849583625793457e-01
4.716289639472961426e-01 8.178181201219558716e-02 7.294835448265075684e-01
4.601501822471618652e-01 7.938071340322494507e-02 7.197424769401550293e-01
4.707992672920227051e-01 8.074791729450225830e-02 7.446811199188232422e-01
4.584870934486389160e-01 7.878164201974868774e-02 7.347816228866577148e-01
6.171887740492820740e-02 5.760214105248451233e-02 9.244512319564819336e-01
5.448600649833679199e-02 5.780719593167304993e-02 9.157904982566833496e-01
6.479792296886444092e-02 5.313694849610328674e-02 9.373077750205993652e-01
5.544900894165039062e-02 5.316420644521713257e-02 9.293569922447204590e-01
5.607676506042480469e-01 1.461119800806045532e-01 2.774637937545776367e-01
5.482834577560424805e-01 1.482333689928054810e-01 2.743499875068664551e-01
5.577858686447143555e-01 1.454100012779235840e-01 2.904849648475646973e-01
5.449756979942321777e-01 1.478735506534576416e-01 2.873780727386474609e-01
2.527251243591308594e-01 6.435803771018981934e-01 2.331587076187133789e-01
2.362079918384552002e-01 6.434479355812072754e-01 2.291461676359176636e-01
2.477036863565444946e-01 6.477832794189453125e-01 2.523163259029388428e-01
2.313213944435119629e-01 6.475307345390319824e-01 2.488187849521636963e-01
1.653269231319427490e-01 4.858276247978210449e-01 1.747353821992874146e-01
1.690528392791748047e-01 5.033276081085205078e-01 1.682358533143997192e-01
1.612402200698852539e-01 4.834796190261840820e-01 1.954395771026611328e-01
1.656751930713653564e-01 5.015962123870849609e-01 1.875295341014862061e-01
4.235234558582305908e-01 1.434734910726547241e-01 6.037505269050598145e-01
4.081049263477325439e-01 1.511176079511642456e-01 5.980710387229919434e-01
4.133846759796142578e-01 1.352835297584533691e-01 6.127325296401977539e-01
3.982877135276794434e-01 1.435068249702453613e-01 6.074506044387817383e-01
5.938778817653656006e-02 4.342740401625633240e-02 8.697838187217712402e-01
4.901063069701194763e-02 4.318065941333770752e-02 8.582366704940795898e-01
5.754934251308441162e-02 4.269835725426673889e-02 8.880122900009155273e-01
4.975718259811401367e-02 4.462460801005363464e-02 8.751888275146484375e-01
7.791680693626403809e-01 3.746213018894195557e-02 8.002796769142150879e-01
