5.210080000000000267e-01 1.440909999999999969e-01 6.183180000000000343e-01
2.985309999999999908e-01 7.538499999999999368e-02 7.858450000000000157e-01
5.343130000000000379e-01 6.016380000000000061e-01 2.560540000000000038e-01
3.296569999999999778e-01 2.401359999999999884e-01 4.387510000000000021e-01
4.770570000000000088e-01 5.784460000000000157e-01 5.724559999999999649e-01
5.799840000000000551e-01 7.360900000000000221e-01 5.414060000000000539e-01
4.198430000000000217e-01 1.617580000000000129e-01 1.850090000000000068e-01
1.011100000000000054e-01 2.826859999999999928e-01 3.744489999999999763e-01
5.047390000000000487e-01 2.166430000000000022e-01 4.847119999999999762e-01
3.667440000000000144e-01 2.545199999999999893e-02 8.163869999999999738e-01
5.410960000000000214e-01 3.354360000000000119e-01 2.976880000000000082e-01
1.064480000000000010e-01 3.568000000000000338e-02 8.750879999999999770e-01
1.549210000000000031e-01 2.164880000000000138e-01 5.131729999999999903e-01
9.538699999999999957e-02 6.304030000000000467e-01 3.855379999999999918e-01
2.919340000000000268e-01 2.578849999999999754e-01 1.345169999999999977e-01
1.929730000000000056e-01 6.328070000000000084e-01 1.698969999999999925e-01
4.866500000000000270e-01 6.576769999999999561e-01 3.139529999999999821e-01
1.210299999999999987e-01 3.861330000000000040e-01 3.411199999999999788e-01
5.221729999999999983e-01 3.411489999999999800e-01 1.779270000000000018e-01
6.237000000000000322e-01 8.954099999999999560e-02 4.327280000000000015e-01
5.106060000000000043e-01 4.606509999999999772e-01 1.053120000000000028e-01
4.792449999999999766e-01 6.305140000000000189e-01 1.648249999999999993e-01
3.073119999999999741e-01 2.772499999999999964e-02 2.828479999999999883e-01
5.398830000000000018e-01 3.546940000000000093e-01 2.901039999999999730e-01
4.563530000000000086e-01 8.623300000000000409e-02 7.873860000000000303e-01
5.348490000000000189e-01 1.449809999999999988e-01 5.232269999999999976e-01
3.345480000000000120e-01 3.479389999999999983e-01 2.824799999999999880e-02
5.313870000000000537e-01 1.508220000000000116e-01 4.056489999999999818e-01
3.093380000000000019e-01 8.213700000000000168e-02 7.357869999999999688e-01
5.926700000000000024e-02 4.787699999999999734e-01 4.219490000000000185e-01
3.870060000000000167e-01 2.772399999999999864e-02 2.850619999999999821e-01
1.270350000000000090e-01 2.825199999999999934e-02 1.552640000000000131e-01
5.178610000000000158e-01 4.397659999999999902e-01 1.511160000000000003e-01
5.109500000000000153e-01 2.994260000000000255e-01 1.066909999999999942e-01
8.730599999999999472e-02 2.687000000000000152e-02 4.784909999999999997e-01
4.674240000000000061e-01 8.015200000000000102e-02 7.412799999999999945e-02
4.481550000000000256e-01 2.405370000000000008e-01 4.111150000000000082e-01
4.111899999999999999e-01 2.810599999999999904e-02 1.967049999999999910e-01
8.179729999999999501e-01 3.125499999999999806e-02 7.779369999999999896e-01
1.906049999999999967e-01 1.618249999999999966e-01 1.632119999999999960e-01
2.681000000000000050e-01 2.376070000000000126e-01 2.403619999999999923e-01
4.028510000000000146e-01 7.182260000000000311e-01 5.763970000000000482e-01
3.456460000000000088e-01 1.604140000000000010e-01 5.010000000000000009e-01
6.442219999999999613e-01 5.817100000000000048e-02 7.448810000000000153e-01
5.431550000000000544e-01 4.549469999999999903e-01 5.736649999999999805e-01
6.142729999999999579e-01 6.942390000000000505e-01 5.156560000000000032e-01
5.695299999999999668e-02 1.229979999999999962e-01 5.318159999999999554e-01
4.143020000000000036e-01 2.308949999999999891e-01 5.607079999999999842e-01
7.026470000000000216e-01 3.723499999999999727e-02 7.127320000000000322e-01
3.319159999999999888e-01 2.654700000000000115e-02 5.616299999999999626e-01
3.556059999999999777e-01 2.163789999999999880e-01 5.446670000000000122e-01
8.470600000000000351e-01 3.722099999999999714e-02 7.191790000000000127e-01
8.708550000000000457e-01 3.729400000000000076e-02 7.043559999999999821e-01
1.309599999999999931e-01 2.432110000000000105e-01 4.326200000000000045e-01
5.867599999999999899e-02 3.615079999999999960e-01 4.669719999999999982e-01
4.593510000000000093e-01 7.357460000000000111e-01 5.779509999999999925e-01
2.028359999999999885e-01 6.350519999999999499e-01 1.824639999999999873e-01
6.653799999999999992e-02 1.452309999999999990e-01 4.493110000000000159e-01
6.134370000000000100e-01 6.062570000000000459e-01 5.475210000000000354e-01
3.018540000000000112e-01 5.865839999999999943e-01 5.679039999999999644e-01
6.343000000000000027e-02 1.193560000000000038e-01 2.847259999999999791e-01
4.511970000000000147e-01 1.616360000000000019e-01 2.144780000000000020e-01
5.671099999999999752e-02 3.225890000000000146e-01 5.420110000000000205e-01
3.635599999999999943e-01 2.336219999999999963e-01 4.525939999999999963e-01
4.238029999999999853e-01 1.844750000000000001e-01 3.530610000000000137e-01
4.226199999999999957e-01 5.760900000000000049e-02 6.225730000000000430e-01
3.058960000000000012e-01 4.494299999999999684e-02 9.650779999999999914e-01
2.327230000000000132e-01 2.825199999999999934e-02 1.581700000000000050e-01
1.820269999999999944e-01 8.066700000000000259e-02 7.433980000000000032e-01
5.330819999999999448e-01 7.363269999999999538e-01 4.224269999999999969e-01
6.170660000000000034e-01 2.423039999999999916e-01 4.310060000000000002e-01
4.171320000000000028e-01 2.381510000000000016e-01 4.055309999999999748e-01
1.409169999999999867e-01 4.009380000000000166e-01 2.937179999999999791e-01
9.313299999999999357e-02 2.397819999999999951e-01 5.148019999999999818e-01
6.783799999999999553e-02 8.067599999999999771e-02 2.941219999999999946e-01
2.651220000000000243e-01 2.624420000000000086e-01 8.443199999999999317e-02
4.422909999999999897e-01 5.447400000000000159e-02 7.335700000000000554e-02
4.765199999999999991e-02 8.534700000000000619e-02 7.048950000000000493e-01
7.565199999999999703e-02 2.754500000000000004e-02 3.186970000000000081e-01
2.083490000000000064e-01 5.011299999999999782e-02 9.635289999999999688e-01
5.245400000000000063e-01 2.820500000000000090e-02 1.767680000000000085e-01
1.584560000000000135e-01 4.220260000000000122e-01 2.110920000000000019e-01
1.616110000000000047e-01 8.619999999999999885e-02 7.015139999999999709e-01
1.578459999999999863e-01 2.731700000000000100e-02 3.744859999999999856e-01
6.021140000000000381e-01 7.692300000000000526e-02 7.822329999999999561e-01
5.484670000000000378e-01 7.363140000000000240e-01 4.881889999999999841e-01
3.597520000000000162e-01 7.364469999999999628e-01 4.525290000000000146e-01
4.920820000000000194e-01 3.855210000000000026e-01 5.720349999999999602e-01
1.151920000000000027e-01 6.482679999999999554e-01 5.632770000000000277e-01
1.024230000000000002e-01 2.398470000000000046e-01 4.998059999999999725e-01
4.241460000000000230e-01 1.909810000000000119e-01 3.399929999999999897e-01
4.875619999999999954e-01 5.947839999999999794e-01 5.727999999999999758e-01
1.643330000000000068e-01 6.180060000000000553e-01 5.644360000000000488e-01
2.512650000000000161e-01 2.682500000000000162e-02 4.935050000000000270e-01
6.129250000000000531e-01 4.586359999999999881e-01 5.669999999999999485e-01
1.697559999999999902e-01 2.641999999999999904e-02 5.872720000000000162e-01
5.692949999999999955e-01 2.862800000000000067e-02 7.932200000000000362e-02
2.145380000000000065e-01 6.607210000000000027e-01 5.659309999999999619e-01
1.561099999999999988e-01 1.466290000000000093e-01 1.238879999999999981e-01
3.490610000000000102e-01 1.973880000000000079e-01 4.045880000000000032e-01
2.531019999999999937e-01 2.838399999999999951e-02 1.279579999999999884e-01
6.028229999999999977e-01 8.207899999999999918e-02 8.399980000000000224e-01
5.794040000000000301e-01 2.594609999999999972e-01 3.902419999999999778e-01
4.915379999999999749e-01 2.904680000000000040e-01 5.768849999999999811e-01
9.007199999999999929e-02 8.123500000000000165e-02 8.410189999999999610e-01
4.070119999999999849e-01 6.230879999999999752e-01 5.708109999999999573e-01
5.856069999999999887e-01 4.604199999999999959e-02 6.267840000000000078e-01
3.360969999999999791e-01 2.573999999999999899e-02 7.504079999999999639e-01
2.761469999999999758e-01 7.358019999999999561e-01 3.949810000000000265e-01
6.219029999999999836e-01 7.845399999999999596e-02 5.014349999999999641e-01
5.761450000000000182e-01 7.962700000000000333e-02 8.657080000000000330e-01
7.144810000000000327e-01 3.738699999999999662e-02 6.782960000000000100e-01
6.133659999999999668e-01 3.115290000000000004e-01 5.504229999999999956e-01
5.179340000000000055e-01 2.493849999999999956e-01 2.326989999999999892e-01
5.095570000000000377e-01 3.443120000000000069e-01 9.809800000000000464e-02
3.371819999999999817e-01 2.333449999999999969e-01 4.519029999999999991e-01
2.439469999999999972e-01 4.138939999999999841e-01 2.616100000000000023e-02
4.241269999999999762e-01 1.677269999999999872e-01 3.405079999999999774e-01
1.214810000000000056e-01 3.954119999999999857e-01 3.403919999999999724e-01
5.985999999999999654e-02 6.261010000000000186e-01 3.995580000000000243e-01
4.143999999999999906e-01 5.733080000000000398e-01 5.707940000000000236e-01
3.203520000000000256e-01 7.469599999999999851e-02 6.199670000000000458e-01
2.389799999999999980e-01 2.752900000000000139e-02 3.267720000000000069e-01
1.929520000000000124e-01 3.912729999999999819e-01 5.722900000000000209e-02
8.257910000000000528e-01 3.636600000000000249e-02 8.901879999999999793e-01
3.071380000000000221e-01 5.148749999999999716e-01 5.677389999999999937e-01
4.894519999999999982e-01 5.210479999999999556e-01 5.725390000000000201e-01
6.353699999999999626e-02 3.637650000000000050e-01 4.313629999999999964e-01
1.956589999999999996e-01 3.699879999999999836e-01 5.642089999999999606e-01
7.377599999999999436e-02 4.784299999999999664e-02 1.675449999999999995e-01
6.036749999999999616e-01 6.919459999999999500e-01 5.815390000000000281e-01
1.061990000000000017e-01 7.342969999999999775e-01 4.271150000000000224e-01
3.519399999999999751e-01 1.466590000000000116e-01 1.220939999999999942e-01
5.371949999999999781e-01 5.199499999999999955e-02 9.662889999999999535e-01
4.378190000000000137e-01 2.703130000000000255e-01 5.889300000000000090e-02
4.515719999999999734e-01 6.409629999999999495e-01 2.213950000000000085e-01
7.120400000000000340e-02 3.799759999999999804e-01 3.970279999999999920e-01
5.189989999999999881e-01 3.520179999999999976e-01 1.578869999999999996e-01
1.536899999999999933e-01 5.910800000000000498e-01 2.341810000000000003e-01
5.639619999999999633e-01 1.448290000000000133e-01 5.601129999999999720e-01
6.193159999999999776e-01 1.320739999999999970e-01 2.259369999999999989e-01
2.791730000000000045e-01 8.211100000000000343e-02 6.149959999999999871e-01
6.540200000000000180e-02 9.653699999999999781e-02 2.091709999999999958e-01
2.776210000000000067e-01 7.914000000000000201e-02 8.265919999999999934e-01
4.235700000000000021e-01 1.838100000000000012e-01 3.619490000000000207e-01
3.935429999999999762e-01 2.830600000000000130e-02 1.497070000000000067e-01
5.473259999999999792e-01 7.061599999999999822e-02 7.111020000000000119e-01
2.842020000000000102e-01 1.790660000000000029e-01 2.418649999999999967e-01
3.735809999999999964e-01 8.465799999999999714e-02 7.185880000000000045e-01
2.124959999999999904e-01 1.607550000000000090e-01 4.168649999999999856e-01
3.432089999999999863e-01 2.668299999999999839e-02 5.296020000000000172e-01
5.826449999999999685e-01 1.456089999999999884e-01 3.778739999999999877e-01
2.770889999999999742e-01 3.003100000000000214e-01 2.654499999999999915e-02
1.764880000000000060e-01 2.406240000000000046e-01 3.797369999999999912e-01
3.578879999999999839e-01 6.399399999999999533e-01 2.133240000000000136e-01
5.935859999999999470e-01 8.322300000000000531e-02 8.393659999999999455e-01
8.586920000000000108e-01 3.736899999999999944e-02 6.852190000000000225e-01
4.729110000000000258e-01 6.634320000000000217e-01 3.314019999999999744e-01
4.476249999999999951e-01 6.523879999999999679e-01 2.839349999999999929e-01
4.158999999999999919e-01 6.763500000000000068e-01 5.765470000000000317e-01
6.346599999999999464e-02 9.614399999999999336e-02 2.833169999999999855e-01
3.129210000000000047e-01 2.570800000000000168e-02 7.564490000000000380e-01
5.931800000000000267e-02 7.201400000000000023e-01 4.202759999999999829e-01
1.792140000000000122e-01 1.468349999999999933e-01 7.730099999999999472e-02
2.492250000000000021e-01 2.618210000000000259e-01 9.074599999999999334e-02
8.208799999999999430e-02 4.159299999999999803e-02 8.336189999999999989e-01
1.758589999999999876e-01 3.144319999999999893e-01 1.287200000000000011e-01
3.159589999999999899e-01 2.856699999999999864e-02 8.697499999999999676e-02
8.935779999999999834e-01 3.655699999999999922e-02 8.782830000000000359e-01
3.528140000000000165e-01 2.404749999999999943e-01 4.211380000000000123e-01
4.909410000000000163e-01 2.316640000000000088e-01 5.715440000000000520e-01
6.254929999999999657e-01 5.571500000000000064e-02 3.639939999999999842e-01
1.664339999999999986e-01 2.164300000000000113e-01 5.273870000000000502e-01
4.596540000000000070e-01 1.612699999999999967e-01 3.017580000000000262e-01
1.662609999999999921e-01 3.500159999999999938e-01 1.740730000000000055e-01
5.804949999999999832e-01 4.480499999999999761e-02 8.282319999999999682e-01
6.286270000000000469e-01 9.036900000000000488e-02 2.442459999999999909e-01
1.937639999999999918e-01 8.199099999999999444e-02 6.696699999999999875e-02
5.391789999999999639e-01 4.939400000000000041e-02 7.587299999999999600e-02
1.136179999999999968e-01 5.446999999999999759e-02 6.129750000000000476e-01
4.857589999999999963e-01 3.467029999999999834e-01 4.253099999999999936e-02
3.727010000000000045e-01 7.361079999999999846e-01 5.303809999999999913e-01
3.677469999999999906e-01 6.573809999999999931e-01 3.092190000000000216e-01
5.514879999999999782e-01 2.774300000000000030e-02 2.850110000000000143e-01
3.652259999999999951e-01 2.401689999999999936e-01 4.041299999999999892e-01
4.341400000000000120e-02 6.930100000000000149e-02 8.244369999999999754e-01
4.129200000000000093e-01 2.789700000000000166e-02 2.456210000000000060e-01
1.628380000000000105e-01 2.634500000000000036e-02 6.049480000000000413e-01
4.682660000000000156e-01 8.740100000000000646e-02 7.790169999999999595e-01
4.199559999999999960e-01 2.563639999999999808e-01 1.543640000000000012e-01
3.042440000000000144e-01 1.468559999999999865e-01 7.562699999999999978e-02
3.354800000000000143e-02 6.245499999999999663e-02 8.751569999999999627e-01
4.545799999999999841e-01 2.730600000000000041e-02 3.849899999999999989e-01
4.803899999999999837e-01 6.510369999999999768e-01 2.773840000000000194e-01
2.292470000000000063e-01 7.334490000000000176e-01 5.719130000000000047e-01
5.451519999999999699e-01 2.707000000000000031e-02 4.431069999999999731e-01
5.446919999999999540e-01 4.212589999999999946e-01 3.208730000000000193e-01
6.170879999999999699e-01 1.322699999999999987e-01 3.110120000000000107e-01
8.703099999999999725e-02 6.373450000000000504e-01 5.677769999999999762e-01
1.138070000000000054e-01 2.816700000000000106e-02 1.749300000000000022e-01
1.864180000000000004e-01 2.691599999999999895e-02 4.702439999999999953e-01
2.694989999999999886e-01 2.833199999999999955e-02 1.404650000000000065e-01
9.365999999999999326e-02 4.274900000000000228e-02 8.205409999999999648e-01
4.427269999999999817e-01 4.607100000000000084e-02 9.688759999999999595e-01
1.578720000000000123e-01 4.005540000000000211e-01 2.137749999999999928e-01
6.300600000000000644e-02 1.032140000000000002e-01 3.009660000000000113e-01
5.500990000000000046e-01 1.450970000000000037e-01 4.967750000000000221e-01
5.608790000000000164e-01 3.908099999999999768e-02 7.639700000000000657e-02
1.418600000000000139e-01 1.457070000000000032e-01 3.401870000000000172e-01
5.613900000000000140e-02 7.531100000000000294e-02 5.631099999999999994e-01
2.667950000000000044e-01 8.519699999999999496e-02 7.117790000000000505e-01
5.105939999999999923e-01 6.167749999999999622e-01 1.060180000000000011e-01
8.687899999999999789e-02 4.919700000000000184e-01 3.979110000000000147e-01
3.737329999999999819e-01 2.743599999999999858e-02 7.367240000000000455e-01
3.753119999999999790e-01 1.002959999999999963e-01 6.143159999999999732e-01
8.447289999999999521e-01 3.667999999999999733e-02 8.473119999999999541e-01
4.105539999999999745e-01 7.328459999999999974e-01 3.873590000000000089e-01
5.266880000000000450e-01 3.187869999999999870e-01 2.063979999999999981e-01
1.799399999999999888e-01 5.136389999999999567e-01 5.644040000000000168e-01
2.069960000000000133e-01 2.785699999999999982e-02 2.494589999999999863e-01
5.303430000000000089e-01 1.474560000000000037e-01 4.458030000000000048e-01
5.899599999999999983e-02 1.275679999999999870e-01 4.538420000000000232e-01
1.454280000000000017e-01 5.945240000000000524e-01 2.731410000000000227e-01
3.732480000000000242e-01 2.395680000000000032e-01 5.717010000000000147e-01
5.051949999999999497e-01 2.442219999999999946e-01 3.184870000000000201e-01
1.570209999999999939e-01 1.609339999999999937e-01 3.728960000000000052e-01
5.365370000000000417e-01 1.454340000000000077e-01 4.157060000000000199e-01
5.585269999999999957e-01 2.579599999999999949e-02 7.434190000000000520e-01
1.496339999999999892e-01 9.392599999999999560e-02 6.586400000000000587e-02
1.671590000000000020e-01 6.969880000000000519e-01 3.810660000000000158e-01
3.232900000000000218e-01 8.012900000000000578e-02 8.553629999999999844e-01
3.813810000000000255e-01 2.537800000000000125e-02 8.345489999999999853e-01
5.590669999999999806e-01 8.106299999999999617e-02 8.545589999999999575e-01
4.755670000000000175e-01 8.329300000000000592e-02 8.357599999999999474e-01
5.557569999999999455e-01 2.543799999999999881e-02 8.283129999999999660e-01
5.624200000000000310e-01 6.303999999999999604e-01 5.801929999999999588e-01
2.836029999999999940e-01 2.554500000000000173e-02 7.921799999999999953e-01
5.851920000000000455e-01 3.238079999999999847e-01 4.016159999999999730e-01
5.141360000000000374e-01 3.759060000000000179e-01 1.272250000000000048e-01
6.147719999999999851e-01 6.423159999999999981e-01 4.965410000000000101e-01
8.647660000000000347e-01 3.080000000000000099e-02 8.864520000000000177e-01
6.151320000000000121e-01 5.753639999999999866e-01 4.826869999999999772e-01
2.062539999999999929e-01 3.377600000000000047e-02 9.558370000000000477e-01
1.522070000000000090e-01 7.360640000000000516e-01 5.356560000000000210e-01
2.864010000000000167e-01 2.550099999999999936e-02 8.021949999999999914e-01
9.751700000000000645e-02 1.459969999999999879e-01 2.712030000000000274e-01
3.027159999999999851e-01 2.087829999999999964e-01 2.417980000000000129e-01
2.495549999999999990e-01 7.269259999999999611e-01 4.020969999999999822e-01
2.131589999999999874e-01 2.512360000000000149e-01 2.045279999999999876e-01
4.371959999999999735e-01 1.430019999999999902e-01 6.161219999999999475e-01
3.017009999999999970e-01 6.662320000000000464e-01 5.704609999999999959e-01
4.006719999999999726e-01 2.793700000000000003e-02 2.358429999999999971e-01
6.188160000000000327e-01 4.162199999999999928e-02 6.193680000000000296e-01
5.659290000000000154e-01 3.729489999999999750e-01 3.649279999999999746e-01
2.153430000000000066e-01 6.139409999999999590e-01 6.703399999999999637e-02
3.050700000000000078e-01 2.727699999999999916e-02 3.878460000000000241e-01
1.894540000000000113e-01 3.301470000000000238e-01 6.470599999999999963e-02
1.827860000000000040e-01 3.965929999999999733e-01 9.635299999999999421e-02
2.646910000000000096e-01 3.209980000000000055e-01 2.630899999999999905e-02
2.652320000000000233e-01 1.615399999999999892e-01 2.322710000000000052e-01
6.138109999999999955e-01 6.194819999999999771e-01 5.332580000000000098e-01
1.594740000000000046e-01 5.507649999999999491e-01 2.067660000000000053e-01
3.717900000000000094e-01 1.696590000000000042e-01 2.443319999999999936e-01
3.410639999999999783e-01 6.313499999999999668e-01 1.657770000000000077e-01
3.020120000000000027e-01 5.265600000000000142e-02 6.967800000000000382e-02
5.700039999999999552e-01 8.025599999999999401e-02 8.608569999999999833e-01
5.504839999999999733e-01 3.204400000000000026e-01 3.351040000000000130e-01
5.639349999999999641e-01 4.304800000000000293e-02 8.274329999999999741e-01
6.135800000000000143e-01 3.199119999999999742e-01 5.422360000000000513e-01
2.553360000000000074e-01 2.332239999999999869e-01 3.922160000000000091e-01
5.812110000000000332e-01 4.241010000000000058e-01 3.944349999999999801e-01
1.641120000000000079e-01 4.804200000000000137e-01 1.846389999999999976e-01
5.334299999999999597e-01 3.326879999999999837e-01 5.728950000000000431e-01
5.678010000000000002e-01 2.797300000000000134e-02 2.319720000000000115e-01
2.903120000000000145e-01 6.584910000000000485e-01 3.132719999999999949e-01
5.950729999999999631e-01 1.455400000000000027e-01 3.953510000000000080e-01
3.509660000000000002e-01 1.322309999999999874e-01 7.130000000000000226e-02
2.572189999999999754e-01 1.852699999999999902e-01 3.203300000000000036e-01
1.241970000000000018e-01 2.397950000000000081e-01 5.125359999999999916e-01
6.144530000000000269e-01 6.225699999999999568e-01 5.086960000000000370e-01
3.089279999999999804e-01 1.616670000000000051e-01 2.035289999999999877e-01
4.370809999999999973e-01 2.515699999999999881e-02 8.903290000000000370e-01
4.125920000000000143e-01 2.602410000000000001e-01 1.121459999999999957e-01
8.617219999999999880e-01 3.082899999999999877e-02 8.794370000000000243e-01
3.933010000000000117e-01 3.418720000000000092e-01 5.692650000000000210e-01
1.556919999999999971e-01 6.072000000000000314e-02 7.008039999999999825e-01
2.179419999999999968e-01 5.361099999999999755e-01 2.751599999999999879e-02
4.729419999999999735e-01 6.654430000000000067e-01 5.743669999999999609e-01
1.847209999999999963e-01 6.322290000000000409e-01 1.665129999999999943e-01
3.258869999999999822e-01 6.283330000000000304e-01 1.488389999999999991e-01
1.922149999999999970e-01 4.803250000000000020e-01 5.848300000000000026e-02
7.755900000000000294e-02 2.455050000000000010e-01 4.300140000000000073e-01
7.060910000000000242e-01 3.099000000000000019e-02 8.375070000000000014e-01
3.430420000000000136e-01 4.045349999999999779e-01 5.682129999999999681e-01
1.514739999999999975e-01 2.165150000000000130e-01 5.065169999999999950e-01
3.482129999999999947e-01 2.634360000000000035e-01 7.582899999999999363e-02
5.877620000000000067e-01 5.577900000000000219e-02 7.290769999999999751e-01
5.323639999999999484e-01 5.926499999999999824e-02 7.123549999999999605e-01
5.550169999999999826e-01 4.409279999999999866e-01 3.443229999999999902e-01
1.272330000000000128e-01 5.013579999999999703e-01 3.310750000000000082e-01
2.449510000000000021e-01 1.466290000000000093e-01 1.261140000000000039e-01
4.703999999999999848e-02 8.392800000000000260e-02 7.154779999999999474e-01
5.694400000000000156e-02 6.996769999999999934e-01 5.329120000000000523e-01
5.009470000000000312e-01 2.670499999999999957e-02 5.285509999999999931e-01
1.455549999999999899e-01 5.997609999999999886e-01 2.725629999999999997e-01
1.583140000000000103e-01 5.102980000000000294e-01 2.120829999999999937e-01
1.518839999999999912e-01 2.783450000000000091e-01 5.679429999999999756e-01
2.890659999999999896e-01 4.660779999999999923e-01 5.670600000000000085e-01
2.462959999999999872e-01 4.181399999999999700e-02 7.240499999999999714e-01
5.501200000000000534e-01 3.077139999999999875e-01 3.343490000000000073e-01
2.825449999999999906e-01 3.105140000000000122e-01 2.673100000000000129e-02
5.957010000000000360e-01 4.561500000000000277e-02 8.358179999999999499e-01
2.858580000000000010e-01 7.360299999999999621e-01 5.470819999999999572e-01
1.509310000000000096e-01 5.808510000000000062e-01 2.471490000000000076e-01
4.095230000000000259e-01 6.631639999999999757e-01 3.248260000000000036e-01
2.637309999999999932e-01 6.545609999999999484e-01 2.910300000000000109e-01
4.092089999999999894e-01 2.167389999999999872e-01 4.057640000000000136e-01
5.263870000000000493e-01 3.789759999999999796e-01 2.047760000000000136e-01
1.066249999999999976e-01 5.239840000000000053e-01 3.660709999999999797e-01
4.411100000000000021e-01 5.458600000000000257e-02 9.443629999999999525e-01
6.171619999999999884e-01 1.058380000000000015e-01 3.224989999999999801e-01
1.979630000000000001e-01 1.615330000000000099e-01 2.323620000000000130e-01
6.262889999999999846e-01 9.852600000000000247e-02 3.337450000000000139e-01
5.870500000000000024e-02 3.071710000000000274e-01 4.658030000000000226e-01
1.135520000000000002e-01 3.717590000000000061e-01 3.537290000000000156e-01
2.944539999999999935e-01 7.864300000000000457e-02 8.656719999999999970e-01
1.886140000000000039e-01 6.359160000000000368e-01 1.868309999999999971e-01
3.065760000000000152e-01 7.071900000000000408e-02 9.250829999999999886e-01
3.015169999999999795e-01 1.616009999999999946e-01 2.189639999999999920e-01
1.003369999999999956e-01 1.451590000000000102e-01 4.663410000000000055e-01
8.057530000000000525e-01 3.101200000000000137e-02 8.350079999999999725e-01
4.693100000000000049e-01 1.606710000000000083e-01 4.435910000000000131e-01
5.049139999999999739e-01 2.548909999999999787e-01 1.726389999999999869e-01
2.181659999999999988e-01 2.406089999999999895e-01 3.842269999999999852e-01
2.794490000000000030e-01 6.620219999999999994e-01 3.208790000000000253e-01
3.688400000000000012e-01 3.947089999999999765e-01 2.934200000000000003e-02
2.735690000000000066e-01 2.442010000000000014e-01 4.304049999999999820e-01
1.533380000000000021e-01 4.614679999999999893e-01 2.353669999999999929e-01
1.358449999999999935e-01 1.461129999999999929e-01 2.449590000000000101e-01
7.329970000000000097e-01 3.696699999999999986e-02 7.762700000000000156e-01
4.928009999999999891e-01 5.439399999999999791e-01 5.727229999999999821e-01
5.320669999999999566e-01 5.012219999999999454e-01 2.413279999999999870e-01
2.921420000000000128e-01 7.217500000000000304e-02 8.094679999999999653e-01
3.685339999999999727e-01 3.311540000000000039e-01 2.906500000000000056e-02
5.616830000000000434e-01 2.750899999999999873e-02 3.398419999999999774e-01
1.715369999999999950e-01 1.268360000000000043e-01 6.090980000000000283e-01
1.712609999999999966e-01 3.784179999999999766e-01 5.636060000000000514e-01
1.621440000000000103e-01 1.608199999999999907e-01 4.000190000000000135e-01
5.963600000000000151e-02 3.166229999999999878e-01 4.081870000000000220e-01
3.906589999999999785e-01 8.793900000000000328e-02 7.729869999999999797e-01
3.855000000000000093e-01 4.846360000000000112e-01 5.696630000000000305e-01
6.871450000000000058e-01 3.135199999999999793e-02 7.514739999999999753e-01
4.261630000000000140e-01 2.502899999999999917e-02 9.218859999999999832e-01
2.155219999999999914e-01 2.797399999999999887e-02 2.224780000000000091e-01
2.366320000000000090e-01 1.447100000000000053e-01 5.783350000000000435e-01
5.689899999999999819e-02 5.726550000000000251e-01 5.348500000000000476e-01
9.060899999999999510e-02 4.581000000000000072e-01 5.671070000000000277e-01
6.447990000000000110e-01 7.126799999999999802e-02 7.228879999999999750e-01
5.885699999999999960e-02 8.481500000000000150e-02 4.593740000000000046e-01
2.738670000000000271e-01 8.112500000000000266e-02 8.271929999999999561e-01
2.328250000000000042e-01 2.662300000000000083e-02 5.408420000000000449e-01
2.374890000000000057e-01 2.548500000000000071e-02 8.046339999999999604e-01
8.129920000000000480e-01 7.216699999999999504e-02 7.740700000000000358e-01
8.117849999999999788e-01 3.138200000000000017e-02 7.476990000000000025e-01
4.877079999999999749e-01 5.817799999999999638e-01 5.727489999999999526e-01
5.755699999999999705e-02 4.467019999999999880e-01 5.098289999999999766e-01
4.881829999999999781e-01 4.773879999999999790e-01 5.723209999999999686e-01
6.001699999999999813e-01 1.368429999999999924e-01 7.785200000000000453e-02
6.210369999999999502e-01 5.770600000000000035e-02 7.250140000000000473e-01
2.190229999999999955e-01 1.610790000000000000e-01 3.400670000000000082e-01
1.020210000000000006e-01 7.359430000000000138e-01 5.631589999999999652e-01
5.953699999999999964e-02 4.990700000000000136e-01 4.334640000000000160e-01
1.438300000000000134e-01 1.567199999999999982e-01 4.895559999999999912e-01
3.871640000000000081e-01 8.792800000000000615e-02 7.729740000000000499e-01
1.717879999999999963e-01 2.461430000000000007e-01 2.586379999999999790e-01
5.243489999999999540e-01 2.793700000000000003e-02 2.390740000000000087e-01
5.226680000000000215e-01 3.727860000000000062e-01 1.812050000000000050e-01
3.857619999999999938e-01 2.640779999999999794e-01 6.984700000000000630e-02
5.257060000000000066e-01 2.325149999999999995e-01 4.817589999999999928e-01
6.176300000000000123e-01 1.325340000000000129e-01 2.903100000000000125e-01
7.164469999999999450e-01 3.741799999999999987e-02 6.702249999999999597e-01
5.627200000000000257e-02 2.820980000000000154e-01 5.587569999999999482e-01
5.780099999999999821e-02 6.322280000000000122e-01 5.002619999999999845e-01
1.263660000000000061e-01 8.317499999999999893e-02 7.645669999999999966e-01
6.262539999999999774e-01 8.718800000000000161e-02 3.350159999999999805e-01
1.615910000000000124e-01 3.793529999999999958e-01 1.961789999999999923e-01
5.010679999999999579e-01 5.029479999999999507e-01 5.727659999999999973e-01
5.565360000000000307e-01 1.449219999999999953e-01 5.379810000000000425e-01
2.008929999999999882e-01 2.941210000000000213e-01 5.692899999999999627e-01
4.532959999999999767e-01 1.614949999999999997e-01 2.480120000000000102e-01
5.704479999999999551e-01 6.756339999999999568e-01 5.805970000000000297e-01
6.169750000000000512e-01 5.954810000000000381e-01 4.344109999999999916e-01
5.363259999999999694e-01 2.509400000000000172e-02 9.091639999999999722e-01
1.307999999999999996e-01 1.446739999999999970e-01 5.822220000000000173e-01
5.931000000000000161e-02 5.455569999999999586e-01 4.422840000000000105e-01
4.228089999999999904e-01 7.363119999999999665e-01 4.845860000000000167e-01
2.326030000000000042e-01 1.449969999999999870e-01 5.086509999999999643e-01
5.597849999999999770e-01 1.449560000000000015e-01 5.303039999999999976e-01
5.376250000000000195e-01 1.492030000000000023e-01 1.656839999999999979e-01
1.206689999999999985e-01 2.819899999999999837e-02 1.675750000000000017e-01
6.943599999999999772e-02 3.312829999999999941e-01 3.967740000000000156e-01
3.791080000000000005e-01 2.678399999999999878e-02 5.066699999999999537e-01
7.639040000000000274e-01 3.720600000000000296e-02 7.201629999999999976e-01
3.933960000000000234e-01 1.448470000000000035e-01 5.514639999999999542e-01
5.936199999999999810e-02 4.331949999999999967e-01 4.403329999999999744e-01
2.594409999999999772e-01 1.607439999999999980e-01 4.209069999999999756e-01
4.789809999999999901e-01 1.446060000000000123e-01 6.111440000000000206e-01
9.047140000000000182e-01 3.499200000000000227e-02 8.694629999999999859e-01
2.439479999999999982e-01 2.576000000000000165e-02 7.415890000000000537e-01
1.888460000000000139e-01 5.233980000000000299e-01 6.823400000000000298e-02
3.073330000000000228e-01 2.557200000000000098e-02 7.870409999999999906e-01
4.271329999999999849e-01 2.404650000000000121e-01 4.257589999999999986e-01
5.797100000000000170e-02 4.119619999999999949e-01 4.939779999999999727e-01
6.160120000000000040e-01 4.242400000000000060e-01 4.490819999999999812e-01
5.976110000000000033e-01 2.659900000000000111e-02 5.561160000000000547e-01
5.128230000000000288e-01 5.112149999999999750e-01 1.195890000000000009e-01
5.636600000000000499e-01 4.032700000000000173e-02 7.431649999999999645e-01
1.418059999999999876e-01 4.262119999999999798e-01 5.630370000000000097e-01
4.031649999999999956e-01 8.463700000000000390e-02 7.195150000000000157e-01
3.459309999999999885e-01 3.463559999999999972e-01 5.680429999999999646e-01
2.731790000000000052e-01 2.759199999999999847e-02 3.128219999999999890e-01
3.582969999999999766e-01 2.542600000000000068e-02 8.219370000000000287e-01
6.019599999999999951e-02 5.545149999999999801e-01 5.667280000000000095e-01
6.126789999999999736e-01 3.441620000000000235e-01 5.766379999999999839e-01
3.160069999999999824e-01 7.361370000000000413e-01 5.219230000000000258e-01
6.131450000000000511e-01 3.357660000000000089e-01 5.588140000000000329e-01
3.025070000000000259e-01 3.047000000000000056e-02 6.960099999999999620e-02
7.515929999999999556e-01 3.144999999999999879e-02 7.301349999999999785e-01
3.189879999999999938e-01 1.968669999999999864e-01 4.038109999999999755e-01
5.675059999999999549e-01 7.361410000000000453e-01 5.290240000000000498e-01
7.240800000000000014e-02 7.876800000000000468e-02 3.579019999999999979e-01
2.272770000000000068e-01 1.467590000000000006e-01 9.589000000000000301e-02
8.292519999999999891e-01 3.991499999999999909e-02 7.325669999999999682e-01
2.040530000000000121e-01 1.605479999999999963e-01 4.656210000000000071e-01
4.236929999999999863e-01 1.696340000000000070e-01 3.571320000000000050e-01
1.143789999999999946e-01 2.641500000000000098e-02 5.870889999999999720e-01
1.724710000000000132e-01 8.285700000000000010e-02 7.267940000000000511e-01
7.883099999999999552e-01 5.415400000000000075e-02 7.544790000000000108e-01
4.277270000000000238e-01 1.609659999999999980e-01 3.726949999999999985e-01
8.148480000000000167e-01 3.540100000000000191e-02 8.898979999999999668e-01
5.519030000000000324e-01 3.781300000000000217e-01 3.380770000000000164e-01
3.460820000000000007e-01 4.496060000000000056e-01 5.684829999999999606e-01
8.366500000000000326e-02 7.101239999999999775e-01 5.679939999999999989e-01
1.607220000000000037e-01 2.687300000000000105e-02 4.797409999999999730e-01
4.559320000000000039e-01 6.147010000000000529e-01 7.749799999999999744e-02
1.294039999999999913e-01 5.556200000000000028e-02 7.114059999999999828e-01
3.359150000000000191e-01 8.317399999999999793e-02 8.330159999999999787e-01
1.326209999999999889e-01 1.456189999999999984e-01 3.610880000000000201e-01
3.009260000000000268e-01 1.616460000000000119e-01 2.081860000000000099e-01
9.152000000000000413e-02 7.363619999999999610e-01 4.030869999999999731e-01
5.255199999999999871e-01 2.655790000000000095e-01 5.776700000000000168e-01
2.722260000000000235e-01 7.027010000000000201e-01 5.729009999999999936e-01
6.110330000000000483e-01 3.998120000000000007e-01 4.421280000000000210e-01
6.924700000000000299e-02 7.216500000000000692e-02 3.405659999999999799e-01
3.859330000000000260e-01 2.405160000000000076e-01 4.119389999999999996e-01
1.031200000000000033e-01 1.458990000000000009e-01 2.943350000000000133e-01
4.261210000000000275e-01 3.177100000000000063e-02 9.480720000000000258e-01
7.436000000000000387e-01 3.660299999999999665e-02 8.630370000000000541e-01
4.403409999999999824e-01 9.740200000000000247e-02 7.349400000000000377e-02
4.597019999999999995e-01 5.020449999999999635e-01 3.217099999999999821e-02
1.854840000000000100e-01 3.827550000000000119e-01 8.359199999999999964e-02
2.568920000000000092e-01 2.502010000000000067e-01 5.705770000000000008e-01
4.808049999999999824e-01 6.535539999999999683e-01 5.728720000000000478e-01
3.927080000000000015e-01 7.061599999999999822e-02 8.237799999999999567e-01
5.313440000000000385e-01 2.998100000000000209e-01 5.779670000000000085e-01
2.925490000000000035e-01 1.605520000000000003e-01 4.670940000000000092e-01
3.363289999999999891e-01 2.794200000000000156e-02 2.330959999999999976e-01
5.328530000000000211e-01 7.021410000000000151e-01 5.797280000000000211e-01
6.252480000000000260e-01 8.340899999999999703e-02 3.734870000000000134e-01
1.713119999999999921e-01 8.137500000000000289e-02 7.378240000000000354e-01
4.136650000000000049e-01 1.940910000000000135e-01 2.449709999999999943e-01
6.160430000000000073e-01 7.160539999999999683e-01 4.480500000000000038e-01
6.338129999999999598e-01 6.949199999999999822e-02 7.133620000000000516e-01
5.798640000000000461e-01 3.066389999999999949e-01 5.792680000000000051e-01
5.883140000000000036e-01 2.786699999999999941e-02 2.570169999999999955e-01
5.267300000000000315e-01 2.501199999999999951e-02 9.287760000000000460e-01
4.524529999999999941e-01 2.165650000000000075e-01 5.022400000000000198e-01
2.633869999999999822e-01 4.151400000000000229e-02 6.862200000000000244e-02
6.318350000000000355e-01 1.087889999999999968e-01 1.216320000000000040e-01
2.534290000000000154e-01 5.370899999999999563e-01 5.664270000000000138e-01
3.321040000000000103e-01 5.579290000000000083e-01 5.685750000000000526e-01
4.923310000000000186e-01 5.968740000000000157e-01 5.729340000000000543e-01
4.745860000000000078e-01 6.411900000000000377e-01 2.232399999999999940e-01
7.588329999999999798e-01 3.670199999999999851e-02 8.398529999999999607e-01
8.721299999999999886e-02 4.568699999999999845e-02 7.982139999999999791e-01
1.092400000000000038e-01 2.398730000000000029e-01 4.939930000000000154e-01
9.121899999999999453e-02 3.756869999999999932e-01 3.915730000000000044e-01
3.951009999999999800e-01 1.616249999999999909e-01 2.157149999999999901e-01
5.262320000000000331e-01 5.351059999999999706e-01 2.045690000000000008e-01
4.539619999999999767e-01 2.498370000000000035e-01 2.260369999999999879e-01
8.906140000000000168e-01 3.654799999999999716e-02 8.802309999999999857e-01
4.824890000000000012e-01 6.321400000000000352e-01 1.738230000000000053e-01
4.919640000000000124e-01 3.285879999999999912e-01 5.083499999999999824e-02
4.788689999999999891e-01 6.954860000000000486e-01 5.782869999999999955e-01
5.372510000000000341e-01 3.280999999999999889e-02 9.579919999999999547e-01
5.269530000000000047e-01 2.564870000000000205e-01 2.077849999999999975e-01
3.468870000000000009e-01 2.781199999999999992e-02 2.635770000000000057e-01
3.860509999999999775e-01 5.912969999999999615e-01 3.829599999999999671e-02
1.774679999999999869e-01 4.593869999999999898e-01 5.641100000000000003e-01
2.823189999999999866e-01 5.589239999999999764e-01 5.672749999999999737e-01
8.622900000000000009e-02 3.712250000000000272e-01 5.666219999999999590e-01
6.264920000000000488e-01 1.088380000000000042e-01 1.831629999999999925e-01
4.260490000000000110e-01 1.795849999999999946e-01 2.670469999999999788e-01
4.902110000000000078e-01 2.845840000000000036e-01 4.827599999999999947e-02
3.763659999999999783e-01 5.783150000000000235e-01 5.698199999999999932e-01
4.843520000000000048e-01 7.065000000000000446e-02 8.896389999999999576e-01
4.847150000000000070e-01 2.798399999999999846e-02 2.271029999999999993e-01
4.997260000000000035e-01 1.611339999999999995e-01 3.346990000000000243e-01
7.471240000000000103e-01 3.690899999999999737e-02 7.900970000000000493e-01
4.103299999999999725e-01 5.686499999999999888e-01 5.706679999999999531e-01
6.148500000000000076e-01 6.064260000000000206e-01 4.935089999999999755e-01
3.849969999999999781e-01 1.615489999999999982e-01 2.333109999999999906e-01
1.633489999999999942e-01 2.420249999999999901e-01 3.079640000000000155e-01
2.204939999999999956e-01 2.632999999999999924e-02 6.100029999999999619e-01
5.912549999999999750e-01 2.687600000000000058e-02 4.903460000000000041e-01
8.644330000000000069e-01 3.713799999999999740e-02 7.401320000000000121e-01
4.500160000000000271e-01 6.899450000000000305e-01 3.763670000000000071e-01
6.207129999999999592e-01 9.213999999999999968e-02 5.469990000000000130e-01
2.634279999999999955e-01 2.750899999999999873e-02 3.320839999999999903e-01
5.668389999999999818e-01 7.082720000000000127e-01 4.109380000000000255e-01
2.138430000000000053e-01 7.014960000000000084e-01 3.900339999999999918e-01
6.282659999999999911e-01 9.825100000000000500e-02 2.581240000000000201e-01
5.756300000000000305e-02 2.536209999999999853e-01 5.093699999999999894e-01
1.259500000000000064e-01 1.448000000000000120e-01 5.510129999999999750e-01
6.171250000000000346e-01 1.375419999999999976e-01 3.096110000000000251e-01
5.937620000000000120e-01 6.586500000000000687e-02 7.123000000000000442e-01
7.185500000000000220e-02 2.708800000000000097e-02 4.264499999999999957e-01
2.574440000000000062e-01 1.968320000000000070e-01 3.117090000000000138e-01
5.991760000000000419e-01 2.692999999999999908e-02 4.778479999999999950e-01
5.436330000000000329e-01 2.680400000000000144e-02 5.062830000000000386e-01
2.959800000000000209e-01 7.361240000000000006e-01 4.004590000000000094e-01
6.145570000000000199e-01 7.165249999999999675e-01 5.048280000000000545e-01
1.043980000000000047e-01 1.455940000000000012e-01 3.662239999999999940e-01
8.404999999999999971e-02 3.465100000000000124e-02 6.112610000000000543e-01
1.853569999999999940e-01 2.725800000000000098e-02 3.892180000000000084e-01
5.727499999999999952e-02 5.542970000000000397e-01 5.205109999999999459e-01
5.413270000000000026e-01 5.697710000000000274e-01 5.741020000000000012e-01
4.070059999999999789e-01 4.355470000000000175e-01 3.051200000000000093e-02
4.794450000000000101e-01 3.619319999999999760e-01 5.716050000000000297e-01
4.567220000000000169e-01 2.820299999999999890e-02 1.754890000000000061e-01
1.198349999999999971e-01 1.460150000000000059e-01 2.673909999999999898e-01
3.409610000000000141e-01 6.522339999999999804e-01 2.802899999999999836e-01
4.408050000000000024e-01 6.528659999999999464e-01 2.863789999999999947e-01
5.700669999999999904e-01 1.457869999999999999e-01 3.344539999999999735e-01
5.936940000000000550e-01 5.917569999999999775e-01 5.808489999999999487e-01
3.907749999999999835e-01 2.610109999999999930e-01 1.032249999999999973e-01
6.402170000000000361e-01 4.802399999999999725e-02 8.978519999999999834e-01
2.003389999999999893e-01 1.612629999999999897e-01 2.963270000000000071e-01
2.836060000000000247e-01 2.165009999999999990e-01 5.133649999999999602e-01
2.144689999999999930e-01 2.850099999999999856e-02 9.955600000000000560e-02
5.110980000000000523e-01 4.045039999999999747e-01 5.726130000000000386e-01
5.174670000000000103e-01 2.701500000000000082e-02 4.553880000000000150e-01
4.954230000000000023e-01 6.025899999999999590e-01 5.730389999999999651e-01
2.046610000000000096e-01 2.787299999999999847e-02 2.455839999999999967e-01
5.066960000000000353e-01 4.046100000000000252e-01 8.029100000000000126e-02
6.156279999999999530e-01 6.399439999999999573e-01 4.638320000000000221e-01
1.773359999999999936e-01 2.564100000000000060e-02 7.658179999999999987e-01
5.774880000000000013e-01 8.747299999999999520e-02 7.704400000000000137e-02
5.983100000000000224e-02 3.237479999999999802e-01 4.007609999999999784e-01
6.205659999999999510e-01 9.305299999999999683e-02 5.526520000000000321e-01
4.592800000000000216e-01 2.766700000000000062e-02 3.003910000000000191e-01
1.072199999999999959e-01 7.359860000000000291e-01 5.529079999999999551e-01
5.482719999999999816e-01 6.250170000000000448e-01 3.322149999999999825e-01
6.078620000000000134e-01 5.020600000000000063e-02 7.767599999999999505e-02
4.462800000000000100e-01 2.631299999999999958e-02 6.200020000000000531e-01
4.680770000000000208e-01 6.879589999999999872e-01 3.734250000000000069e-01
3.360779999999999879e-01 1.251249999999999862e-01 6.133990000000000276e-01
5.608520000000000172e-01 7.346019999999999772e-01 5.806019999999999515e-01
3.424200000000000021e-01 3.515039999999999831e-01 5.679729999999999501e-01
2.089729999999999921e-01 3.501369999999999760e-01 5.644740000000000313e-01
5.346539999999999626e-01 7.359909999999999508e-01 5.628480000000000150e-01
4.399500000000000077e-01 5.573489999999999833e-01 3.188900000000000068e-02
1.875560000000000005e-01 2.777500000000000108e-02 2.681560000000000055e-01
1.520320000000000005e-01 2.805900000000000061e-02 2.010840000000000127e-01
1.512310000000000043e-01 2.824700000000000127e-02 1.571120000000000017e-01
4.160829999999999806e-01 4.804410000000000069e-01 3.093999999999999875e-02
7.362239999999999895e-01 3.697199999999999792e-02 7.751099999999999657e-01
1.186470000000000025e-01 1.462189999999999879e-01 2.196049999999999947e-01
2.770389999999999797e-01 3.021300000000000027e-02 6.893299999999999428e-02
1.650810000000000055e-01 6.188599999999999657e-02 6.142659999999999787e-01
4.815150000000000263e-01 2.704200000000000007e-02 4.481069999999999776e-01
8.315759999999999819e-01 6.881700000000000317e-02 7.553349999999999786e-01
5.621059999999999945e-01 4.489810000000000190e-01 3.579399999999999804e-01
5.859240000000000004e-01 4.890829999999999900e-01 5.802070000000000283e-01
2.135039999999999993e-01 4.191210000000000213e-01 3.241999999999999743e-02
6.157869999999999733e-01 6.465849999999999653e-01 4.470270000000000077e-01
1.781339999999999868e-01 5.134859999999999980e-01 1.186770000000000047e-01
6.126160000000000494e-01 5.583609999999999962e-01 5.788590000000000124e-01
5.964099999999999957e-02 2.639730000000000132e-01 4.230030000000000179e-01
4.285260000000000180e-01 2.550399999999999889e-02 8.066529999999999534e-01
5.576750000000000318e-01 5.206979999999999942e-01 3.497689999999999966e-01
5.801100000000000007e-02 4.369399999999999951e-01 4.924549999999999761e-01
6.288820000000000521e-01 6.319800000000000417e-02 2.346040000000000070e-01
5.204969999999999875e-01 6.660239999999999494e-01 3.370980000000000087e-01
1.978570000000000051e-01 2.764700000000000144e-02 2.980410000000000004e-01
2.195350000000000079e-01 5.090799999999999770e-01 5.654209999999999514e-01
1.777799999999999936e-01 5.389800000000000146e-02 9.426799999999999624e-01
3.908630000000000160e-01 2.761999999999999872e-02 3.095330000000000026e-01
2.946199999999999930e-01 2.167060000000000097e-01 4.638889999999999958e-01
1.355560000000000098e-01 3.977539999999999965e-01 3.165640000000000120e-01
8.997800000000000242e-01 3.683199999999999669e-02 8.136769999999999836e-01
1.509830000000000061e-01 6.895139999999999603e-01 5.696700000000000097e-01
1.605959999999999888e-01 1.605620000000000103e-01 4.610389999999999766e-01
5.570629999999999749e-01 4.365589999999999749e-01 3.482219999999999760e-01
2.735839999999999939e-01 5.526790000000000314e-01 5.670199999999999685e-01
2.670980000000000021e-01 2.849099999999999897e-02 1.034169999999999950e-01
1.613700000000000134e-01 7.362170000000000103e-01 5.002480000000000260e-01
9.622799999999999410e-02 1.052150000000000030e-01 6.070360000000000200e-01
1.535660000000000081e-01 2.576399999999999871e-02 7.365599999999999925e-01
2.361969999999999903e-01 7.449899999999999578e-02 6.804599999999999538e-02
5.943899999999999878e-02 5.764960000000000084e-01 4.373560000000000225e-01
3.756439999999999779e-01 6.571190000000000087e-01 3.079919999999999880e-01
4.844379999999999797e-01 2.567300000000000137e-02 7.693889999999999896e-01
5.945099999999999690e-02 6.385750000000000037e-01 4.369439999999999991e-01
1.837739999999999929e-01 2.525600000000000067e-02 8.597660000000000302e-01
3.849099999999999744e-01 2.821839999999999904e-01 4.243999999999999856e-02
1.840739999999999876e-01 6.821700000000000541e-01 5.705050000000000399e-01
5.800640000000000240e-01 5.647100000000000453e-01 3.928610000000000158e-01
4.973759999999999848e-01 6.551409999999999734e-01 3.003270000000000106e-01
1.196160000000000001e-01 5.582669999999999577e-01 3.442049999999999832e-01
5.609100000000000197e-02 5.690159999999999663e-01 5.657699999999999951e-01
1.664859999999999951e-01 7.361729999999999663e-01 5.105300000000000393e-01
4.335040000000000004e-01 2.624389999999999779e-01 8.889099999999999779e-02
2.738749999999999796e-01 3.077699999999999880e-02 9.373759999999999870e-01
5.959799999999999820e-02 3.154109999999999969e-01 4.314419999999999922e-01
4.797640000000000238e-01 2.699299999999999963e-02 4.596459999999999990e-01
2.888479999999999936e-01 2.568869999999999765e-01 1.452600000000000002e-01
5.841960000000000486e-01 2.410869999999999957e-01 5.791030000000000344e-01
5.143940000000000179e-01 4.038359999999999728e-01 1.290010000000000046e-01
5.219470000000000498e-01 1.604269999999999863e-01 5.025450000000000195e-01
6.139829999999999455e-01 5.941790000000000127e-01 5.266370000000000218e-01
3.314340000000000064e-01 1.140609999999999957e-01 7.071700000000000208e-02
5.376260000000000483e-01 2.839300000000000157e-02 1.332990000000000008e-01
5.801399999999999890e-01 6.285380000000000411e-01 3.932889999999999997e-01
7.846539999999999626e-01 3.099599999999999925e-02 8.380130000000000079e-01
6.173929999999999696e-01 3.178030000000000022e-01 4.185450000000000004e-01
3.386000000000000121e-01 2.693360000000000198e-01 5.752999999999999781e-02
1.297359999999999902e-01 2.530100000000000057e-02 8.479160000000000030e-01
2.149240000000000039e-01 6.172619999999999774e-01 8.523100000000000120e-02
3.253070000000000128e-01 5.868759999999999533e-01 5.685189999999999966e-01
