-8.218591660261154175e-02 1.545778065919876099e-01 1.081482768058776855e-01
-9.170389920473098755e-02 1.601420491933822632e-01 1.026788204908370972e-01
-8.774846047163009644e-02 1.449990719556808472e-01 1.152767837047576904e-01
-9.836736321449279785e-02 1.501258015632629395e-01 1.105941534042358398e-01
3.002929687500000000e-01 -9.255350381135940552e-02 -1.193473786115646362e-01
2.947888970375061035e-01 -8.384733647108078003e-02 -1.246661096811294556e-01
2.962507307529449463e-01 -1.061284169554710388e-01 -1.184276044368743896e-01
2.894203960895538330e-01 -9.601236879825592041e-02 -1.243126168847084045e-01
6.235305666923522949e-01 1.491293683648109436e-02 -3.632784355431795120e-03
6.197296380996704102e-01 2.085979469120502472e-02 -7.093476131558418274e-03
6.226446628570556641e-01 1.382309291511774063e-02 5.930200219154357910e-03
6.197663545608520508e-01 2.023968473076820374e-02 2.467032987624406815e-03
5.887123942375183105e-01 2.959884516894817352e-02 -5.369001999497413635e-02
5.808428525924682617e-01 3.637369722127914429e-02 -5.426274985074996948e-02
5.936169028282165527e-01 3.240960463881492615e-02 -4.686825349926948547e-02
5.856971144676208496e-01 3.884866833686828613e-02 -4.848276078701019287e-02
2.011165916919708252e-01 3.065905347466468811e-02 -2.313278168439865112e-01
1.945679187774658203e-01 3.101420216262340546e-02 -2.414811551570892334e-01
1.975707113742828369e-01 2.318155765533447266e-02 -2.211682498455047607e-01
1.913414299488067627e-01 2.345889061689376831e-02 -2.307260483503341675e-01
-5.709183812141418457e-01 -3.177615255117416382e-02 3.588575124740600586e-02
-5.815097093582153320e-01 -2.760125137865543365e-02 3.638813644647598267e-02
-5.729910135269165039e-01 -1.890929415822029114e-02 4.106820002198219299e-02
-5.846441984176635742e-01 -1.431869715452194214e-02 4.126791656017303467e-02
-4.679300785064697266e-01 6.829880177974700928e-02 6.005698442459106445e-02
-4.773423969745635986e-01 7.420460879802703857e-02 5.505919829010963440e-02
-4.739821255207061768e-01 5.694542825222015381e-02 6.365829706192016602e-02
-4.837986528873443604e-01 6.421924382448196411e-02 5.833917483687400818e-02
5.946729183197021484e-01 -2.028890885412693024e-02 -5.016959458589553833e-02
5.889185667037963867e-01 -2.047932706773281097e-02 -5.693484097719192505e-02
5.947278738021850586e-01 -2.428304776549339294e-02 -4.038103669881820679e-02
5.893288254737854004e-01 -2.467653900384902954e-02 -4.683058708906173706e-02
4.477970302104949951e-01 -9.651481360197067261e-02 -9.253729879856109619e-02
4.314660727977752686e-01 -9.584825485944747925e-02 -9.454202651977539062e-02
4.410447180271148682e-01 -1.057211458683013916e-01 -8.810222893953323364e-02
4.260867238044738770e-01 -1.049705967307090759e-01 -9.018284827470779419e-02
-5.007562041282653809e-01 7.891983538866043091e-02 -1.211822032928466797e-03
-5.057592391967773438e-01 8.385407924652099609e-02 -1.434968900866806507e-03
-5.069746375083923340e-01 7.483174651861190796e-02 5.418125074356794357e-04
-5.129715800285339355e-01 7.951267063617706299e-02 2.086832828354090452e-04
-1.339727640151977539e-01 1.614488065242767334e-01 -9.822700172662734985e-02
-1.415349394083023071e-01 1.626586616039276123e-01 -9.451253712177276611e-02
-1.374719738960266113e-01 1.722898185253143311e-01 -8.788929134607315063e-02
-1.496765166521072388e-01 1.690834611654281616e-01 -8.620218187570571899e-02
-3.126913607120513916e-01 -1.551115959882736206e-01 -7.893595844507217407e-03
-3.204559981822967529e-01 -1.513383388519287109e-01 -1.238136459141969681e-02
-3.149703741073608398e-01 -1.582270711660385132e-01 -8.310836274176836014e-04
-3.234514594078063965e-01 -1.542856246232986450e-01 -4.890621639788150787e-03
-4.797922968864440918e-01 5.431257188320159912e-02 -4.674722440540790558e-03
-4.852111041545867920e-01 5.843932926654815674e-02 -5.288982763886451721e-03
-4.868961572647094727e-01 4.667150974273681641e-02 -5.682338960468769073e-03
-4.927119612693786621e-01 5.177704617381095886e-02 -5.812147632241249084e-03
5.071158409118652344e-01 9.188743680715560913e-02 3.047947958111763000e-02
4.992626011371612549e-01 9.772147983312606812e-02 2.511767297983169556e-02
5.007909536361694336e-01 8.579130470752716064e-02 4.047380387783050537e-02
4.927563369274139404e-01 9.325015544891357422e-02 3.610128164291381836e-02
1.572330296039581299e-01 2.897984087467193604e-01 2.050604857504367828e-02
1.561811566352844238e-01 2.965941131114959717e-01 2.119030617177486420e-02
1.496303975582122803e-01 2.869012653827667236e-01 1.995741389691829681e-02
1.486105918884277344e-01 2.942294180393218994e-01 2.088958397507667542e-02
3.821498155593872070e-01 -1.224329322576522827e-01 6.362704932689666748e-02
3.825865983963012695e-01 -1.156593337655067444e-01 6.862398982048034668e-02
3.683677613735198975e-01 -1.172349229454994202e-01 6.704153865575790405e-02
3.705602884292602539e-01 -1.108062118291854858e-01 7.131691277027130127e-02
-8.692193031311035156e-01 9.946262836456298828e-02 5.537572782486677170e-03
-8.744683265686035156e-01 1.112097799777984619e-01 6.603939924389123917e-03
-8.791525959968566895e-01 9.513837844133377075e-02 5.423032213002443314e-03
-8.840217590332031250e-01 1.062964498996734619e-01 6.424517370760440826e-03
-3.087210655212402344e-02 6.329549103975296021e-02 1.460676640272140503e-01
-4.366403445601463318e-02 7.167875021696090698e-02 1.448046118021011353e-01
-3.851393610239028931e-02 5.355461686849594116e-02 1.477014869451522827e-01
-5.177796259522438049e-02 6.157760322093963623e-02 1.464856564998626709e-01
3.141120970249176025e-01 -1.765955835580825806e-01 2.552607096731662750e-02
3.024794459342956543e-01 -1.766265779733657837e-01 2.933599241077899933e-02
3.062688410282135010e-01 -1.697268486022949219e-01 3.732805326581001282e-02
2.946403622627258301e-01 -1.693919003009796143e-01 4.135825857520103455e-02
-2.504831254482269287e-01 1.489222794771194458e-01 -8.078996092081069946e-02
-2.544241249561309814e-01 1.527293473482131958e-01 -7.230690866708755493e-02
-2.574017941951751709e-01 1.532698273658752441e-01 -7.207893580198287964e-02
-2.641346752643585205e-01 1.534749716520309448e-01 -6.849578768014907837e-02
1.545192748308181763e-01 1.978471726179122925e-01 1.156296394765377045e-02
1.475531160831451416e-01 1.995542347431182861e-01 1.164534967392683029e-02
1.519476473331451416e-01 1.993443518877029419e-01 1.618893630802631378e-02
1.447378098964691162e-01 2.009135037660598755e-01 1.608463749289512634e-02
1.224530339241027832e-01 1.157336458563804626e-01 1.259425282478332520e-01
1.162286102771759033e-01 1.243128776550292969e-01 1.222813129425048828e-01
1.155824363231658936e-01 1.066589280962944031e-01 1.314358264207839966e-01
1.093510985374450684e-01 1.153217479586601257e-01 1.277231872081756592e-01
1.161868423223495483e-01 2.457287907600402832e-01 1.428068988025188446e-02
1.112190857529640198e-01 2.542367279529571533e-01 1.410106755793094635e-02
1.040951684117317200e-01 2.420210987329483032e-01 1.339205913245677948e-02
9.864190220832824707e-02 2.501649558544158936e-01 1.319725718349218369e-02
1.577462702989578247e-01 1.724514514207839966e-01 7.275019586086273193e-02
1.510745435953140259e-01 1.772158294916152954e-01 6.783995032310485840e-02
1.497495621442794800e-01 1.651567071676254272e-01 8.408374339342117310e-02
1.434688121080398560e-01 1.693516969680786133e-01 7.931441068649291992e-02
5.288802385330200195e-01 6.721831858158111572e-02 4.467395693063735962e-02
5.244914889335632324e-01 7.496472448110580444e-02 3.817684575915336609e-02
5.253723859786987305e-01 6.131295859813690186e-02 5.362761020660400391e-02
5.206190347671508789e-01 6.950388848781585693e-02 4.817147180438041687e-02
1.577563136816024780e-01 -2.574037313461303711e-01 2.661751210689544678e-02
1.499791592359542847e-01 -2.510068714618682861e-01 2.142090536653995514e-02
1.534439623355865479e-01 -2.665014266967773438e-01 3.397450596094131470e-02
1.460449695587158203e-01 -2.596863806247711182e-01 2.824670076370239258e-02
-3.233512043952941895e-01 -6.774751842021942139e-02 8.450015634298324585e-02
-3.425248861312866211e-01 -5.999941378831863403e-02 8.229465037584304810e-02
-3.210788071155548096e-01 -5.738892406225204468e-02 9.010826051235198975e-02
-3.401131331920623779e-01 -5.012047663331031799e-02 8.779602497816085815e-02
-4.617674276232719421e-02 -1.679202616214752197e-01 7.059418410062789917e-02
-5.970418825745582581e-02 -1.672209650278091431e-01 7.185795158147811890e-02
-4.909003525972366333e-02 -1.584874540567398071e-01 7.900325953960418701e-02
-6.282825022935867310e-02 -1.579089909791946411e-01 8.043683320283889771e-02
-3.993182480335235596e-01 -1.538187637925148010e-02 -9.462986886501312256e-02
-4.039801657199859619e-01 -2.638930454850196838e-03 -9.471066296100616455e-02
-4.102350175380706787e-01 -2.101282775402069092e-02 -9.314969182014465332e-02
-4.134018421173095703e-01 -8.685479871928691864e-03 -9.376087039709091187e-02
-7.395355962216854095e-03 2.074911147356033325e-01 1.772891357541084290e-02
-1.453999243676662445e-02 2.078271955251693726e-01 1.693102531135082245e-02
-8.592643775045871735e-03 2.095065563917160034e-01 2.610315009951591492e-02
-1.590248756110668182e-02 2.096228599548339844e-01 2.528071217238903046e-02
-4.690833687782287598e-01 -1.024582237005233765e-01 -1.879647932946681976e-02
-4.752102196216583252e-01 -9.859451651573181152e-02 -1.774269528687000275e-02
-4.760691821575164795e-01 -9.780127555131912231e-02 -1.463424693793058395e-02
-4.834414422512054443e-01 -9.434317797422409058e-02 -1.472301222383975983e-02
4.272818565368652344e-01 2.501662354916334152e-03 1.034721955657005310e-01
4.222229123115539551e-01 1.721267774701118469e-02 1.036827117204666138e-01
4.198774695396423340e-01 -5.358230322599411011e-03 1.054620817303657532e-01
4.140942990779876709e-01 8.938483893871307373e-03 1.061665117740631104e-01
3.445013985037803650e-02 -1.028064172714948654e-02 1.463801711797714233e-01
2.671058103442192078e-02 6.542508490383625031e-04 1.480215638875961304e-01
2.482267655432224274e-02 -1.539898477494716644e-02 1.446956694126129150e-01
1.924721710383892059e-02 -3.389822784811258316e-03 1.474514454603195190e-01
4.061522781848907471e-01 7.818263024091720581e-02 9.306146204471588135e-02
3.979474306106567383e-01 9.244979172945022583e-02 8.771437406539916992e-02
4.007103443145751953e-01 7.004060596227645874e-02 9.967833012342453003e-02
3.927492797374725342e-01 8.327167481184005737e-02 9.428597241640090942e-02
6.143885850906372070e-01 -5.348486080765724182e-02 -3.336764499545097351e-02
6.104753613471984863e-01 -5.254261568188667297e-02 -3.934502601623535156e-02
6.135340332984924316e-01 -5.663687735795974731e-02 -2.369888313114643097e-02
6.119940280914306641e-01 -5.530780926346778870e-02 -2.909747324883937836e-02
3.295342624187469482e-01 4.446007683873176575e-02 1.198689788579940796e-01
3.254629075527191162e-01 5.732554197311401367e-02 1.191539689898490906e-01
3.203751742839813232e-01 3.480216115713119507e-02 1.216147541999816895e-01
3.158749341964721680e-01 4.780124500393867493e-02 1.209798604249954224e-01
2.567737102508544922e-01 7.139965146780014038e-02 -3.295859694480895996e-01
2.514203488826751709e-01 7.328537851572036743e-02 -3.371806740760803223e-01
2.541129887104034424e-01 6.630816310644149780e-02 -3.187468051910400391e-01
2.485437095165252686e-01 6.804712116718292236e-02 -3.266730606555938721e-01
-6.287221908569335938e-01 4.771042615175247192e-02 -2.844163216650485992e-03
-6.373520493507385254e-01 4.653770104050636292e-02 -7.078615017235279083e-03
-6.322919726371765137e-01 4.588124155998229980e-02 2.156972419470548630e-03
-6.410383582115173340e-01 4.513883963227272034e-02 -1.202347106300294399e-03
2.402791529893875122e-01 1.425475180149078369e-01 -5.138957500457763672e-01
2.304517179727554321e-01 1.414196044206619263e-01 -5.193971395492553711e-01
2.327144145965576172e-01 1.380981206893920898e-01 -5.088272690773010254e-01
2.228869795799255371e-01 1.369702070951461792e-01 -5.143286585807800293e-01
-2.186630815267562866e-01 3.197944909334182739e-02 1.281795352697372437e-01
-2.316386997699737549e-01 4.141920804977416992e-02 1.276944130659103394e-01
-2.252749949693679810e-01 2.267325483262538910e-02 1.288084089756011963e-01
-2.386421114206314087e-01 3.127012774348258972e-02 1.282205879688262939e-01
-5.267621874809265137e-01 -2.150530368089675903e-02 5.074039846658706665e-02
-5.396313071250915527e-01 -1.773947849869728088e-02 4.836317151784896851e-02
-5.281953215599060059e-01 -1.173986960202455521e-02 5.435011535882949829e-02
-5.402861833572387695e-01 -7.337580434978008270e-03 5.234349146485328674e-02
5.351382493972778320e-01 -6.123946234583854675e-02 -2.921581082046031952e-02
5.258398652076721191e-01 -6.153511628508567810e-02 -3.471699357032775879e-02
5.356454253196716309e-01 -6.105649098753929138e-02 -1.962754502892494202e-02
5.263522863388061523e-01 -6.074843928217887878e-02 -2.616678737103939056e-02
3.289840221405029297e-01 -1.534113883972167969e-01 5.077133327722549438e-02
3.307844400405883789e-01 -1.468793004751205444e-01 5.534780025482177734e-02
3.207425177097320557e-01 -1.495794206857681274e-01 5.449809506535530090e-02
3.224190175533294678e-01 -1.425408720970153809e-01 5.873822793364524841e-02
3.774265944957733154e-02 -1.544611603021621704e-01 -1.118291616439819336e-01
2.912199683487415314e-02 -1.452341675758361816e-01 -1.189625859260559082e-01
3.259114548563957214e-02 -1.642773449420928955e-01 -1.053340286016464233e-01
2.386031486093997955e-02 -1.561345309019088745e-01 -1.126914769411087036e-01
1.169191151857376099e-01 1.536170095205307007e-01 1.005158275365829468e-01
1.094579920172691345e-01 1.587733924388885498e-01 9.615530073642730713e-02
1.122718304395675659e-01 1.462531983852386475e-01 1.082130074501037598e-01
1.043681874871253967e-01 1.516302376985549927e-01 1.040669083595275879e-01
-6.717347502708435059e-01 5.089993402361869812e-02 4.526617412921041250e-04
-6.774136424064636230e-01 5.547772347927093506e-02 1.676177373155951500e-03
-6.820390224456787109e-01 5.165357142686843872e-02 3.631384577602148056e-03
-6.877188682556152344e-01 5.551834404468536377e-02 4.478255286812782288e-03
-2.325765043497085571e-02 1.533573865890502930e-01 1.095287725329399109e-01
-3.631672263145446777e-02 1.591286957263946533e-01 1.044506430625915527e-01
-2.874983474612236023e-02 1.443605422973632812e-01 1.170858889818191528e-01
-4.141333326697349548e-02 1.501029729843139648e-01 1.130135282874107361e-01
-3.157567381858825684e-01 2.038168609142303467e-01 1.247672550380229950e-02
-3.212025761604309082e-01 2.167767435312271118e-01 1.387373823672533035e-02
-3.294391930103302002e-01 1.982961744070053101e-01 1.090230047702789307e-02
-3.356815874576568604e-01 2.114692032337188721e-01 1.272569131106138229e-02
-1.209030076861381531e-01 8.251355588436126709e-02 1.390352249145507812e-01
-1.289947777986526489e-01 9.122768789529800415e-02 1.358532309532165527e-01
-1.273372620344161987e-01 7.252506166696548462e-02 1.401175409555435181e-01
-1.357873529195785522e-01 8.063612133264541626e-02 1.375327557325363159e-01
4.113860428333282471e-01 6.558437645435333252e-02 -1.001628190279006958e-01
3.980446159839630127e-01 7.318215072154998779e-02 -1.029310375452041626e-01
4.114786684513092041e-01 7.582056522369384766e-02 -9.460306912660598755e-02
3.992643058300018311e-01 8.376639336347579956e-02 -9.677515178918838501e-02
1.716337800025939941e-01 1.719021052122116089e-01 6.937795877456665039e-02
1.631635129451751709e-01 1.790601909160614014e-01 6.207130849361419678e-02
1.675311923027038574e-01 1.653437465429306030e-01 8.063797652721405029e-02
1.591003239154815674e-01 1.708614975214004517e-01 7.522483170032501221e-02
-1.853407770395278931e-01 1.970984190702438354e-01 1.356954779475927353e-02
-1.937910169363021851e-01 1.969734728336334229e-01 9.226298891007900238e-03
-1.888750642538070679e-01 1.978888064622879028e-01 2.085544355213642120e-02
-1.971675008535385132e-01 1.976384967565536499e-01 1.666140183806419373e-02
-5.985963940620422363e-01 -5.079215764999389648e-02 -2.261562272906303406e-02
-6.052672863006591797e-01 -4.364847391843795776e-02 -2.171047218143939972e-02
-6.058510541915893555e-01 -5.264344811439514160e-02 -1.859602332115173340e-02
-6.122235655784606934e-01 -4.587677493691444397e-02 -1.717268116772174835e-02
-6.548413634300231934e-01 8.015888743102550507e-03 -3.304469864815473557e-03
-6.582145690917968750e-01 1.492710597813129425e-02 -1.937573077157139778e-03
-6.652083396911621094e-01 9.316095151007175446e-03 -3.612122498452663422e-03
-6.691532731056213379e-01 1.452168263494968414e-02 -2.697066403925418854e-03
-3.030926883220672607e-01 -1.417232304811477661e-01 4.309407621622085571e-02
-3.127304911613464355e-01 -1.393785625696182251e-01 3.879579156637191772e-02
-2.983338236808776855e-01 -1.358131021261215210e-01 5.477689206600189209e-02
-3.075962066650390625e-01 -1.336865127086639404e-01 5.027011781930923462e-02
-3.563098236918449402e-02 1.710690408945083618e-01 9.352558851242065430e-02
-4.786052554845809937e-02 1.759503334760665894e-01 8.742333948612213135e-02
-3.950401023030281067e-02 1.638356596231460571e-01 1.014431938529014587e-01
-5.146149173378944397e-02 1.692151725292205811e-01 9.547431766986846924e-02
-3.411341905593872070e-01 -1.325095891952514648e-01 -5.104100704193115234e-02
-3.485975861549377441e-01 -1.285667568445205688e-01 -5.065781623125076294e-02
-3.475037813186645508e-01 -1.381125599145889282e-01 -4.665041714906692505e-02
-3.550292849540710449e-01 -1.346293985843658447e-01 -4.587495326995849609e-02
-8.786832690238952637e-01 1.118613630533218384e-01 3.275641705840826035e-03
-8.839976191520690918e-01 1.237425580620765686e-01 4.703748505562543869e-03
-8.918703794479370117e-01 1.075465083122253418e-01 2.955511212348937988e-03
-8.967367410659790039e-01 1.187484338879585266e-01 3.985121846199035645e-03
-4.344745576381683350e-01 -2.163586020469665527e-01 -2.928187511861324310e-02
-4.380220174789428711e-01 -2.098324149847030640e-01 -2.980699576437473297e-02
-4.425019025802612305e-01 -2.217566668987274170e-01 -2.751592732965946198e-02
-4.474713802337646484e-01 -2.160372883081436157e-01 -2.772435173392295837e-02
2.460478544235229492e-01 8.832528442144393921e-02 -1.298549324274063110e-01
2.318618744611740112e-01 8.566179871559143066e-02 -1.325610578060150146e-01
2.408688068389892578e-01 9.457614272832870483e-02 -1.277091056108474731e-01
2.266096323728561401e-01 9.164281934499740601e-02 -1.308195888996124268e-01
-3.108002543449401855e-01 -7.933782041072845459e-02 -1.054514199495315552e-01
-3.154974579811096191e-01 -7.008108496665954590e-02 -1.072411686182022095e-01
-3.185831606388092041e-01 -8.672156184911727905e-02 -1.017361506819725037e-01
-3.233301043510437012e-01 -7.796618342399597168e-02 -1.032816469669342041e-01
-1.915185339748859406e-02 -5.675780400633811951e-02 1.329938173294067383e-01
-2.140354178845882416e-02 -4.367426782846450806e-02 1.369364708662033081e-01
-3.473847731947898865e-02 -5.394286289811134338e-02 1.330669224262237549e-01
-3.560665994882583618e-02 -4.064194113016128540e-02 1.371155530214309692e-01
5.829242989420890808e-02 -5.444929003715515137e-02 1.343798190355300903e-01
5.239213630557060242e-02 -4.333112388849258423e-02 1.397185623645782471e-01
4.352334886789321899e-02 -5.237269029021263123e-02 1.326418220996856689e-01
3.741953521966934204e-02 -4.136056825518608093e-02 1.383375525474548340e-01
4.162232577800750732e-01 -1.491652280092239380e-01 2.085123956203460693e-02
4.173165559768676758e-01 -1.444748342037200928e-01 2.760748006403446198e-02
4.048783481121063232e-01 -1.451693624258041382e-01 2.825636230409145355e-02
4.058906435966491699e-01 -1.407339572906494141e-01 3.487309813499450684e-02
-2.811856567859649658e-01 -1.675759404897689819e-01 -1.390431309118866920e-03
-2.898032665252685547e-01 -1.641172021627426147e-01 -5.633711814880371094e-03
-2.844064831733703613e-01 -1.670094728469848633e-01 4.875277169048786163e-03
-2.932446300983428955e-01 -1.636387258768081665e-01 1.453403732739388943e-03
-4.807317554950714111e-01 1.038982346653938293e-01 -9.776243939995765686e-03
-4.891743361949920654e-01 9.940746426582336426e-02 -1.249803509563207626e-02
-4.822304248809814453e-01 1.044676601886749268e-01 -3.883409546688199043e-03
-4.904270172119140625e-01 1.004334315657615662e-01 -6.808375008404254913e-03
-4.080591797828674316e-01 8.929922431707382202e-02 -6.722380639985203743e-04
-4.152227044105529785e-01 9.570480138063430786e-02 -9.221641812473535538e-04
-4.154823124408721924e-01 8.130019903182983398e-02 -5.014593480154871941e-04
-4.238167107105255127e-01 8.752132207155227661e-02 -6.346111767925322056e-04
-6.016585826873779297e-01 2.805193886160850525e-02 -5.721019115298986435e-03
-6.063243150711059570e-01 3.605792298913002014e-02 -8.030907250940799713e-03
-6.100040674209594727e-01 2.028416655957698822e-02 -6.050257477909326553e-03
-6.141198277473449707e-01 2.937640622258186340e-02 -8.037208579480648041e-03
-1.124824211001396179e-02 -1.647348999977111816e-01 -1.073677092790603638e-01
-1.883710175752639771e-02 -1.580078899860382080e-01 -1.122120171785354614e-01
-1.409811992198228836e-02 -1.725137829780578613e-01 -1.015225946903228760e-01
-2.244106307625770569e-02 -1.663594990968704224e-01 -1.063971295952796936e-01
3.879736661911010742e-01 -1.060051769018173218e-01 7.397623360157012939e-02
3.849822580814361572e-01 -9.767439216375350952e-02 7.851206511259078979e-02
3.762945234775543213e-01 -9.866574406623840332e-02 7.768565416336059570e-02
3.731728792190551758e-01 -9.015224874019622803e-02 8.261673152446746826e-02
-3.896687030792236328e-01 4.879588261246681213e-02 -9.565921127796173096e-02
-3.896565735340118408e-01 5.874067917466163635e-02 -9.312211722135543823e-02
-4.020745456218719482e-01 4.824986308813095093e-02 -9.371772408485412598e-02
-4.019995629787445068e-01 5.819515138864517212e-02 -9.123929589986801147e-02
-8.941119909286499023e-01 -1.237703785300254822e-01 -2.127527818083763123e-02
-8.999701738357543945e-01 -1.134837642312049866e-01 -2.031907439231872559e-02
-9.065128564834594727e-01 -1.315820366144180298e-01 -2.175833284854888916e-02
-9.114733338356018066e-01 -1.215252056717872620e-01 -2.140247076749801636e-02
2.362774908542633057e-01 -1.869910806417465210e-01 3.005185350775718689e-02
2.271322309970855713e-01 -1.896422207355499268e-01 2.811182290315628052e-02
2.341617792844772339e-01 -1.796662807464599609e-01 3.902415931224822998e-02
2.249335795640945435e-01 -1.824837028980255127e-01 3.729667142033576965e-02
1.706245094537734985e-01 1.936617307364940643e-03 1.402878016233444214e-01
1.645792722702026367e-01 1.317319739609956741e-02 1.417025923728942871e-01
1.623136252164840698e-01 -4.905032459646463394e-03 1.398985683917999268e-01
1.554493457078933716e-01 6.269502919167280197e-03 1.420462280511856079e-01
8.633325994014739990e-02 2.004637271165847778e-01 2.771993540227413177e-02
7.622654736042022705e-02 2.010941654443740845e-01 2.700811810791492462e-02
8.403908461332321167e-02 2.004066109657287598e-01 3.638728708028793335e-02
7.344467192888259888e-02 2.008623182773590088e-01 3.576896712183952332e-02
5.029198527336120605e-01 7.345356047153472900e-02 5.593408644199371338e-02
4.939436614513397217e-01 8.306674659252166748e-02 5.228909105062484741e-02
4.962065219879150391e-01 6.648884713649749756e-02 6.397746503353118896e-02
4.870768487453460693e-01 7.690113782882690430e-02 6.084018200635910034e-02
5.953385680913925171e-02 -1.857581585645675659e-01 -8.554825186729431152e-02
4.999063909053802490e-02 -1.834576725959777832e-01 -8.860949426889419556e-02
5.280258506536483765e-02 -1.929954141378402710e-01 -7.698648422956466675e-02
4.190117865800857544e-02 -1.913990378379821777e-01 -7.991258800029754639e-02
-3.013609945774078369e-01 1.599942296743392944e-01 2.029637061059474945e-02
-3.089708685874938965e-01 1.587049812078475952e-01 1.442882604897022247e-02
-3.029319345951080322e-01 1.573950201272964478e-01 2.880137972533702850e-02
-3.112795352935791016e-01 1.557132303714752197e-01 2.246630936861038208e-02
-5.764103531837463379e-01 5.301128327846527100e-02 3.520587831735610962e-02
-5.859878063201904297e-01 5.581964552402496338e-02 3.035835549235343933e-02
-5.790040493011474609e-01 4.387441277503967285e-02 3.939265012741088867e-02
-5.890813469886779785e-01 4.648616909980773926e-02 3.460764139890670776e-02
2.054332494735717773e-01 3.503419086337089539e-02 -2.417683601379394531e-01
1.986904591321945190e-01 3.549063205718994141e-02 -2.518925368785858154e-01
2.042209059000015259e-01 2.626735344529151917e-02 -2.300837188959121704e-01
1.977813839912414551e-01 2.636689692735671997e-02 -2.402659505605697632e-01
-2.877613529562950134e-02 -1.908036470413208008e-01 -7.932523638010025024e-02
-3.367611393332481384e-02 -1.867952048778533936e-01 -8.494380116462707520e-02
-3.282466530799865723e-02 -1.963006258010864258e-01 -6.930721551179885864e-02
-3.763065859675407410e-02 -1.924241483211517334e-01 -7.475223392248153687e-02
-6.012546420097351074e-01 -4.477906972169876099e-02 1.648670434951782227e-02
-6.114569902420043945e-01 -4.065561667084693909e-02 1.755928620696067810e-02
-6.054268479347229004e-01 -3.427854552865028381e-02 2.034092135727405548e-02
-6.187766790390014648e-01 -3.144316747784614563e-02 2.023637481033802032e-02
3.985069096088409424e-01 5.292376130819320679e-02 -1.079207733273506165e-01
3.837900161743164062e-01 5.487747862935066223e-02 -1.122109964489936829e-01
3.965179920196533203e-01 5.929793044924736023e-02 -1.036798208951950073e-01
3.816601336002349854e-01 6.137882545590400696e-02 -1.079870983958244324e-01
6.346423923969268799e-02 3.321854025125503540e-02 1.498155146837234497e-01
5.480566620826721191e-02 4.269203171133995056e-02 1.496257185935974121e-01
5.407723784446716309e-02 2.614647708833217621e-02 1.488492786884307861e-01
4.489326104521751404e-02 3.607589006423950195e-02 1.486413478851318359e-01
2.193843573331832886e-01 -7.440390530973672867e-03 1.335951387882232666e-01
2.168279290199279785e-01 8.772630244493484497e-04 1.363661438226699829e-01
2.091403454542160034e-01 -1.196147035807371140e-02 1.346710175275802612e-01
2.068728804588317871e-01 -3.212956711649894714e-03 1.372199505567550659e-01
-9.419003725051879883e-01 -1.948285698890686035e-01 -2.608739957213401794e-02
-9.502237439155578613e-01 -1.887945830821990967e-01 -2.601344883441925049e-02
-9.494273662567138672e-01 -1.996365487575531006e-01 -2.603293396532535553e-02
-9.586806893348693848e-01 -1.943616867065429688e-01 -2.588606067001819611e-02
4.257830679416656494e-01 9.826475381851196289e-02 7.247710227966308594e-02
4.180363416671752930e-01 1.118085756897926331e-01 6.561111658811569214e-02
4.205893874168395996e-01 8.861000835895538330e-02 8.143631368875503540e-02
4.126787781715393066e-01 1.038442552089691162e-01 7.427798211574554443e-02
-6.979893445968627930e-01 -2.775107137858867645e-02 -1.144255232065916061e-02
-7.055922150611877441e-01 -2.369813434779644012e-02 -1.233153138309717178e-02
-7.017806172370910645e-01 -2.755792438983917236e-02 -8.246906101703643799e-03
-7.093456387519836426e-01 -2.278286963701248169e-02 -8.964786306023597717e-03
-1.920246779918670654e-01 1.033268719911575317e-01 1.241088062524795532e-01
-1.985032707452774048e-01 1.086229085922241211e-01 1.201977059245109558e-01
-1.949818730354309082e-01 9.485156089067459106e-02 1.263167709112167358e-01
-2.018047571182250977e-01 9.994921833276748657e-02 1.224052309989929199e-01
3.101360499858856201e-01 -2.252858877182006836e-02 1.121208071708679199e-01
2.988894581794738770e-01 -2.364008128643035889e-02 1.119294017553329468e-01
3.075553476810455322e-01 -1.944278739392757416e-02 1.200816109776496887e-01
2.959299981594085693e-01 -2.100826427340507507e-02 1.189706921577453613e-01
2.817278802394866943e-01 1.489341109991073608e-01 -7.682503759860992432e-02
2.696200609207153320e-01 1.512263864278793335e-01 -7.584006339311599731e-02
2.810221612453460693e-01 1.527362912893295288e-01 -6.662499159574508667e-02
2.688520550727844238e-01 1.550604701042175293e-01 -6.553920358419418335e-02
-2.895941771566867828e-02 1.507805436849594116e-01 1.126278862357139587e-01
-4.172231629490852356e-02 1.564901024103164673e-01 1.073528453707695007e-01
-3.465235233306884766e-02 1.413194835186004639e-01 1.200298368930816650e-01
-4.731503129005432129e-02 1.472442895174026489e-01 1.159181296825408936e-01
-8.551564812660217285e-01 1.732564531266689301e-02 -5.355370230972766876e-03
-8.621723651885986328e-01 2.469245716929435730e-02 -7.346409372985363007e-03
-8.681948184967041016e-01 1.223733648657798767e-02 -2.205859636887907982e-03
-8.725466728210449219e-01 2.009210363030433655e-02 -2.984091639518737793e-03
-1.522768288850784302e-01 1.566971838474273682e-01 -1.004111990332603455e-01
-1.607997417449951172e-01 1.572070419788360596e-01 -9.722740203142166138e-02
-1.585582792758941650e-01 1.667584925889968872e-01 -9.070184081792831421e-02
-1.705082207918167114e-01 1.643248945474624634e-01 -8.878272771835327148e-02
2.099753171205520630e-01 -2.600558102130889893e-01 2.629766613245010376e-02
2.008153051137924194e-01 -2.531792819499969482e-01 2.267801947891712189e-02
2.048449963331222534e-01 -2.663655579090118408e-01 2.956816367805004120e-02
1.948239803314208984e-01 -2.608678936958312988e-01 2.641429007053375244e-02
2.317359894514083862e-01 -2.383038215339183807e-02 1.801443397998809814e-01
2.237147539854049683e-01 -2.484011836349964142e-02 1.805377006530761719e-01
2.268630415201187134e-01 -2.049888297915458679e-02 1.904587447643280029e-01
2.184456288814544678e-01 -2.157028764486312866e-02 1.900928914546966553e-01
2.898088991641998291e-01 -1.894297152757644653e-01 1.224228553473949432e-02
2.803795635700225830e-01 -1.909876465797424316e-01 1.485397387295961380e-02
2.824876606464385986e-01 -1.818740218877792358e-01 2.304749190807342529e-02
2.733886539936065674e-01 -1.836240291595458984e-01 2.582602575421333313e-02
3.705157637596130371e-01 -1.425778269767761230e-01 -8.247948437929153442e-02
3.621258735656738281e-01 -1.419849097728729248e-01 -8.531181514263153076e-02
3.664936423301696777e-01 -1.500795334577560425e-01 -7.895246893167495728e-02
3.587792515754699707e-01 -1.486849933862686157e-01 -8.217187225818634033e-02
4.788205325603485107e-01 -1.214114502072334290e-01 2.540185861289501190e-02
4.800518751144409180e-01 -1.164007186889648438e-01 3.106818720698356628e-02
4.691780507564544678e-01 -1.189946457743644714e-01 3.005026280879974365e-02
4.706659018993377686e-01 -1.135691925883293152e-01 3.625302016735076904e-02
-7.306970357894897461e-01 2.393734082579612732e-02 -6.730975117534399033e-03
-7.337835431098937988e-01 3.211499750614166260e-02 -7.343226578086614609e-03
-7.351277470588684082e-01 2.046939916908740997e-02 -6.101698614656925201e-03
-7.378858327865600586e-01 2.907948940992355347e-02 -6.582159083336591721e-03
1.679963022470474243e-01 -8.146069943904876709e-02 1.154415830969810486e-01
1.712330728769302368e-01 -6.783018261194229126e-02 1.216948181390762329e-01
1.536298245191574097e-01 -7.738269865512847900e-02 1.182774603366851807e-01
1.580685824155807495e-01 -6.285247206687927246e-02 1.243069618940353394e-01
3.659648895263671875e-01 -1.766225695610046387e-01 -6.857838947325944901e-03
3.541450202465057373e-01 -1.796351373195648193e-01 -9.877014905214309692e-03
3.643237948417663574e-01 -1.746899932622909546e-01 3.617254085838794708e-03
3.519890904426574707e-01 -1.778240352869033813e-01 2.320457017049193382e-03
2.312756180763244629e-01 6.231913343071937561e-02 -3.042382597923278809e-01
2.246316075325012207e-01 6.327035278081893921e-02 -3.127810060977935791e-01
2.318976670503616333e-01 5.696332454681396484e-02 -2.941193878650665283e-01
2.253936231136322021e-01 5.768413096666336060e-02 -3.030833303928375244e-01
-2.846517264842987061e-01 1.342609524726867676e-01 -8.147272467613220215e-02
-2.866897284984588623e-01 1.385365277528762817e-01 -7.406201213598251343e-02
-2.960117161273956299e-01 1.369434148073196411e-01 -7.376755774021148682e-02
-2.976947724819183350e-01 1.415452063083648682e-01 -6.711420416831970215e-02
3.332483768463134766e-01 7.965697348117828369e-02 -1.192756295204162598e-01
3.201985061168670654e-01 8.109829574823379517e-02 -1.210909932851791382e-01
3.306580185890197754e-01 9.264135360717773438e-02 -1.149020195007324219e-01
3.173240721225738525e-01 9.391921758651733398e-02 -1.166666597127914429e-01
-7.441313937306404114e-03 1.014995202422142029e-01 -1.430778950452804565e-01
-4.296881146728992462e-03 1.149639785289764404e-01 -1.371907144784927368e-01
-2.056058123707771301e-02 1.086047515273094177e-01 -1.419463604688644409e-01
-1.708753779530525208e-02 1.218142211437225342e-01 -1.354995816946029663e-01
6.101096868515014648e-01 -3.063512593507766724e-02 -2.907250821590423584e-02
6.028327941894531250e-01 -3.192937746644020081e-02 -3.546956181526184082e-02
6.085987687110900879e-01 -3.559434041380882263e-02 -1.947221718728542328e-02
6.017434000968933105e-01 -3.712037950754165649e-02 -2.592502161860466003e-02
2.543017864227294922e-01 -1.762012541294097900e-01 -7.968375831842422485e-02
2.420780360698699951e-01 -1.740833222866058350e-01 -8.530286699533462524e-02
2.509942948818206787e-01 -1.805579513311386108e-01 -7.148285955190658569e-02
2.395682781934738159e-01 -1.788082271814346313e-01 -7.749653607606887817e-02
1.192638203501701355e-01 1.032196637243032455e-02 -1.566056609153747559e-01
1.140375286340713501e-01 1.882666163146495819e-02 -1.571189314126968384e-01
1.131979078054428101e-01 3.284134436398744583e-03 -1.567126512527465820e-01
1.077064350247383118e-01 1.170174032449722290e-02 -1.573503911495208740e-01
1.988347172737121582e-01 -2.216636091470718384e-01 -7.545577734708786011e-02
1.872071623802185059e-01 -2.216894626617431641e-01 -7.634428888559341431e-02
1.933372616767883301e-01 -2.134332060813903809e-01 -7.071179151535034180e-02
1.830763369798660278e-01 -2.125383764505386353e-01 -7.220272719860076904e-02
6.462849676609039307e-02 -2.059121131896972656e-01 1.891103340312838554e-03
5.541798472404479980e-02 -2.062979042530059814e-01 -1.340876100584864616e-03
6.435558944940567017e-02 -2.054232805967330933e-01 1.134599931538105011e-02
5.531896278262138367e-02 -2.062623947858810425e-01 9.073792025446891785e-03
-3.805368840694427490e-01 -1.774138025939464569e-02 8.561947196722030640e-02
-3.964688777923583984e-01 -1.490008085966110229e-02 8.374499529600143433e-02
-3.848546445369720459e-01 -1.965460181236267090e-02 8.447719365358352661e-02
-4.014067053794860840e-01 -1.704342290759086609e-02 8.240565657615661621e-02
3.627913892269134521e-01 -1.355040669441223145e-01 5.463060364127159119e-02
3.647177517414093018e-01 -1.293592751026153564e-01 6.074541062116622925e-02
3.531282544136047363e-01 -1.321393102407455444e-01 6.056637689471244812e-02
3.559305667877197266e-01 -1.258877962827682495e-01 6.547630578279495239e-02
2.614098787307739258e-01 1.781048178672790527e-01 -1.007047249004244804e-04
2.513409852981567383e-01 1.790802180767059326e-01 -2.120428020134568214e-03
2.617923021316528320e-01 1.806592047214508057e-01 1.247455552220344543e-02
2.518774271011352539e-01 1.820548623800277710e-01 1.005250774323940277e-02
2.645104527473449707e-01 1.258588880300521851e-01 9.664572030305862427e-02
2.555938065052032471e-01 1.334485858678817749e-01 9.262540936470031738e-02
2.566140890121459961e-01 1.161085516214370728e-01 1.065293699502944946e-01
2.486114501953125000e-01 1.239931881427764893e-01 1.026819869875907898e-01
-1.438258141279220581e-01 -1.769997030496597290e-01 4.849035292863845825e-02
-1.554072797298431396e-01 -1.764765232801437378e-01 4.594959318637847900e-02
-1.415956169366836548e-01 -1.704530864953994751e-01 5.905865132808685303e-02
-1.538490653038024902e-01 -1.696178615093231201e-01 5.717519298195838928e-02
-5.321451276540756226e-02 1.966151893138885498e-01 5.234602838754653931e-02
-5.962311848998069763e-02 1.999105364084243774e-01 4.566844552755355835e-02
-5.752807483077049255e-02 1.921777725219726562e-01 6.433749198913574219e-02
-6.395626813173294067e-02 1.953285783529281616e-01 5.643982440233230591e-02
6.412879228591918945e-01 -1.248894631862640381e-02 -3.039601817727088928e-02
6.357545852661132812e-01 -6.975979544222354889e-03 -3.296061977744102478e-02
6.437195539474487305e-01 -1.211387477815151215e-02 -2.054955437779426575e-02
6.384781002998352051e-01 -6.818312685936689377e-03 -2.307785488665103912e-02
2.998164892196655273e-01 4.022016376256942749e-02 -2.309972196817398071e-01
2.921485304832458496e-01 4.007373377680778503e-02 -2.335717380046844482e-01
2.968493402004241943e-01 3.768156096339225769e-02 -2.235716134309768677e-01
2.892389595508575439e-01 3.748306259512901306e-02 -2.263112217187881470e-01
1.390402913093566895e-01 8.105605840682983398e-02 1.379068940877914429e-01
1.345713585615158081e-01 9.055257588624954224e-02 1.347640603780746460e-01
1.299585998058319092e-01 7.360964268445968628e-02 1.408477127552032471e-01
1.254139244556427002e-01 8.281531184911727905e-02 1.375540643930435181e-01
2.316862046718597412e-01 -2.710735192522406578e-03 2.843951284885406494e-01
2.229414582252502441e-01 -4.375343210995197296e-03 2.780684530735015869e-01
2.322347611188888550e-01 -1.317162998020648956e-03 2.963482439517974854e-01
2.239125221967697144e-01 -2.988870488479733467e-03 2.898446619510650635e-01
-8.806511759757995605e-02 1.980778872966766357e-01 -4.941740259528160095e-02
-9.900112450122833252e-02 1.962283253669738770e-01 -5.060781165957450867e-02
-9.194932132959365845e-02 2.025940120220184326e-01 -3.617476299405097961e-02
-1.031437665224075317e-01 2.003969550132751465e-01 -3.805064782500267029e-02
5.847041010856628418e-01 -6.518753618001937866e-02 -4.592445120215415955e-02
5.753734111785888672e-01 -6.517117470502853394e-02 -5.068300291895866394e-02
5.825374722480773926e-01 -7.289611548185348511e-02 -3.935844823718070984e-02
5.732354521751403809e-01 -7.287187874317169189e-02 -4.416419193148612976e-02
-1.995666921138763428e-01 -8.255183696746826172e-02 1.065334826707839966e-01
-2.148017436265945435e-01 -7.790434360504150391e-02 1.062236279249191284e-01
-2.081081122159957886e-01 -7.223813980817794800e-02 1.088187247514724731e-01
-2.231580018997192383e-01 -6.689003109931945801e-02 1.085279434919357300e-01
1.686626970767974854e-01 2.555587887763977051e-02 -1.527370512485504150e-01
1.603476256132125854e-01 3.747386857867240906e-02 -1.515607833862304688e-01
1.593082696199417114e-01 2.070447243750095367e-02 -1.534925103187561035e-01
1.514609456062316895e-01 3.278052806854248047e-02 -1.527418792247772217e-01
3.149752691388130188e-02 9.426003694534301758e-02 -1.455372124910354614e-01
3.285903856158256531e-02 1.053669974207878113e-01 -1.408341079950332642e-01
2.023673057556152344e-02 1.001312211155891418e-01 -1.450683176517486572e-01
2.187783643603324890e-02 1.117481514811515808e-01 -1.403145939111709595e-01
-3.722420036792755127e-01 -1.237905472517013550e-01 2.682418935000896454e-02
-3.825220763683319092e-01 -1.205807030200958252e-01 2.482234686613082886e-02
-3.706424832344055176e-01 -1.178320795297622681e-01 3.513585031032562256e-02
-3.812105059623718262e-01 -1.151272952556610107e-01 3.187482431530952454e-02
5.042498707771301270e-01 5.270171165466308594e-02 6.912828236818313599e-02
4.954845309257507324e-01 6.359967589378356934e-02 6.658695638179779053e-02
4.939598143100738525e-01 4.628538712859153748e-02 7.735870778560638428e-02
4.864004850387573242e-01 5.695688724517822266e-02 7.527727633714675903e-02
-6.058550998568534851e-02 -1.733544468879699707e-01 6.481577455997467041e-02
-7.401407510042190552e-02 -1.725469827651977539e-01 6.612240523099899292e-02
-6.340638548135757446e-02 -1.646059453487396240e-01 7.229296863079071045e-02
-7.748785614967346191e-02 -1.638065129518508911e-01 7.381723821163177490e-02
-1.757172048091888428e-01 -9.461775422096252441e-02 -1.307392716407775879e-01
-1.798308938741683960e-01 -8.541765809059143066e-02 -1.323249489068984985e-01
-1.811492145061492920e-01 -1.004564389586448669e-01 -1.270126104354858398e-01
-1.867524087429046631e-01 -9.281598031520843506e-02 -1.293582320213317871e-01
-6.488118767738342285e-01 -3.443397581577301025e-02 1.710706157609820366e-03
-6.491488814353942871e-01 -2.486471459269523621e-02 2.042972482740879059e-03
-6.564766764640808105e-01 -3.835147991776466370e-02 3.184292232617735863e-03
-6.575046777725219727e-01 -2.909810468554496765e-02 3.552194684743881226e-03
8.962164074182510376e-02 1.416660100221633911e-01 1.148964539170265198e-01
8.231898397207260132e-02 1.494097709655761719e-01 1.095899790525436401e-01
8.382511138916015625e-02 1.309391260147094727e-01 1.217948868870735168e-01
7.650000602006912231e-02 1.399069428443908691e-01 1.165539026260375977e-01
1.264274865388870239e-01 1.015052385628223419e-02 -1.560598015785217285e-01
1.213106662034988403e-01 1.898669078946113586e-02 -1.563235074281692505e-01
1.204889267683029175e-01 3.240157384425401688e-03 -1.560586243867874146e-01
1.154461130499839783e-01 1.186685450375080109e-02 -1.565192639827728271e-01
-5.097185969352722168e-01 -8.250151574611663818e-02 -2.745566889643669128e-02
-5.141701102256774902e-01 -7.670395821332931519e-02 -2.891784161329269409e-02
-5.176104903221130371e-01 -8.505397289991378784e-02 -2.407646551728248596e-02
-5.208326578140258789e-01 -7.872528582811355591e-02 -2.538048848509788513e-02
-2.889437079429626465e-01 9.290134161710739136e-02 -1.098462417721748352e-01
-2.823529541492462158e-01 1.045511364936828613e-01 -1.060070022940635681e-01
-3.019306361675262451e-01 9.592190384864807129e-02 -1.046802848577499390e-01
-2.959931194782257080e-01 1.072109788656234741e-01 -1.007293015718460083e-01
1.760200262069702148e-01 6.958829611539840698e-02 1.371154636144638062e-01
1.710832118988037109e-01 7.859253138303756714e-02 1.353673338890075684e-01
1.686447262763977051e-01 6.195813417434692383e-02 1.383359134197235107e-01
1.634970903396606445e-01 7.096438854932785034e-02 1.369564682245254517e-01
2.820740938186645508e-01 -4.318974167108535767e-02 1.117253527045249939e-01
2.726109027862548828e-01 -4.364868625998497009e-02 1.117131710052490234e-01
2.780251502990722656e-01 -3.730212524533271790e-02 1.188503205776214600e-01
2.689702808856964111e-01 -3.871149942278862000e-02 1.184117197990417480e-01
5.279138684272766113e-01 5.769314244389533997e-02 -6.901754438877105713e-02
5.174034237861633301e-01 6.460732221603393555e-02 -6.831707060337066650e-02
5.314756631851196289e-01 6.307157129049301147e-02 -6.169321760535240173e-02
5.207744836807250977e-01 6.950498372316360474e-02 -6.129679828882217407e-02
-3.776637464761734009e-02 2.064999341964721680e-01 -1.341325882822275162e-02
-4.613615944981575012e-02 2.062993049621582031e-01 -1.511996611952781677e-02
-3.960817307233810425e-02 2.074763774871826172e-01 -2.406475134193897247e-03
-4.778674989938735962e-02 2.070962488651275635e-01 -4.604539833962917328e-03
4.010567367076873779e-01 -4.609217867255210876e-02 -1.172420307993888855e-01
3.922159373760223389e-01 -3.907027095556259155e-02 -1.196423023939132690e-01
3.963203430175781250e-01 -5.666471272706985474e-02 -1.165441721677780151e-01
3.873664438724517822e-01 -5.094790458679199219e-02 -1.192816942930221558e-01
-1.288283318281173706e-01 -1.289413869380950928e-01 -1.222531124949455261e-01
-1.367296576499938965e-01 -1.242532432079315186e-01 -1.238075494766235352e-01
-1.327254474163055420e-01 -1.357124745845794678e-01 -1.185819208621978760e-01
-1.412603706121444702e-01 -1.314935833215713501e-01 -1.199899166822433472e-01
1.579828709363937378e-01 -1.106247678399085999e-01 1.033609434962272644e-01
1.503817141056060791e-01 -1.072168797254562378e-01 1.077667400240898132e-01
1.428909152746200562e-01 -1.060510575771331787e-01 1.065906211733818054e-01
1.377807557582855225e-01 -1.003085151314735413e-01 1.110944077372550964e-01
-6.022359132766723633e-01 3.575694281607866287e-03 4.265906661748886108e-02
-6.161817908287048340e-01 7.518112659454345703e-03 4.205783084034919739e-02
-6.070920825004577637e-01 1.033780723810195923e-02 4.622745886445045471e-02
-6.206744909286499023e-01 1.461525447666645050e-02 4.470493271946907043e-02
5.478419065475463867e-01 -6.564660370349884033e-02 -3.239356912672519684e-03
5.396203398704528809e-01 -6.560570746660232544e-02 -1.068591885268688202e-02
5.503172278404235840e-01 -6.753806769847869873e-02 6.594462320208549500e-03
5.424667596817016602e-01 -6.759858131408691406e-02 -1.593853812664747238e-04
-6.341109275817871094e-01 -1.293566636741161346e-02 3.266571462154388428e-02
-6.452921032905578613e-01 -8.724528364837169647e-03 3.296184539794921875e-02
-6.360795497894287109e-01 1.398530090227723122e-03 3.855906054377555847e-02
-6.471558213233947754e-01 5.552317947149276733e-03 3.885878622531890869e-02
3.358269035816192627e-01 -1.343996971845626831e-01 6.543229520320892334e-02
3.388698101043701172e-01 -1.278043985366821289e-01 6.856202334165573120e-02
3.260355591773986816e-01 -1.322353184223175049e-01 6.845875084400177002e-02
3.291084468364715576e-01 -1.249629482626914978e-01 7.152500003576278687e-02
9.615530073642730713e-02 1.553767025470733643e-01 -1.065771207213401794e-01
8.156284689903259277e-02 1.565757542848587036e-01 -1.065489873290061951e-01
9.482847154140472412e-02 1.650752425193786621e-01 -9.504132717847824097e-02
8.028907328844070435e-02 1.662692874670028687e-01 -9.494214504957199097e-02
5.176072716712951660e-01 -1.265915930271148682e-01 -2.081956528127193451e-02
5.112704634666442871e-01 -1.294722855091094971e-01 -2.269825711846351624e-02
5.137756466865539551e-01 -1.260002553462982178e-01 -1.488286070525646210e-02
5.111171007156372070e-01 -1.264535188674926758e-01 -1.373941265046596527e-02
-5.456094145774841309e-01 -1.456408295780420303e-02 -4.941206425428390503e-03
-5.502489805221557617e-01 -6.927473470568656921e-03 -4.881070926785469055e-03
-5.569440126419067383e-01 -2.179386839270591736e-02 -5.303172860294580460e-03
-5.628375411033630371e-01 -1.292739156633615494e-02 -5.016786046326160431e-03
-8.618085384368896484e-01 2.760961651802062988e-02 -1.369011122733354568e-03
-8.675892353057861328e-01 3.360363095998764038e-02 -1.651518046855926514e-03
-8.767560720443725586e-01 2.255114912986755371e-02 -9.056702838279306889e-04
-8.818017244338989258e-01 2.862307615578174591e-02 -7.164067355915904045e-04
-5.579622983932495117e-01 -3.316145390272140503e-02 -9.084049612283706665e-03
-5.645548105239868164e-01 -2.390001527965068817e-02 -7.981816306710243225e-03
-5.683746337890625000e-01 -3.438919782638549805e-02 -7.203021086752414703e-03
-5.743742585182189941e-01 -2.615974098443984985e-02 -7.277892902493476868e-03
-5.108367204666137695e-01 -4.459600895643234253e-02 -9.932658635079860687e-03
-5.131216645240783691e-01 -3.555956855416297913e-02 -8.877155371010303497e-03
-5.201566219329833984e-01 -4.867440834641456604e-02 -1.116703078150749207e-02
-5.227791070938110352e-01 -4.070319980382919312e-02 -1.083723269402980804e-02
-3.411792814731597900e-01 1.404071748256683350e-01 7.481460459530353546e-03
-3.463544547557830811e-01 1.464549601078033447e-01 5.279385484755039215e-03
-3.461075425148010254e-01 1.354003101587295532e-01 1.015162654221057892e-02
-3.514853715896606445e-01 1.417116671800613403e-01 7.648924831300973892e-03
2.036608904600143433e-01 4.546116665005683899e-02 1.369489580392837524e-01
1.972598433494567871e-01 5.702205374836921692e-02 1.358080208301544189e-01
1.955083608627319336e-01 3.957057371735572815e-02 1.376872658729553223e-01
1.903301030397415161e-01 5.060977488756179810e-02 1.373049318790435791e-01
1.932298541069030762e-01 -2.587663829326629639e-01 -1.005119606852531433e-01
1.779484003782272339e-01 -2.599723339080810547e-01 -1.017309725284576416e-01
1.894706934690475464e-01 -2.485046088695526123e-01 -9.232120960950851440e-02
1.761217266321182251e-01 -2.506562173366546631e-01 -9.425832331180572510e-02
-3.440204262733459473e-01 -6.288214772939682007e-02 -1.004796251654624939e-01
-3.476963937282562256e-01 -5.422426015138626099e-02 -1.021345108747482300e-01
-3.492075204849243164e-01 -6.907032430171966553e-02 -9.679278731346130371e-02
-3.535866439342498779e-01 -6.096620857715606689e-02 -9.884150326251983643e-02
-1.165319141000509262e-02 6.287252157926559448e-02 1.459679454565048218e-01
-2.415058203041553497e-02 7.176784425973892212e-02 1.450783312320709229e-01
-2.061436884105205536e-02 5.258781462907791138e-02 1.481000632047653198e-01
-3.332241624593734741e-02 6.084793433547019958e-02 1.475534290075302124e-01
