7.153310394287109375e+01 -2.647128601074218750e+02 8.363485336303710938e+00
7.311705017089843750e+01 -2.664461059570312500e+02 1.226400184631347656e+01
7.039226531982421875e+01 -2.651322021484375000e+02 1.127557086944580078e+01
7.301994323730468750e+01 -9.804538726806640625e+01 7.661946296691894531e+00
7.269912719726562500e+01 -9.303282928466796875e+01 8.434786796569824219e+00
7.171118927001953125e+01 -9.976625061035156250e+01 1.016522789001464844e+01
7.161289978027343750e+01 -9.392703247070312500e+01 1.112740039825439453e+01
7.033977508544921875e+01 -9.984864044189453125e+01 9.278479766845703125e+01
6.999063873291015625e+01 -9.712123870849609375e+01 9.235170745849609375e+01
7.111260986328125000e+01 -1.002341918945312500e+02 9.550695037841796875e+01
7.077899932861328125e+01 -9.764935302734375000e+01 9.503482055664062500e+01
1.239645080566406250e+02 -2.696778869628906250e+02 6.659571838378906250e+01
1.215362167358398438e+02 -2.699148864746093750e+02 6.456063079833984375e+01
1.240245361328125000e+02 -2.698912963867187500e+02 7.035498809814453125e+01
1.211420211791992188e+02 -2.703182983398437500e+02 6.836691284179687500e+01
1.245343017578125000e+02 -2.686517333984375000e+02 1.031307678222656250e+02
1.222895660400390625e+02 -2.690963745117187500e+02 1.012132110595703125e+02
1.244791030883789062e+02 -2.684232788085937500e+02 1.065513153076171875e+02
1.219138259887695312e+02 -2.685557556152343750e+02 1.051241302490234375e+02
7.101467895507812500e+01 -7.879478454589843750e+01 1.076169509887695312e+02
7.016555023193359375e+01 -7.642133331298828125e+01 1.068467254638671875e+02
7.159767150878906250e+01 -7.892230224609375000e+01 1.104208374023437500e+02
7.066886901855468750e+01 -7.669855499267578125e+01 1.094261398315429688e+02
1.286932067871093750e+02 -1.393103179931640625e+02 1.312075195312500000e+02
1.289621429443359375e+02 -1.349753112792968750e+02 1.297642364501953125e+02
1.286867675781250000e+02 -1.410573883056640625e+02 1.338324890136718750e+02
1.289104461669921875e+02 -1.368190612792968750e+02 1.324007720947265625e+02
1.299899444580078125e+02 -2.683812255859375000e+02 1.399714202880859375e+02
1.304391937255859375e+02 -2.654411315917968750e+02 1.397662963867187500e+02
1.286694030761718750e+02 -2.685848388671875000e+02 1.429648284912109375e+02
1.291080017089843750e+02 -2.654939575195312500e+02 1.428931121826171875e+02
8.250968933105468750e+01 -1.520673828125000000e+02 1.426412200927734375e+02
8.113563537597656250e+01 -1.496679382324218750e+02 1.426621704101562500e+02
8.043900299072265625e+01 -1.538752899169921875e+02 1.428823547363281250e+02
7.935799407958984375e+01 -1.506329040527343750e+02 1.430276336669921875e+02
4.392685699462890625e+01 -6.629039764404296875e+01 9.800276756286621094e+00
4.121928787231445312e+01 -6.573466491699218750e+01 9.221938133239746094e+00
4.278378677368164062e+01 -6.547967529296875000e+01 1.239761161804199219e+01
4.026481628417968750e+01 -6.493380737304687500e+01 1.160570812225341797e+01
7.419972991943359375e+01 -2.371022796630859375e+02 1.536359596252441406e+01
7.458423614501953125e+01 -2.333598632812500000e+02 1.453873157501220703e+01
7.462605285644531250e+01 -2.376171875000000000e+02 2.040731239318847656e+01
7.489761352539062500e+01 -2.338716430664062500e+02 1.935488510131835938e+01
6.403701782226562500e+01 -2.213329162597656250e+02 9.496782684326171875e+01
6.351597595214843750e+01 -2.195093994140625000e+02 9.377683258056640625e+01
6.463101196289062500e+01 -2.216748962402343750e+02 9.749871063232421875e+01
6.416555786132812500e+01 -2.197742156982421875e+02 9.644862365722656250e+01
7.484718322753906250e+01 -1.679587860107421875e+02 8.280037689208984375e+01
7.416058349609375000e+01 -1.645467376708984375e+02 8.135624694824218750e+01
7.538100433349609375e+01 -1.683331146240234375e+02 8.577993774414062500e+01
7.473123931884765625e+01 -1.648628997802734375e+02 8.427699279785156250e+01
9.046685028076171875e+01 -5.613875198364257812e+01 1.446066741943359375e+02
8.795786285400390625e+01 -5.489563751220703125e+01 1.437115783691406250e+02
8.853564453125000000e+01 -5.846721649169921875e+01 1.456702880859375000e+02
8.613941192626953125e+01 -5.667233276367187500e+01 1.452793121337890625e+02
1.097982864379882812e+02 -1.133760070800781250e+02 1.453098297119140625e+02
1.087373428344726562e+02 -1.094584808349609375e+02 1.453389587402343750e+02
1.058458786010742188e+02 -1.148869552612304688e+02 1.450849304199218750e+02
1.047137069702148438e+02 -1.109351882934570312e+02 1.449068756103515625e+02
7.170284271240234375e+01 -1.963878784179687500e+02 1.049843368530273438e+02
7.131388854980468750e+01 -1.934415283203125000e+02 1.037127990722656250e+02
7.271311950683593750e+01 -1.972153015136718750e+02 1.077491607666015625e+02
7.226044464111328125e+01 -1.942839660644531250e+02 1.064027709960937500e+02
9.908006286621093750e+01 -2.691336975097656250e+02 1.191487579345703125e+02
9.488349151611328125e+01 -2.694452819824218750e+02 1.178570251464843750e+02
9.903175354003906250e+01 -2.689595642089843750e+02 1.231504135131835938e+02
9.597679138183593750e+01 -2.693027038574218750e+02 1.212682876586914062e+02
5.756948852539062500e+01 -2.322914123535156250e+02 8.175661468505859375e+01
5.606695175170898438e+01 -2.310025177001953125e+02 8.197418212890625000e+01
5.502130508422851562e+01 -2.331044616699218750e+02 8.127202606201171875e+01
5.361672592163085938e+01 -2.317303924560546875e+02 8.163207244873046875e+01
1.287229766845703125e+02 -1.849538421630859375e+02 8.095962524414062500e+00
1.279751892089843750e+02 -1.808069763183593750e+02 6.685517311096191406e+00
1.292900848388671875e+02 -1.852017669677734375e+02 1.142173767089843750e+01
1.286419830322265625e+02 -1.812569274902343750e+02 1.013818359375000000e+01
6.623353576660156250e+01 -1.586994323730468750e+02 1.036684265136718750e+02
6.606671905517578125e+01 -1.563786010742187500e+02 1.033104095458984375e+02
6.681282806396484375e+01 -1.578432006835937500e+02 1.066227569580078125e+02
6.659043121337890625e+01 -1.554568634033203125e+02 1.059770507812500000e+02
6.927043914794921875e+01 -2.070778198242187500e+02 1.064788513183593750e+02
6.952455902099609375e+01 -2.039340057373046875e+02 1.077941055297851562e+02
6.891860198974609375e+01 -2.071696014404296875e+02 1.079241790771484375e+02
6.912358093261718750e+01 -2.041474609375000000e+02 1.090443954467773438e+02
1.110219955444335938e+02 -1.216783218383789062e+02 1.447954101562500000e+02
1.111706542968750000e+02 -1.171049499511718750e+02 1.452444915771484375e+02
1.075323410034179688e+02 -1.230787963867187500e+02 1.440638732910156250e+02
1.074981765747070312e+02 -1.183765487670898438e+02 1.444531097412109375e+02
5.958913421630859375e+01 -8.620273590087890625e+01 8.677426147460937500e+01
5.876734161376953125e+01 -8.444509887695312500e+01 8.680644989013671875e+01
5.819870376586914062e+01 -8.699179077148437500e+01 8.702228546142578125e+01
5.768957901000976562e+01 -8.539789581298828125e+01 8.695394897460937500e+01
1.288350219726562500e+02 -1.431836395263671875e+02 9.154383850097656250e+01
1.288124694824218750e+02 -1.400616302490234375e+02 8.995494079589843750e+01
1.291085357666015625e+02 -1.432054443359375000e+02 9.626586151123046875e+01
1.288566284179687500e+02 -1.400983276367187500e+02 9.456317901611328125e+01
1.290507812500000000e+02 -1.674542541503906250e+02 1.427655487060546875e+02
1.266091003417968750e+02 -1.627473144531250000e+02 1.433735504150390625e+02
1.281537628173828125e+02 -1.680318450927734375e+02 1.446835479736328125e+02
1.257185668945312500e+02 -1.632215423583984375e+02 1.452630462646484375e+02
6.838942718505859375e+01 -2.578876953125000000e+02 9.439361572265625000e+01
6.786589813232421875e+01 -2.551958160400390625e+02 9.340830993652343750e+01
6.888069152832031250e+01 -2.584702758789062500e+02 9.719567108154296875e+01
6.839455413818359375e+01 -2.558079376220703125e+02 9.615793609619140625e+01
1.295590972900390625e+02 -2.710119934082031250e+02 5.449580001831054688e+01
1.298080596923828125e+02 -2.698593139648437500e+02 5.228319931030273438e+01
1.290682067871093750e+02 -2.715077514648437500e+02 5.841379547119140625e+01
1.293750457763671875e+02 -2.701785278320312500e+02 5.636840820312500000e+01
4.027235031127929688e+01 -7.277729797363281250e+01 8.595925140380859375e+01
3.823377227783203125e+01 -7.192372894287109375e+01 8.441873931884765625e+01
4.130061721801757812e+01 -7.240126037597656250e+01 8.906488037109375000e+01
3.873522949218750000e+01 -7.128466796875000000e+01 8.765101623535156250e+01
1.289555053710937500e+02 -1.668232879638671875e+02 2.398541069030761719e+01
1.287717742919921875e+02 -1.635774230957031250e+02 2.232991600036621094e+01
1.289080810546875000e+02 -1.670482482910156250e+02 2.871324539184570312e+01
1.287365417480468750e+02 -1.637147674560546875e+02 2.704341506958007812e+01
6.173576736450195312e+01 -1.889559631347656250e+02 8.260009765625000000e+01
5.990317916870117188e+01 -1.876952056884765625e+02 8.221934509277343750e+01
6.013512039184570312e+01 -1.907119598388671875e+02 8.212860107421875000e+01
5.851562118530273438e+01 -1.892722930908203125e+02 8.183872985839843750e+01
7.493681335449218750e+01 -1.855927429199218750e+02 3.072205162048339844e+01
7.482292938232421875e+01 -1.811288604736328125e+02 2.898794555664062500e+01
7.515328979492187500e+01 -1.859555816650390625e+02 3.514173889160156250e+01
7.497814941406250000e+01 -1.820633392333984375e+02 3.293873977661132812e+01
5.295189285278320312e+01 -1.718010711669921875e+02 8.768451690673828125e+01
5.203710556030273438e+01 -1.694559173583984375e+02 8.754353332519531250e+01
5.127027893066406250e+01 -1.731990509033203125e+02 8.755472564697265625e+01
5.033096313476562500e+01 -1.708705902099609375e+02 8.741835021972656250e+01
1.107732849121093750e+02 -2.384154815673828125e+02 1.479014587402343750e+02
1.106359405517578125e+02 -2.353075256347656250e+02 1.478662109375000000e+02
1.068778076171875000e+02 -2.420636749267578125e+02 1.471044158935546875e+02
1.063356628417968750e+02 -2.386746673583984375e+02 1.473112487792968750e+02
6.896195983886718750e+01 -7.249544525146484375e+01 7.863551330566406250e+01
6.869976806640625000e+01 -7.112593841552734375e+01 7.729055786132812500e+01
6.840486145019531250e+01 -7.372611236572265625e+01 8.234220123291015625e+01
6.862464141845703125e+01 -7.205468750000000000e+01 8.095996093750000000e+01
1.204418640136718750e+02 -7.587570953369140625e+01 1.479834289550781250e+02
1.188104400634765625e+02 -7.177585601806640625e+01 1.482554321289062500e+02
1.173696899414062500e+02 -7.796220397949218750e+01 1.486320343017578125e+02
1.159017868041992188e+02 -7.391073608398437500e+01 1.488578491210937500e+02
7.501498413085937500e+01 -2.223037414550781250e+02 6.087885284423828125e+01
7.536329650878906250e+01 -2.178200378417968750e+02 6.031885528564453125e+01
7.487898254394531250e+01 -2.224169006347656250e+02 6.395526123046875000e+01
7.519823455810546875e+01 -2.178997192382812500e+02 6.335497665405273438e+01
7.521936035156250000e+01 -2.662974243164062500e+02 9.120256042480468750e+01
7.407447052001953125e+01 -2.642927856445312500e+02 9.065161132812500000e+01
7.502754211425781250e+01 -2.666752929687500000e+02 9.373812103271484375e+01
7.405365753173828125e+01 -2.648513488769531250e+02 9.318472290039062500e+01
5.218667221069335938e+01 -7.676794433593750000e+01 8.027506256103515625e+01
4.992919540405273438e+01 -7.516567993164062500e+01 7.992919158935546875e+01
5.008544540405273438e+01 -7.699939727783203125e+01 8.243785858154296875e+01
4.811656570434570312e+01 -7.522091674804687500e+01 8.211461639404296875e+01
9.026550292968750000e+01 -1.260416107177734375e+02 1.476031799316406250e+02
8.726990509033203125e+01 -1.229572296142578125e+02 1.474872894287109375e+02
8.739827728271484375e+01 -1.264704895019531250e+02 1.479727325439453125e+02
8.441734313964843750e+01 -1.233245773315429688e+02 1.477189025878906250e+02
1.285964508056640625e+02 -1.866801910400390625e+02 8.645391082763671875e+01
1.288745422363281250e+02 -1.829357147216796875e+02 8.453115081787109375e+01
1.290792388916015625e+02 -1.871027679443359375e+02 9.224917602539062500e+01
1.290912475585937500e+02 -1.833037109375000000e+02 9.025318145751953125e+01
9.675799560546875000e+01 -5.873069763183593750e+01 8.244208526611328125e+01
9.234829711914062500e+01 -5.896720123291015625e+01 8.088590240478515625e+01
9.623719024658203125e+01 -5.824935150146484375e+01 8.672148895263671875e+01
9.154952239990234375e+01 -5.851391601562500000e+01 8.541298675537109375e+01
4.599111557006835938e+01 -2.599398193359375000e+02 7.236196136474609375e+01
4.341232681274414062e+01 -2.597529296875000000e+02 7.095377349853515625e+01
4.548189544677734375e+01 -2.608881835937500000e+02 7.509870910644531250e+01
4.355419540405273438e+01 -2.600732421875000000e+02 7.363021850585937500e+01
1.309715881347656250e+02 -2.285097656250000000e+02 1.466898498535156250e+02
1.301972351074218750e+02 -2.250613708496093750e+02 1.466890563964843750e+02
1.269438476562500000e+02 -2.300903778076171875e+02 1.484191284179687500e+02
1.261717605590820312e+02 -2.267319183349609375e+02 1.483638153076171875e+02
7.202817535400390625e+01 -1.445376281738281250e+02 1.437024993896484375e+02
7.091061401367187500e+01 -1.408345184326171875e+02 1.436254272460937500e+02
7.176617431640625000e+01 -1.450544281005859375e+02 1.461830444335937500e+02
7.058904266357421875e+01 -1.412240295410156250e+02 1.461766204833984375e+02
1.335831298828125000e+02 -2.506560668945312500e+02 1.420350189208984375e+02
1.339214630126953125e+02 -2.473263397216796875e+02 1.420850524902343750e+02
1.302420959472656250e+02 -2.520626678466796875e+02 1.451856689453125000e+02
1.304154663085937500e+02 -2.485290985107421875e+02 1.454331207275390625e+02
8.901412200927734375e+01 -2.650127563476562500e+02 1.483377075195312500e+02
8.641286468505859375e+01 -2.637242431640625000e+02 1.477479095458984375e+02
8.797068786621093750e+01 -2.647937011718750000e+02 1.501119689941406250e+02
8.536943054199218750e+01 -2.635051879882812500e+02 1.495221710205078125e+02
1.287429809570312500e+02 -2.341138458251953125e+02 1.282117767333984375e+02
1.288900756835937500e+02 -2.303231506347656250e+02 1.278696289062500000e+02
1.285766601562500000e+02 -2.343305358886718750e+02 1.308998107910156250e+02
1.286999969482421875e+02 -2.307228546142578125e+02 1.304702301025390625e+02
1.284626007080078125e+02 -1.788772277832031250e+02 4.547302627563476562e+01
1.286033325195312500e+02 -1.750196380615234375e+02 4.283190917968750000e+01
1.288350982666015625e+02 -1.804249420166015625e+02 5.017551040649414062e+01
1.288875274658203125e+02 -1.765366363525390625e+02 4.770001602172851562e+01
1.290141143798828125e+02 -2.088055114746093750e+02 2.872474098205566406e+01
1.290314178466796875e+02 -2.046993103027343750e+02 2.808269119262695312e+01
1.291531524658203125e+02 -2.091019744873046875e+02 3.312983703613281250e+01
1.290886840820312500e+02 -2.048780059814453125e+02 3.222179794311523438e+01
1.294690399169921875e+02 -2.072859649658203125e+02 9.634722709655761719e+00
1.292295074462890625e+02 -2.035770111083984375e+02 9.421419143676757812e+00
1.290773315429687500e+02 -2.083388977050781250e+02 1.218614959716796875e+01
1.288426666259765625e+02 -2.045662384033203125e+02 1.181277084350585938e+01
7.493589019775390625e+01 -1.394592742919921875e+02 8.039747619628906250e+01
7.350305175781250000e+01 -1.363496246337890625e+02 7.948030853271484375e+01
7.560975646972656250e+01 -1.390958557128906250e+02 8.314713287353515625e+01
7.423857116699218750e+01 -1.360431671142578125e+02 8.225059509277343750e+01
4.437947082519531250e+01 -6.877928161621093750e+01 4.203097152709960938e+01
4.231826019287109375e+01 -6.638219451904296875e+01 4.002207183837890625e+01
4.451317596435546875e+01 -6.978712463378906250e+01 4.542116165161132812e+01
4.217850875854492188e+01 -6.738845062255859375e+01 4.372555923461914062e+01
7.566053771972656250e+01 -1.400296173095703125e+02 1.415919036865234375e+02
7.401560974121093750e+01 -1.367217559814453125e+02 1.416957397460937500e+02
7.419691467285156250e+01 -1.407862548828125000e+02 1.431757354736328125e+02
7.272689819335937500e+01 -1.372684783935546875e+02 1.433410186767578125e+02
1.290838165283203125e+02 -2.001942749023437500e+02 1.483215942382812500e+02
1.281398925781250000e+02 -1.972694244384765625e+02 1.479981842041015625e+02
1.261217193603515625e+02 -2.016811523437500000e+02 1.495081481933593750e+02
1.253021316528320312e+02 -1.987144470214843750e+02 1.492104949951171875e+02
4.576440429687500000e+01 -6.745879364013671875e+01 6.067506790161132812e+01
4.196982192993164062e+01 -6.655554199218750000e+01 6.065449905395507812e+01
4.490686035156250000e+01 -6.797166442871093750e+01 6.292490005493164062e+01
4.113243484497070312e+01 -6.712742614746093750e+01 6.271718215942382812e+01
1.286831512451171875e+02 -2.681026306152343750e+02 1.238816528320312500e+02
1.289233856201171875e+02 -2.654040832519531250e+02 1.221119766235351562e+02
1.287814178466796875e+02 -2.687213439941406250e+02 1.271331710815429688e+02
1.287036437988281250e+02 -2.661758728027343750e+02 1.257318191528320312e+02
5.031739807128906250e+01 -7.439780426025390625e+01 7.792237854003906250e+01
4.793674087524414062e+01 -7.309175872802734375e+01 7.762577056884765625e+01
4.824886322021484375e+01 -7.466179656982421875e+01 8.041455841064453125e+01
4.614476394653320312e+01 -7.301627349853515625e+01 8.007991790771484375e+01
5.974576950073242188e+01 -9.542076110839843750e+01 8.242561340332031250e+01
5.812255477905273438e+01 -9.439161682128906250e+01 8.231999206542968750e+01
5.836073303222656250e+01 -9.702151489257812500e+01 8.175312042236328125e+01
5.660245895385742188e+01 -9.596620941162109375e+01 8.154317474365234375e+01
9.858638763427734375e+01 -1.670917358398437500e+02 2.051103115081787109e+00
9.734516143798828125e+01 -1.629556427001953125e+02 2.206625223159790039e+00
9.529199981689453125e+01 -1.709111022949218750e+02 1.753097295761108398e+00
9.400451660156250000e+01 -1.666197814941406250e+02 1.928933620452880859e+00
7.248062133789062500e+01 -2.163826141357421875e+02 1.114143218994140625e+02
7.214288330078125000e+01 -2.135843200683593750e+02 1.106183166503906250e+02
7.289344024658203125e+01 -2.178408508300781250e+02 1.141021270751953125e+02
7.251268768310546875e+01 -2.149107818603515625e+02 1.130626068115234375e+02
7.492652893066406250e+01 -1.146034698486328125e+02 8.907214355468750000e+01
7.448854827880859375e+01 -1.118530502319335938e+02 8.892304992675781250e+01
7.469387817382812500e+01 -1.157891845703125000e+02 9.144564056396484375e+01
7.405057525634765625e+01 -1.129056625366210938e+02 9.126045227050781250e+01
3.461449813842773438e+01 -1.727118530273437500e+02 8.323999023437500000e+01
3.455733108520507812e+01 -1.687298889160156250e+02 8.362949371337890625e+01
3.308688735961914062e+01 -1.740347900390625000e+02 8.467227935791015625e+01
3.289509963989257812e+01 -1.700586395263671875e+02 8.507347106933593750e+01
3.430257797241210938e+01 -2.632129821777343750e+02 8.443829345703125000e+01
3.228123092651367188e+01 -2.614958190917968750e+02 8.317861938476562500e+01
3.460870361328125000e+01 -2.641227416992187500e+02 8.801852416992187500e+01
3.211375808715820312e+01 -2.623150939941406250e+02 8.653968048095703125e+01
8.331077575683593750e+01 -6.042924880981445312e+01 3.820768117904663086e+00
7.920017242431640625e+01 -5.974077606201171875e+01 3.841399908065795898e+00
8.275054931640625000e+01 -5.873338699340820312e+01 6.242061138153076172e+00
7.889334106445312500e+01 -5.843052291870117188e+01 6.024264335632324219e+00
7.462794494628906250e+01 -1.613586425781250000e+02 2.671351814270019531e+01
7.471915435791015625e+01 -1.558425598144531250e+02 2.677838706970214844e+01
7.486603546142578125e+01 -1.628398895263671875e+02 3.064876556396484375e+01
7.491133880615234375e+01 -1.570134429931640625e+02 3.064778137207031250e+01
6.907911682128906250e+01 -6.277721023559570312e+01 1.006893463134765625e+02
6.892519378662109375e+01 -6.050008773803710938e+01 1.000873031616210938e+02
6.963195037841796875e+01 -6.322181701660156250e+01 1.032766571044921875e+02
6.954640960693359375e+01 -6.071364593505859375e+01 1.028404006958007812e+02
7.456637573242187500e+01 -2.391920013427734375e+02 1.341762084960937500e+02
7.451086425781250000e+01 -2.358838043212890625e+02 1.341987304687500000e+02
7.452366638183593750e+01 -2.388549194335937500e+02 1.363681182861328125e+02
7.356852722167968750e+01 -2.354807586669921875e+02 1.361524658203125000e+02
1.176874923706054688e+02 -1.795018920898437500e+02 1.439524688720703125e+02
1.170554885864257812e+02 -1.749779663085937500e+02 1.439218750000000000e+02
1.145916976928710938e+02 -1.813326873779296875e+02 1.449772644042968750e+02
1.137943725585937500e+02 -1.770507965087890625e+02 1.448935241699218750e+02
1.201988906860351562e+02 -5.885103225708007812e+01 1.905874824523925781e+01
1.174599838256835938e+02 -5.855353164672851562e+01 1.789256858825683594e+01
1.203386001586914062e+02 -5.887157058715820312e+01 2.334308242797851562e+01
1.175752334594726562e+02 -5.852437591552734375e+01 2.224109077453613281e+01
1.282097320556640625e+02 -1.703030242919921875e+02 5.669926452636718750e+01
1.284596557617187500e+02 -1.650602569580078125e+02 5.611084747314453125e+01
1.287729492187500000e+02 -1.716099243164062500e+02 6.106921386718750000e+01
1.291263580322265625e+02 -1.665138092041015625e+02 6.062751388549804688e+01
8.581570434570312500e+01 -2.729970397949218750e+02 1.444454040527343750e+02
8.349703979492187500e+01 -2.716956787109375000e+02 1.441781158447265625e+02
8.543716430664062500e+01 -2.722645874023437500e+02 1.469118804931640625e+02
8.302859497070312500e+01 -2.707811279296875000e+02 1.464505004882812500e+02
1.300578765869140625e+02 -5.855029296875000000e+01 7.490197658538818359e+00
1.287631683349609375e+02 -5.575937652587890625e+01 7.172283649444580078e+00
1.305148162841796875e+02 -5.859751892089843750e+01 1.071044063568115234e+01
1.290143280029296875e+02 -5.646486282348632812e+01 9.710786819458007812e+00
7.520830535888671875e+01 -2.650053710937500000e+02 2.904061889648437500e+01
7.469634246826171875e+01 -2.632015075683593750e+02 2.823311424255371094e+01
7.457306671142578125e+01 -2.648325195312500000e+02 3.182788658142089844e+01
7.420581054687500000e+01 -2.627739562988281250e+02 3.115345382690429688e+01
6.468338775634765625e+01 -6.192254638671875000e+01 8.214373779296875000e+01
6.288053894042968750e+01 -6.083992004394531250e+01 8.130377197265625000e+01
6.309469604492187500e+01 -6.251521682739257812e+01 8.443123626708984375e+01
6.102586746215820312e+01 -6.150727462768554688e+01 8.369915771484375000e+01
5.820792770385742188e+01 -1.833762817382812500e+02 8.312571716308593750e+01
5.775839996337890625e+01 -1.814076995849609375e+02 8.305244445800781250e+01
5.681711196899414062e+01 -1.856166687011718750e+02 8.216649627685546875e+01
5.586454391479492188e+01 -1.839263153076171875e+02 8.191865539550781250e+01
1.042434844970703125e+02 -2.112209014892578125e+02 1.438745880126953125e+02
1.026814956665039062e+02 -2.068565826416015625e+02 1.441110382080078125e+02
1.003542404174804688e+02 -2.128163452148437500e+02 1.442418823242187500e+02
9.824634552001953125e+01 -2.088963623046875000e+02 1.442685699462890625e+02
7.468584442138671875e+01 -2.357052764892578125e+02 6.429141998291015625e+01
7.482748413085937500e+01 -2.320532531738281250e+02 6.414682769775390625e+01
7.470714569091796875e+01 -2.362493591308593750e+02 6.739313507080078125e+01
7.479229736328125000e+01 -2.325688781738281250e+02 6.731743621826171875e+01
6.372367095947265625e+01 -1.437647247314453125e+02 8.712602996826171875e+01
6.262910461425781250e+01 -1.418247680664062500e+02 8.703722381591796875e+01
6.245125961303710938e+01 -1.445775299072265625e+02 8.705756378173828125e+01
6.133650588989257812e+01 -1.428034667968750000e+02 8.699121093750000000e+01
3.632928085327148438e+01 -6.669770812988281250e+01 7.841207122802734375e+01
3.580367660522460938e+01 -6.392750167846679688e+01 7.723575592041015625e+01
3.569517517089843750e+01 -6.783277893066406250e+01 8.086736297607421875e+01
3.510830307006835938e+01 -6.541245269775390625e+01 7.971062469482421875e+01
1.126738510131835938e+02 -1.376801452636718750e+02 1.896264553070068359e+00
1.114076385498046875e+02 -1.342601623535156250e+02 2.191140651702880859e+00
1.093286514282226562e+02 -1.404995574951171875e+02 1.628026366233825684e+00
1.077781829833984375e+02 -1.372258911132812500e+02 1.887319207191467285e+00
1.302325744628906250e+02 -2.669017639160156250e+02 8.072931671142578125e+01
1.289375152587890625e+02 -2.668347167968750000e+02 7.888339233398437500e+01
1.296848754882812500e+02 -2.668894958496093750e+02 8.346267700195312500e+01
1.281552886962890625e+02 -2.671733398437500000e+02 8.149858856201171875e+01
7.455830383300781250e+01 -1.351548614501953125e+02 8.841004180908203125e+01
7.425247955322265625e+01 -1.326788787841796875e+02 8.746659851074218750e+01
7.448216247558593750e+01 -1.346068878173828125e+02 9.122113037109375000e+01
7.438335418701171875e+01 -1.320272521972656250e+02 9.100463867187500000e+01
4.738370895385742188e+01 -6.614698028564453125e+01 6.211810302734375000e+01
4.367655563354492188e+01 -6.522033691406250000e+01 6.196908569335937500e+01
4.678923416137695312e+01 -6.632155609130859375e+01 6.462179565429687500e+01
4.296520614624023438e+01 -6.571983337402343750e+01 6.432264709472656250e+01
4.543198394775390625e+01 -2.364913177490234375e+02 8.616732788085937500e+01
4.444791030883789062e+01 -2.332426910400390625e+02 8.609463500976562500e+01
4.359283828735351562e+01 -2.381644592285156250e+02 8.629829406738281250e+01
4.221790313720703125e+01 -2.346897583007812500e+02 8.593930053710937500e+01
1.027933425903320312e+02 -1.794603424072265625e+02 1.472910919189453125e+02
1.031590042114257812e+02 -1.753242645263671875e+02 1.471793518066406250e+02
9.839485931396484375e+01 -1.819279785156250000e+02 1.470439910888671875e+02
9.845627593994140625e+01 -1.777099609375000000e+02 1.468374176025390625e+02
7.464498901367187500e+01 -1.507438201904296875e+02 1.324470367431640625e+02
7.477797698974609375e+01 -1.476892547607421875e+02 1.308515319824218750e+02
7.464688873291015625e+01 -1.510866394042968750e+02 1.351835021972656250e+02
7.468811798095703125e+01 -1.481029968261718750e+02 1.338014068603515625e+02
8.722682189941406250e+01 -2.696841735839843750e+02 1.344200286865234375e+02
8.478562164306640625e+01 -2.693000793457031250e+02 1.338004150390625000e+02
8.649428558349609375e+01 -2.688132019042968750e+02 1.379837493896484375e+02
8.411510467529296875e+01 -2.683887939453125000e+02 1.375809631347656250e+02
1.288463287353515625e+02 -1.209534072875976562e+02 1.349307708740234375e+02
1.288695526123046875e+02 -1.167664031982421875e+02 1.342769470214843750e+02
1.288203735351562500e+02 -1.214392852783203125e+02 1.382145385742187500e+02
1.288959350585937500e+02 -1.173030548095703125e+02 1.375218200683593750e+02
7.591039276123046875e+01 -1.995629730224609375e+02 1.348500823974609375e+02
7.532676696777343750e+01 -1.961234283447265625e+02 1.348427581787109375e+02
7.423577880859375000e+01 -2.012850952148437500e+02 1.361003875732421875e+02
7.405337524414062500e+01 -1.977283020019531250e+02 1.357523651123046875e+02
6.410524749755859375e+01 -1.622982788085937500e+02 8.719444274902343750e+01
6.292466354370117188e+01 -1.609199371337890625e+02 8.696234130859375000e+01
6.279663467407226562e+01 -1.637924652099609375e+02 8.728195190429687500e+01
6.165513992309570312e+01 -1.625344238281250000e+02 8.710092926025390625e+01
8.075571441650390625e+01 -2.701091003417968750e+02 8.952733612060546875e+01
7.922154998779296875e+01 -2.690740966796875000e+02 8.908995056152343750e+01
8.092542266845703125e+01 -2.700856628417968750e+02 9.171274566650390625e+01
7.947061157226562500e+01 -2.690369262695312500e+02 9.126015472412109375e+01
7.196349334716796875e+01 -2.568861999511718750e+02 1.153439941406250000e+02
7.148899841308593750e+01 -2.540700988769531250e+02 1.149161224365234375e+02
7.322138977050781250e+01 -2.581890869140625000e+02 1.195505371093750000e+02
7.282658386230468750e+01 -2.555520782470703125e+02 1.191376953125000000e+02
7.446501159667968750e+01 -8.235964965820312500e+01 3.784158325195312500e+01
7.442944335937500000e+01 -7.726993560791015625e+01 3.811510467529296875e+01
7.470370483398437500e+01 -8.307590484619140625e+01 4.228457260131835938e+01
7.475406646728515625e+01 -7.804606628417968750e+01 4.249342346191406250e+01
6.766877746582031250e+01 -1.500025329589843750e+02 8.250154113769531250e+01
6.580984497070312500e+01 -1.483944244384765625e+02 8.226197814941406250e+01
6.728840637207031250e+01 -1.505607604980468750e+02 8.244600677490234375e+01
6.541828155517578125e+01 -1.489609375000000000e+02 8.220752716064453125e+01
7.475250244140625000e+01 -9.851055145263671875e+01 8.757234191894531250e+01
7.430438995361328125e+01 -9.571502685546875000e+01 8.711709594726562500e+01
7.386721801757812500e+01 -9.951048278808593750e+01 8.991807556152343750e+01
7.344459533691406250e+01 -9.659714508056640625e+01 8.949484252929687500e+01
7.332377624511718750e+01 -1.024631500244140625e+02 9.852436065673828125e+01
7.306716156005859375e+01 -9.994064331054687500e+01 9.770211791992187500e+01
7.273895263671875000e+01 -1.014735260009765625e+02 1.012158126831054688e+02
7.229320526123046875e+01 -9.888243865966796875e+01 1.003775024414062500e+02
7.434096527099609375e+01 -1.193312377929687500e+02 8.736740112304687500e+01
7.432556152343750000e+01 -1.167155227661132812e+02 8.718582916259765625e+01
7.455230712890625000e+01 -1.199588699340820312e+02 8.978433227539062500e+01
7.445681762695312500e+01 -1.172482681274414062e+02 8.971487426757812500e+01
6.988614654541015625e+01 -1.335265808105468750e+02 1.061460189819335938e+02
6.968038177490234375e+01 -1.311264495849609375e+02 1.055614013671875000e+02
7.010758209228515625e+01 -1.328270874023437500e+02 1.092799530029296875e+02
6.966489410400390625e+01 -1.305492401123046875e+02 1.084009017944335938e+02
5.393866348266601562e+01 -1.338840026855468750e+02 8.675823211669921875e+01
5.285195159912109375e+01 -1.327160949707031250e+02 8.689322662353515625e+01
5.288049316406250000e+01 -1.345473175048828125e+02 8.664283752441406250e+01
5.195679473876953125e+01 -1.333097229003906250e+02 8.679112243652343750e+01
7.452418518066406250e+01 -1.475117797851562500e+02 5.306156921386718750e+01
7.485717773437500000e+01 -1.417423248291015625e+02 5.208294677734375000e+01
7.469722747802734375e+01 -1.480378875732421875e+02 5.714066314697265625e+01
7.510388183593750000e+01 -1.426163330078125000e+02 5.615522003173828125e+01
1.295604248046875000e+02 -2.674340820312500000e+02 1.310500030517578125e+02
1.293146057128906250e+02 -2.654782104492187500e+02 1.302960357666015625e+02
1.290676422119140625e+02 -2.676589050292968750e+02 1.340385742187500000e+02
1.286440277099609375e+02 -2.654488525390625000e+02 1.334700164794921875e+02
9.987786102294921875e+01 -1.741788330078125000e+02 1.815397739410400391e+00
9.824620819091796875e+01 -1.701189575195312500e+02 2.048012256622314453e+00
9.625337982177734375e+01 -1.776694335937500000e+02 1.345977544784545898e+00
9.471490478515625000e+01 -1.734737548828125000e+02 1.560594797134399414e+00
7.454702758789062500e+01 -2.597489013671875000e+02 1.337214202880859375e+02
7.390557861328125000e+01 -2.575944824218750000e+02 1.330317993164062500e+02
7.486850738525390625e+01 -2.592216186523437500e+02 1.367985534667968750e+02
7.392671203613281250e+01 -2.567989501953125000e+02 1.360849456787109375e+02
5.848783874511718750e+01 -1.047452316284179688e+02 8.181416320800781250e+01
5.727454376220703125e+01 -1.033042907714843750e+02 8.167768096923828125e+01
5.673285293579101562e+01 -1.068246612548828125e+02 8.129580688476562500e+01
5.543684005737304688e+01 -1.053774642944335938e+02 8.107557678222656250e+01
6.491497802734375000e+01 -8.755222320556640625e+01 9.215579223632812500e+01
6.465695953369140625e+01 -8.508777618408203125e+01 9.243789672851562500e+01
6.543087005615234375e+01 -8.789764404296875000e+01 9.402988433837890625e+01
6.519680786132812500e+01 -8.539008331298828125e+01 9.430195617675781250e+01
1.285269165039062500e+02 -1.225145263671875000e+02 6.159201812744140625e+01
1.284830017089843750e+02 -1.180332794189453125e+02 6.141822814941406250e+01
1.289205474853515625e+02 -1.227894439697265625e+02 6.665107727050781250e+01
1.289903106689453125e+02 -1.181421051025390625e+02 6.644232940673828125e+01
1.053760833740234375e+02 -1.866918182373046875e+02 1.472796936035156250e+02
1.051301040649414062e+02 -1.818995819091796875e+02 1.471443023681640625e+02
1.006848068237304688e+02 -1.892273101806640625e+02 1.470902099609375000e+02
1.001812515258789062e+02 -1.850994415283203125e+02 1.471312255859375000e+02
1.205127639770507812e+02 -8.491203308105468750e+01 1.463648071289062500e+02
1.192877731323242188e+02 -8.208930969238281250e+01 1.463209686279296875e+02
1.167741317749023438e+02 -8.735713195800781250e+01 1.459924011230468750e+02
1.154752731323242188e+02 -8.444438934326171875e+01 1.458648986816406250e+02
7.444078063964843750e+01 -8.041751098632812500e+01 7.285790252685546875e+01
7.475168609619140625e+01 -7.739347076416015625e+01 7.180818176269531250e+01
7.466116333007812500e+01 -8.059970092773437500e+01 7.724958801269531250e+01
7.501331329345703125e+01 -7.790798187255859375e+01 7.592112731933593750e+01
4.519974136352539062e+01 -1.275821075439453125e+02 7.888388824462890625e+01
4.331597900390625000e+01 -1.231661300659179688e+02 7.855596923828125000e+01
4.210544586181640625e+01 -1.301959686279296875e+02 8.078187561035156250e+01
3.991432571411132812e+01 -1.254063644409179688e+02 8.014412689208984375e+01
7.480113220214843750e+01 -1.931574249267578125e+02 5.148984909057617188e+01
7.464772796630859375e+01 -1.895832672119140625e+02 5.016983032226562500e+01
7.495959472656250000e+01 -1.937030792236328125e+02 5.489962005615234375e+01
7.480890655517578125e+01 -1.896662750244140625e+02 5.426870346069335938e+01
8.332153320312500000e+01 -2.693382873535156250e+02 3.331715011596679688e+01
8.140008544921875000e+01 -2.691026611328125000e+02 3.090113258361816406e+01
8.358430480957031250e+01 -2.691659545898437500e+02 3.677579879760742188e+01
8.167638397216796875e+01 -2.688756103515625000e+02 3.446213150024414062e+01
5.211000061035156250e+01 -1.528896484375000000e+02 8.682564544677734375e+01
5.042745971679687500e+01 -1.508701477050781250e+02 8.690700531005859375e+01
5.001959609985351562e+01 -1.540356597900390625e+02 8.685290527343750000e+01
4.829806137084960938e+01 -1.519786987304687500e+02 8.691157531738281250e+01
6.936395263671875000e+01 -2.045305938720703125e+02 1.152409515380859375e+02
6.958662414550781250e+01 -2.021747283935546875e+02 1.156116409301757812e+02
6.949062347412109375e+01 -2.054204254150390625e+02 1.174931869506835938e+02
6.988645935058593750e+01 -2.028135375976562500e+02 1.179856033325195312e+02
1.141468887329101562e+02 -1.785028381347656250e+02 2.139972209930419922e+00
1.111099929809570312e+02 -1.751494598388671875e+02 2.092896461486816406e+00
1.107047500610351562e+02 -1.816509246826171875e+02 1.524338006973266602e+00
1.079639434814453125e+02 -1.782133026123046875e+02 1.737306356430053711e+00
7.480605316162109375e+01 -2.541589050292968750e+02 8.845069885253906250e+01
7.453195953369140625e+01 -2.510284729003906250e+02 8.819200134277343750e+01
7.471431732177734375e+01 -2.548177947998046875e+02 9.076567077636718750e+01
7.449536895751953125e+01 -2.515889739990234375e+02 9.056227111816406250e+01
7.468410491943359375e+01 -2.395906372070312500e+02 4.620270538330078125e+01
7.473101806640625000e+01 -2.357926483154296875e+02 4.375678253173828125e+01
7.471360778808593750e+01 -2.400753326416015625e+02 5.124272155761718750e+01
7.482273864746093750e+01 -2.362979736328125000e+02 4.887804412841796875e+01
1.284795227050781250e+02 -2.022562866210937500e+02 9.469733428955078125e+01
1.283471221923828125e+02 -1.985551605224609375e+02 9.292590332031250000e+01
1.287905426025390625e+02 -2.022235107421875000e+02 9.965341949462890625e+01
1.286453857421875000e+02 -1.984877777099609375e+02 9.788127899169921875e+01
1.014909667968750000e+02 -2.642413940429687500e+02 1.425724792480468750e+02
9.739611816406250000e+01 -2.635479431152343750e+02 1.425700988769531250e+02
9.979683685302734375e+01 -2.643054199218750000e+02 1.436509246826171875e+02
9.574329376220703125e+01 -2.636812438964843750e+02 1.436584625244140625e+02
1.129533843994140625e+02 -2.697975769042968750e+02 8.522132873535156250e+01
1.099305419921875000e+02 -2.699418945312500000e+02 8.347256469726562500e+01
1.124686126708984375e+02 -2.692779541015625000e+02 8.955802154541015625e+01
1.091861495971679688e+02 -2.693595275878906250e+02 8.790357971191406250e+01
7.708824157714843750e+01 -1.784880218505859375e+02 5.654170513153076172e+00
7.682350158691406250e+01 -1.745926361083984375e+02 5.916889190673828125e+00
7.401484680175781250e+01 -1.795537261962890625e+02 7.982781410217285156e+00
7.368666839599609375e+01 -1.757281494140625000e+02 8.087368011474609375e+00
8.054613494873046875e+01 -5.831687545776367188e+01 9.231129455566406250e+01
7.891575622558593750e+01 -5.697937774658203125e+01 9.155747985839843750e+01
7.996555328369140625e+01 -5.802824401855468750e+01 9.556282806396484375e+01
7.870028686523437500e+01 -5.649460601806640625e+01 9.520211029052734375e+01
5.725445556640625000e+01 -2.668579101562500000e+02 9.752051544189453125e+01
5.365773773193359375e+01 -2.672753295898437500e+02 9.628914642333984375e+01
5.701978302001953125e+01 -2.648883056640625000e+02 1.002750473022460938e+02
5.343019104003906250e+01 -2.653996276855468750e+02 9.908110809326171875e+01
6.598770904541015625e+01 -1.617497558593750000e+02 1.182262878417968750e+02
6.552154541015625000e+01 -1.590008239746093750e+02 1.178260269165039062e+02
6.484981536865234375e+01 -1.624730682373046875e+02 1.207254409790039062e+02
6.437074279785156250e+01 -1.598272705078125000e+02 1.204322662353515625e+02
5.644802093505859375e+01 -7.466439056396484375e+01 8.862540435791015625e+01
5.486549758911132812e+01 -7.314723205566406250e+01 8.851831817626953125e+01
5.683530426025390625e+01 -7.388114166259765625e+01 9.053585052490234375e+01
5.483414077758789062e+01 -7.219025421142578125e+01 9.035755920410156250e+01
1.290485839843750000e+02 -2.589193115234375000e+02 2.680980491638183594e+01
1.292205963134765625e+02 -2.561289062500000000e+02 2.541584205627441406e+01
1.286876373291015625e+02 -2.587591247558593750e+02 2.988947868347167969e+01
1.287385406494140625e+02 -2.558683166503906250e+02 2.892255973815917969e+01
9.947431182861328125e+01 -1.275594024658203125e+02 1.469148559570312500e+02
9.721328735351562500e+01 -1.238689193725585938e+02 1.470348968505859375e+02
9.557798767089843750e+01 -1.277739944458007812e+02 1.467052459716796875e+02
9.295120239257812500e+01 -1.244960174560546875e+02 1.470274353027343750e+02
7.472586059570312500e+01 -1.272187423706054688e+02 6.805867767333984375e+01
7.444221496582031250e+01 -1.238804702758789062e+02 6.607884979248046875e+01
7.468721771240234375e+01 -1.267693481445312500e+02 7.253398895263671875e+01
7.443263244628906250e+01 -1.235424041748046875e+02 7.076801300048828125e+01
1.133044052124023438e+02 -1.431222229003906250e+02 1.476786499023437500e+02
1.123661499023437500e+02 -1.402370910644531250e+02 1.478356475830078125e+02
1.105452804565429688e+02 -1.451631774902343750e+02 1.477810821533203125e+02
1.089989166259765625e+02 -1.426519622802734375e+02 1.478086853027343750e+02
1.286508941650390625e+02 -1.451336364746093750e+02 5.975989532470703125e+01
1.287243957519531250e+02 -1.402567749023437500e+02 5.814134979248046875e+01
1.289186706542968750e+02 -1.461644134521484375e+02 6.342230224609375000e+01
1.290528717041015625e+02 -1.417449798583984375e+02 6.192198562622070312e+01
6.114619827270507812e+01 -1.642936706542968750e+02 8.722341156005859375e+01
5.999243545532226562e+01 -1.631101074218750000e+02 8.704470825195312500e+01
5.929293060302734375e+01 -1.656429290771484375e+02 8.711225891113281250e+01
5.828283309936523438e+01 -1.643749084472656250e+02 8.703802490234375000e+01
7.471800231933593750e+01 -2.141755218505859375e+02 3.311231994628906250e+01
7.452619934082031250e+01 -2.103911743164062500e+02 3.251369857788085938e+01
7.462503814697265625e+01 -2.138425598144531250e+02 3.774797821044921875e+01
7.445398712158203125e+01 -2.099798583984375000e+02 3.725056457519531250e+01
7.366074371337890625e+01 -6.436949920654296875e+01 4.241283035278320312e+01
7.399533081054687500e+01 -6.257824707031250000e+01 4.136876296997070312e+01
7.279629516601562500e+01 -6.427750396728515625e+01 4.490169525146484375e+01
7.297904205322265625e+01 -6.271748352050781250e+01 4.378097152709960938e+01
6.248447799682617188e+01 -2.226953582763671875e+02 8.645960998535156250e+01
6.135730743408203125e+01 -2.213685760498046875e+02 8.630178070068359375e+01
6.182289886474609375e+01 -2.242219085693359375e+02 8.676536560058593750e+01
6.062977218627929688e+01 -2.228831024169921875e+02 8.652065277099609375e+01
4.936010360717773438e+01 -2.616311340332031250e+02 1.896984100341796875e+01
4.712061691284179688e+01 -2.606195068359375000e+02 1.823049736022949219e+01
4.826242065429687500e+01 -2.628568115234375000e+02 2.098573112487792969e+01
4.569504165649414062e+01 -2.619068298339843750e+02 2.039286231994628906e+01
7.305551910400390625e+01 -2.130872039794921875e+02 1.132979354858398438e+02
7.290676116943359375e+01 -2.110341644287109375e+02 1.125527572631835938e+02
7.292522430419921875e+01 -2.145696105957031250e+02 1.163635330200195312e+02
7.279689788818359375e+01 -2.122516632080078125e+02 1.153639068603515625e+02
1.038485183715820312e+02 -2.627574768066406250e+02 2.014280319213867188e+00
1.006069412231445312e+02 -2.600189208984375000e+02 1.635816335678100586e+00
1.012655105590820312e+02 -2.641524658203125000e+02 2.632898330688476562e+00
9.809358215332031250e+01 -2.615310974121093750e+02 2.215269327163696289e+00
1.305598754882812500e+02 -6.106116104125976562e+01 1.213217544555664062e+02
1.291799316406250000e+02 -5.773150634765625000e+01 1.215859527587890625e+02
1.306152954101562500e+02 -6.168980407714843750e+01 1.239745712280273438e+02
1.291230773925781250e+02 -5.819742584228515625e+01 1.245116195678710938e+02
8.379862213134765625e+01 -2.211290740966796875e+02 1.470836791992187500e+02
8.292627716064453125e+01 -2.175904083251953125e+02 1.474359130859375000e+02
8.316064453125000000e+01 -2.223014984130859375e+02 1.483069458007812500e+02
8.254686737060546875e+01 -2.186980133056640625e+02 1.485529327392578125e+02
1.284115142822265625e+02 -1.358987884521484375e+02 1.131912536621093750e+02
1.284507293701171875e+02 -1.320344848632812500e+02 1.118524322509765625e+02
1.288488922119140625e+02 -1.366176910400390625e+02 1.175327758789062500e+02
1.289476013183593750e+02 -1.326132354736328125e+02 1.162127761840820312e+02
8.249085235595703125e+01 -2.385108184814453125e+02 1.739383816719055176e+00
8.051258850097656250e+01 -2.352544860839843750e+02 1.603775501251220703e+00
7.930055236816406250e+01 -2.402991638183593750e+02 1.972290039062500000e+00
7.709902954101562500e+01 -2.371974334716796875e+02 1.938648939132690430e+00
9.790159606933593750e+01 -2.691906433105468750e+02 1.691444778442382812e+01
9.487284088134765625e+01 -2.691143798828125000e+02 1.468379592895507812e+01
9.758124542236328125e+01 -2.689838562011718750e+02 2.033966255187988281e+01
9.467053222656250000e+01 -2.690199584960937500e+02 1.847825431823730469e+01
7.484349822998046875e+01 -1.436592102050781250e+02 9.702730560302734375e+01
7.451269531250000000e+01 -1.407177429199218750e+02 9.705585479736328125e+01
7.411560058593750000e+01 -1.443180694580078125e+02 9.950628662109375000e+01
7.379869842529296875e+01 -1.411531524658203125e+02 9.944795227050781250e+01
1.288943328857421875e+02 -2.504784851074218750e+02 1.075734786987304688e+02
1.288160095214843750e+02 -2.465376129150390625e+02 1.069624328613281250e+02
1.289849243164062500e+02 -2.504991149902343750e+02 1.115376052856445312e+02
1.288005676269531250e+02 -2.467559509277343750e+02 1.107641143798828125e+02
1.112875595092773438e+02 -1.049888000488281250e+02 2.231387615203857422e+00
1.077370834350585938e+02 -1.006271362304687500e+02 2.013824701309204102e+00
1.077528839111328125e+02 -1.074385299682617188e+02 1.726093173027038574e+00
1.049693832397460938e+02 -1.029187011718750000e+02 1.563981056213378906e+00
8.961363983154296875e+01 -2.183953552246093750e+02 1.437090606689453125e+02
8.820982360839843750e+01 -2.144572906494140625e+02 1.435191955566406250e+02
8.725111389160156250e+01 -2.223091735839843750e+02 1.443760986328125000e+02
8.619197845458984375e+01 -2.185026702880859375e+02 1.440538482666015625e+02
8.531404876708984375e+01 -2.359095001220703125e+02 1.477823944091796875e+02
8.355105590820312500e+01 -2.327196350097656250e+02 1.479225158691406250e+02
8.350797271728515625e+01 -2.372743988037109375e+02 1.488303985595703125e+02
8.112005615234375000e+01 -2.344605712890625000e+02 1.486568756103515625e+02
6.318547821044921875e+01 -2.327491607666015625e+02 8.756173706054687500e+01
6.303454208374023438e+01 -2.306897888183593750e+02 8.698840332031250000e+01
6.367893218994140625e+01 -2.334435424804687500e+02 8.973199462890625000e+01
6.356529617309570312e+01 -2.312886352539062500e+02 8.864034271240234375e+01
1.286382446289062500e+02 -1.579406585693359375e+02 4.032616043090820312e+01
1.285442810058593750e+02 -1.549315032958984375e+02 3.851565933227539062e+01
1.289818115234375000e+02 -1.591461944580078125e+02 4.516876220703125000e+01
1.288717193603515625e+02 -1.560466766357421875e+02 4.331563949584960938e+01
6.970211791992187500e+01 -2.556878204345703125e+02 6.349110031127929688e+01
6.947170257568359375e+01 -2.527092132568359375e+02 6.285593032836914062e+01
6.972223663330078125e+01 -2.561395874023437500e+02 6.567710113525390625e+01
6.942864990234375000e+01 -2.527313232421875000e+02 6.516016387939453125e+01
1.287911376953125000e+02 -2.073650512695312500e+02 9.852087402343750000e+01
1.285026550292968750e+02 -2.040373382568359375e+02 9.674002075195312500e+01
1.286427459716796875e+02 -2.075037841796875000e+02 1.022622070312500000e+02
1.283716583251953125e+02 -2.039049835205078125e+02 1.003725967407226562e+02
9.343926239013671875e+01 -2.693257751464843750e+02 2.350967788696289062e+01
9.105625915527343750e+01 -2.694117431640625000e+02 2.221129417419433594e+01
9.265649414062500000e+01 -2.690008239746093750e+02 2.723022842407226562e+01
9.022814178466796875e+01 -2.690869140625000000e+02 2.590276145935058594e+01
6.611985015869140625e+01 -1.732261657714843750e+02 1.005747528076171875e+02
6.569989013671875000e+01 -1.708366851806640625e+02 1.000945510864257812e+02
6.667972564697265625e+01 -1.739488372802734375e+02 1.034722671508789062e+02
6.623377990722656250e+01 -1.713559417724609375e+02 1.031653442382812500e+02
4.953226852416992188e+01 -7.367851257324218750e+01 7.019090652465820312e+00
4.596959686279296875e+01 -7.352696228027343750e+01 6.161278247833251953e+00
4.776243209838867188e+01 -7.314180755615234375e+01 9.268916130065917969e+00
4.462727355957031250e+01 -7.286717224121093750e+01 8.766250610351562500e+00
7.390858459472656250e+01 -1.637678833007812500e+02 1.097322158813476562e+02
7.342344665527343750e+01 -1.606190032958984375e+02 1.093609542846679688e+02
7.312220001220703125e+01 -1.643989715576171875e+02 1.113891296386718750e+02
7.258972930908203125e+01 -1.613531494140625000e+02 1.110411453247070312e+02
1.068481063842773438e+02 -7.020529937744140625e+01 1.303754806518554688e+00
1.021517486572265625e+02 -6.895223236083984375e+01 1.455699920654296875e+00
1.034299697875976562e+02 -6.902765655517578125e+01 2.296342849731445312e+00
9.864213562011718750e+01 -6.777340698242187500e+01 2.367741346359252930e+00
9.450699615478515625e+01 -5.832036590576171875e+01 1.486945495605468750e+02
9.234414672851562500e+01 -5.683705520629882812e+01 1.474309539794921875e+02
9.357532501220703125e+01 -6.052786254882812500e+01 1.507624816894531250e+02
9.110035705566406250e+01 -5.890022659301757812e+01 1.496973266601562500e+02
6.368461608886718750e+01 -1.624275512695312500e+02 8.694554138183593750e+01
6.250953674316406250e+01 -1.610075683593750000e+02 8.671862030029296875e+01
6.218046951293945312e+01 -1.637491302490234375e+02 8.694681549072265625e+01
6.103628921508789062e+01 -1.625375366210937500e+02 8.674464416503906250e+01
