9.206159999999999899e-01 6.462500000000000189e-02 2.948100000000000026e-02
-1.478190000000000059e-01 6.164200000000000235e-02 3.203399999999999997e-02
-1.821100000000000149e-02 8.189000000000000098e-03 3.872400000000000148e-02
-1.378409999999999913e-01 -1.062000000000000010e-03 6.788199999999999790e-02
1.368610000000000104e-01 -1.668299999999999991e-02 3.147799999999999904e-02
-4.613329999999999931e-01 2.093100000000000169e-02 -8.087400000000000144e-02
2.676609999999999823e-01 -1.760300000000000059e-02 -2.380300000000000124e-02
-4.647140000000000160e-01 -2.367000000000000180e-03 -3.392499999999999682e-02
5.011280000000000179e-01 2.971700000000000036e-02 -4.362200000000000105e-02
-1.695309999999999873e-01 2.460000000000000164e-04 7.028199999999999725e-02
7.463000000000000189e-02 6.399000000000000521e-02 7.232999999999999846e-03
7.415700000000000069e-02 5.046400000000000191e-02 -6.007099999999999940e-02
8.279800000000000493e-01 -4.163399999999999740e-02 2.027899999999999842e-02
-5.155910000000000215e-01 6.205200000000000299e-02 -1.615799999999999875e-02
-1.437680000000000069e-01 -4.528800000000000187e-02 -2.574900000000000105e-02
4.296570000000000111e-01 3.893800000000000039e-02 3.499599999999999933e-02
3.483229999999999937e-01 2.214899999999999855e-02 -4.709399999999999697e-02
-4.648140000000000049e-01 1.069910000000000028e-01 -6.902000000000000149e-03
-2.103160000000000029e-01 7.953799999999999759e-02 -3.091700000000000004e-02
-3.761030000000000206e-01 4.903600000000000320e-02 -7.266000000000000236e-02
-4.147520000000000095e-01 5.405800000000000188e-02 2.713399999999999840e-02
-4.723999999999999866e-01 -7.220999999999999988e-03 -2.924200000000000063e-02
-2.807149999999999923e-01 4.627499999999999669e-02 3.134000000000000067e-03
-2.384960000000000135e-01 5.324299999999999866e-02 3.229499999999999732e-02
-1.181149999999999978e-01 5.415899999999999881e-02 3.279900000000000176e-02
5.404700000000000060e-01 -9.195000000000000048e-03 3.264999999999999847e-02
1.047430000000000028e-01 -2.284699999999999925e-02 3.213999999999999843e-03
-2.269190000000000096e-01 -2.236000000000000140e-03 2.426800000000000138e-02
-1.384660000000000057e-01 1.636999999999999914e-02 7.904600000000000515e-02
-4.237999999999999580e-03 -3.655400000000000316e-02 2.728699999999999876e-02
-4.522869999999999946e-01 2.050300000000000039e-02 -2.231999999999999956e-02
-1.186859999999999998e-01 1.593899999999999831e-02 7.890500000000000291e-02
-3.166329999999999978e-01 4.800000000000000122e-04 1.722999999999999879e-02
2.113039999999999918e-01 -1.733399999999999871e-02 -2.296300000000000077e-02
1.905999999999999925e-03 5.301600000000000062e-02 2.637199999999999961e-02
5.684860000000000468e-01 -2.349899999999999906e-02 1.200599999999999931e-02
-3.457850000000000090e-01 3.510499999999999732e-02 4.143499999999999961e-02
-3.129020000000000135e-01 4.969000000000000326e-03 -6.210000000000000242e-04
4.880510000000000126e-01 -9.025999999999999301e-03 3.261100000000000110e-02
-1.870219999999999938e-01 4.708199999999999885e-02 7.081400000000000194e-02
-1.224879999999999997e-01 -6.198999999999999649e-03 5.578700000000000325e-02
9.140960000000000196e-01 -4.960400000000000226e-02 -1.005099999999999917e-02
-1.415970000000000006e-01 2.426000000000000031e-02 4.462200000000000194e-02
1.218840000000000062e-01 5.069400000000000295e-02 -3.570399999999999963e-02
7.422680000000000389e-01 5.022999999999999687e-02 -2.906600000000000156e-02
-4.597620000000000040e-01 2.713300000000000087e-02 -1.111130000000000034e-01
-4.179340000000000277e-01 5.135699999999999987e-02 -1.852799999999999933e-02
1.350560000000000094e-01 -1.015500000000000083e-02 -5.539499999999999980e-02
1.527060000000000084e-01 1.858000000000000059e-03 2.306599999999999970e-02
-3.098000000000000059e-02 2.199299999999999866e-02 8.108500000000000429e-02
-1.574470000000000036e-01 6.328000000000000291e-03 -7.691900000000000126e-02
-1.265090000000000103e-01 2.640000000000000202e-04 7.137999999999999901e-02
7.999230000000000507e-01 7.212100000000000455e-02 1.466499999999999922e-02
9.125060000000000393e-01 -1.239499999999999977e-02 5.127500000000000113e-02
9.215269999999999850e-01 5.149100000000000205e-02 4.589300000000000324e-02
-9.929000000000000326e-02 6.023200000000000082e-02 3.205299999999999816e-02
-1.961960000000000093e-01 1.056409999999999988e-01 -3.586000000000000212e-03
-5.725000000000000228e-02 6.284499999999999809e-02 1.345200000000000042e-02
5.986019999999999675e-01 4.404199999999999782e-02 -3.745199999999999918e-02
1.071819999999999995e-01 1.541700000000000015e-02 -4.554300000000000015e-02
8.216400000000000092e-02 3.600799999999999834e-02 2.226799999999999960e-02
-4.863379999999999925e-01 3.608900000000000302e-02 -7.652399999999999480e-02
-2.189429999999999987e-01 1.057699999999999960e-02 -7.796699999999999464e-02
-2.955299999999999941e-02 2.598400000000000015e-02 7.962600000000000233e-02
3.113600000000000048e-02 8.066999999999999518e-03 2.229899999999999938e-02
3.079299999999999815e-01 4.892500000000000321e-02 -3.602400000000000047e-02
-2.392869999999999997e-01 2.691899999999999848e-02 1.994800000000000045e-02
9.972699999999999620e-02 -3.852099999999999969e-02 2.677600000000000119e-02
-1.683330000000000104e-01 3.986399999999999666e-02 3.836300000000000127e-02
-2.964760000000000173e-01 5.611300000000000315e-02 3.247300000000000186e-02
3.561860000000000026e-01 -2.681300000000000003e-02 -7.889999999999999878e-04
-4.392220000000000013e-01 2.818999999999999978e-02 8.575900000000000190e-02
8.961149999999999949e-01 -4.083200000000000024e-02 2.375100000000000128e-02
1.485730000000000106e-01 -1.153000000000000032e-02 -4.851899999999999963e-02
2.272619999999999918e-01 6.403799999999999770e-02 -7.073000000000000294e-03
-5.465999999999999748e-01 8.284199999999999897e-02 2.028900000000000148e-02
5.450350000000000472e-01 -6.318999999999999964e-03 -3.933400000000000091e-02
-6.029700000000000337e-02 -4.273099999999999815e-02 -2.739799999999999874e-02
-2.993370000000000197e-01 -4.526199999999999668e-02 2.278600000000000070e-02
-2.414489999999999970e-01 5.556699999999999834e-02 3.299699999999999855e-02
-1.526800000000000032e-02 -5.757400000000000018e-02 5.021000000000000289e-03
9.390420000000000433e-01 4.679599999999999732e-02 -4.569899999999999657e-02
-1.798849999999999894e-01 3.799999999999999992e-03 7.399400000000000421e-02
5.290589999999999460e-01 4.979399999999999799e-02 -3.489500000000000240e-02
3.875520000000000076e-01 -1.025000000000000043e-02 3.189100000000000268e-02
7.273650000000000393e-01 -2.336299999999999835e-02 -2.207800000000000040e-02
-3.433729999999999838e-01 -3.415100000000000080e-02 2.728399999999999923e-02
-4.790010000000000101e-01 5.701699999999999824e-02 4.625100000000000044e-02
1.617099999999999926e-01 -2.635000000000000189e-03 3.783999999999999864e-02
-1.464080000000000104e-01 3.597999999999999809e-02 -4.236600000000000088e-02
-4.341820000000000124e-01 5.444600000000000134e-02 -2.820299999999999890e-02
-3.050059999999999993e-01 -1.164600000000000010e-02 2.123799999999999993e-02
4.465000000000000219e-02 -5.166999999999999718e-03 -2.870500000000000135e-02
-2.068260000000000098e-01 5.063900000000000345e-02 3.416600000000000192e-02
-3.931399999999999895e-01 4.443600000000000327e-02 -3.935799999999999715e-02
8.175000000000000044e-01 6.652299999999999880e-02 2.764199999999999990e-02
7.234920000000000240e-01 2.548100000000000018e-02 -4.492299999999999766e-02
-2.436899999999999900e-01 -3.262000000000000142e-03 5.994900000000000229e-02
-4.735519999999999730e-01 2.726599999999999857e-02 -1.076649999999999968e-01
-4.298710000000000031e-01 -8.397100000000000397e-02 1.077999999999999965e-03
7.863510000000000222e-01 -2.818999999999999891e-03 -5.829399999999999860e-02
-2.893089999999999828e-01 -8.000000000000000383e-04 2.103400000000000061e-02
-5.260399999999999798e-02 5.655099999999999710e-02 -3.296099999999999725e-02
2.179000000000000034e-02 5.118400000000000033e-02 3.250800000000000217e-02
1.279939999999999967e-01 -2.255000000000000060e-03 9.612000000000000752e-03
-1.458689999999999987e-01 -5.485000000000000292e-03 3.276199999999999946e-02
-5.463729999999999976e-01 4.762199999999999767e-02 4.231599999999999945e-02
-3.808150000000000146e-01 2.150000000000000001e-03 1.319900000000000066e-02
1.303860000000000019e-01 -1.313300000000000058e-02 3.036600000000000063e-02
-4.038410000000000055e-01 4.432000000000000176e-03 5.584999999999999687e-03
-1.069000000000000072e-03 -5.751699999999999868e-02 5.622000000000000261e-03
1.076290000000000024e-01 -2.720200000000000048e-02 3.032800000000000079e-02
1.589869999999999894e-01 -1.113000000000000057e-03 1.822000000000000052e-03
9.100099999999999856e-02 4.598200000000000204e-02 6.671499999999999653e-02
7.238500000000000489e-02 1.017160000000000009e-01 4.623999999999999638e-03
6.937539999999999818e-01 2.662300000000000083e-02 -4.450899999999999995e-02
-1.229439999999999977e-01 8.122500000000000553e-02 -3.010799999999999935e-02
-3.748400000000000065e-01 -1.773000000000000053e-03 -2.837699999999999945e-02
-2.697640000000000038e-01 3.548599999999999671e-02 -4.282899999999999902e-02
4.884820000000000273e-01 5.972000000000000225e-02 -1.170999999999999992e-02
-2.242770000000000041e-01 1.055080000000000046e-01 3.735000000000000039e-03
-4.139909999999999979e-01 6.926699999999999524e-02 7.427999999999999707e-03
1.064120000000000066e-01 -1.318000000000000074e-02 2.762600000000000125e-02
-2.919760000000000133e-01 5.773299999999999960e-02 -4.255300000000000055e-02
6.574800000000000089e-02 4.827200000000000241e-02 2.568300000000000097e-02
-2.048949999999999938e-01 4.814100000000000323e-02 6.870400000000000118e-02
6.439000000000000279e-02 5.453999999999999820e-02 3.671300000000000258e-02
-4.556339999999999835e-01 2.513200000000000156e-02 -1.135150000000000048e-01
1.519010000000000082e-01 -6.269999999999999532e-04 1.208000000000000089e-03
-3.287789999999999879e-01 4.729999999999999830e-03 -2.471999999999999805e-03
-3.216060000000000030e-01 6.645399999999999918e-02 1.175000000000000003e-02
-2.224480000000000068e-01 3.039499999999999841e-02 -2.284900000000000125e-02
-1.323239999999999972e-01 1.030299999999999966e-01 -8.354999999999999580e-03
-4.624719999999999942e-01 -8.608100000000000473e-02 -8.220000000000000310e-04
-4.580600000000000227e-01 -4.759200000000000236e-02 -2.134300000000000086e-02
-1.926589999999999969e-01 4.487399999999999722e-02 -3.089000000000000166e-03
-1.715379999999999960e-01 1.511000000000000017e-02 -4.366899999999999948e-02
-4.585870000000000224e-01 4.913599999999999912e-02 7.747000000000000414e-03
-1.838160000000000072e-01 7.838199999999999334e-02 -3.136599999999999805e-02
1.049599999999999977e-01 9.756800000000000195e-02 -1.813100000000000128e-02
9.224109999999999809e-01 2.435800000000000118e-02 5.706300000000000261e-02
-4.643689999999999762e-01 4.873700000000000254e-02 2.573900000000000146e-02
-1.355840000000000101e-01 -5.783200000000000146e-02 1.845999999999999985e-03
-6.305800000000000294e-02 6.003200000000000203e-02 -2.329200000000000020e-02
5.859799999999999731e-02 -8.369999999999999619e-04 6.792000000000000294e-03
-2.718720000000000026e-01 2.836500000000000132e-02 -2.204499999999999862e-02
-4.077599999999999975e-02 4.881400000000000322e-02 2.276200000000000098e-02
-4.502840000000000176e-01 5.393699999999999883e-02 -2.650500000000000078e-02
-4.702819999999999778e-01 -5.365299999999999930e-02 5.229000000000000141e-03
-3.672030000000000016e-01 1.546999999999999981e-03 -1.573799999999999852e-02
-3.629129999999999856e-01 7.100999999999999673e-03 3.755100000000000104e-02
1.869490000000000041e-01 -1.816100000000000006e-02 -2.033899999999999944e-02
5.263830000000000453e-01 1.108499999999999937e-02 4.106699999999999934e-02
6.492139999999999578e-01 -2.240100000000000077e-02 -2.232999999999999916e-02
-3.680599999999999983e-01 1.058909999999999990e-01 6.811000000000000214e-03
-5.301420000000000021e-01 -3.893300000000000233e-02 1.641000000000000097e-02
9.084170000000000300e-01 7.806799999999999851e-02 -4.262000000000000163e-03
8.103089999999999460e-01 2.335999999999999882e-02 5.817699999999999955e-02
1.553019999999999956e-01 -2.644000000000000083e-03 9.159000000000000474e-03
9.516600000000000059e-02 -2.070500000000000118e-02 8.198000000000000426e-03
-5.282719999999999638e-01 2.270700000000000149e-02 7.234699999999999465e-02
-4.636730000000000018e-01 5.021500000000000269e-02 -2.691299999999999942e-02
-2.491980000000000028e-01 -8.729000000000000647e-03 -3.547600000000000059e-02
-4.290289999999999937e-01 -1.097000000000000058e-02 -2.138200000000000170e-02
-1.144519999999999982e-01 -6.570999999999999584e-03 -3.526100000000000068e-02
-1.465460000000000096e-01 4.106000000000000275e-03 2.430300000000000168e-02
4.263700000000000268e-01 5.507200000000000290e-02 -2.438099999999999989e-02
-4.774610000000000243e-01 1.372499999999999935e-02 2.080600000000000158e-02
-4.668100000000000027e-02 -5.773000000000000353e-03 5.867900000000000199e-02
-4.842899999999999983e-02 -1.577599999999999836e-02 1.695199999999999832e-02
-1.678590000000000082e-01 7.648000000000000284e-03 7.563899999999999790e-02
-2.799300000000000122e-01 -6.669999999999999497e-04 -2.075499999999999914e-02
-2.194700000000000123e-02 -3.079700000000000146e-02 -3.258699999999999791e-02
-3.696139999999999981e-01 3.976999999999999633e-03 -3.784099999999999964e-02
-4.405339999999999812e-01 2.690000000000000117e-03 1.316299999999999935e-02
5.418929999999999580e-01 -2.813099999999999976e-02 1.659999999999999963e-04
2.080720000000000069e-01 -2.409100000000000130e-02 -6.657999999999999856e-03
-4.541330000000000089e-01 -1.767399999999999874e-02 -3.277000000000000052e-02
-1.380190000000000028e-01 6.779699999999999616e-02 -6.119999999999999572e-03
-3.970310000000000228e-01 -4.511000000000000253e-03 3.264299999999999841e-02
-1.412420000000000064e-01 -5.919999999999999698e-04 3.481000000000000066e-02
5.468800000000000050e-02 -1.514300000000000021e-02 -2.409999999999999989e-02
-3.262720000000000065e-01 -7.467999999999999812e-03 -3.249599999999999711e-02
-3.170020000000000060e-01 6.562999999999999390e-02 1.360600000000000004e-02
-3.465380000000000127e-01 -5.712000000000000063e-03 -3.399499999999999744e-02
-2.393939999999999957e-01 8.351000000000000784e-03 2.370699999999999891e-02
-8.099900000000000155e-02 8.340999999999999456e-03 7.623000000000000609e-02
-2.543650000000000078e-01 6.757199999999999318e-02 3.166900000000000270e-02
-1.837700000000000097e-02 -3.960500000000000131e-02 2.597500000000000156e-02
-4.497559999999999891e-01 7.143599999999999950e-02 -3.253000000000000336e-02
-1.148689999999999989e-01 1.000179999999999958e-01 -1.612900000000000097e-02
-4.667209999999999970e-01 -1.595299999999999843e-02 -8.427999999999999728e-03
-3.505900000000000127e-01 -8.765000000000000221e-03 3.266299999999999759e-02
2.176450000000000051e-01 -1.066100000000000034e-02 3.136499999999999705e-02
1.458909999999999929e-01 5.777600000000000097e-02 -3.495000000000000190e-02
3.536299999999999999e-01 -1.843099999999999947e-02 -2.407799999999999871e-02
5.358490000000000197e-01 3.785000000000000170e-03 -4.343899999999999845e-02
-2.505359999999999809e-01 -7.400999999999999593e-03 -2.944499999999999895e-02
-3.463169999999999860e-01 1.004929999999999990e-01 1.926900000000000140e-02
2.190399999999999986e-02 -7.540000000000000044e-04 7.254199999999999537e-02
-1.098549999999999943e-01 9.089099999999999957e-02 -2.606599999999999889e-02
-7.309999999999999658e-03 8.888000000000000067e-03 -2.490099999999999952e-02
1.517000000000000015e-01 4.446300000000000252e-02 1.311200000000000039e-02
4.336960000000000259e-01 5.115700000000000108e-02 -3.371899999999999897e-02
-1.396709999999999896e-01 6.975399999999999656e-02 -1.407999999999999963e-03
4.315999999999999698e-02 3.866200000000000192e-02 -7.805900000000000338e-02
-1.293779999999999930e-01 9.961399999999999422e-02 1.639699999999999838e-02
8.183949999999999836e-01 6.486100000000000199e-02 -3.833700000000000302e-02
-1.799989999999999923e-01 -1.352700000000000083e-02 1.946700000000000166e-02
-4.062419999999999920e-01 1.165000000000000020e-03 -6.718599999999999572e-02
1.081379999999999980e-01 -5.650199999999999667e-02 1.190800000000000018e-02
-2.067400000000000140e-02 1.654600000000000168e-02 2.053900000000000170e-02
6.279390000000000249e-01 -2.281899999999999901e-02 -2.076499999999999874e-02
4.666989999999999750e-01 4.403699999999999976e-02 -3.772899999999999865e-02
-1.845799999999999941e-01 1.044889999999999985e-01 5.307000000000000085e-03
2.522349999999999870e-01 5.839099999999999846e-02 1.599599999999999980e-02
-5.290709999999999580e-01 -3.188699999999999868e-02 1.934299999999999908e-02
-1.487890000000000046e-01 -2.085800000000000154e-02 -5.022000000000000422e-03
1.073970000000000063e-01 3.280999999999999889e-02 2.153899999999999912e-02
8.662379999999999525e-01 -8.741000000000000505e-03 -5.949999999999999734e-02
1.117579999999999962e-01 -5.988000000000000267e-03 2.640599999999999892e-02
-2.439340000000000119e-01 6.385699999999999710e-02 1.593899999999999831e-02
-1.298640000000000072e-01 1.876799999999999996e-02 -2.257999999999999938e-02
-2.726879999999999860e-01 -7.538000000000000429e-03 -3.370499999999999885e-02
-5.149839999999999973e-01 2.090799999999999950e-02 -3.144500000000000073e-02
-3.694450000000000234e-01 8.279999999999999600e-04 6.679899999999999727e-02
3.136800000000000005e-02 6.534700000000000231e-02 5.113999999999999622e-03
1.260550000000000004e-01 -7.346000000000000099e-03 3.150599999999999928e-02
-4.704860000000000153e-01 1.207710000000000033e-01 -8.299999999999999815e-05
-2.744039999999999813e-01 3.818499999999999672e-02 7.635400000000000520e-02
-2.365240000000000120e-01 2.740000000000000074e-02 -8.267800000000000149e-02
-8.000899999999999679e-02 5.639899999999999775e-02 2.952499999999999916e-02
-4.525179999999999758e-01 2.595599999999999991e-02 -1.412460000000000104e-01
-3.739930000000000199e-01 4.022699999999999887e-02 -4.107199999999999740e-02
-1.270020000000000038e-01 -7.159000000000000433e-03 5.334799999999999959e-02
-1.299879999999999924e-01 9.100000000000000016e-04 -7.442600000000000604e-02
2.320379999999999943e-01 -1.404500000000000019e-02 -3.140699999999999742e-02
8.204080000000000261e-01 -4.672099999999999864e-02 7.761999999999999802e-03
1.580700000000000160e-02 -2.027800000000000089e-02 -1.074899999999999987e-02
-3.200100000000000167e-02 3.149400000000000116e-02 2.114500000000000060e-02
6.457200000000000439e-02 -1.839599999999999916e-02 -1.654999999999999874e-02
-4.710900000000000087e-01 3.610000000000000014e-02 2.229899999999999938e-02
-4.917210000000000192e-01 6.500799999999999634e-02 2.579899999999999902e-02
1.132330000000000003e-01 5.381000000000000366e-03 -4.144699999999999773e-02
1.735499999999999890e-02 -1.846799999999999831e-02 -3.443100000000000327e-02
6.523299999999999932e-02 -6.078000000000000069e-03 -3.198199999999999654e-02
-3.230500000000000038e-02 1.145700000000000017e-02 2.191600000000000145e-02
5.754979999999999540e-01 -2.927899999999999947e-02 -1.869000000000000002e-03
4.369179999999999731e-01 2.062200000000000144e-02 -4.754499999999999699e-02
-3.491699999999999804e-01 -1.807200000000000126e-02 -6.434999999999999748e-03
-4.095520000000000271e-01 4.787600000000000189e-02 4.717999999999999972e-03
-2.302879999999999927e-01 1.053039999999999948e-01 4.514999999999999916e-03
9.210490000000000066e-01 2.566900000000000084e-02 -6.361200000000000188e-02
7.171560000000000157e-01 1.007399999999999962e-02 -4.716599999999999959e-02
-3.880859999999999865e-01 8.142999999999999197e-03 -3.944099999999999689e-02
-4.710489999999999955e-01 2.145299999999999985e-02 2.121299999999999922e-02
-4.347559999999999758e-01 4.135899999999999993e-02 2.369200000000000125e-02
8.225649999999999906e-01 4.672599999999999670e-02 -5.504799999999999971e-02
2.484329999999999872e-01 1.666300000000000073e-02 4.281000000000000083e-02
-3.874759999999999871e-01 4.758000000000000076e-03 2.532799999999999982e-02
-7.153299999999999936e-02 -6.348000000000000344e-03 5.667200000000000015e-02
8.710250000000000492e-01 6.717199999999999560e-02 -3.155100000000000265e-02
-1.510799999999999921e-01 -5.505000000000000344e-03 -3.530500000000000305e-02
-4.718339999999999756e-01 5.712400000000000116e-02 -2.872600000000000153e-02
-2.484729999999999994e-01 5.211199999999999860e-02 -2.902599999999999972e-02
-4.874729999999999897e-01 1.038999999999999993e-03 -4.370199999999999779e-02
6.992500000000000382e-01 5.795700000000000157e-02 5.269000000000000246e-03
-1.898050000000000015e-01 -7.511999999999999580e-03 3.270300000000000290e-02
-2.336709999999999898e-01 -1.677700000000000025e-02 1.037800000000000007e-02
-4.004690000000000194e-01 6.386999999999999622e-02 2.002699999999999966e-02
8.734400000000000497e-02 7.618800000000000572e-02 -3.195100000000000023e-02
7.655669999999999975e-01 2.060899999999999885e-02 -5.271699999999999997e-02
-4.038820000000000188e-01 4.784800000000000164e-02 -3.795899999999999969e-02
-3.832439999999999736e-01 4.775000000000000078e-02 3.646200000000000135e-02
-4.150710000000000233e-01 5.208299999999999735e-02 2.019200000000000161e-02
1.457800000000000068e-02 1.004519999999999996e-01 1.013700000000000018e-02
-4.516470000000000207e-01 -1.017539999999999972e-01 -8.760000000000000425e-04
-1.038929999999999992e-01 -8.656999999999999765e-03 4.925600000000000117e-02
-4.474999999999999811e-03 -8.824000000000000246e-03 3.166599999999999970e-02
-3.940870000000000206e-01 1.745599999999999929e-02 -4.324000000000000066e-02
-3.467120000000000202e-01 4.688099999999999906e-02 -4.970999999999999724e-03
-3.755290000000000017e-01 1.024930000000000008e-01 -1.563000000000000153e-02
-3.087420000000000164e-01 5.810900000000000093e-02 3.785999999999999782e-02
2.656649999999999845e-01 -2.245899999999999980e-02 -1.209299999999999958e-02
-5.834999999999999909e-02 -1.506700000000000053e-02 -2.130699999999999955e-02
5.413829999999999476e-01 3.336399999999999783e-02 3.659099999999999853e-02
8.037210000000000187e-01 5.625100000000000239e-02 4.467100000000000237e-02
6.585130000000000150e-01 5.336400000000000171e-02 -2.333299999999999957e-02
4.179050000000000264e-01 5.052700000000000247e-02 -3.512799999999999950e-02
8.301730000000000498e-01 -1.479399999999999986e-02 -5.678099999999999814e-02
-3.290640000000000231e-01 5.749400000000000344e-02 4.476200000000000317e-02
-4.613949999999999996e-01 6.029000000000000331e-02 -3.422200000000000242e-02
-2.276310000000000000e-01 4.492800000000000266e-02 -7.574899999999999689e-02
-5.468570000000000375e-01 6.453200000000000602e-02 -1.354200000000000022e-02
6.944890000000000230e-01 6.543000000000000205e-03 3.952599999999999864e-02
4.354049999999999865e-01 6.268100000000000060e-02 8.779999999999999827e-04
-4.567089999999999761e-01 -1.073700000000000002e-02 -2.121400000000000022e-02
-1.337440000000000018e-01 -2.792999999999999910e-03 6.378100000000000436e-02
8.758550000000000502e-01 -4.929299999999999654e-02 -9.792000000000000356e-03
8.007200000000000428e-02 -2.738300000000000109e-02 -3.371400000000000091e-02
1.502300000000000024e-01 4.323599999999999666e-02 7.867000000000000728e-03
7.112899999999999778e-01 5.548199999999999660e-02 -1.701099999999999834e-02
-1.250539999999999985e-01 -4.832999999999999796e-02 -2.462999999999999912e-02
7.574000000000000177e-02 -2.214299999999999949e-02 -7.849000000000000074e-03
-3.452290000000000081e-01 5.315399999999999986e-02 -6.203600000000000086e-02
-1.640199999999999991e-02 4.370500000000000079e-02 -5.774999999999999752e-03
5.185070000000000512e-01 5.574199999999999988e-02 -2.069400000000000059e-02
-1.316890000000000005e-01 4.931300000000000266e-02 2.042400000000000118e-02
-4.619340000000000113e-01 1.047639999999999960e-01 -1.613999999999999983e-03
8.739649999999999919e-01 4.172499999999999820e-02 -5.702299999999999730e-02
4.651299999999999879e-02 -5.940200000000000341e-02 1.712999999999999896e-03
-1.689199999999999868e-01 2.565000000000000006e-03 -4.628000000000000169e-03
2.469439999999999968e-01 6.389300000000000535e-02 -6.984999999999999890e-03
-4.368480000000000141e-01 5.052500000000000047e-02 -1.461600000000000052e-02
-4.652900000000000091e-02 6.284800000000000109e-02 1.316299999999999935e-02
1.040770000000000028e-01 4.623200000000000226e-02 6.579699999999999438e-02
8.752959999999999630e-01 1.786899999999999947e-02 6.003100000000000103e-02
-2.064110000000000111e-01 -7.553999999999999951e-03 3.177399999999999669e-02
9.162409999999999721e-01 3.980299999999999810e-02 -5.773600000000000260e-02
5.476560000000000317e-01 -9.615999999999999548e-03 3.248899999999999705e-02
6.089930000000000065e-01 4.671299999999999758e-02 3.066899999999999835e-02
-1.317069999999999907e-01 -5.801599999999999813e-02 1.477999999999999930e-03
2.309289999999999954e-01 4.938300000000000328e-02 -3.599499999999999922e-02
2.229569999999999885e-01 -1.304600000000000030e-02 2.964999999999999927e-02
-2.479500000000000107e-02 9.840899999999999648e-02 1.688800000000000023e-02
-2.228900000000000048e-01 1.526999999999999929e-03 7.208499999999999630e-02
-4.170349999999999890e-01 -5.165399999999999853e-02 7.829999999999999504e-04
1.086170000000000052e-01 -1.484100000000000003e-02 2.273499999999999827e-02
-4.192620000000000235e-01 6.269999999999999532e-04 -3.615000000000000158e-02
-3.720879999999999743e-01 8.159399999999999986e-02 2.921299999999999938e-02
9.544599999999999751e-01 4.358800000000000174e-02 2.475700000000000123e-02
9.536050000000000360e-01 -1.895799999999999916e-02 2.375400000000000081e-02
-3.170450000000000212e-01 -9.355999999999999733e-03 -3.421199999999999936e-02
-4.453999999999999626e-03 3.117699999999999985e-02 2.108799999999999911e-02
1.680999999999999994e-01 2.177199999999999969e-02 -4.762799999999999673e-02
1.809499999999999997e-02 3.533599999999999935e-02 -4.229000000000000120e-02
3.052000000000000268e-01 2.592000000000000120e-03 -4.150100000000000317e-02
-2.900420000000000220e-01 2.409700000000000036e-02 1.970200000000000076e-02
7.937899999999999956e-01 -3.234499999999999875e-02 -4.831799999999999984e-02
5.544790000000000552e-01 3.417499999999999705e-02 3.617499999999999882e-02
1.384229999999999905e-01 2.277399999999999911e-02 1.922199999999999950e-02
-1.576170000000000071e-01 2.897200000000000122e-02 2.047699999999999868e-02
2.551889999999999992e-01 3.107000000000000040e-02 -4.357300000000000062e-02
-5.248289999999999900e-01 9.690999999999999961e-03 -3.623200000000000032e-02
2.707800000000000137e-02 5.258600000000000080e-02 -2.915600000000000136e-02
5.417689999999999451e-01 -1.830999999999999989e-02 2.400400000000000103e-02
8.309330000000000327e-01 -3.237099999999999700e-02 -4.923299999999999899e-02
4.879919999999999813e-01 5.366800000000000043e-02 -2.641100000000000045e-02
-7.322299999999999642e-02 -7.920999999999999222e-03 3.189899999999999680e-02
-4.383279999999999954e-01 2.808899999999999939e-02 1.323120000000000129e-01
-3.368729999999999780e-01 -1.377100000000000025e-02 3.206900000000000028e-02
4.500200000000000033e-02 2.593499999999999972e-02 7.915800000000000614e-02
-8.621399999999999897e-02 -3.647999999999999854e-02 -2.978700000000000098e-02
-4.903049999999999908e-01 -5.104399999999999910e-02 1.159000000000000091e-03
1.126110000000000028e-01 4.438000000000000105e-03 7.497900000000000398e-02
8.652459999999999596e-01 7.092400000000000093e-02 -2.257100000000000078e-02
-3.842550000000000132e-01 3.259000000000000091e-02 -4.427500000000000185e-02
1.008819999999999995e-01 -6.073100000000000026e-02 -3.465000000000000198e-03
-4.962289999999999757e-01 1.613999999999999983e-03 4.957400000000000001e-02
9.318269999999999609e-01 5.895000000000000240e-02 3.700099999999999917e-02
-4.853939999999999921e-01 -5.326299999999999785e-02 -3.820000000000000153e-04
6.203800000000000425e-01 4.502799999999999858e-02 -3.699500000000000011e-02
8.276459999999999928e-01 3.562099999999999989e-02 -5.966300000000000076e-02
-3.738500000000000156e-01 3.842600000000000182e-02 2.282199999999999854e-02
-4.773379999999999845e-01 2.289400000000000115e-02 3.492599999999999871e-02
4.473679999999999879e-01 -7.239999999999999908e-03 3.327000000000000096e-02
-5.466109999999999580e-01 8.175000000000000322e-02 2.042899999999999924e-02
5.584879999999999844e-01 -2.561199999999999935e-02 -1.223300000000000082e-02
-7.820299999999999474e-02 2.988899999999999890e-02 -8.143200000000000438e-02
-3.382029999999999759e-01 5.333299999999999846e-02 2.684900000000000134e-02
-4.581239999999999757e-01 2.267299999999999871e-02 -8.160799999999999998e-02
1.122739999999999988e-01 -5.380299999999999666e-02 1.979300000000000156e-02
-2.539139999999999731e-01 4.497799999999999715e-02 -7.829999999999999504e-04
5.251789999999999514e-01 3.132200000000000262e-02 -4.290399999999999769e-02
4.207580000000000209e-01 -9.764999999999999375e-03 -3.713500000000000134e-02
-4.011040000000000161e-01 -7.149800000000000599e-02 -9.210000000000000521e-04
9.480119999999999658e-01 -3.286399999999999738e-02 1.480999999999999895e-03
2.575709999999999944e-01 -2.254099999999999854e-02 -1.168199999999999968e-02
-1.106349999999999972e-01 7.610500000000000598e-02 -3.222599999999999770e-02
-3.878220000000000001e-01 2.635399999999999895e-02 -8.374700000000000200e-02
-3.379599999999999965e-02 2.765099999999999850e-02 -4.560000000000000164e-02
1.868980000000000086e-01 -1.685999999999999999e-03 -1.516999999999999902e-03
-4.773910000000000098e-01 2.662000000000000130e-02 -7.978999999999999981e-03
-9.639399999999999358e-02 5.548800000000000260e-02 -3.487599999999999728e-02
1.484469999999999956e-01 -4.039999999999999841e-02 -2.984799999999999953e-02
-2.346689999999999887e-01 8.025300000000000489e-02 2.902400000000000119e-02
-2.937679999999999736e-01 6.251400000000000012e-02 -2.242900000000000102e-02
-9.868200000000000582e-02 -1.384999999999999946e-03 2.526300000000000073e-02
8.479449999999999488e-01 -3.310300000000000048e-02 -4.792500000000000232e-02
6.480550000000000477e-01 4.069300000000000000e-02 3.290400000000000269e-02
-3.447490000000000276e-01 5.870899999999999730e-02 3.574700000000000100e-02
-5.476600000000000357e-01 -1.855199999999999905e-02 2.837999999999999811e-03
-1.146009999999999945e-01 -5.150899999999999923e-02 -2.213599999999999943e-02
5.171959999999999891e-01 -2.744999999999999871e-02 -6.733000000000000269e-03
1.359670000000000045e-01 2.412100000000000008e-02 -4.671600000000000058e-02
8.346099999999999353e-02 6.734800000000000508e-02 -1.061000000000000094e-03
4.281150000000000233e-01 3.386700000000000127e-02 3.709400000000000197e-02
8.859409999999999785e-01 4.397999999999999826e-02 -5.605899999999999772e-02
3.915120000000000267e-01 6.435200000000000642e-02 -1.978999999999999856e-03
2.324410000000000087e-01 4.308300000000000324e-02 -3.861599999999999755e-02
-5.346360000000000001e-01 -4.133000000000000389e-03 -8.538999999999999715e-03
8.601550000000000029e-01 4.526800000000000268e-02 -5.557700000000000140e-02
-3.543109999999999871e-01 -1.107299999999999951e-02 -3.388200000000000239e-02
8.186499999999999333e-02 3.903399999999999925e-02 -2.620099999999999860e-02
-3.629760000000000209e-01 -1.200400000000000078e-02 -2.063900000000000109e-02
1.333399999999999863e-01 1.460999999999999972e-02 -2.359199999999999839e-02
-4.716049999999999964e-01 -1.139119999999999994e-01 7.339999999999999520e-04
6.501489999999999769e-01 3.144199999999999773e-02 3.670099999999999751e-02
1.746939999999999882e-01 1.703299999999999953e-02 -4.621200000000000307e-02
-3.436469999999999803e-01 5.276499999999999940e-02 2.515699999999999881e-02
1.851540000000000130e-01 -4.571000000000000410e-03 2.314999999999999784e-03
-2.480539999999999967e-01 4.751000000000000015e-03 2.471299999999999886e-02
1.499799999999999918e-02 3.804400000000000143e-02 2.270000000000000143e-02
7.811759999999999815e-01 7.182499999999999996e-02 -7.553999999999999951e-03
-3.746389999999999998e-01 5.793000000000000232e-02 -3.369899999999999979e-02
8.170330000000000092e-01 -3.762299999999999672e-02 2.977199999999999985e-02
8.241999999999999327e-03 5.609100000000000197e-02 -3.192600000000000299e-02
-5.439180000000000126e-01 7.631300000000000583e-02 -2.224800000000000041e-02
-2.259859999999999924e-01 5.192700000000000093e-02 6.012699999999999989e-02
5.797130000000000338e-01 5.418499999999999706e-02 1.747100000000000042e-02
-4.384609999999999896e-01 3.857900000000000218e-02 4.058500000000000302e-02
2.057009999999999950e-01 5.338799999999999796e-02 -3.340499999999999720e-02
-3.627839999999999954e-01 -6.616000000000000353e-03 4.325600000000000278e-02
-5.150670000000000526e-01 4.934399999999999897e-02 -4.870499999999999829e-02
4.572169999999999845e-01 -1.873299999999999965e-02 -2.608100000000000002e-02
-4.603869999999999907e-01 2.633800000000000030e-02 1.379029999999999978e-01
-3.046269999999999811e-01 1.603299999999999864e-02 -2.318800000000000028e-02
-3.360130000000000061e-01 5.818600000000000161e-02 3.946100000000000302e-02
-3.222700000000000009e-01 -4.886100000000000165e-02 2.060000000000000026e-02
-3.266689999999999872e-01 -2.627099999999999921e-02 3.059399999999999967e-02
-4.594249999999999723e-01 4.525300000000000156e-02 -7.577299999999999314e-02
1.078800000000000037e-01 8.842600000000000460e-02 2.380900000000000030e-02
5.176709999999999923e-01 5.781399999999999734e-02 -1.568500000000000102e-02
-3.559169999999999834e-01 3.173299999999999732e-02 2.099499999999999977e-02
-2.967589999999999950e-01 -9.367999999999999591e-03 2.695200000000000026e-02
-3.858969999999999900e-01 2.761800000000000019e-02 1.030969999999999942e-01
1.680629999999999902e-01 2.751899999999999832e-02 5.174700000000000133e-02
-2.046310000000000073e-01 -9.913999999999999202e-03 2.844999999999999959e-02
3.462399999999999922e-01 4.825800000000000228e-02 -3.622199999999999726e-02
7.074580000000000313e-01 -2.149399999999999922e-02 1.998300000000000076e-02
2.517000000000000140e-02 1.024489999999999984e-01 -5.928000000000000110e-03
-4.896249999999999769e-01 3.856799999999999812e-02 7.350099999999999689e-02
-4.099200000000000066e-01 7.979999999999999897e-04 1.910299999999999845e-02
4.427789999999999782e-01 -1.692799999999999860e-02 2.514399999999999968e-02
-4.046330000000000204e-01 1.002849999999999991e-01 -2.200500000000000025e-02
5.792370000000000019e-01 2.064500000000000016e-02 4.159199999999999703e-02
-4.764840000000000186e-01 3.060399999999999926e-02 8.081800000000000095e-02
7.278170000000000472e-01 1.390399999999999969e-02 -4.881100000000000022e-02
-3.374550000000000050e-01 -3.364999999999999936e-03 5.740300000000000263e-02
1.606090000000000018e-01 7.324899999999999467e-02 1.912700000000000164e-02
7.117360000000000353e-01 1.073200000000000022e-02 -4.740300000000000069e-02
1.186569999999999986e-01 9.832999999999999727e-03 -4.331499999999999934e-02
3.870200000000000029e-02 4.839399999999999952e-02 -2.822799999999999962e-02
-1.227800000000000072e-02 5.382300000000000278e-02 -2.933399999999999896e-02
1.236799999999999983e-01 1.638200000000000073e-02 7.919299999999999951e-02
1.168619999999999937e-01 4.966999999999999887e-02 5.723500000000000115e-02
2.563799999999999968e-01 2.521899999999999836e-02 4.173199999999999826e-02
-4.492070000000000229e-01 -5.292600000000000082e-02 -8.800999999999999795e-03
6.904909999999999659e-01 1.822199999999999862e-02 -4.801500000000000212e-02
-3.519900000000000112e-02 4.464900000000000119e-02 5.418000000000000073e-03
8.661199999999999455e-02 -9.067000000000000406e-03 -3.570399999999999963e-02
6.540569999999999995e-01 2.429999999999999977e-04 -4.272100000000000203e-02
-3.683009999999999895e-01 2.551700000000000149e-02 8.232699999999999740e-02
-3.389099999999999890e-01 7.077100000000000057e-02 -3.395000000000000014e-03
-1.447259999999999935e-01 -8.807999999999999857e-03 4.386999999999999927e-02
-4.726079999999999726e-01 6.353399999999999326e-02 -3.342599999999999738e-02
4.309149999999999925e-01 3.891700000000000020e-02 3.499599999999999933e-02
3.604200000000000181e-01 -1.880300000000000027e-02 -2.336500000000000035e-02
3.243090000000000139e-01 1.817099999999999965e-02 -4.803799999999999737e-02
1.379759999999999875e-01 -2.624000000000000030e-03 3.454600000000000032e-02
-4.621549999999999825e-01 4.953500000000000264e-02 -9.832000000000000461e-03
7.694250000000000256e-01 -2.476199999999999929e-02 3.247599999999999792e-02
-4.919310000000000072e-01 -5.187999999999999903e-03 2.282999999999999960e-02
1.465970000000000051e-01 6.015800000000000314e-02 1.453499999999999931e-02
-3.253699999999999926e-01 1.157700000000000048e-02 -7.775100000000000067e-02
-2.040000000000000147e-02 1.868500000000000022e-02 -4.608899999999999803e-02
-4.536699999999999761e-02 5.925300000000000011e-02 -3.452700000000000213e-02
4.212480000000000113e-01 8.649999999999999703e-03 3.983300000000000035e-02
-4.777020000000000155e-01 -1.912999999999999987e-03 -1.870099999999999887e-02
-1.743550000000000100e-01 -3.092000000000000130e-03 -2.714300000000000046e-02
-2.542399999999999868e-02 5.685799999999999882e-02 -3.015400000000000025e-02
-3.009069999999999800e-01 -1.098700000000000024e-02 3.238499999999999712e-02
8.553920000000000412e-01 -4.349900000000000294e-02 1.636699999999999960e-02
7.927039999999999642e-01 2.167499999999999982e-02 5.866799999999999793e-02
-2.947350000000000247e-01 4.762299999999999867e-02 -7.444199999999999429e-02
-3.536839999999999984e-01 -5.381099999999999772e-02 -9.511000000000000357e-03
9.520499999999999796e-02 3.256799999999999973e-02 -8.008400000000000241e-02
-2.158599999999999963e-01 5.284099999999999908e-02 3.166299999999999670e-02
8.450659999999999838e-01 7.789500000000000590e-02 -6.100000000000000387e-03
3.093710000000000071e-01 5.468999999999999903e-03 3.827500000000000346e-02
-2.427600000000000036e-01 -5.722100000000000103e-02 -3.735000000000000039e-03
-1.442690000000000083e-01 -1.484399999999999956e-02 1.706999999999999837e-02
-2.253960000000000130e-01 -4.335999999999999577e-03 -3.532099999999999823e-02
-4.464069999999999983e-01 9.560000000000000355e-04 -3.611500000000000127e-02
-7.145899999999999475e-02 -1.579000000000000108e-03 -7.011499999999999677e-02
1.137429999999999969e-01 4.251400000000000318e-02 -3.910099999999999687e-02
-1.415659999999999974e-01 6.787899999999999490e-02 -6.002000000000000390e-03
-4.418869999999999743e-01 5.195099999999999718e-02 -2.749300000000000008e-02
8.060890000000000555e-01 2.803900000000000142e-02 5.627599999999999963e-02
1.452370000000000050e-01 -1.121400000000000001e-02 2.600200000000000081e-02
6.786200000000000565e-02 -8.609000000000000333e-03 2.588499999999999829e-02
-1.537870000000000070e-01 -9.970000000000000563e-04 1.734600000000000031e-02
1.719050000000000022e-01 6.758999999999999730e-02 -1.165199999999999916e-02
-3.506839999999999957e-01 -5.178800000000000070e-02 -1.445899999999999963e-02
-3.177240000000000064e-01 8.432199999999999418e-02 2.779600000000000126e-02
5.051499999999999740e-02 5.419299999999999812e-02 -4.580300000000000343e-02
-4.017950000000000133e-01 6.897399999999999365e-02 7.811000000000000235e-03
-2.608130000000000170e-01 3.556100000000000233e-02 2.194700000000000123e-02
-3.850210000000000021e-01 -5.510199999999999820e-02 -5.481999999999999894e-03
8.598639999999999617e-01 -4.683500000000000163e-02 8.368000000000000438e-03
1.952760000000000051e-01 4.049400000000000222e-02 -3.977200000000000180e-02
-4.728490000000000193e-01 -5.479300000000000143e-02 2.407999999999999984e-03
-4.259740000000000193e-01 5.811299999999999799e-02 -2.921500000000000138e-02
-3.088290000000000202e-01 2.117099999999999885e-02 8.064499999999999447e-02
6.471360000000000445e-01 -4.578999999999999737e-03 3.479499999999999954e-02
3.669209999999999972e-01 5.978100000000000080e-02 9.639999999999999264e-03
3.760100000000000109e-01 -2.389700000000000157e-02 -1.154400000000000044e-02
-2.108059999999999934e-01 -2.212700000000000083e-02 -3.317400000000000210e-02
-4.277799999999999658e-02 9.220399999999999430e-02 -2.543799999999999881e-02
1.504010000000000069e-01 4.263000000000000296e-03 7.482199999999999962e-02
-3.676740000000000008e-01 5.219499999999999834e-02 -6.481900000000000162e-02
-4.398739999999999872e-01 8.323000000000000537e-03 2.460199999999999887e-02
-3.722820000000000018e-01 -2.592000000000000120e-03 -2.842700000000000088e-02
-4.705259999999999998e-01 1.404630000000000045e-01 -2.005999999999999971e-03
1.091720000000000051e-01 -5.853200000000000069e-02 -9.938999999999999918e-03
-2.732829999999999981e-01 -4.959399999999999920e-02 -2.202300000000000091e-02
7.022100000000000564e-02 -1.660400000000000070e-02 -3.483200000000000185e-02
-2.045220000000000093e-01 4.824900000000000022e-02 2.530800000000000063e-02
-4.204919999999999769e-01 4.975099999999999661e-02 1.132700000000000026e-02
4.932999999999999885e-03 4.484300000000000092e-02 -1.159499999999999940e-02
4.756969999999999810e-01 5.686999999999999694e-02 -1.891299999999999926e-02
7.452910000000000368e-01 3.410099999999999937e-02 3.500899999999999845e-02
-4.758939999999999837e-01 2.854500000000000093e-02 9.322600000000000331e-02
-3.934309999999999752e-01 2.842700000000000088e-02 2.020100000000000021e-02
-4.312239999999999962e-01 3.680699999999999944e-02 -7.927099999999999425e-02
-4.093539999999999957e-01 1.148020000000000013e-01 -2.229999999999999994e-04
-1.144040000000000057e-01 5.728199999999999958e-02 -3.169899999999999801e-02
-1.276529999999999887e-01 3.444799999999999945e-02 4.033799999999999886e-02
-1.881499999999999839e-02 4.517899999999999694e-02 -7.478500000000000425e-02
-2.590709999999999957e-01 5.057999999999999996e-02 -2.292599999999999846e-02
1.547260000000000024e-01 3.636000000000000343e-02 3.778100000000000208e-02
8.444420000000000259e-01 -2.636399999999999855e-02 -5.210499999999999854e-02
4.926610000000000156e-01 4.664800000000000196e-02 -3.658700000000000147e-02
7.686450000000000227e-01 5.088999999999999774e-02 3.504199999999999676e-02
9.148049999999999793e-01 3.709199999999999997e-02 -5.886799999999999672e-02
-3.762220000000000009e-01 2.600799999999999987e-02 7.735300000000000509e-02
-4.117859999999999854e-01 -1.244000000000000097e-03 -3.542599999999999916e-02
1.231160000000000032e-01 4.460200000000000276e-02 -3.821100000000000191e-02
8.539470000000000116e-01 6.871199999999999530e-02 2.142600000000000060e-02
1.150599999999999956e-01 -2.246999999999999865e-03 -2.751500000000000126e-02
-4.515339999999999909e-01 -1.345099999999999942e-02 1.357700000000000053e-02
-1.131459999999999966e-01 2.615699999999999970e-02 -8.282799999999999885e-02
-3.394989999999999952e-01 1.599199999999999927e-02 7.851600000000000246e-02
3.718489999999999851e-01 5.866400000000000087e-02 -1.688299999999999870e-02
-4.488570000000000060e-01 -5.877000000000000279e-03 -3.308699999999999836e-02
-2.928299999999999792e-01 5.232799999999999951e-02 2.559900000000000023e-02
8.137069999999999581e-01 6.241000000000000020e-02 -4.439200000000000090e-02
1.179400000000000032e-01 -2.230899999999999897e-02 -3.440100000000000102e-02
-3.396689999999999987e-01 -7.416999999999999982e-03 3.828600000000000059e-02
6.292759999999999465e-01 -2.611899999999999986e-02 -1.287899999999999982e-02
-4.113379999999999814e-01 6.493300000000000460e-02 -3.335500000000000270e-02
1.160690000000000055e-01 -1.301500000000000053e-02 -3.201699999999999685e-02
-6.850399999999999545e-02 -1.931999999999999907e-03 1.748800000000000007e-02
-1.157959999999999962e-01 1.157000000000000042e-03 6.453999999999999668e-03
2.799099999999999921e-01 4.320999999999999841e-02 -3.846299999999999719e-02
-3.847039999999999904e-01 -5.992499999999999910e-02 -9.330000000000000186e-04
-3.572779999999999845e-01 6.977300000000000169e-02 4.721999999999999635e-03
4.661210000000000075e-01 1.872499999999999859e-02 4.309199999999999836e-02
-1.661120000000000096e-01 4.968500000000000000e-02 -2.797900000000000040e-02
-2.560000000000000123e-02 1.445399999999999983e-02 4.131800000000000056e-02
-1.854220000000000035e-01 -9.952000000000000776e-03 2.983500000000000041e-02
5.203799999999999537e-01 4.667000000000000315e-02 3.124199999999999894e-02
1.655600000000000127e-02 6.237800000000000289e-02 1.263000000000000060e-02
9.313999999999999363e-03 5.313699999999999674e-02 3.178199999999999775e-02
2.893000000000000016e-01 2.903700000000000031e-02 3.995300000000000240e-02
-1.071489999999999942e-01 -1.048800000000000079e-02 -3.101399999999999990e-02
1.519199999999999995e-01 4.109000000000000152e-02 2.354600000000000096e-02
-1.472950000000000093e-01 5.629100000000000076e-02 3.146499999999999991e-02
-3.757599999999999829e-02 4.391899999999999971e-02 2.403500000000000081e-02
-5.154490000000000460e-01 8.107200000000000517e-02 -2.225399999999999948e-02
-3.877120000000000011e-01 6.739100000000000645e-02 1.123999999999999999e-02
2.552099999999999855e-02 1.287899999999999982e-02 7.790500000000000203e-02
-3.109919999999999907e-01 -3.989999999999999623e-03 -5.751900000000000068e-02
-1.745599999999999929e-02 -5.483299999999999980e-02 -1.686800000000000105e-02
1.467239999999999933e-01 -5.556400000000000228e-02 -1.942299999999999929e-02
7.511780000000000124e-01 -1.999599999999999989e-02 2.459700000000000081e-02
-1.278279999999999972e-01 9.357999999999999999e-03 -4.157399999999999984e-02
-6.205399999999999805e-02 -1.724399999999999891e-02 1.308199999999999988e-02
-2.661900000000000030e-02 5.616999999999999771e-02 2.866900000000000004e-02
-3.370100000000000179e-02 1.859500000000000042e-02 7.988699999999999968e-02
3.462200000000000000e-02 3.581700000000000161e-02 3.875699999999999978e-02
1.792600000000000096e-02 6.034599999999999687e-02 -2.071699999999999930e-02
-4.847719999999999807e-01 5.672100000000000058e-02 -4.390199999999999658e-02
-4.437389999999999946e-01 2.846999999999999878e-02 -8.275200000000000611e-02
-1.257719999999999949e-01 5.029100000000000237e-02 2.499399999999999886e-02
-3.703399999999999748e-02 5.343599999999999739e-02 -5.510899999999999826e-02
-2.449310000000000098e-01 -1.637999999999999873e-02 3.173200000000000326e-02
-3.350000000000000113e-04 5.865999999999999687e-03 -4.093399999999999817e-02
2.546500000000000152e-02 -1.325899999999999995e-02 -3.502000000000000252e-02
-4.771900000000000031e-01 4.459300000000000069e-02 1.438999999999999958e-03
-2.626829999999999998e-01 2.174500000000000044e-02 -8.227600000000000191e-02
5.465820000000000123e-01 5.963100000000000345e-02 5.270000000000000379e-03
-2.871900000000000008e-01 7.356400000000000439e-02 -3.252800000000000136e-02
7.545699999999999630e-02 -5.661599999999999966e-02 -1.442799999999999985e-02
-1.643610000000000071e-01 -2.106999999999999932e-03 6.469500000000000250e-02
3.985259999999999914e-01 6.027400000000000119e-02 -1.237899999999999938e-02
-3.532000000000000139e-01 -5.087000000000000376e-03 -2.906200000000000103e-02
-1.179609999999999964e-01 -5.504699999999999871e-02 9.119000000000000369e-03
3.810000000000000192e-02 9.992199999999999693e-02 1.085799999999999960e-02
1.059719999999999968e-01 -1.232499999999999915e-02 -3.726399999999999851e-02
6.356370000000000076e-01 2.043000000000000111e-03 -4.334699999999999664e-02
9.916300000000000114e-02 4.538000000000000367e-03 -2.593200000000000019e-02
-4.245309999999999917e-01 5.359000000000000048e-03 2.861999999999999961e-03
5.687999999999999723e-01 -2.488399999999999987e-02 -1.425300000000000004e-02
-6.906400000000000039e-02 -2.795000000000000175e-03 -2.223199999999999829e-02
8.529369999999999452e-01 2.447500000000000023e-02 -6.425200000000000355e-02
-2.224160000000000026e-01 4.407900000000000013e-02 -2.652399999999999897e-02
3.492810000000000081e-01 6.103200000000000292e-02 7.101999999999999806e-03
8.515399999999999636e-01 7.361600000000000088e-02 9.716000000000000678e-03
-1.329309999999999936e-01 1.005400000000000044e-01 -1.504199999999999982e-02
8.761970000000000036e-01 -5.159699999999999703e-02 -2.825999999999999953e-03
-4.619999999999999975e-03 -4.452000000000000228e-03 2.515200000000000075e-02
1.522850000000000037e-01 5.434800000000000048e-02 -3.387400000000000133e-02
4.580300000000000343e-02 -1.616599999999999981e-02 -3.478599999999999748e-02
-1.225630000000000053e-01 -9.674999999999999573e-03 -3.487799999999999928e-02
9.192609999999999948e-01 -4.831699999999999884e-02 6.098000000000000122e-03
-1.181799999999999934e-01 -1.572999999999999962e-03 -6.880200000000000204e-02
-4.618670000000000275e-01 3.726399999999999851e-02 7.807600000000000651e-02
