-4.512538909912109375e-01 1.247098594903945923e-01 -1.675328356213867664e-03
-1.687054634094238281e-01 2.678123675286769867e-02 -8.304365724325180054e-02
-1.756251156330108643e-01 3.162884712219238281e-02 -8.350583165884017944e-02
-1.790726184844970703e-01 2.146361023187637329e-02 -8.288341015577316284e-02
-1.856635659933090210e-01 2.635515853762626648e-02 -8.313100039958953857e-02
1.414152234792709351e-02 1.051894109696149826e-02 1.962943002581596375e-02
6.801228504627943039e-03 1.374673657119274139e-02 2.133858203887939453e-02
7.392387837171554565e-03 1.180039159953594208e-02 2.184731513261795044e-02
-1.891870051622390747e-04 1.510795578360557556e-02 2.354441955685615540e-02
-3.789678514003753662e-01 3.289558226242661476e-03 -2.920904196798801422e-02
-3.844558298587799072e-01 4.433244466781616211e-03 -2.850949764251708984e-02
-3.842866122722625732e-01 4.259801469743251801e-03 -2.768686972558498383e-02
-3.892147541046142578e-01 6.071136333048343658e-03 -2.668516524136066437e-02
-3.805433511734008789e-01 2.338007651269435883e-02 -1.077929288148880005e-01
-3.878747820854187012e-01 2.405152469873428345e-02 -1.085123345255851746e-01
-3.813705146312713623e-01 2.348061092197895050e-02 -1.008908897638320923e-01
-3.886515200138092041e-01 2.399398945271968842e-02 -1.015730351209640503e-01
-1.317693740129470825e-01 2.788469754159450531e-02 2.471905201673507690e-02
-1.369868069887161255e-01 3.015075623989105225e-02 2.381414361298084259e-02
-1.377962380647659302e-01 2.508880756795406342e-02 2.697587572038173676e-02
-1.429973989725112915e-01 2.767805196344852448e-02 2.551067993044853210e-02
-3.244532644748687744e-01 -4.104577004909515381e-02 -2.576342783868312836e-02
-3.306573331356048584e-01 -3.774300962686538696e-02 -2.826541475951671600e-02
-3.286830186843872070e-01 -4.592051357030868530e-02 -2.249808982014656067e-02
-3.353821039199829102e-01 -4.307248815894126892e-02 -2.549369446933269501e-02
5.732868313789367676e-01 5.027787759900093079e-02 -2.821466512978076935e-02
5.637065768241882324e-01 5.031157284975051880e-02 -2.782372198998928070e-02
5.681976079940795898e-01 5.577226355671882629e-02 -2.150313183665275574e-02
5.589007735252380371e-01 5.611277371644973755e-02 -2.122671529650688171e-02
4.404352605342864990e-01 -1.407213788479566574e-02 2.791491523385047913e-02
4.301002025604248047e-01 -1.206954009830951691e-02 2.889167517423629761e-02
4.373164474964141846e-01 -8.199782110750675201e-03 3.399453684687614441e-02
4.271387457847595215e-01 -6.426598411053419113e-03 3.472992405295372009e-02
-3.175597786903381348e-01 6.834167242050170898e-02 -5.782370455563068390e-03
-3.252680301666259766e-01 6.727745383977890015e-02 -8.654706180095672607e-03
-3.188368082046508789e-01 6.830620020627975464e-02 2.085346495732665062e-03
-3.269548118114471436e-01 6.763411313295364380e-02 -5.616939160972833633e-04
-2.675080597400665283e-01 9.936016984283924103e-03 -4.038824513554573059e-02
-2.759217619895935059e-01 1.423378288745880127e-02 -3.894291818141937256e-02
-2.755691111087799072e-01 9.908098727464675903e-03 -3.790260851383209229e-02
-2.830567955970764160e-01 1.345753110945224762e-02 -3.625347465276718140e-02
-1.257869899272918701e-01 8.588209748268127441e-02 -2.769680880010128021e-02
-1.340432316064834595e-01 8.504343777894973755e-02 -2.895885147154331207e-02
-1.304563283920288086e-01 9.365598857402801514e-02 -2.366180904209613800e-02
-1.384425759315490723e-01 9.257006645202636719e-02 -2.472707815468311310e-02
-4.127227663993835449e-01 4.455807060003280640e-02 2.477466315031051636e-02
-4.218903779983520508e-01 4.501637071371078491e-02 2.203027158975601196e-02
-4.151967465877532959e-01 4.277550429105758667e-02 2.971684187650680542e-02
-4.241365790367126465e-01 4.369100555777549744e-02 2.720545418560504913e-02
-9.545272588729858398e-02 4.367802664637565613e-02 7.271239161491394043e-02
-1.012762486934661865e-01 5.034836009144783020e-02 6.990878283977508545e-02
-9.890992939472198486e-02 3.682774305343627930e-02 7.480974495410919189e-02
-1.048124134540557861e-01 4.396796599030494690e-02 7.190611958503723145e-02
-4.760948121547698975e-01 -5.407451465725898743e-02 -9.994322434067726135e-03
-4.829501509666442871e-01 -5.088974162936210632e-02 -9.426835924386978149e-03
-4.797721505165100098e-01 -5.406446382403373718e-02 -5.692448001354932785e-03
-4.867605865001678467e-01 -5.146392062306404114e-02 -5.357094109058380127e-03
9.691403061151504517e-02 5.335296690464019775e-02 4.264797270298004150e-02
8.937871456146240234e-02 5.813386291265487671e-02 4.057783633470535278e-02
9.238883852958679199e-02 4.828021675348281860e-02 4.765131697058677673e-02
8.590973913669586182e-02 5.417539551854133606e-02 4.474621266126632690e-02
-1.268284022808074951e-01 7.450295984745025635e-02 2.485049143433570862e-02
-1.322410553693771362e-01 7.513022422790527344e-02 2.339412085711956024e-02
-1.312688589096069336e-01 7.238896191120147705e-02 3.143262490630149841e-02
-1.360830366611480713e-01 7.319553941488265991e-02 2.935196645557880402e-02
1.162137985229492188e-01 2.791815437376499176e-02 3.710737079381942749e-02
1.052170470356941223e-01 2.884662710130214691e-02 3.498902916908264160e-02
1.111108511686325073e-01 3.222437947988510132e-02 4.122789204120635986e-02
1.004890725016593933e-01 3.315353393554687500e-02 3.916428983211517334e-02
-7.601018995046615601e-03 2.433812944218516350e-03 -3.955783694982528687e-02
-1.182398572564125061e-02 3.429329255595803261e-03 -4.059806093573570251e-02
-1.149525213986635208e-02 2.870262134820222855e-03 -3.568459674715995789e-02
-1.575649157166481018e-02 4.141865763813257217e-03 -3.610881045460700989e-02
-2.481809556484222412e-01 6.677288562059402466e-03 -7.686882466077804565e-02
-2.577074468135833740e-01 9.118594229221343994e-03 -7.932247966527938843e-02
-2.516764104366302490e-01 2.040509134531021118e-03 -7.207991927862167358e-02
-2.620806097984313965e-01 3.438775893300771713e-03 -7.524714618921279907e-02
-3.598267436027526855e-01 1.621984504163265228e-02 -8.221352845430374146e-02
-3.666162788867950439e-01 1.686794683337211609e-02 -8.351165056228637695e-02
-3.630723059177398682e-01 2.006937563419342041e-02 -7.644940167665481567e-02
-3.688870072364807129e-01 2.058604173362255096e-02 -7.683987915515899658e-02
1.167394518852233887e-01 -2.443642541766166687e-02 -3.577908733859658241e-03
1.109046339988708496e-01 -2.420504204928874969e-02 -7.292690686881542206e-03
1.149269640445709229e-01 -2.207065932452678680e-02 6.879183463752269745e-03
1.090567931532859802e-01 -2.172979712486267090e-02 2.648211782798171043e-03
8.659351617097854614e-02 4.635620489716529846e-02 -2.170396968722343445e-02
7.901764661073684692e-02 5.062608420848846436e-02 -2.373885363340377808e-02
8.415266871452331543e-02 4.233624413609504700e-02 -1.859445124864578247e-02
7.662706077098846436e-02 4.672671109437942505e-02 -2.055366709828376770e-02
3.706568107008934021e-02 6.009612977504730225e-02 1.490419823676347733e-02
2.999046072363853455e-02 6.350557506084442139e-02 1.355472113937139511e-02
3.207635506987571716e-02 5.803014710545539856e-02 1.999271288514137268e-02
2.596728503704071045e-02 6.090449914336204529e-02 1.869873143732547760e-02
-1.792763471603393555e-01 1.027545854449272156e-01 9.087296202778816223e-03
-1.870550960302352905e-01 1.033909022808074951e-01 6.428537890315055847e-03
-1.802162379026412964e-01 1.002745553851127625e-01 1.558741368353366852e-02
-1.880695968866348267e-01 1.011832505464553833e-01 1.306063774973154068e-02
-3.876077830791473389e-01 7.704544067382812500e-02 2.803313918411731720e-02
-3.916025161743164062e-01 8.147139102220535278e-02 2.464843541383743286e-02
-3.916423022747039795e-01 7.165785133838653564e-02 3.182123601436614990e-02
-3.954829573631286621e-01 7.442949712276458740e-02 2.821262739598751068e-02
9.981814771890640259e-02 -1.776338205672800541e-03 -1.330490317195653915e-02
9.370762109756469727e-02 -1.993761863559484482e-03 -1.481922622770071030e-02
9.755752980709075928e-02 7.521320367231965065e-05 -7.645108737051486969e-03
9.122562408447265625e-02 -6.206533871591091156e-04 -9.622020646929740906e-03
-4.577848613262176514e-01 1.269205659627914429e-02 7.554983347654342651e-02
-4.642752110958099365e-01 1.117435283958911896e-02 7.246495783329010010e-02
-4.579877555370330811e-01 1.655122824013233185e-02 8.038114011287689209e-02
-4.639462232589721680e-01 1.541675254702568054e-02 7.774616032838821411e-02
1.091172918677330017e-02 -1.697340235114097595e-02 -3.485907241702079773e-02
6.689537316560745239e-03 -1.617228984832763672e-02 -3.766476362943649292e-02
8.436111733317375183e-03 -1.818766817450523376e-02 -2.966865524649620056e-02
4.355252254754304886e-03 -1.763955503702163696e-02 -3.297508880496025085e-02
-4.687568247318267822e-01 6.053406000137329102e-02 -3.506731614470481873e-02
-4.723345637321472168e-01 6.633456796407699585e-02 -3.568908572196960449e-02
-4.738079309463500977e-01 5.544297024607658386e-02 -3.491397574543952942e-02
-4.777211844921112061e-01 6.128799915313720703e-02 -3.539086878299713135e-02
1.158621907234191895e-02 5.567129701375961304e-02 -3.219594061374664307e-02
3.733650315552949905e-03 5.687210336327552795e-02 -3.580921515822410583e-02
1.048688590526580811e-02 5.520907044410705566e-02 -2.646932750940322876e-02
2.868301700800657272e-03 5.610254779458045959e-02 -3.021654672920703888e-02
-4.491918981075286865e-01 1.578407883644104004e-01 -1.420047483406960964e-03
-4.516290724277496338e-01 1.627977192401885986e-01 -2.320144791156053543e-03
-4.577476680278778076e-01 1.540243923664093018e-01 -1.704729627817869186e-03
-4.599319994449615479e-01 1.584112197160720825e-01 -3.157074796035885811e-03
-4.889062345027923584e-01 -7.576954085379838943e-04 -4.245891422033309937e-02
-4.945707619190216064e-01 6.484002806246280670e-03 -3.961509466171264648e-02
-4.924641251564025879e-01 -2.630054950714111328e-06 -3.591474890708923340e-02
-4.981347024440765381e-01 7.672046311199665070e-03 -3.293804451823234558e-02
-4.406099915504455566e-01 -3.435135120525956154e-03 5.211774632334709167e-02
-4.478108882904052734e-01 -4.866782575845718384e-03 5.153203383088111877e-02
-4.424821436405181885e-01 -3.089657402597367764e-04 5.782919004559516907e-02
-4.496044218540191650e-01 -1.866105478256940842e-03 5.695883184671401978e-02
-1.769183427095413208e-01 -3.515388350933790207e-03 2.468978241086006165e-02
-1.828008890151977539e-01 -1.464898698031902313e-03 2.298043854534626007e-02
-1.806967705488204956e-01 -6.739323027431964874e-03 2.855827100574970245e-02
-1.855675131082534790e-01 -4.646408371627330780e-03 2.643888629972934723e-02
-2.871084213256835938e-01 6.348617374897003174e-02 -2.816107124090194702e-02
-2.922692894935607910e-01 6.505203992128372192e-02 -2.877757512032985687e-02
-2.868766188621520996e-01 6.523413956165313721e-02 -2.265119738876819611e-02
-2.918110489845275879e-01 6.627315282821655273e-02 -2.411045879125595093e-02
5.487766861915588379e-02 2.344037406146526337e-03 7.290318608283996582e-02
4.819620028138160706e-02 9.725525975227355957e-03 7.502859085798263550e-02
4.581398889422416687e-02 -1.523025799542665482e-03 7.225764542818069458e-02
3.993364423513412476e-02 5.382518749684095383e-03 7.518329471349716187e-02
1.320926845073699951e-01 -2.019578404724597931e-02 1.704890746623277664e-03
1.262886822223663330e-01 -2.104818075895309448e-02 1.179446931928396225e-03
1.292518675327301025e-01 -1.950413361191749573e-02 7.756433915346860886e-03
1.223419681191444397e-01 -2.016573585569858551e-02 7.172589190304279327e-03
1.362297683954238892e-01 5.049651488661766052e-02 3.027719631791114807e-02
1.286700814962387085e-01 5.285046622157096863e-02 2.757392823696136475e-02
1.346768885850906372e-01 4.908388480544090271e-02 3.738192841410636902e-02
1.264216899871826172e-01 5.160874128341674805e-02 3.448328375816345215e-02
-2.860301434993743896e-01 6.636509206146001816e-03 -2.884573116898536682e-02
-2.910644710063934326e-01 9.214745834469795227e-03 -2.739757485687732697e-02
-2.916212975978851318e-01 7.201672997325658798e-03 -2.242949046194553375e-02
-2.970713376998901367e-01 8.371297270059585571e-03 -2.206107415258884430e-02
2.935597598552703857e-01 -2.062184549868106842e-02 1.241990271955728531e-02
2.863602936267852783e-01 -2.126408740878105164e-02 1.373347640037536621e-02
2.907567322254180908e-01 -1.654231548309326172e-02 1.937532797455787659e-02
2.828422486782073975e-01 -1.665515452623367310e-02 2.086260914802551270e-02
1.452316194772720337e-01 1.147601194679737091e-02 3.572843223810195923e-02
1.387977749109268188e-01 1.378995459526777267e-02 3.542630746960639954e-02
1.421955972909927368e-01 1.206040102988481522e-02 4.097702726721763611e-02
1.355925202369689941e-01 1.413914654403924942e-02 4.010460525751113892e-02
-4.060709178447723389e-01 5.525263771414756775e-02 4.503222182393074036e-02
-4.141489863395690918e-01 5.804680660367012024e-02 4.263551533222198486e-02
-4.104518592357635498e-01 4.913820326328277588e-02 4.873602092266082764e-02
-4.185132682323455811e-01 5.167675018310546875e-02 4.638786613941192627e-02
3.922691643238067627e-01 -1.367527898401021957e-02 2.752288617193698883e-02
3.831936717033386230e-01 -1.287154853343963623e-02 2.935316599905490875e-02
3.849309384822845459e-01 -5.623349919915199280e-03 3.303075581789016724e-02
3.763862848281860352e-01 -4.344894550740718842e-03 3.500016033649444580e-02
-3.053289055824279785e-01 2.199345082044601440e-02 4.103371128439903259e-02
-3.110667467117309570e-01 2.885873056948184967e-02 3.943539038300514221e-02
-3.138860762119293213e-01 1.554385013878345490e-02 4.067704454064369202e-02
-3.190842270851135254e-01 2.146549895405769348e-02 3.940052539110183716e-02
-8.435107301920652390e-04 2.896971255540847778e-02 3.972767665982246399e-02
-2.569189295172691345e-03 4.020084813237190247e-02 4.082428663969039917e-02
-1.176746934652328491e-02 2.788333594799041748e-02 3.779063001275062561e-02
-1.357786171138286591e-02 3.888487815856933594e-02 3.899693116545677185e-02
-1.151932999491691589e-01 3.370282053947448730e-02 3.891363367438316345e-02
-1.202927604317665100e-01 3.642202913761138916e-02 3.916695341467857361e-02
-1.223501414060592651e-01 3.243746981024742126e-02 3.858260065317153931e-02
-1.275000125169754028e-01 3.513739630579948425e-02 3.856587782502174377e-02
1.262473016977310181e-01 -7.348506245762109756e-03 5.552803352475166321e-02
1.250373572111129761e-01 -1.098405569791793823e-03 6.121490895748138428e-02
1.212382093071937561e-01 -7.354879286140203476e-03 5.657860264182090759e-02
1.158123686909675598e-01 -2.649857196956872940e-03 5.996143445372581482e-02
-1.091415956616401672e-01 -3.314383095130324364e-03 -1.042250823229551315e-02
-1.148618832230567932e-01 -1.932053361088037491e-03 -1.232574228197336197e-02
-1.142560541629791260e-01 -4.023898392915725708e-03 -5.265015177428722382e-03
-1.200439780950546265e-01 -2.572469413280487061e-03 -7.504489272832870483e-03
7.773304730653762817e-02 4.959651082754135132e-02 -5.915053188800811768e-02
6.979713588953018188e-02 5.416456237435340881e-02 -5.609495192766189575e-02
7.400219887495040894e-02 4.864565283060073853e-02 -5.536601692438125610e-02
6.640812754631042480e-02 5.315238237380981445e-02 -5.218767374753952026e-02
-1.211927384138107300e-01 -2.414283808320760727e-04 6.827774643898010254e-02
-1.303743720054626465e-01 -3.048325888812541962e-03 6.610082834959030151e-02
-1.231964230537414551e-01 5.078866146504878998e-03 7.447293400764465332e-02
-1.322482228279113770e-01 2.493710722774267197e-03 7.255814224481582642e-02
-9.525451809167861938e-02 -1.059819478541612625e-02 2.933645248413085938e-02
-9.902725368738174438e-02 -8.348744362592697144e-03 2.826466225087642670e-02
-9.961009025573730469e-02 -1.460571959614753723e-02 2.966097556054592133e-02
-1.040058955550193787e-01 -1.293311826884746552e-02 2.813972160220146179e-02
4.580675363540649414e-01 2.727652713656425476e-02 3.716453537344932556e-02
4.515947699546813965e-01 3.231593966484069824e-02 3.519245237112045288e-02
4.513769149780273438e-01 2.212144434452056885e-02 4.034027457237243652e-02
4.452354609966278076e-01 2.682339958846569061e-02 3.929828479886054993e-02
-2.995644807815551758e-01 6.218538805842399597e-02 8.217673748731613159e-03
-3.066420257091522217e-01 6.337688863277435303e-02 7.009306922554969788e-03
-3.020703196525573730e-01 6.457992643117904663e-02 1.651288382709026337e-02
-3.089654147624969482e-01 6.631086021661758423e-02 1.483803242444992065e-02
3.512901365756988525e-01 -5.601159762591123581e-03 -3.962716087698936462e-02
3.433707058429718018e-01 -2.655385062098503113e-03 -4.089805483818054199e-02
3.467874526977539062e-01 -9.725676849484443665e-03 -3.541700914502143860e-02
3.391478061676025391e-01 -7.062856107950210571e-03 -3.695977851748466492e-02
2.441146820783615112e-01 2.267024293541908264e-02 -4.709142446517944336e-02
2.338627278804779053e-01 2.590801380574703217e-02 -4.619776830077171326e-02
2.351513504981994629e-01 2.346364408731460571e-02 -4.752653837203979492e-02
2.247462570667266846e-01 2.668934315443038940e-02 -4.646456614136695862e-02
1.407924890518188477e-01 3.134229918941855431e-03 -7.475826889276504517e-02
1.327196508646011353e-01 4.240337759256362915e-03 -7.675019651651382446e-02
1.347399502992630005e-01 -1.102322014048695564e-03 -7.219821214675903320e-02
1.278000324964523315e-01 -3.836897667497396469e-05 -7.416389137506484985e-02
9.836979210376739502e-02 -5.760856717824935913e-02 1.303296908736228943e-02
8.884039521217346191e-02 -5.942266434431076050e-02 1.289908122271299362e-02
9.505977481603622437e-02 -4.899513348937034607e-02 1.907891966402530670e-02
8.603145182132720947e-02 -5.062985047698020935e-02 1.865657046437263489e-02
-4.035135805606842041e-01 -5.887083709239959717e-03 4.223168641328811646e-02
-4.108926951885223389e-01 -5.234471522271633148e-03 4.195021837949752808e-02
-4.047780632972717285e-01 -3.856455441564321518e-03 4.909380525350570679e-02
-4.126001298427581787e-01 -2.917516045272350311e-03 4.977635666728019714e-02
-5.046948790550231934e-01 6.901151500642299652e-03 3.939561173319816589e-02
-5.135901570320129395e-01 9.878523647785186768e-03 3.577385842800140381e-02
-5.081494450569152832e-01 4.541077185422182083e-03 4.540561884641647339e-02
-5.172972679138183594e-01 7.641762960702180862e-03 4.172977432608604431e-02
2.581297978758811951e-02 -1.851142384111881256e-02 -1.554447691887617111e-02
1.984565332531929016e-02 -1.811889745295047760e-02 -1.894807629287242889e-02
2.334825322031974792e-02 -1.943009532988071442e-02 -7.895691320300102234e-03
1.777593418955802917e-02 -1.904385350644588470e-02 -1.158666517585515976e-02
9.193176031112670898e-01 -6.783884949982166290e-03 -6.106495484709739685e-02
9.099146127700805664e-01 -5.326179787516593933e-03 -6.549404561519622803e-02
9.179329872131347656e-01 -7.289818022400140762e-03 -5.883165448904037476e-02
9.088699221611022949e-01 -4.922505002468824387e-03 -6.331386417150497437e-02
8.522958755493164062e-01 3.288401290774345398e-02 -6.022445112466812134e-02
8.492622375488281250e-01 3.935815766453742981e-02 -5.735471472144126892e-02
8.448275327682495117e-01 3.969575464725494385e-02 -5.874026939272880554e-02
8.391462564468383789e-01 4.257781431078910828e-02 -5.693069472908973694e-02
9.845958091318607330e-03 3.294892609119415283e-02 -3.884685784578323364e-02
4.724147729575634003e-04 3.430154919624328613e-02 -4.101661965250968933e-02
4.439128562808036804e-03 2.957644872367382050e-02 -3.780450671911239624e-02
-4.491716623306274414e-03 3.106532804667949677e-02 -3.968744352459907532e-02
3.137371540069580078e-01 -1.412764191627502441e-02 -3.494196757674217224e-02
3.098963201045989990e-01 -8.027901872992515564e-03 -3.980099782347679138e-02
3.097871840000152588e-01 -2.199189364910125732e-02 -2.732283249497413635e-02
3.054055869579315186e-01 -1.603442803025245667e-02 -3.214902430772781372e-02
-4.004111886024475098e-01 5.536318570375442505e-02 3.282945603132247925e-02
-4.061245918273925781e-01 5.783165991306304932e-02 2.987463772296905518e-02
-4.023550152778625488e-01 5.318969860672950745e-02 3.728783503174781799e-02
-4.091753065586090088e-01 5.574492365121841431e-02 3.431023284792900085e-02
-3.772813677787780762e-01 -2.254682593047618866e-03 -5.568195506930351257e-02
-3.832573890686035156e-01 -3.250387962907552719e-04 -5.821524187922477722e-02
-3.815366029739379883e-01 -3.985126502811908722e-03 -5.162401497364044189e-02
-3.876584470272064209e-01 -1.987158786505460739e-03 -5.372048541903495789e-02
8.369414210319519043e-01 7.473152130842208862e-03 6.192360445857048035e-02
8.289097547531127930e-01 1.448392029851675034e-02 5.974099785089492798e-02
8.313741683959960938e-01 3.169363830238580704e-03 6.352523714303970337e-02
8.225839138031005859e-01 9.311396628618240356e-03 6.193616986274719238e-02
1.462734937667846680e-01 -7.276573684066534042e-03 -5.235400423407554626e-02
1.396338790655136108e-01 -4.385140258818864822e-03 -5.432178452610969543e-02
1.429577618837356567e-01 -1.294204965233802795e-02 -5.082917213439941406e-02
1.364334374666213989e-01 -9.846081957221031189e-03 -5.226615071296691895e-02
-1.246805489063262939e-01 5.266677588224411011e-02 -3.432933613657951355e-02
-1.278745532035827637e-01 5.943505465984344482e-02 -3.309667482972145081e-02
-1.307370960712432861e-01 5.238719657063484192e-02 -3.257059678435325623e-02
-1.339993625879287720e-01 5.904275178909301758e-02 -3.149460628628730774e-02
-1.736054271459579468e-01 -5.508988397195935249e-04 -2.247484400868415833e-02
-1.813710778951644897e-01 3.533943323418498039e-03 -2.281331270933151245e-02
-1.791097074747085571e-01 -2.786003984510898590e-03 -1.868072152137756348e-02
-1.866274327039718628e-01 1.745133777149021626e-03 -1.963471621274948120e-02
-4.379479289054870605e-01 9.991172701120376587e-03 7.429912686347961426e-02
-4.447888731956481934e-01 8.241403847932815552e-03 7.176192104816436768e-02
-4.391356408596038818e-01 1.409924775362014771e-02 7.933321595191955566e-02
-4.457227885723114014e-01 1.251242496073246002e-02 7.664560526609420776e-02
-2.440233081579208374e-01 -1.995578035712242126e-02 -3.915695101022720337e-02
-2.482340484857559204e-01 -1.454153563827276230e-02 -3.682543709874153137e-02
-2.504800558090209961e-01 -1.964895799756050110e-02 -3.393396362662315369e-02
-2.531513869762420654e-01 -1.338838785886764526e-02 -3.148150816559791565e-02
2.048065513372421265e-01 -2.464042790234088898e-02 -7.079748902469873428e-03
1.965198218822479248e-01 -2.287982590496540070e-02 -9.190032258629798889e-03
2.031718641519546509e-01 -2.503758855164051056e-02 1.512334332801401615e-03
1.950515210628509521e-01 -2.376219630241394043e-02 7.179425447247922421e-04
-4.745813310146331787e-01 5.841997638344764709e-02 2.635498344898223877e-02
-4.793515205383300781e-01 6.072117388248443604e-02 2.489649876952171326e-02
-4.764616191387176514e-01 5.772276595234870911e-02 3.090076334774494171e-02
-4.812880158424377441e-01 5.975751206278800964e-02 2.895477600395679474e-02
-1.757189780473709106e-01 9.486000984907150269e-02 -2.341878600418567657e-02
-1.832967102527618408e-01 9.523774683475494385e-02 -2.363004907965660095e-02
-1.803087294101715088e-01 9.993912279605865479e-02 -1.637328602373600006e-02
-1.876941174268722534e-01 1.005392149090766907e-01 -1.733916439116001129e-02
1.030061952769756317e-02 -1.151834614574909210e-02 4.772385209798812866e-02
4.574090708047151566e-03 -8.776839822530746460e-03 4.877734184265136719e-02
5.180543754249811172e-03 -5.910225212574005127e-03 5.071690306067466736e-02
-2.322676824405789375e-03 -5.651229992508888245e-03 5.134235322475433350e-02
7.935611009597778320e-01 -4.879878461360931396e-02 -1.210838789120316505e-03
7.846829295158386230e-01 -4.597554355859756470e-02 -4.566933494061231613e-03
7.932801842689514160e-01 -4.962383583188056946e-02 8.490649051964282990e-03
7.844566702842712402e-01 -4.681712016463279724e-02 5.170573480427265167e-03
-4.600705802440643311e-01 2.821115031838417053e-02 1.147922873497009277e-01
-4.688672423362731934e-01 2.837761491537094116e-02 1.121898218989372253e-01
-4.609678983688354492e-01 2.753387205302715302e-02 1.229112893342971802e-01
-4.705579578876495361e-01 2.734418399631977081e-02 1.192193478345870972e-01
-2.652197778224945068e-01 4.560711793601512909e-03 -2.598437713459134102e-03
-2.707511782646179199e-01 9.766550734639167786e-03 -1.670036232098937035e-03
-2.703170776367187500e-01 -4.970910958945751190e-05 2.424614736810326576e-03
-2.762284576892852783e-01 5.763540044426918030e-03 3.166189650073647499e-03
-1.749276369810104370e-01 -7.736146450042724609e-03 5.261460691690444946e-02
-1.815262436866760254e-01 -7.814220152795314789e-03 5.361007899045944214e-02
-1.771647632122039795e-01 -1.663390663452446461e-03 5.718687549233436584e-02
-1.840422749519348145e-01 -1.471691648475825787e-03 5.856545269489288330e-02
1.288142353296279907e-01 3.501012548804283142e-02 3.537832573056221008e-02
1.178043261170387268e-01 3.598795086145401001e-02 3.312851488590240479e-02
1.231382489204406738e-01 3.858147189021110535e-02 4.064335674047470093e-02
1.127398163080215454e-01 3.928752616047859192e-02 3.874310106039047241e-02
9.697790741920471191e-01 1.920511759817600250e-02 -2.896537259221076965e-02
9.689347147941589355e-01 2.667303942143917084e-02 -3.115461394190788269e-02
9.750938415527343750e-01 1.652063056826591492e-02 -2.018262073397636414e-02
9.747294187545776367e-01 2.469491586089134216e-02 -2.190354466438293457e-02
1.437544375658035278e-01 -2.985438331961631775e-03 -1.378236897289752960e-02
1.353964656591415405e-01 -2.567147603258490562e-03 -1.430334988981485367e-02
1.394559741020202637e-01 -2.955974545329809189e-03 -9.890159592032432556e-03
1.310611516237258911e-01 -2.772224135696887970e-03 -1.046728249639272690e-02
1.202346310019493103e-01 2.305910550057888031e-02 -2.507155388593673706e-02
1.183767989277839661e-01 2.996097318828105927e-02 -2.389298379421234131e-02
1.149967610836029053e-01 2.022099122405052185e-02 -2.301838062703609467e-02
1.131177917122840881e-01 2.716817334294319153e-02 -2.176301181316375732e-02
1.992398500442504883e-02 5.079232901334762573e-02 2.658303454518318176e-02
1.503310073167085648e-02 5.358627438545227051e-02 2.755468897521495819e-02
1.792819239199161530e-02 5.423027276992797852e-02 3.062413819134235382e-02
1.304156985133886337e-02 5.709602311253547668e-02 3.159971907734870911e-02
1.263755261898040771e-01 -5.436939001083374023e-02 -1.551318820565938950e-02
1.128323674201965332e-01 -5.792521685361862183e-02 -1.608749665319919586e-02
1.237571612000465393e-01 -5.492205172777175903e-02 -7.167261093854904175e-03
1.099817752838134766e-01 -5.869172140955924988e-02 -7.356239017099142075e-03
8.801449537277221680e-01 -3.344785794615745544e-02 -4.966919869184494019e-02
8.747158646583557129e-01 -2.783705666661262512e-02 -5.396908894181251526e-02
8.745283484458923340e-01 -3.916499018669128418e-02 -4.330569133162498474e-02
8.695011138916015625e-01 -3.476620092988014221e-02 -4.758817330002784729e-02
-1.171784400939941406e-01 -2.913259435445070267e-03 -6.126094609498977661e-02
-1.266654729843139648e-01 -2.302974928170442581e-03 -6.429495662450790405e-02
-1.193218901753425598e-01 -5.528781563043594360e-03 -5.677818879485130310e-02
-1.289995908737182617e-01 -4.996160510927438736e-03 -5.951710045337677002e-02
-3.356944322586059570e-01 -5.410141125321388245e-02 -5.065134260803461075e-03
-3.441231250762939453e-01 -5.347816273570060730e-02 -8.415606804192066193e-03
-3.400152027606964111e-01 -5.894257873296737671e-02 1.847721869125962257e-03
-3.480750322341918945e-01 -5.835613980889320374e-02 -1.414007740095257759e-03
4.542292095720767975e-03 1.117819920182228088e-04 1.079826802015304565e-02
-2.464154036715626717e-03 3.104736562818288803e-03 1.102537754923105240e-02
8.843387477099895477e-04 -9.726794669404625893e-04 1.302661187946796417e-02
-6.475128699094057083e-03 2.380263991653919220e-03 1.363609172403812408e-02
-1.511454284191131592e-01 -5.057309940457344055e-02 -2.300245128571987152e-02
-1.581162214279174805e-01 -4.750628396868705750e-02 -2.567827887833118439e-02
-1.558922678232192993e-01 -5.229701101779937744e-02 -1.644547283649444580e-02
-1.629416048526763916e-01 -4.935405775904655457e-02 -1.900606043636798859e-02
8.022049814462661743e-02 5.023739859461784363e-02 4.952953755855560303e-02
7.379146665334701538e-02 5.692582577466964722e-02 4.701059684157371521e-02
7.345435023307800293e-02 4.510558396577835083e-02 5.211381241679191589e-02
6.737913936376571655e-02 5.176935717463493347e-02 5.075620487332344055e-02
-4.202092289924621582e-01 2.598501928150653839e-02 1.083435267210006714e-01
-4.282877743244171143e-01 2.609039843082427979e-02 1.070339158177375793e-01
-4.225638508796691895e-01 2.640823274850845337e-02 1.170916333794593811e-01
-4.306736290454864502e-01 2.648459188640117645e-02 1.156620383262634277e-01
-3.381538391113281250e-01 4.442059621214866638e-02 -7.614641636610031128e-02
-3.465370535850524902e-01 4.533512890338897705e-02 -7.547438144683837891e-02
-3.424741327762603760e-01 5.001743882894515991e-02 -7.087825238704681396e-02
-3.511449098587036133e-01 5.115333944559097290e-02 -6.942613422870635986e-02
-3.036119937896728516e-01 3.761287778615951538e-02 1.944782771170139313e-02
-3.095142841339111328e-01 4.055610671639442444e-02 1.807540096342563629e-02
-3.061207532882690430e-01 3.846903890371322632e-02 2.529847621917724609e-02
-3.122497797012329102e-01 4.225292056798934937e-02 2.383916825056076050e-02
-4.390962719917297363e-01 -1.498136436566710472e-03 5.645982548594474792e-02
-4.463740289211273193e-01 -3.028294304385781288e-03 5.557993799448013306e-02
-4.404658973217010498e-01 1.891028601676225662e-03 6.250056624412536621e-02
-4.476430118083953857e-01 1.709241187199950218e-04 6.130510568618774414e-02
5.313380956649780273e-01 5.217200517654418945e-02 2.592283487319946289e-02
5.259713530540466309e-01 5.592112243175506592e-02 1.862492784857749939e-02
5.285440683364868164e-01 4.209816455841064453e-02 3.352420032024383545e-02
5.231037735939025879e-01 4.637163877487182617e-02 2.634986676275730133e-02
-2.458731234073638916e-01 -4.993141070008277893e-02 1.651580072939395905e-02
-2.566871047019958496e-01 -5.267307534813880920e-02 1.420384272933006287e-02
-2.460237890481948853e-01 -4.374546185135841370e-02 2.269558049738407135e-02
-2.572314441204071045e-01 -4.723228141665458679e-02 1.969764567911624908e-02
-1.494400948286056519e-01 7.043912541121244431e-03 -2.610512636601924896e-02
-1.561067253351211548e-01 1.193486060947179794e-02 -2.495209872722625732e-02
-1.561235934495925903e-01 7.420973852276802063e-03 -2.213092520833015442e-02
-1.621660888195037842e-01 1.258355472236871719e-02 -2.123449929058551788e-02
-1.607291996479034424e-01 5.011514201760292053e-02 6.200491636991500854e-02
-1.686297804117202759e-01 5.528621748089790344e-02 5.918898805975914001e-02
-1.645926982164382935e-01 4.395673424005508423e-02 6.328976154327392578e-02
-1.734872609376907349e-01 4.953501373529434204e-02 6.049164757132530212e-02
-4.619472920894622803e-01 2.744184434413909912e-02 -1.391444951295852661e-01
-4.671574234962463379e-01 2.753140963613986969e-02 -1.425877958536148071e-01
-4.634273350238800049e-01 2.620261348783969879e-02 -1.324338316917419434e-01
-4.682114124298095703e-01 2.644045092165470123e-02 -1.356454193592071533e-01
5.244450569152832031e-01 6.021086592227220535e-04 -4.342846572399139404e-02
5.169643163681030273e-01 4.718859679996967316e-03 -4.416853561997413635e-02
5.161762237548828125e-01 -1.416993793100118637e-03 -4.306146129965782166e-02
5.083969235420227051e-01 2.277112565934658051e-03 -4.366781935095787048e-02
9.158900380134582520e-01 7.294331490993499756e-02 -1.912211626768112183e-02
9.063817858695983887e-01 7.437023520469665527e-02 -1.933301612734794617e-02
9.096764326095581055e-01 7.317561656236648560e-02 -9.412256069481372833e-03
9.004409909248352051e-01 7.512529939413070679e-02 -1.025260426104068756e-02
-2.737189233303070068e-01 7.301293779164552689e-03 3.448095545172691345e-02
-2.809914350509643555e-01 8.905541151762008667e-03 3.440546244382858276e-02
-2.802976667881011963e-01 3.973285667598247528e-03 3.789348900318145752e-02
-2.874129712581634521e-01 6.885960698127746582e-03 3.824355080723762512e-02
3.746768534183502197e-01 1.764341443777084351e-02 -4.672300070524215698e-02
3.714458048343658447e-01 2.348079718649387360e-02 -4.681587591767311096e-02
3.680970370769500732e-01 1.465433835983276367e-02 -4.675291478633880615e-02
3.651034832000732422e-01 2.033031359314918518e-02 -4.742050543427467346e-02
-8.014170080423355103e-02 3.773527964949607849e-02 2.419492229819297791e-02
-8.409702032804489136e-02 3.989491611719131470e-02 2.388339117169380188e-02
-8.638463914394378662e-02 3.521639853715896606e-02 2.550585754215717316e-02
-9.244991093873977661e-02 3.860160708427429199e-02 2.621905319392681122e-02
8.087223172187805176e-01 -1.064094342291355133e-02 -5.821163207292556763e-02
8.020914793014526367e-01 -4.678359255194664001e-03 -5.966088920831680298e-02
8.030022978782653809e-01 -1.742319203913211823e-02 -5.465541034936904907e-02
7.963960170745849609e-01 -1.180971972644329071e-02 -5.651449412107467651e-02
-1.294342242181301117e-02 6.566887255758047104e-03 -7.723881304264068604e-02
-2.116915211081504822e-02 9.736875072121620178e-03 -8.254875987768173218e-02
-1.646910794079303741e-02 5.903082201257348061e-04 -7.148014008998870850e-02
-2.495965920388698578e-02 3.345040604472160339e-03 -7.646697014570236206e-02
-4.111493825912475586e-01 2.623434737324714661e-02 7.815758883953094482e-02
-4.168100655078887939e-01 2.652419544756412506e-02 7.619656622409820557e-02
-4.127123057842254639e-01 2.849231474101543427e-02 8.511491119861602783e-02
-4.184724092483520508e-01 2.879264578223228455e-02 8.328870683908462524e-02
8.863716721534729004e-01 -2.182014286518096924e-03 -6.169011443853378296e-02
8.790760636329650879e-01 6.612734403461217880e-03 -6.617811322212219238e-02
8.803152441978454590e-01 -9.975242428481578827e-03 -5.849786475300788879e-02
8.732427358627319336e-01 -1.228735782206058502e-03 -6.269427388906478882e-02
-1.857510358095169067e-01 6.230119243264198303e-02 -2.219970710575580597e-02
-1.929648518562316895e-01 6.559452414512634277e-02 -2.124130353331565857e-02
-1.925624310970306396e-01 6.325624883174896240e-02 -1.712369732558727264e-02
-2.014432400465011597e-01 6.511647999286651611e-02 -1.601973176002502441e-02
-3.760120272636413574e-02 -1.128814835101366043e-02 2.734497934579849243e-02
-4.144154489040374756e-02 -6.841296330094337463e-03 2.524956502020359039e-02
-4.227478057146072388e-02 -1.639569923281669617e-02 3.114234283566474915e-02
-4.577499255537986755e-02 -1.215849816799163818e-02 2.895439416170120239e-02
-4.400010108947753906e-01 6.505857408046722412e-02 3.102859668433666229e-02
-4.480791091918945312e-01 6.763178110122680664e-02 3.154916316270828247e-02
-4.461527466773986816e-01 6.406531482934951782e-02 3.570795804262161255e-02
-4.545485079288482666e-01 6.696823239326477051e-02 3.624654933810234070e-02
-4.625140726566314697e-01 7.183613628149032593e-02 2.859531156718730927e-02
-4.686870872974395752e-01 7.589914649724960327e-02 2.579614333808422089e-02
-4.660773873329162598e-01 7.030493766069412231e-02 3.359551355242729187e-02
-4.713362455368041992e-01 7.275106012821197510e-02 3.160182014107704163e-02
-3.849583268165588379e-01 2.466466091573238373e-02 8.395068347454071045e-02
-3.904174566268920898e-01 2.429578639566898346e-02 8.058435469865798950e-02
-3.838603496551513672e-01 2.676206640899181366e-02 8.939562737941741943e-02
-3.893747329711914062e-01 2.644903212785720825e-02 8.611258864402770996e-02
6.710530817508697510e-02 5.625009164214134216e-02 -3.294227644801139832e-02
5.798260867595672607e-02 5.773437023162841797e-02 -3.513373062014579773e-02
6.105207651853561401e-02 5.644793063402175903e-02 -2.976156212389469147e-02
5.201036483049392700e-02 5.798966437578201294e-02 -3.189737722277641296e-02
-3.314634561538696289e-01 6.530755758285522461e-02 5.918529815971851349e-03
-3.399947285652160645e-01 6.458548456430435181e-02 4.592495970427989960e-03
-3.347992002964019775e-01 6.456789374351501465e-02 1.345765218138694763e-02
-3.412790596485137939e-01 6.613062322139739990e-02 1.196209434419870377e-02
-8.284411579370498657e-02 5.233930796384811401e-02 4.607774317264556885e-02
-8.595242351293563843e-02 5.547124147415161133e-02 4.498223960399627686e-02
-9.008564054965972900e-02 4.821626842021942139e-02 4.536698386073112488e-02
-9.205894172191619873e-02 5.204103514552116394e-02 4.438991472125053406e-02
-1.395013481378555298e-01 5.387115851044654846e-02 4.768517613410949707e-02
-1.454762816429138184e-01 5.690187588334083557e-02 4.426969587802886963e-02
-1.441556513309478760e-01 4.952553287148475647e-02 5.176708102226257324e-02
-1.500679254531860352e-01 5.264236778020858765e-02 4.849520698189735413e-02
4.148389399051666260e-01 -6.141485646367073059e-03 3.097963705658912659e-02
4.045730829238891602e-01 -6.548087112605571747e-03 3.218142688274383545e-02
4.070454835891723633e-01 -2.045897068455815315e-03 3.491682931780815125e-02
3.968316316604614258e-01 -2.269960474222898483e-03 3.626446053385734558e-02
-2.998313009738922119e-01 -5.262638628482818604e-02 1.281307078897953033e-02
-3.073233664035797119e-01 -5.418591201305389404e-02 1.178499870002269745e-02
-3.017932176589965820e-01 -4.794227331876754761e-02 1.860592514276504517e-02
-3.088946342468261719e-01 -4.882863536477088928e-02 1.834448054432868958e-02
8.741639256477355957e-01 2.365830168128013611e-02 -6.420750170946121216e-02
8.749648332595825195e-01 3.365695849061012268e-02 -6.080312281847000122e-02
8.653721213340759277e-01 2.817598171532154083e-02 -6.304086744785308838e-02
8.647649884223937988e-01 3.738502040505409241e-02 -5.966920405626296997e-02
-3.427005410194396973e-01 -5.112978443503379822e-02 1.950715482234954834e-02
-3.500920832157135010e-01 -4.550010338425636292e-02 2.248155325651168823e-02
-3.484193384647369385e-01 -4.482711479067802429e-02 2.073153294622898102e-02
-3.554328382015228271e-01 -3.961301967501640320e-02 2.334055863320827484e-02
-5.055661797523498535e-01 -1.449005864560604095e-02 -1.979285106062889099e-02
-5.155073404312133789e-01 -9.558715857565402985e-03 -2.059151418507099152e-02
-5.119734406471252441e-01 -1.452008541673421860e-02 -1.391559559851884842e-02
-5.210361480712890625e-01 -1.016100961714982986e-02 -1.478676870465278625e-02
-4.351685941219329834e-01 -5.519565194845199585e-02 -1.948335440829396248e-03
-4.392317831516265869e-01 -5.102664232254028320e-02 -5.381962284445762634e-03
-4.358408153057098389e-01 -5.747484415769577026e-02 5.323144141584634781e-03
-4.400251209735870361e-01 -5.299733951687812805e-02 1.509993919171392918e-03
-7.949132472276687622e-02 -2.287881821393966675e-02 3.090775199234485626e-02
-8.458518236875534058e-02 -2.214173227548599243e-02 2.940935827791690826e-02
-8.268588781356811523e-02 -2.492597326636314392e-02 3.125427663326263428e-02
-8.763831853866577148e-02 -2.456643059849739075e-02 2.982612140476703644e-02
3.180047869682312012e-01 -9.983366355299949646e-03 2.996278926730155945e-02
3.096772432327270508e-01 -6.786550860852003098e-03 3.336493670940399170e-02
3.085229396820068359e-01 -6.252035498619079590e-03 3.194534778594970703e-02
3.008751869201660156e-01 -3.097276203334331512e-03 3.515888005495071411e-02
-3.883078992366790771e-01 1.187919378280639648e-01 -2.149700885638594627e-03
-3.978794217109680176e-01 1.205893680453300476e-01 -2.873643767088651657e-03
-3.937534093856811523e-01 1.232965737581253052e-01 3.801921848207712173e-03
-4.032360613346099854e-01 1.253221184015274048e-01 3.090054262429475784e-03
6.883881241083145142e-02 -5.838291347026824951e-02 -7.043440826237201691e-03
6.160452589392662048e-02 -5.769183486700057983e-02 -1.287646964192390442e-02
6.896863877773284912e-02 -5.969242379069328308e-02 1.478746999055147171e-04
6.162635982036590576e-02 -5.925883725285530090e-02 -4.875630140304565430e-03
-9.377393871545791626e-02 1.947490684688091278e-02 3.765575587749481201e-02
-1.007268279790878296e-01 2.481996640563011169e-02 3.859718888998031616e-02
-1.036653593182563782e-01 1.174715626984834671e-02 3.689314424991607666e-02
-1.096039712429046631e-01 1.842691749334335327e-02 3.795725479722023010e-02
-3.561993837356567383e-01 -1.485048886388540268e-02 -2.600385248661041260e-02
-3.538621962070465088e-01 -9.650338441133499146e-03 -2.393780462443828583e-02
-3.585022389888763428e-01 -1.339923962950706482e-02 -2.043385803699493408e-02
-3.567248582839965820e-01 -7.966227829456329346e-03 -1.779799722135066986e-02
7.712970376014709473e-01 6.378994137048721313e-02 -1.561070606112480164e-02
7.640821933746337891e-01 6.192541494965553284e-02 -1.708637364208698273e-02
7.703056335449218750e-01 6.533039361238479614e-02 -4.197502974420785904e-03
7.630455493927001953e-01 6.354831159114837646e-02 -6.312744691967964172e-03
-3.307119309902191162e-01 9.312759339809417725e-02 2.331538125872612000e-02
-3.379476964473724365e-01 9.806105494499206543e-02 1.789803989231586456e-02
-3.350372016429901123e-01 8.807187527418136597e-02 2.738897316157817841e-02
-3.416612446308135986e-01 9.288015961647033691e-02 2.298896387219429016e-02
-2.754925787448883057e-01 4.906937107443809509e-02 1.882441341876983643e-02
-2.840503752231597900e-01 5.077582597732543945e-02 1.823027804493904114e-02
-2.787480950355529785e-01 5.038614571094512939e-02 2.405332401394844055e-02
-2.870015203952789307e-01 5.212512612342834473e-02 2.343287691473960876e-02
-4.345195889472961426e-01 2.136000432074069977e-02 -2.196607366204261780e-02
-4.384534657001495361e-01 2.690502256155014038e-02 -2.143200300633907318e-02
-4.384600520133972168e-01 1.799950934946537018e-02 -2.200712077319622040e-02
-4.424616098403930664e-01 2.311311662197113037e-02 -2.132499963045120239e-02
-2.743733227252960205e-01 1.046566292643547058e-01 -6.850982084870338440e-03
-2.831803858280181885e-01 1.039405539631843567e-01 -7.811638526618480682e-03
-2.771271169185638428e-01 1.079666987061500549e-01 3.909248393028974533e-03
-2.859683632850646973e-01 1.069639027118682861e-01 2.696418901905417442e-03
-3.988897204399108887e-01 -5.564565956592559814e-02 1.145065529271960258e-03
-4.029728472232818604e-01 -5.215752497315406799e-02 -6.690879818052053452e-04
-4.042946994304656982e-01 -5.846464261412620544e-02 2.737018279731273651e-03
-4.084817171096801758e-01 -5.524624139070510864e-02 8.646122878417372704e-04
3.930723965167999268e-01 5.177266150712966919e-02 -3.091436624526977539e-02
3.816744983196258545e-01 5.116101726889610291e-02 -3.168419748544692993e-02
3.912723064422607422e-01 5.588333308696746826e-02 -2.348222024738788605e-02
3.805805444717407227e-01 5.585610866546630859e-02 -2.407077886164188385e-02
7.058709859848022461e-01 -1.175085268914699554e-02 2.917078137397766113e-02
6.929003000259399414e-01 -1.327783614397048950e-02 2.998603880405426025e-02
6.967388987541198730e-01 -9.009931236505508423e-03 3.288638591766357422e-02
6.835739612579345703e-01 -9.167931973934173584e-03 3.357237949967384338e-02
-5.284179449081420898e-01 3.322676569223403931e-02 2.929069101810455322e-02
-5.363649725914001465e-01 3.701692074537277222e-02 3.020340949296951294e-02
-5.371464490890502930e-01 3.398220986127853394e-02 3.350468724966049194e-02
-5.452062487602233887e-01 3.731724247336387634e-02 3.471679612994194031e-02
4.695408940315246582e-01 6.160177290439605713e-02 -6.770993117243051529e-03
4.614962935447692871e-01 6.083206832408905029e-02 -8.816986344754695892e-03
4.684691429138183594e-01 6.321822106838226318e-02 8.016509236767888069e-04
4.604380428791046143e-01 6.276258081197738647e-02 -1.229261164553463459e-03
-6.535314023494720459e-02 5.855987593531608582e-02 2.265394292771816254e-02
-7.058382034301757812e-02 6.059753149747848511e-02 2.153077535331249237e-02
-6.725613772869110107e-02 5.716587975621223450e-02 2.641751989722251892e-02
-7.227206975221633911e-02 5.927789956331253052e-02 2.510021813213825226e-02
-2.231489568948745728e-01 4.982137680053710938e-02 1.727317646145820618e-02
-2.277116179466247559e-01 5.089286714792251587e-02 1.512215100228786469e-02
-2.257881462574005127e-01 4.894363880157470703e-02 2.171749994158744812e-02
-2.304018884897232056e-01 5.020170286297798157e-02 1.960504800081253052e-02
5.728555917739868164e-01 -1.632354967296123505e-02 2.713150903582572937e-02
5.647258758544921875e-01 -1.782136037945747375e-02 2.695784717798233032e-02
5.691347718238830566e-01 -1.161637436598539352e-02 3.135185688734054565e-02
5.610451102256774902e-01 -1.278491131961345673e-02 3.198000043630599976e-02
7.882887125015258789e-01 5.999763682484626770e-02 3.985660150647163391e-02
7.798455357551574707e-01 6.170393899083137512e-02 3.386542946100234985e-02
7.871463298797607422e-01 5.252712219953536987e-02 4.443357139825820923e-02
7.788528800010681152e-01 5.486112460494041443e-02 3.904044255614280701e-02
5.603051185607910156e-01 5.269797053188085556e-03 3.788845613598823547e-02
5.513542890548706055e-01 6.083559244871139526e-03 3.908092528581619263e-02
5.539091229438781738e-01 5.534837953746318817e-03 3.917962312698364258e-02
5.455140471458435059e-01 7.553585804998874664e-03 3.947930037975311279e-02
9.150729328393936157e-02 -3.368639852851629257e-03 -2.664037235081195831e-02
8.546667546033859253e-02 -2.279888605698943138e-03 -2.710714563727378845e-02
8.798562735319137573e-02 -2.767252968624234200e-03 -2.135587669909000397e-02
8.155093342065811157e-02 -2.287347568199038506e-03 -2.225638553500175476e-02
5.735073685646057129e-01 3.559442609548568726e-02 3.366329148411750793e-02
5.637690424919128418e-01 4.201865568757057190e-02 3.027434460818767548e-02
5.689527392387390137e-01 2.984744310379028320e-02 3.773712366819381714e-02
5.596979856491088867e-01 3.615028038620948792e-02 3.472073003649711609e-02
6.519100815057754517e-02 1.370802149176597595e-02 1.707839034497737885e-02
5.909765511751174927e-02 1.518496498465538025e-02 1.759227924048900604e-02
6.029368937015533447e-02 1.280659437179565430e-02 2.123804390430450439e-02
5.461333319544792175e-02 1.470750384032726288e-02 2.189274504780769348e-02
-4.451694786548614502e-01 -1.666202396154403687e-02 2.595061622560024261e-02
-4.529067575931549072e-01 -1.546533033251762390e-02 2.667472884058952332e-02
-4.501174092292785645e-01 -1.588102988898754120e-02 3.343592211604118347e-02
-4.577721357345581055e-01 -1.444166991859674454e-02 3.440834209322929382e-02
4.922900199890136719e-01 -2.002188563346862793e-02 2.446692064404487610e-02
4.847546517848968506e-01 -1.941207423806190491e-02 2.481138333678245544e-02
4.896212220191955566e-01 -1.515569165349006653e-02 2.894978597760200500e-02
4.817315638065338135e-01 -1.425630133599042892e-02 2.904394268989562988e-02
-3.306356966495513916e-01 -7.195337675511837006e-03 4.290593415498733521e-02
-3.376304805278778076e-01 -4.366870503872632980e-03 4.302327707409858704e-02
-3.345260918140411377e-01 -6.376347970217466354e-03 4.647358134388923645e-02
-3.416727483272552490e-01 -3.615505760535597801e-03 4.679987207055091858e-02
-7.034410536289215088e-02 -9.707118384540081024e-03 3.185793757438659668e-02
-7.302937656641006470e-02 -4.226802848279476166e-03 2.995713055133819580e-02
-7.249009609222412109e-02 -1.363106817007064819e-02 3.273132070899009705e-02
-7.549211382865905762e-02 -8.155737072229385376e-03 3.093499317765235901e-02
3.136260434985160828e-02 4.941089078783988953e-02 -2.411295473575592041e-02
2.517736144363880157e-02 5.107998847961425781e-02 -2.526640519499778748e-02
2.914236299693584442e-02 4.690182209014892578e-02 -1.710093021392822266e-02
2.337469346821308136e-02 4.846566542983055115e-02 -1.846521720290184021e-02
3.606297671794891357e-01 -1.019369997084140778e-02 3.044584952294826508e-02
3.527186810970306396e-01 -9.249464608728885651e-03 3.181762248277664185e-02
3.556395769119262695e-01 -1.660353969782590866e-03 3.444067388772964478e-02
3.476670384407043457e-01 -1.930193975567817688e-04 3.552314266562461853e-02
9.845017194747924805e-01 2.049103379249572754e-03 -1.837091147899627686e-02
9.848718643188476562e-01 1.118794735521078110e-02 -2.011102437973022461e-02
9.881234169006347656e-01 -9.578713215887546539e-04 -8.578825742006301880e-03
9.893089532852172852e-01 7.669634185731410980e-03 -1.109432987868785858e-02
-2.602338232100009918e-02 6.031249091029167175e-02 -1.904014311730861664e-02
-3.206675872206687927e-02 6.170882284641265869e-02 -2.298962324857711792e-02
-3.015663847327232361e-02 5.880255252122879028e-02 -1.171858143061399460e-02
