1.079816000000000109e+00 -3.507339999999999902e-01 -9.066599999999999659e-02
1.038621000000000016e+00 3.608149999999999968e-01 -1.698250000000000037e-01
-3.600510000000000099e-01 -2.970899999999999930e-02 1.179219999999999990e-01
4.227700000000000208e-02 -1.143649999999999944e-01 1.771129999999999927e-01
1.466409999999999936e-01 1.018710000000000032e-01 -1.377259999999999873e-01
6.977189999999999781e-01 1.355969999999999953e-01 1.029110000000000025e-01
-4.142089999999999939e-01 4.516959999999999864e-01 1.877600000000000102e-02
-3.841740000000000155e-01 4.093600000000000017e-01 4.194599999999999718e-02
-3.361589999999999856e-01 -1.351910000000000056e-01 6.008909999999999529e-01
8.642199999999999882e-01 3.429960000000000231e-01 -9.685100000000000653e-02
-3.871180000000000176e-01 -2.425789999999999891e-01 8.917400000000000326e-02
3.697139999999999871e-01 -3.739999999999999991e-01 -2.046320000000000083e-01
1.115889999999999938e-01 2.997999999999999797e-03 2.636580000000000035e-01
8.658820000000000405e-01 -5.403999999999999776e-02 7.478500000000000425e-02
1.857509999999999994e-01 3.093179999999999819e-01 2.901059999999999750e-01
1.042831999999999981e+00 -8.088700000000000057e-02 -7.597700000000000287e-02
1.766340000000000132e-01 -3.154190000000000049e-01 2.647400000000000100e-02
-6.650000000000000355e-02 -1.359690000000000065e-01 -7.216999999999999804e-02
9.827839999999999909e-01 -1.781189999999999996e-01 -4.831300000000000178e-02
9.099960000000000271e-01 2.097200000000000106e-02 5.253200000000000230e-02
9.582799999999999652e-02 2.158100000000000018e-01 1.428669999999999940e-01
7.813099999999999490e-01 1.163079999999999947e-01 -2.183000000000000045e-03
1.119769999999999932e+00 -3.192470000000000030e-01 -6.653299999999999492e-02
-2.957219999999999849e-01 -2.010889999999999900e-01 6.494459999999999678e-01
-5.671829999999999927e-01 -2.629799999999999846e-02 -1.918600000000000028e-01
2.581200000000000161e-02 2.752479999999999927e-01 8.301300000000000345e-02
-3.287899999999999850e-02 -3.083589999999999942e-01 7.305799999999999794e-02
1.142380000000000062e-01 2.217109999999999914e-01 1.837540000000000007e-01
1.067179999999999934e-01 -9.461100000000000065e-02 4.157259999999999844e-01
-9.849999999999999815e-04 3.158119999999999816e-01 -7.370000000000000249e-04
-3.448120000000000074e-01 -1.926769999999999872e-01 5.949140000000000539e-01
-3.977370000000000072e-01 3.625050000000000217e-01 2.113999999999999994e-03
1.556079999999999963e-01 9.055999999999999814e-03 2.926790000000000225e-01
1.108659999999999979e+00 2.490729999999999889e-01 -1.641019999999999979e-01
-1.353900000000000069e-02 -6.702400000000000024e-02 4.593499999999999667e-02
3.125399999999999706e-02 2.175070000000000059e-01 -1.448619999999999908e-01
6.021419999999999551e-01 1.021900000000000065e-02 1.576269999999999893e-01
4.295559999999999934e-01 3.326000000000000068e-01 -2.209039999999999893e-01
1.840029999999999999e-01 9.370399999999999563e-02 3.987260000000000248e-01
1.002013000000000043e+00 2.768379999999999730e-01 -1.305469999999999964e-01
3.871530000000000249e-01 -1.619440000000000046e-01 2.376429999999999931e-01
8.863360000000000127e-01 -3.749330000000000163e-01 5.166400000000000159e-02
5.764000000000000026e-03 3.353990000000000027e-01 1.725000000000000144e-02
8.628109999999999946e-01 -3.823529999999999984e-01 3.459299999999999875e-02
6.906700000000000339e-02 1.876919999999999977e-01 1.639009999999999911e-01
5.600070000000000325e-01 1.128400000000000063e-02 9.727099999999999635e-02
1.874240000000000073e-01 3.297140000000000071e-01 -3.100040000000000018e-01
7.129229999999999734e-01 2.922259999999999858e-01 -1.700000000000000122e-02
-5.288910000000000000e-01 -2.537599999999999925e-02 -1.841899999999999926e-01
6.366110000000000380e-01 -2.556350000000000011e-01 8.660199999999999843e-02
1.408300000000000107e-01 -1.118510000000000060e-01 4.254209999999999936e-01
1.042011000000000021e+00 1.955739999999999978e-01 -1.222730000000000067e-01
-2.770540000000000225e-01 7.233999999999999979e-03 2.641450000000000187e-01
1.678119999999999890e-01 -4.446539999999999937e-01 -2.159689999999999943e-01
7.458820000000000450e-01 -1.053869999999999946e-01 3.835899999999999727e-02
8.971230000000000038e-01 -9.804100000000000315e-02 -1.972099999999999895e-02
5.353919999999999790e-01 -2.296799999999999953e-01 1.260850000000000026e-01
-2.595370000000000177e-01 6.653000000000000060e-03 9.609099999999999586e-02
6.708999999999999686e-03 3.669649999999999856e-01 1.502700000000000043e-02
2.883510000000000240e-01 -1.163499999999999951e-01 3.674379999999999868e-01
1.044351000000000029e+00 -4.147410000000000263e-01 -2.885899999999999924e-02
-3.606630000000000114e-01 6.146900000000000280e-02 2.294849999999999945e-01
2.445759999999999879e-01 -2.151039999999999897e-01 1.711100000000000121e-01
1.030764999999999931e+00 -2.383889999999999898e-01 2.010699999999999987e-02
1.005575000000000108e+00 -2.662240000000000162e-01 2.666900000000000173e-02
2.389969999999999872e-01 2.900360000000000160e-01 6.194199999999999706e-02
6.100700000000000012e-01 2.389459999999999917e-01 4.162300000000000028e-02
1.819939999999999891e-01 2.673440000000000261e-01 1.801310000000000133e-01
2.025800000000000101e-01 -1.141999999999999960e-01 4.061960000000000015e-01
8.527409999999999712e-01 3.683440000000000047e-01 -5.318400000000000211e-02
1.757400000000000073e-01 -3.240140000000000242e-01 3.138900000000000023e-02
7.498709999999999543e-01 3.115100000000000091e-01 3.822799999999999809e-02
-2.413170000000000037e-01 8.723999999999999810e-02 1.414670000000000094e-01
7.022699999999999776e-02 1.314960000000000018e-01 2.170189999999999897e-01
1.960040000000000115e-01 -9.988999999999999616e-03 2.315780000000000061e-01
1.076688000000000089e+00 -4.323300000000000060e-02 3.706999999999999792e-03
1.634629999999999972e-01 -1.898219999999999907e-01 4.231670000000000154e-01
1.989090000000000025e-01 -4.431430000000000091e-01 -2.702010000000000245e-01
-3.650059999999999971e-01 -2.206950000000000023e-01 1.259689999999999976e-01
5.872279999999999722e-01 -1.970600000000000129e-01 1.048609999999999959e-01
9.166570000000000551e-01 2.543819999999999970e-01 -8.705899999999999750e-02
8.698240000000000416e-01 -2.487129999999999896e-01 -4.886999999999999851e-03
1.372549999999999881e-01 -2.037120000000000042e-01 3.707260000000000000e-01
1.819659999999999889e-01 -1.180630000000000013e-01 3.501369999999999760e-01
-3.087159999999999904e-01 -2.051890000000000103e-01 6.134600000000000053e-01
5.060839999999999783e-01 8.530400000000000482e-02 1.941769999999999885e-01
5.259819999999999496e-01 4.120210000000000261e-01 4.538400000000000073e-02
9.553260000000000085e-01 -1.785889999999999977e-01 4.652699999999999891e-02
1.044286000000000048e+00 1.904190000000000049e-01 -3.182600000000000012e-02
1.119250999999999996e+00 1.088520000000000043e-01 -1.327599999999999891e-01
6.674259999999999637e-01 -1.046789999999999943e-01 6.880100000000000104e-02
1.024896999999999947e+00 1.316799999999999915e-02 -8.064599999999999547e-02
1.146029999999999965e-01 2.001970000000000138e-01 3.807100000000000067e-02
7.729629999999999557e-01 1.715379999999999960e-01 -9.674999999999999573e-03
8.199999999999999824e-04 -5.248300000000000187e-02 1.544889999999999874e-01
-1.366000000000000027e-02 -2.259619999999999962e-01 8.789199999999999791e-02
6.417299999999999394e-02 -1.230099999999999943e-01 1.966050000000000020e-01
3.508700000000000152e-01 3.185330000000000106e-01 -3.439940000000000220e-01
-3.575490000000000057e-01 -1.842000000000000026e-01 5.932429999999999648e-01
1.057350000000000012e+00 5.013700000000000101e-02 -9.730900000000000660e-02
1.866420000000000023e-01 3.020780000000000132e-01 -7.638000000000000345e-02
1.794139999999999902e-01 3.695950000000000069e-01 -2.390380000000000005e-01
1.510060000000000013e-01 -2.790909999999999780e-01 -5.527800000000000075e-02
1.147999999999999993e-01 6.313799999999999968e-02 2.598759999999999959e-01
-5.912669999999999870e-01 3.088000000000000033e-03 -2.499049999999999883e-01
2.787209999999999965e-01 -8.424600000000000144e-02 2.270850000000000091e-01
2.029169999999999863e-01 -4.212940000000000018e-01 -2.267109999999999959e-01
4.832449999999999801e-01 5.998900000000000066e-02 2.199709999999999999e-01
-3.160000000000000309e-02 1.116449999999999942e-01 4.499999999999999833e-02
2.489860000000000129e-01 8.094099999999999906e-02 2.991840000000000055e-01
3.273479999999999723e-01 -1.904679999999999984e-01 3.464860000000000162e-01
1.838619999999999977e-01 1.561799999999999994e-02 -2.920499999999999832e-02
3.675950000000000051e-01 2.246039999999999981e-01 2.802870000000000084e-01
1.023984000000000005e+00 -4.138859999999999761e-01 -4.294100000000000000e-02
9.500459999999999461e-01 1.339069999999999983e-01 -7.136499999999999788e-02
-5.486210000000000253e-01 4.736949999999999772e-01 4.487700000000000022e-02
1.066491999999999996e+00 -2.817180000000000240e-01 -8.103299999999999392e-02
5.792030000000000234e-01 -6.861399999999999444e-02 9.912500000000000477e-02
5.928130000000000344e-01 1.129480000000000067e-01 1.434719999999999884e-01
1.970399999999999929e-02 -2.063899999999999901e-01 -3.268480000000000274e-01
1.218039999999999956e-01 3.387410000000000143e-01 -2.086099999999999899e-01
3.448869999999999991e-01 -1.397239999999999871e-01 3.355940000000000034e-01
3.382069999999999799e-01 3.655970000000000053e-01 -3.156559999999999921e-01
9.400269999999999460e-01 3.732750000000000234e-01 -9.104299999999999893e-02
9.067799999999999472e-02 -4.963599999999999957e-02 -2.403119999999999978e-01
8.573530000000000317e-01 -3.528939999999999855e-01 -8.762000000000000691e-03
1.112500999999999962e+00 3.605220000000000091e-01 -1.283539999999999959e-01
1.161877999999999966e+00 3.079600000000000046e-02 -7.061499999999999722e-02
-4.562599999999999989e-02 -1.719640000000000057e-01 -3.255460000000000020e-01
4.587970000000000104e-01 -2.967989999999999795e-01 2.392279999999999962e-01
5.451799999999999702e-02 9.723600000000000299e-02 -3.313940000000000219e-01
1.091701999999999950e+00 2.181999999999999912e-03 -6.087000000000000396e-03
3.973700000000000010e-01 -2.116000000000000103e-01 2.289940000000000031e-01
7.126599999999999602e-02 1.062030000000000057e-01 2.178700000000000081e-02
1.248049999999999993e-01 -3.628379999999999939e-01 -1.486900000000000027e-02
-3.338709999999999734e-01 6.721999999999999677e-03 2.440980000000000094e-01
1.085460000000000036e-01 1.476089999999999902e-01 -2.406040000000000123e-01
1.819290000000000074e-01 5.171400000000000302e-02 4.054409999999999958e-01
2.104800000000000074e-02 3.454209999999999781e-01 7.282800000000000384e-02
2.904309999999999947e-01 3.187229999999999785e-01 2.306179999999999897e-01
-6.916849999999999943e-01 -5.695000000000000409e-03 -1.981799999999999951e-01
-4.447299999999999864e-02 1.177919999999999939e-01 9.014099999999999890e-02
6.092199999999999838e-01 -2.825840000000000019e-01 9.246999999999999664e-02
2.069489999999999941e-01 3.307010000000000227e-01 -2.176600000000000062e-02
5.491169999999999662e-01 1.451490000000000002e-01 1.521919999999999940e-01
7.791299999999999615e-02 3.307089999999999752e-01 -2.446000000000000119e-01
6.601010000000000488e-01 3.153420000000000112e-01 7.020999999999999464e-02
3.402419999999999889e-01 -1.953749999999999931e-01 2.698320000000000163e-01
-2.589779999999999860e-01 3.607750000000000123e-01 4.575199999999999823e-01
1.898080000000000045e-01 3.251220000000000221e-01 -3.225700000000000234e-01
8.532739999999999769e-01 3.606719999999999926e-01 -2.222299999999999970e-02
2.860849999999999782e-01 -1.932400000000000090e-02 2.768669999999999742e-01
4.062000000000000333e-02 2.503449999999999842e-01 -3.704350000000000143e-01
1.096673000000000009e+00 2.226000000000000114e-03 -7.779000000000000324e-03
5.195170000000000066e-01 -9.268600000000000450e-02 1.951039999999999996e-01
-4.948580000000000201e-01 -4.187250000000000139e-01 1.856659999999999977e-01
2.206680000000000030e-01 4.861200000000000243e-02 3.908719999999999972e-01
5.152520000000000433e-01 4.404859999999999887e-01 5.681599999999999845e-02
2.054690000000000127e-01 -1.202710000000000029e-01 3.412080000000000113e-01
-6.109999999999999980e-03 -1.367530000000000134e-01 -2.599739999999999829e-01
5.287370000000000125e-01 3.542969999999999731e-01 8.814700000000000313e-02
1.064699999999999952e-01 -6.265999999999999868e-03 3.780540000000000012e-01
3.595829999999999860e-01 -4.375839999999999730e-01 -2.165559999999999985e-01
2.114409999999999901e-01 1.643630000000000091e-01 1.580399999999999860e-02
-2.683349999999999902e-01 -1.102790000000000020e-01 3.644200000000000217e-01
3.584559999999999969e-01 -4.459369999999999723e-01 -2.167640000000000122e-01
1.446129999999999916e-01 -2.843260000000000232e-01 -7.011399999999999577e-02
2.813479999999999870e-01 -1.888370000000000049e-01 3.052309999999999746e-01
8.931470000000000242e-01 7.387900000000000023e-02 -3.839800000000000157e-02
-5.632380000000000164e-01 -2.604899999999999924e-02 -1.859290000000000109e-01
6.250000000000000347e-03 -2.415300000000000086e-02 2.161700000000000010e-01
9.145399999999999363e-02 1.172399999999999970e-01 -2.687720000000000109e-01
-3.502770000000000050e-01 3.272280000000000189e-01 7.305599999999999594e-02
4.545500000000000096e-01 2.778249999999999886e-01 1.257260000000000044e-01
2.628360000000000141e-01 6.240799999999999820e-02 3.705649999999999777e-01
-9.979000000000000023e-03 1.855009999999999992e-01 1.599400000000000127e-02
4.151440000000000130e-01 -1.720550000000000135e-01 2.141710000000000003e-01
-2.794900000000000162e-02 -2.041459999999999941e-01 -2.027940000000000020e-01
2.320689999999999975e-01 -2.410259999999999903e-01 1.448510000000000075e-01
-3.565869999999999873e-01 -1.340860000000000107e-01 6.785459999999999825e-01
-3.414570000000000105e-01 9.854999999999999871e-02 1.829580000000000095e-01
8.637040000000000273e-01 2.084169999999999912e-01 -5.369800000000000267e-02
3.855589999999999851e-01 2.503049999999999997e-01 2.622479999999999811e-01
6.204640000000000155e-01 -2.139560000000000073e-01 9.216399999999999593e-02
1.971849999999999992e-01 2.113829999999999876e-01 -3.134200000000000180e-02
1.408320000000000127e-01 2.843769999999999909e-01 -1.864210000000000034e-01
1.081659999999999983e-01 -1.651930000000000065e-01 1.802850000000000008e-01
-3.111780000000000102e-01 3.398329999999999962e-01 5.333350000000000035e-01
1.090079999999999938e-01 2.250820000000000043e-01 1.396120000000000139e-01
1.119020000000000015e-01 -4.258699999999999986e-02 2.512829999999999786e-01
2.588449999999999918e-01 -2.138770000000000115e-01 2.061929999999999874e-01
1.483009999999999884e-01 -3.819389999999999730e-01 -2.006799999999999973e-01
4.511279999999999735e-01 1.069959999999999939e-01 2.401139999999999941e-01
1.048049999999999954e-01 1.224790000000000045e-01 -2.450920000000000043e-01
1.880139999999999867e-01 -2.989040000000000030e-01 2.040820000000000134e-01
6.004199999999999815e-02 1.256750000000000089e-01 1.701779999999999959e-01
9.651830000000000132e-01 -3.031519999999999770e-01 3.810700000000000198e-02
-3.823329999999999784e-01 -1.340379999999999905e-01 1.455380000000000007e-01
6.828180000000000360e-01 2.513460000000000139e-01 9.181999999999999190e-03
-3.373799999999999716e-02 2.067879999999999996e-01 -3.652050000000000018e-01
4.800479999999999747e-01 1.302729999999999999e-01 1.290229999999999988e-01
8.653700000000000281e-02 -3.370879999999999987e-01 -9.237599999999999978e-02
6.886870000000000491e-01 3.558330000000000104e-01 -1.368899999999999978e-02
4.513469999999999982e-01 -1.775720000000000076e-01 2.574069999999999969e-01
5.252599999999999492e-01 3.937370000000000037e-01 4.595699999999999785e-02
-2.881619999999999737e-01 3.381779999999999786e-01 5.109310000000000240e-01
7.709829999999999739e-01 -3.485900000000000110e-02 1.048779999999999990e-01
-3.500219999999999998e-01 2.917120000000000268e-01 6.481099999999999361e-02
-1.590999999999999966e-03 3.265730000000000022e-01 -3.232000000000000064e-03
-4.233279999999999821e-01 -2.730460000000000109e-01 1.306920000000000026e-01
8.433429999999999538e-01 -2.749809999999999754e-01 5.754999999999999699e-03
-2.500919999999999810e-01 -1.666779999999999928e-01 5.513069999999999915e-01
6.845409999999999551e-01 -2.756109999999999949e-01 1.357569999999999888e-01
-4.468119999999999870e-01 -3.320130000000000026e-01 1.267550000000000066e-01
4.200240000000000085e-01 -2.773950000000000027e-01 2.097739999999999883e-01
4.792830000000000146e-01 -3.761379999999999724e-01 2.569199999999999956e-02
9.815200000000000313e-02 1.160159999999999941e-01 -2.562269999999999825e-01
-4.814399999999999930e-02 8.819000000000000450e-02 -3.422149999999999914e-01
-2.940400000000000236e-01 -1.929520000000000124e-01 6.401999999999999913e-01
2.881279999999999952e-01 3.698520000000000141e-01 -4.102930000000000188e-01
1.101039999999999935e-01 4.115920000000000134e-01 -1.523529999999999884e-01
4.536000000000000032e-01 3.542819999999999858e-01 1.155019999999999936e-01
1.332210000000000061e-01 -9.981900000000000495e-02 3.684529999999999750e-01
3.166499999999999870e-01 1.255080000000000084e-01 2.566780000000000173e-01
1.213010000000000060e-01 2.666589999999999794e-01 3.305310000000000192e-01
5.986029999999999962e-01 -6.650200000000000555e-02 1.634619999999999962e-01
2.007980000000000043e-01 3.617639999999999745e-01 2.808709999999999818e-01
9.455440000000000511e-01 -1.808780000000000110e-01 -3.416799999999999699e-02
6.573780000000000179e-01 2.445070000000000021e-01 2.107300000000000145e-02
-1.243279999999999941e-01 7.198000000000000405e-03 1.364019999999999955e-01
1.590219999999999967e-01 -3.255549999999999833e-01 6.409499999999999920e-02
9.276440000000000241e-01 3.455650000000000110e-01 -4.155899999999999872e-02
9.585409999999999764e-01 4.772599999999999759e-02 -5.922999999999999793e-02
3.044080000000000119e-01 -1.983999999999999930e-01 3.598410000000000220e-01
-3.652090000000000058e-01 4.154189999999999827e-01 5.551989999999999981e-01
-3.607330000000000259e-01 1.873990000000000100e-01 6.621799999999999908e-02
1.530459999999999876e-01 -2.915530000000000066e-01 -4.788499999999999701e-02
7.593020000000000325e-01 -2.776850000000000152e-01 3.725799999999999945e-02
1.087765000000000093e+00 1.260709999999999886e-01 -2.949299999999999838e-02
1.325939999999999896e-01 3.830870000000000108e-01 -2.251799999999999913e-01
3.263690000000000202e-01 -1.901529999999999887e-01 3.470469999999999944e-01
8.097999999999999643e-01 -9.629999999999999671e-02 9.427099999999999369e-02
1.149402000000000035e+00 -1.062099999999999989e-01 -8.022100000000000064e-02
-2.610669999999999935e-01 3.619439999999999880e-01 4.594170000000000198e-01
5.619999999999999996e-02 -3.171769999999999867e-01 -2.687579999999999969e-01
-1.879700000000000121e-02 -6.155000000000000054e-02 8.085100000000000620e-02
1.085969999999999991e-01 -2.916799999999999948e-02 4.120360000000000134e-01
8.475519999999999721e-01 1.992970000000000019e-01 3.583000000000000074e-02
8.547479999999999523e-01 2.448839999999999906e-01 -5.968299999999999994e-02
-2.513750000000000151e-01 -3.341100000000000320e-02 3.541569999999999996e-01
2.629819999999999935e-01 3.466549999999999909e-01 -3.684749999999999970e-01
8.616200000000000248e-02 -3.941959999999999908e-01 -2.749800000000000161e-02
7.382539999999999658e-01 -6.454699999999999327e-02 1.171829999999999955e-01
-5.721000000000000391e-03 2.752330000000000054e-01 -3.701980000000000270e-01
-1.785199999999999981e-02 -2.531849999999999934e-01 6.857599999999999807e-02
6.475459999999999550e-01 -8.655100000000000293e-02 1.480569999999999942e-01
2.065490000000000104e-01 -2.897890000000000188e-01 2.506550000000000167e-01
1.082206000000000001e+00 3.518209999999999948e-01 -1.023629999999999957e-01
1.371819999999999984e-01 1.029280000000000056e-01 -1.613320000000000032e-01
7.471919999999999673e-01 2.964559999999999973e-01 4.459699999999999775e-02
5.430399999999999811e-02 -3.337970000000000104e-01 -1.461830000000000074e-01
1.500070000000000014e-01 -1.053120000000000028e-01 4.236050000000000093e-01
9.846019999999999772e-01 1.358200000000000032e-02 2.841300000000000076e-02
-5.559199999999999697e-01 -4.133029999999999760e-01 1.356259999999999966e-01
1.391989999999999894e-01 1.032340000000000063e-01 -1.563990000000000102e-01
-5.001910000000000522e-01 5.050710000000000477e-01 1.118510000000000060e-01
-2.807859999999999800e-01 7.820799999999999974e-02 2.421190000000000009e-01
8.645709999999999784e-01 2.864709999999999757e-01 4.937999999999999681e-03
3.771479999999999833e-01 1.719749999999999890e-01 2.842939999999999912e-01
2.794710000000000250e-01 -3.966819999999999791e-01 -2.881110000000000060e-01
7.076400000000000468e-01 1.352420000000000011e-01 2.412200000000000108e-02
-3.510190000000000254e-01 3.589740000000000153e-01 6.109189999999999898e-01
-2.409499999999999975e-01 -8.677000000000000685e-03 1.143720000000000014e-01
8.239630000000000010e-01 8.871600000000000319e-02 6.940300000000000635e-02
7.234739999999999505e-01 -1.351040000000000019e-01 4.980199999999999905e-02
9.057840000000000336e-01 2.172149999999999914e-01 -7.316699999999999593e-02
2.607800000000000049e-02 -2.265010000000000079e-01 -1.023280000000000023e-01
1.151950999999999947e+00 -1.570850000000000024e-01 -5.023299999999999987e-02
3.014339999999999797e-01 -4.422789999999999777e-01 -2.915610000000000146e-01
-7.511000000000000315e-03 3.390989999999999838e-01 1.725300000000000097e-02
-6.258700000000000374e-01 1.133600000000000059e-02 -2.521260000000000168e-01
1.042464999999999975e+00 2.283290000000000042e-01 -4.226599999999999802e-02
8.119039999999999591e-01 9.531199999999999395e-02 7.195999999999999619e-02
3.253139999999999921e-01 -2.855320000000000080e-01 3.247260000000000146e-01
1.104020000000000001e+00 -1.635700000000000001e-02 -1.075310000000000016e-01
9.104100000000000525e-01 -3.469820000000000126e-01 5.189699999999999869e-02
6.679499999999999327e-02 2.148200000000000109e-01 -3.409420000000000228e-01
-4.897999999999999576e-03 2.314640000000000031e-01 3.107299999999999993e-02
2.119759999999999978e-01 3.674700000000000188e-01 1.063079999999999997e-01
1.152757000000000032e+00 1.769789999999999974e-01 -8.758100000000000607e-02
4.712700000000000222e-02 -5.301100000000000256e-02 -3.136669999999999736e-01
2.242049999999999876e-01 -1.115030000000000049e-01 3.978800000000000114e-01
-4.465160000000000240e-01 -3.840450000000000252e-01 1.071030000000000038e-01
5.212949999999999529e-01 2.294930000000000025e-01 1.507400000000000129e-01
8.077349999999999808e-01 1.716310000000000058e-01 5.552100000000000091e-02
2.110300000000000023e-02 1.121619999999999978e-01 -3.717690000000000161e-01
-1.041399999999999965e-02 2.524600000000000177e-01 -2.667000000000000100e-03
6.952200000000000046e-02 -1.651370000000000060e-01 -2.602929999999999966e-01
8.496320000000000539e-01 2.729699999999999835e-02 7.199300000000000144e-02
7.496359999999999690e-01 2.056590000000000085e-01 6.911100000000000576e-02
-2.263799999999999840e-02 1.890179999999999916e-01 -1.922870000000000135e-01
-3.372569999999999735e-01 1.429860000000000020e-01 1.675419999999999965e-01
-2.442310000000000036e-01 4.102200000000000291e-02 7.575900000000000689e-02
1.786069999999999880e-01 -1.424350000000000060e-01 -1.266800000000000044e-02
3.619300000000000295e-02 -2.222899999999999876e-01 -3.156079999999999997e-01
1.890519999999999978e-01 3.171359999999999735e-01 -7.227799999999999503e-02
1.211750000000000049e-01 3.405960000000000099e-01 -1.457100000000000062e-01
1.109984999999999999e+00 3.253510000000000013e-01 -1.696600000000000052e-01
9.749360000000000248e-01 1.432899999999999972e-02 3.157000000000000084e-02
9.248229999999999507e-01 -3.717239999999999989e-01 -3.443600000000000133e-02
-3.508410000000000140e-01 2.139079999999999870e-01 5.509300000000000308e-02
7.980110000000000259e-01 3.187700000000000256e-02 8.876499999999999668e-02
-4.169590000000000241e-01 -2.994459999999999900e-01 8.878500000000000281e-02
2.191039999999999932e-01 -1.329269999999999896e-01 9.192999999999999783e-02
4.950579999999999981e-01 -3.228150000000000186e-01 2.137830000000000008e-01
1.797880000000000034e-01 2.684790000000000232e-01 -8.702300000000000313e-02
7.841909999999999714e-01 4.410700000000000037e-02 9.144199999999999551e-02
1.132293999999999912e+00 -2.729820000000000024e-01 -1.737100000000000102e-02
1.166439999999999977e-01 -4.128479999999999928e-01 -3.924600000000000311e-02
6.151469999999999994e-01 8.989999999999999727e-03 7.643800000000000594e-02
2.288270000000000026e-01 -1.078410000000000063e-01 1.115740000000000065e-01
2.733289999999999886e-01 3.227689999999999726e-01 3.130510000000000237e-01
5.073799999999999838e-02 4.979599999999999999e-02 -3.268460000000000254e-01
-2.982469999999999843e-01 2.087880000000000014e-01 3.419730000000000270e-01
1.025992999999999933e+00 2.881949999999999790e-01 -1.438850000000000129e-01
4.607599999999999890e-02 -3.096499999999999808e-01 -2.815840000000000010e-01
1.365260000000000085e-01 2.406619999999999870e-01 3.820009999999999795e-01
-3.623529999999999807e-01 2.939289999999999958e-01 3.915099999999999830e-02
1.074869999999999992e+00 2.139840000000000075e-01 -1.406820000000000015e-01
4.538539999999999797e-01 -1.166309999999999986e-01 1.787860000000000005e-01
1.932499999999999843e-02 -2.896739999999999871e-01 -3.089580000000000104e-01
3.340999999999999786e-03 -1.116069999999999979e-01 9.609600000000000086e-02
1.699130000000000085e-01 -3.913099999999999912e-01 -1.732430000000000081e-01
-3.287570000000000214e-01 3.923800000000000066e-01 6.124789999999999957e-01
2.183690000000000075e-01 -6.167600000000000166e-02 3.980460000000000109e-01
1.098705999999999960e+00 2.188390000000000057e-01 -5.937200000000000116e-02
2.789229999999999765e-01 -1.951900000000000024e-01 2.466099999999999959e-01
-3.878210000000000268e-01 3.587710000000000066e-01 7.564700000000000590e-02
9.110399999999999610e-01 -3.221700000000000258e-02 5.811199999999999699e-02
3.844870000000000232e-01 3.651329999999999854e-01 -2.365250000000000130e-01
1.458389999999999964e-01 -7.627000000000000099e-03 2.428120000000000001e-01
4.175320000000000142e-01 1.812729999999999897e-01 1.774360000000000104e-01
1.150913000000000075e+00 -1.656660000000000077e-01 -5.600299999999999723e-02
4.647149999999999892e-01 4.457000000000000024e-03 2.420960000000000056e-01
2.924820000000000197e-01 1.901370000000000005e-01 3.322379999999999778e-01
-3.790560000000000040e-01 -1.585449999999999915e-01 6.412020000000000497e-01
-2.257079999999999920e-01 8.644799999999999707e-02 1.310080000000000133e-01
9.686949999999999728e-01 2.084650000000000114e-01 -9.619099999999999873e-02
8.134400000000000519e-01 -1.758480000000000043e-01 1.599300000000000027e-02
1.139949999999999991e-01 -1.993419999999999914e-01 3.842720000000000025e-01
9.176149999999999585e-01 -4.856400000000000300e-02 -3.211699999999999972e-02
-5.658199999999999896e-01 -4.357530000000000014e-01 1.923960000000000115e-01
1.046230999999999911e+00 -2.622900000000000231e-01 -7.268399999999999861e-02
8.597000000000000475e-03 1.137190000000000006e-01 1.977420000000000011e-01
1.383010000000000073e-01 -2.801120000000000276e-01 -8.652899999999999481e-02
1.139189999999999925e+00 1.819270000000000054e-01 -1.299109999999999987e-01
1.043506999999999962e+00 -3.094979999999999953e-01 1.103600000000000067e-02
-1.005000000000000034e-03 2.528230000000000199e-01 4.011599999999999888e-02
1.707049999999999956e-01 -4.663500000000000284e-02 -5.024200000000000194e-02
1.696179999999999910e-01 -1.557920000000000138e-01 -3.240400000000000225e-02
3.837889999999999913e-01 3.777690000000000214e-01 -3.148170000000000135e-01
2.912980000000000014e-01 2.848729999999999873e-01 2.376070000000000126e-01
5.456900000000000084e-01 2.245070000000000121e-01 7.108799999999999841e-02
-2.713789999999999814e-01 1.343650000000000122e-01 3.035519999999999885e-01
-2.580890000000000128e-01 -5.789300000000000002e-02 4.073490000000000166e-01
-4.450239999999999752e-01 -3.491520000000000179e-01 1.222739999999999938e-01
9.582439999999999847e-01 -1.894679999999999975e-01 4.525300000000000156e-02
2.247530000000000083e-01 -1.238000000000000038e-02 3.933780000000000054e-01
1.698240000000000027e-01 1.652579999999999882e-01 2.158670000000000033e-01
-2.985530000000000128e-01 1.417599999999999937e-02 2.083629999999999927e-01
2.365669999999999995e-01 6.749900000000000344e-02 9.787099999999999966e-02
4.805760000000000032e-01 -2.684739999999999904e-01 2.259110000000000007e-01
1.379999999999999977e-02 5.561900000000000177e-02 2.328850000000000087e-01
8.344500000000000528e-02 -2.393000000000000127e-01 -2.923600000000000157e-02
3.604280000000000261e-01 3.724830000000000085e-01 2.333010000000000084e-01
1.691050000000000053e-01 2.009269999999999945e-01 -1.007580000000000003e-01
-4.274700000000000027e-02 1.218169999999999947e-01 1.215569999999999984e-01
1.178079999999999961e-01 -3.589310000000000000e-01 -6.053000000000000047e-02
3.981900000000000023e-02 4.650000000000000270e-04 -3.350179999999999825e-01
1.986670000000000103e-01 -3.226199999999999901e-02 1.957300000000000012e-02
1.748570000000000124e-01 3.690620000000000012e-01 -3.124449999999999728e-01
2.728439999999999754e-01 -4.534400000000000236e-02 2.809380000000000210e-01
4.086640000000000272e-01 3.652560000000000251e-01 1.720689999999999997e-01
9.414470000000000338e-01 2.038230000000000042e-01 1.608999999999999970e-03
1.393149999999999944e-01 -1.969670000000000032e-01 4.299859999999999793e-01
1.132268000000000052e+00 3.041209999999999747e-01 -1.167340000000000044e-01
8.923769999999999758e-01 -3.662779999999999925e-01 5.210499999999999854e-02
9.791600000000000303e-02 -4.164399999999999769e-01 -1.076700000000000053e-02
6.460270000000000179e-01 -3.141749999999999821e-01 1.451159999999999950e-01
8.265339999999999909e-01 -8.997600000000000042e-02 8.854199999999999571e-02
8.955330000000000235e-01 -1.296300000000000056e-02 -2.818899999999999878e-02
8.407000000000000584e-02 -7.402000000000000246e-02 -2.476579999999999893e-01
2.496750000000000080e-01 -2.607679999999999998e-01 1.923179999999999890e-01
4.693209999999999882e-01 1.554349999999999898e-01 1.359680000000000055e-01
1.113058000000000103e+00 2.187630000000000130e-01 -6.447999999999999565e-02
2.832000000000000073e-01 -2.552449999999999997e-01 2.647869999999999946e-01
-4.431930000000000036e-01 4.948999999999999927e-02 -8.314399999999999569e-02
5.523800000000000238e-02 -6.543599999999999417e-02 -2.987549999999999928e-01
-3.615189999999999793e-01 8.609100000000000086e-02 1.548690000000000067e-01
-2.436730000000000007e-01 7.143000000000000044e-03 8.550000000000000655e-02
1.934750000000000081e-01 -2.763720000000000065e-01 2.498090000000000033e-01
1.726050000000000084e-01 -5.989999999999999665e-03 2.586319999999999730e-01
1.013354000000000088e+00 9.619300000000000073e-02 2.847999999999999837e-03
3.020419999999999772e-01 2.911869999999999736e-01 2.057680000000000065e-01
-3.549039999999999973e-01 1.026399999999999951e-01 2.383299999999999863e-01
2.937980000000000036e-01 -3.018500000000000003e-02 3.615639999999999965e-01
-3.357500000000000068e-02 -1.356400000000000106e-01 -1.943090000000000095e-01
-1.668830000000000036e-01 8.105700000000000405e-02 7.838000000000000522e-02
5.572920000000000096e-01 -1.986239999999999950e-01 1.167020000000000002e-01
1.031863999999999892e+00 2.562619999999999898e-01 -1.345600000000000129e-01
2.322319999999999940e-01 2.167060000000000097e-01 2.888160000000000172e-01
-3.411319999999999908e-01 -1.867030000000000078e-01 6.887029999999999541e-01
7.990660000000000540e-01 -6.494600000000000373e-02 9.730500000000000260e-02
-3.751840000000000175e-01 2.101000000000000090e-01 6.061400000000000121e-02
4.017760000000000220e-01 -1.202399999999999997e-01 2.970280000000000142e-01
9.420469999999999677e-01 1.530670000000000086e-01 1.391500000000000029e-02
2.177700000000000122e-02 9.117200000000000304e-02 2.093659999999999966e-01
5.239179999999999948e-01 3.656610000000000138e-01 1.131179999999999963e-01
1.093142000000000058e+00 -1.740510000000000113e-01 -9.020499999999999352e-02
6.268000000000000134e-03 3.541909999999999781e-01 1.536399999999999919e-02
6.865850000000000009e-01 2.597840000000000149e-01 7.797400000000000164e-02
7.737020000000000008e-01 2.249400000000000011e-01 -2.187300000000000008e-02
1.041158999999999946e+00 -2.842109999999999914e-01 -7.143700000000000050e-02
7.835899999999999810e-02 1.603719999999999868e-01 -3.022210000000000174e-01
1.024612999999999996e+00 -4.023769999999999847e-01 -7.191500000000000670e-02
4.565130000000000021e-01 -3.734190000000000009e-01 -3.837100000000000233e-02
7.101939999999999920e-01 -3.446839999999999904e-01 1.126360000000000000e-01
8.448379999999999779e-01 -2.746959999999999957e-01 8.186200000000000421e-02
4.396630000000000260e-01 1.857669999999999877e-01 1.575979999999999881e-01
1.098927999999999905e+00 -2.041000000000000106e-02 -5.683999999999999816e-03
8.427069999999999839e-01 -3.748810000000000198e-01 5.214499999999999691e-02
-5.294149999999999689e-01 -4.030179999999999874e-01 2.233709999999999862e-01
1.522570000000000034e-01 3.014470000000000205e-01 -1.613570000000000004e-01
1.085519999999999957e-01 1.363330000000000097e-01 3.600579999999999892e-01
2.793129999999999780e-01 8.126300000000000190e-02 2.837609999999999855e-01
1.978540000000000021e-01 -4.250199999999999811e-02 2.351840000000000042e-01
7.764119999999999910e-01 -2.068510000000000071e-01 3.210400000000000059e-02
3.518999999999999993e-03 2.552449999999999997e-01 2.440200000000000008e-02
-2.551780000000000159e-01 3.763799999999999785e-02 1.861669999999999991e-01
9.394099999999999673e-02 -1.434650000000000092e-01 -2.190749999999999920e-01
-3.129890000000000172e-01 -2.355300000000000102e-02 1.797320000000000029e-01
7.116080000000000183e-01 -3.171629999999999727e-01 1.224979999999999958e-01
4.299569999999999781e-01 -2.445730000000000126e-01 2.018300000000000094e-01
7.779470000000000551e-01 -8.361300000000000676e-02 1.043710000000000054e-01
2.659079999999999777e-01 -4.431899999999999729e-02 3.755910000000000082e-01
1.057557000000000080e+00 3.710999999999999889e-03 -9.205299999999999594e-02
-4.121460000000000123e-01 3.368889999999999940e-01 1.844000000000000153e-02
1.340860000000000107e-01 4.151630000000000043e-01 -1.573019999999999974e-01
-7.350099999999999689e-02 1.599099999999999827e-02 7.817300000000000637e-02
-4.513600000000000251e-02 -8.597299999999999387e-02 -1.702440000000000064e-01
-2.684460000000000179e-01 8.593199999999999450e-02 1.191979999999999984e-01
4.443610000000000060e-01 7.427899999999999781e-02 1.682240000000000124e-01
9.065099999999999547e-02 9.841800000000000548e-02 -2.669929999999999803e-01
6.284800000000000386e-01 3.201550000000000229e-01 6.315000000000000301e-03
-2.491000000000000159e-02 1.209969999999999934e-01 1.184859999999999941e-01
3.282840000000000202e-01 -4.341550000000000131e-01 -2.239520000000000122e-01
1.054653999999999980e+00 3.532120000000000259e-01 -9.310599999999999432e-02
2.976619999999999822e-01 2.308119999999999894e-01 2.073190000000000033e-01
9.136830000000000229e-01 3.599609999999999754e-01 -1.204139999999999933e-01
-5.182449999999999557e-01 -3.890689999999999982e-01 1.617190000000000016e-01
4.239800000000000235e-01 -7.542799999999999505e-02 2.015569999999999862e-01
-5.161000000000000032e-01 5.212670000000000359e-01 1.829700000000000076e-02
1.140085000000000015e+00 -2.065500000000000114e-01 -7.085600000000000231e-02
4.068399999999999794e-02 6.497400000000000397e-02 2.309170000000000111e-01
2.087950000000000084e-01 2.174020000000000119e-01 -1.485999999999999908e-03
7.039560000000000262e-01 1.217349999999999960e-01 1.034849999999999937e-01
7.836060000000000247e-01 8.639900000000000357e-02 1.551000000000000078e-03
9.232930000000000303e-01 -7.417700000000000682e-02 5.677200000000000302e-02
7.183599999999999985e-01 9.874199999999999644e-02 1.031389999999999946e-01
-1.448600000000000061e-02 3.487819999999999809e-01 1.165899999999999923e-02
6.007230000000000070e-01 -2.855119999999999880e-01 9.516800000000000259e-02
1.502239999999999964e-01 1.935129999999999906e-01 -1.460909999999999986e-01
6.902129999999999654e-01 -5.904000000000000394e-03 4.957500000000000101e-02
-6.129980000000000429e-01 -4.409999999999999858e-03 -2.534429999999999739e-01
9.039030000000000120e-01 1.175279999999999936e-01 -5.020000000000000157e-02
-4.427820000000000089e-01 6.142800000000000343e-02 2.486919999999999964e-01
-5.242299999999999738e-02 -2.469000000000000014e-02 1.379869999999999985e-01
1.068708999999999909e+00 3.078790000000000138e-01 -7.849100000000000521e-02
1.530410000000000104e-01 -2.469999999999999865e-04 3.500610000000000110e-01
4.087200000000000277e-01 -7.299999999999999632e-04 2.883370000000000100e-01
2.684300000000000019e-01 2.322950000000000015e-01 1.460079999999999989e-01
2.997659999999999769e-01 2.626820000000000266e-01 2.056890000000000107e-01
5.694730000000000070e-01 3.161570000000000213e-01 1.035729999999999984e-01
-1.541200000000000035e-02 -1.334470000000000101e-01 5.609499999999999903e-02
-4.085119999999999862e-01 3.554189999999999849e-01 4.690300000000000025e-02
4.634280000000000066e-01 1.908239999999999936e-01 2.126679999999999959e-01
3.233739999999999948e-01 -7.525400000000000145e-02 3.461110000000000020e-01
-6.742580000000000240e-01 -2.048499999999999974e-02 -2.114300000000000068e-01
3.488129999999999842e-01 1.263300000000000013e-02 2.492620000000000113e-01
9.404630000000000489e-01 1.599129999999999996e-01 1.256400000000000051e-02
7.274230000000000418e-01 -1.296869999999999967e-01 1.226580000000000031e-01
1.066710000000000019e-01 -7.380699999999999761e-02 -2.036040000000000072e-01
-4.427320000000000144e-01 4.687040000000000095e-01 4.210900000000000060e-02
9.584869999999999779e-01 -5.704900000000000249e-02 -4.669600000000000140e-02
1.916509999999999880e-01 7.647199999999999831e-02 2.526849999999999929e-01
9.946369999999999933e-01 1.735160000000000036e-01 -1.007899999999999942e-02
-3.465700000000000031e-02 1.002760000000000040e-01 -3.163200000000000039e-02
6.015509999999999469e-01 2.756239999999999801e-01 1.055429999999999979e-01
7.361090000000000133e-01 9.616299999999999848e-02 9.768200000000000494e-02
2.476460000000000050e-01 2.692620000000000013e-01 8.755200000000000482e-02
2.269569999999999921e-01 1.912200000000000011e-01 5.041400000000000048e-02
-2.169799999999999854e-02 -3.085169999999999857e-01 1.032389999999999974e-01
1.605000000000000090e-03 -2.262109999999999954e-01 -1.450690000000000035e-01
-3.648230000000000084e-01 1.636730000000000129e-01 1.220839999999999981e-01
-4.307799999999999824e-02 -1.099509999999999932e-01 -1.734259999999999968e-01
4.155119999999999925e-01 3.979400000000000159e-01 -2.374219999999999942e-01
1.009055000000000035e+00 2.363339999999999885e-01 -1.202629999999999949e-01
1.292860000000000120e-01 1.685560000000000114e-01 -1.932139999999999969e-01
1.051470000000000043e-01 -2.061030000000000084e-01 8.346499999999999753e-02
1.006355000000000111e+00 -1.301800000000000006e-02 -7.058999999999999997e-02
1.053867000000000109e+00 -3.002079999999999749e-01 -7.664400000000000379e-02
9.619440000000000213e-01 -1.810779999999999890e-01 4.428499999999999798e-02
-5.345739999999999936e-01 -4.416880000000000250e-01 1.522630000000000094e-01
9.085450000000000470e-01 -3.304279999999999995e-01 -2.583299999999999833e-02
1.919960000000000000e-01 -3.128130000000000077e-01 1.481190000000000007e-01
-6.954930000000000279e-01 3.175999999999999657e-02 -1.945699999999999930e-01
2.234160000000000035e-01 2.969680000000000097e-01 2.156599999999999837e-02
3.665630000000000277e-01 3.738239999999999896e-01 -2.812399999999999900e-01
9.669689999999999674e-01 -4.890000000000000249e-03 -5.646199999999999830e-02
1.755950000000000011e-01 -2.642220000000000124e-01 4.104659999999999975e-01
2.119389999999999885e-01 -1.195630000000000026e-01 3.380299999999999971e-01
1.222919999999999979e-01 2.289990000000000081e-01 3.363559999999999883e-01
5.679400000000000004e-01 1.471739999999999993e-01 7.688300000000000689e-02
1.319349999999999967e-01 2.626769999999999938e-01 -4.375000000000000416e-03
9.278100000000000236e-02 -4.147440000000000015e-01 1.394999999999999973e-03
2.368310000000000137e-01 2.671919999999999851e-01 3.440150000000000152e-01
8.231900000000000328e-02 -1.477469999999999895e-01 1.734690000000000121e-01
-5.405900000000000150e-01 5.324830000000000396e-01 1.004799999999999999e-01
4.710630000000000095e-01 -1.640399999999999844e-02 2.377829999999999944e-01
5.095380000000000464e-01 -1.991549999999999987e-01 1.355439999999999978e-01
2.080269999999999897e-01 -3.887599999999999945e-01 -2.590459999999999985e-01
1.531160000000000021e-01 1.001009999999999955e-01 -1.213690000000000047e-01
4.387679999999999914e-01 -3.882820000000000160e-01 -7.872200000000000031e-02
1.736719999999999930e-01 -2.684199999999999919e-01 3.744680000000000231e-01
-5.315370000000000372e-01 -4.138209999999999944e-01 1.164089999999999986e-01
2.792029999999999790e-01 3.514419999999999766e-01 2.425579999999999958e-01
2.535810000000000008e-01 3.859110000000000040e-01 -4.064809999999999812e-01
4.721099999999999741e-01 3.993769999999999820e-01 -3.282999999999999807e-02
6.440409999999999746e-01 3.480759999999999965e-01 6.446000000000000341e-02
7.850000000000000311e-01 2.298570000000000058e-01 -2.781000000000000139e-02
-2.683360000000000190e-01 1.524880000000000124e-01 3.231069999999999776e-01
-3.022739999999999871e-01 3.452310000000000101e-01 5.064670000000000005e-01
6.231529999999999569e-01 -9.981800000000000395e-02 1.568479999999999874e-01
7.587499999999999800e-02 1.317649999999999932e-01 1.793029999999999902e-01
-3.839599999999999957e-02 1.625530000000000030e-01 -3.126360000000000250e-01
-1.411100000000000028e-02 1.361150000000000138e-01 -3.761829999999999896e-01
2.321159999999999890e-01 2.482459999999999944e-01 5.258000000000000174e-02
9.665730000000000155e-01 -4.036509999999999820e-01 -4.014299999999999813e-02
1.208219999999999988e-01 1.889560000000000128e-01 5.557700000000000140e-02
1.543760000000000132e-01 -2.462670000000000137e-01 3.739370000000000194e-01
-5.227169999999999872e-01 4.693979999999999819e-01 7.633000000000000028e-03
8.642779999999999907e-01 2.600899999999999879e-01 -6.689499999999999613e-02
5.396360000000000046e-01 1.870229999999999948e-01 8.093100000000000294e-02
1.884900000000000117e-02 9.229199999999999904e-02 -3.703239999999999865e-01
1.663610000000000089e-01 -1.405550000000000133e-01 -4.333100000000000146e-02
2.356409999999999894e-01 2.213559999999999972e-01 6.649700000000000055e-02
7.606100000000000361e-02 4.647000000000000089e-03 -2.747919999999999807e-01
8.695420000000000371e-01 3.486440000000000095e-01 -2.134099999999999886e-02
6.884770000000000056e-01 -2.790369999999999795e-01 6.346799999999999664e-02
3.818300000000000027e-01 3.548299999999999788e-01 -2.539390000000000258e-01
4.500120000000000231e-01 -3.712719999999999909e-01 3.861900000000000055e-02
1.036770000000000053e-01 3.767460000000000253e-01 -1.241010000000000030e-01
9.372340000000000115e-01 1.765430000000000055e-01 9.065999999999999406e-03
9.906399999999999650e-01 3.734729999999999994e-01 -1.125369999999999981e-01
-5.155809999999999560e-01 -1.358999999999999965e-03 -1.889649999999999941e-01
5.540589999999999682e-01 1.997410000000000019e-01 1.393419999999999936e-01
5.908149999999999791e-01 3.573680000000000190e-01 5.528000000000000275e-02
5.426010000000000000e-01 2.518300000000000052e-02 1.022779999999999939e-01
9.565759999999999819e-01 -4.599799999999999722e-02 -4.737100000000000338e-02
8.516939999999999511e-01 2.183100000000000041e-01 -5.158700000000000091e-02
1.014875999999999889e+00 2.493589999999999973e-01 -1.261099999999999999e-01
9.337370000000000392e-01 -2.230999999999999910e-03 -4.406500000000000000e-02
2.082170000000000132e-01 -2.667880000000000251e-01 8.991000000000000381e-02
3.910660000000000247e-01 1.642139999999999989e-01 2.760900000000000021e-01
7.107560000000000544e-01 -2.640890000000000182e-01 5.756900000000000212e-02
9.322340000000000071e-01 -1.130020000000000052e-01 5.418499999999999706e-02
5.048829999999999707e-01 -3.424769999999999759e-01 2.170009999999999994e-01
1.062109999999999999e-01 1.781780000000000030e-01 3.662199999999999900e-01
-5.126279999999999726e-01 5.157810000000000450e-01 1.081479999999999941e-01
6.515779999999999905e-01 2.214029999999999887e-01 2.852100000000000121e-02
5.162330000000000529e-01 4.305359999999999743e-01 -9.599999999999999159e-03
5.426870000000000305e-01 -1.162400000000000065e-02 1.067739999999999939e-01
-5.442919999999999980e-01 -4.312830000000000275e-01 2.308769999999999989e-01
-4.157109999999999972e-01 4.077839999999999798e-01 -9.867000000000000770e-03
1.628809999999999980e-01 2.006930000000000103e-01 -1.161179999999999990e-01
5.353090000000000348e-01 -1.542000000000000037e-01 1.235639999999999933e-01
9.548790000000000333e-01 -1.258599999999999997e-01 4.717500000000000165e-02
1.001989999999999964e-01 -3.329100000000000115e-02 -2.265199999999999991e-01
7.619089999999999474e-01 -7.439199999999999979e-02 3.006400000000000045e-02
4.269000000000000225e-03 2.062549999999999939e-01 -1.880239999999999967e-01
3.071130000000000249e-01 1.456499999999999982e-02 2.751069999999999904e-01
1.280399999999999872e-01 -1.569869999999999877e-01 -1.350780000000000036e-01
7.621999999999999886e-01 -3.635269999999999890e-01 6.776500000000000579e-02
1.094709999999999989e-01 -1.211100000000000024e-02 2.517249999999999766e-01
6.686680000000000401e-01 -7.888699999999999879e-02 1.406270000000000020e-01
-2.350700000000000012e-02 2.215679999999999872e-01 -3.463740000000000152e-01
1.021506000000000025e+00 3.684499999999999997e-01 -1.540229999999999932e-01
8.601999999999999647e-01 -2.614940000000000042e-01 7.718200000000000061e-02
9.193630000000000413e-01 7.367200000000000137e-02 4.034999999999999698e-02
4.600330000000000252e-01 2.220509999999999984e-01 2.092179999999999873e-01
-5.011980000000000324e-01 -3.972879999999999745e-01 1.002249999999999946e-01
7.251140000000000363e-01 3.396179999999999755e-01 -4.099099999999999966e-02
8.677700000000000691e-02 -2.006459999999999910e-01 6.309499999999999831e-02
-3.970250000000000168e-01 4.958100000000000007e-02 1.738879999999999870e-01
7.840600000000000347e-02 1.571420000000000039e-01 1.779550000000000021e-01
-3.841470000000000162e-01 4.025549999999999962e-01 4.928699999999999748e-02
3.259599999999999997e-02 1.307310000000000139e-01 2.042219999999999869e-01
3.920080000000000231e-01 6.466800000000000326e-02 2.135700000000000098e-01
4.776509999999999923e-01 -3.565659999999999941e-01 1.709199999999999955e-02
9.331850000000000422e-01 3.021860000000000102e-01 -2.628099999999999881e-02
-2.673899999999999888e-02 1.263140000000000096e-01 -2.297210000000000085e-01
1.876279999999999892e-01 2.130900000000000016e-01 -5.720200000000000284e-02
1.154280000000000028e-01 4.770699999999999941e-02 2.641009999999999747e-01
4.690889999999999782e-01 2.092769999999999908e-01 2.039960000000000107e-01
-2.528460000000000152e-01 -1.087219999999999992e-01 3.856950000000000101e-01
1.152954000000000034e+00 1.270779999999999965e-01 -5.229500000000000121e-02
3.465360000000000107e-01 -1.614299999999999902e-01 3.350159999999999805e-01
3.914710000000000134e-01 2.484969999999999957e-01 1.865130000000000121e-01
8.570700000000000540e-02 2.108180000000000054e-01 1.316489999999999883e-01
7.599169999999999536e-01 2.785699999999999843e-01 4.656300000000000022e-02
3.197679999999999967e-01 -3.462200000000000000e-02 2.733909999999999951e-01
5.782140000000000057e-01 3.254429999999999823e-01 9.705700000000000438e-02
3.769549999999999845e-01 2.015059999999999907e-01 2.057819999999999927e-01
7.668380000000000196e-01 -2.227860000000000118e-01 1.089770000000000044e-01
1.052554999999999907e+00 2.095420000000000060e-01 -1.304200000000000081e-01
-3.495700000000000196e-02 -2.920639999999999903e-01 -2.511970000000000036e-01
-2.664219999999999922e-01 3.285129999999999995e-01 4.193790000000000018e-01
-1.880899999999999933e-02 1.165530000000000038e-01 8.526200000000000445e-02
7.844889999999999919e-01 2.004509999999999903e-01 -1.943399999999999989e-02
5.018669999999999520e-01 -2.219480000000000064e-01 1.391169999999999907e-01
3.337129999999999819e-01 3.111299999999999830e-02 3.351999999999999980e-01
