1.055097699165344238e+00 -2.974891662597656250e-01 -7.800459116697311401e-02
1.052346110343933105e+00 -2.855596840381622314e-01 -7.636024802923202515e-02
1.041777729988098145e+00 -3.026458323001861572e-01 -7.236964255571365356e-02
1.039717316627502441e+00 -2.900859713554382324e-01 -7.104165107011795044e-02
2.187794446945190430e-01 2.178516983985900879e-01 3.619138896465301514e-01
2.154709249734878540e-01 2.349536269903182983e-01 3.579069375991821289e-01
2.026462405920028687e-01 2.043098807334899902e-01 3.709736168384552002e-01
1.992770880460739136e-01 2.208922356367111206e-01 3.664256334304809570e-01
6.494261026382446289e-01 1.187068521976470947e-01 5.092379823327064514e-02
6.373961567878723145e-01 1.389579474925994873e-01 5.072492733597755432e-02
6.340626478195190430e-01 1.114213019609451294e-01 5.710162967443466187e-02
6.219214797019958496e-01 1.319193691015243530e-01 5.714711546897888184e-02
1.078264594078063965e+00 -1.589391380548477173e-02 -9.519177675247192383e-02
1.070086121559143066e+00 7.872262503951787949e-04 -9.641552716493606567e-02
1.058878421783447266e+00 -2.725273743271827698e-02 -9.126811474561691284e-02
1.052175641059875488e+00 -9.232561103999614716e-03 -9.168356657028198242e-02
7.120545506477355957e-01 2.945149838924407959e-01 -1.878546364605426788e-02
6.936751604080200195e-01 3.090398907661437988e-01 -1.783547364175319672e-02
7.006455063819885254e-01 2.884061932563781738e-01 -1.034716516733169556e-02
6.821523904800415039e-01 3.035965859889984131e-01 -9.842731058597564697e-03
4.883457720279693604e-01 3.248509466648101807e-01 1.562664508819580078e-01
4.813348054885864258e-01 3.415613770484924316e-01 1.556190997362136841e-01
4.806108474731445312e-01 3.196546435356140137e-01 1.682451963424682617e-01
4.734619855880737305e-01 3.363636732101440430e-01 1.667795777320861816e-01
1.123659491539001465e+00 3.406175971031188965e-01 -1.667944490909576416e-01
1.110733747482299805e+00 3.539696633815765381e-01 -1.655769944190979004e-01
1.120857596397399902e+00 3.401699066162109375e-01 -1.534867137670516968e-01
1.109169960021972656e+00 3.522889614105224609e-01 -1.535448729991912842e-01
7.196689248085021973e-01 1.281967610120773315e-01 9.802319854497909546e-02
7.224218845367431641e-01 1.512383967638015747e-01 9.188481420278549194e-02
7.031161189079284668e-01 1.071272641420364380e-01 1.050116047263145447e-01
7.055310606956481934e-01 1.298370510339736938e-01 9.902124851942062378e-02
-3.522590994834899902e-01 3.049042522907257080e-01 7.921610772609710693e-02
-3.537467122077941895e-01 3.216394484043121338e-01 7.415253669023513794e-02
-3.492451608180999756e-01 3.012949824333190918e-01 9.632763266563415527e-02
-3.500969409942626953e-01 3.185398578643798828e-01 9.231967478990554810e-02
9.987157583236694336e-02 1.787838637828826904e-01 -2.643701732158660889e-01
9.932200610637664795e-02 1.994022578001022339e-01 -2.700991034507751465e-01
1.075458675622940063e-01 1.765303611755371094e-01 -2.494544982910156250e-01
1.051169261336326599e-01 1.978456526994705200e-01 -2.579071819782257080e-01
-5.046719312667846680e-01 4.441151618957519531e-01 2.041244693100452423e-02
-5.199291706085205078e-01 4.517340958118438721e-01 1.887297630310058594e-02
-5.139870643615722656e-01 4.432350993156433105e-01 3.507063537836074829e-02
-5.285407900810241699e-01 4.526819884777069092e-01 3.446866944432258606e-02
1.185448318719863892e-01 -1.590526103973388672e-01 3.799740672111511230e-01
1.157977655529975891e-01 -1.441048234701156616e-01 3.768623173236846924e-01
1.044919267296791077e-01 -1.654835790395736694e-01 3.909653127193450928e-01
1.016217321157455444e-01 -1.498035788536071777e-01 3.885667324066162109e-01
1.046195626258850098e+00 -2.688791751861572266e-01 1.305706612765789032e-02
1.047329664230346680e+00 -2.478944957256317139e-01 1.473107654601335526e-02
1.030223846435546875e+00 -2.783757150173187256e-01 1.812041178345680237e-02
1.024883627891540527e+00 -2.590782940387725830e-01 2.054611220955848694e-02
-1.935875415802001953e-02 -8.043422549962997437e-02 1.150575652718544006e-02
-3.327999636530876160e-02 -7.631512731313705444e-02 1.158036570996046066e-02
-1.722997799515724182e-02 -7.703210413455963135e-02 2.626883611083030701e-02
-3.252978250384330750e-02 -7.439078390598297119e-02 2.728780731558799744e-02
4.943899810314178467e-01 5.857588723301887512e-02 1.259636580944061279e-01
4.938644766807556152e-01 7.441598922014236450e-02 1.234926804900169373e-01
4.822556376457214355e-01 5.093003064393997192e-02 1.379311531782150269e-01
4.797495305538177490e-01 6.702800840139389038e-02 1.359943002462387085e-01
1.324092596769332886e-01 -1.704412698745727539e-01 3.730541169643402100e-01
1.294546723365783691e-01 -1.553630828857421875e-01 3.705624938011169434e-01
1.146994903683662415e-01 -1.748873144388198853e-01 3.845950961112976074e-01
1.119875311851501465e-01 -1.599363535642623901e-01 3.819013833999633789e-01
1.087698698043823242e+00 -2.681518197059631348e-01 -8.763992041349411011e-02
1.085579037666320801e+00 -2.570118904113769531e-01 -8.596417307853698730e-02
1.072656512260437012e+00 -2.735789120197296143e-01 -8.197813481092453003e-02
1.071197509765625000e+00 -2.616370618343353271e-01 -8.079490810632705688e-02
-2.920102179050445557e-01 1.512740086764097214e-02 1.929040849208831787e-01
-2.955828309059143066e-01 2.964865975081920624e-02 1.888975501060485840e-01
-2.977695763111114502e-01 1.447476912289857864e-02 2.043373286724090576e-01
-3.015378117561340332e-01 2.854067087173461914e-02 2.003090977668762207e-01
6.665571331977844238e-01 1.729758381843566895e-01 3.154640272259712219e-02
6.503195762634277344e-01 1.868540495634078979e-01 3.389450535178184509e-02
6.566134691238403320e-01 1.650211364030838013e-01 4.030925035476684570e-02
6.380081176757812500e-01 1.817849725484848022e-01 4.335469007492065430e-02
3.524341583251953125e-01 -2.182237803936004639e-02 2.500463426113128662e-01
3.483841121196746826e-01 -6.271019577980041504e-03 2.509060800075531006e-01
3.408769667148590088e-01 -2.720969170331954956e-02 2.597111761569976807e-01
3.368960022926330566e-01 -1.180998608469963074e-02 2.604154944419860840e-01
2.337637245655059814e-01 1.017682030797004700e-01 3.010387122631072998e-01
2.325713783502578735e-01 1.188687309622764587e-01 2.995760738849639893e-01
2.223013192415237427e-01 9.034468978643417358e-02 3.047976195812225342e-01
2.206420600414276123e-01 1.089859530329704285e-01 3.046607971191406250e-01
2.133551239967346191e-01 -5.598329752683639526e-02 3.318978250026702881e-01
2.131433784961700439e-01 -3.709832206368446350e-02 3.318119943141937256e-01
1.964080035686492920e-01 -6.606269627809524536e-02 3.396446704864501953e-01
1.958053261041641235e-01 -4.625784233212471008e-02 3.401217460632324219e-01
5.650941133499145508e-01 -6.753146648406982422e-02 1.046172752976417542e-01
5.659498572349548340e-01 -4.714630171656608582e-02 1.038347333669662476e-01
5.454883575439453125e-01 -8.008336275815963745e-02 1.136616244912147522e-01
5.459766983985900879e-01 -6.093137711286544800e-02 1.125814840197563171e-01
5.852962136268615723e-01 1.891561299562454224e-01 6.301194429397583008e-02
5.790625214576721191e-01 2.078574746847152710e-01 6.094926968216896057e-02
5.705690383911132812e-01 1.744423359632492065e-01 6.984328478574752808e-02
5.679333806037902832e-01 1.963462829589843750e-01 6.626513600349426270e-02
7.786024212837219238e-01 1.598714143037796021e-01 -9.357374161481857300e-03
7.697734236717224121e-01 1.721073240041732788e-01 -1.007976196706295013e-02
7.658787369728088379e-01 1.537770479917526245e-01 -3.987289499491453171e-03
7.570251226425170898e-01 1.669542938470840454e-01 -4.879490006715059280e-03
3.960662484169006348e-01 -2.789331376552581787e-01 2.914729118347167969e-01
3.879923820495605469e-01 -2.682908475399017334e-01 2.955845594406127930e-01
3.754580318927764893e-01 -2.799282371997833252e-01 3.008892536163330078e-01
3.677552342414855957e-01 -2.690842747688293457e-01 3.043060600757598877e-01
-2.975525259971618652e-01 -5.162529647350311279e-02 3.108674585819244385e-01
-2.990585267543792725e-01 -2.940767817199230194e-02 3.052639961242675781e-01
-2.916477322578430176e-01 -6.758813560009002686e-02 3.414716124534606934e-01
-2.935105264186859131e-01 -4.496809840202331543e-02 3.310682475566864014e-01
6.099432110786437988e-01 -2.345420569181442261e-01 1.643435359001159668e-01
6.114460825920104980e-01 -2.109508961439132690e-01 1.643858850002288818e-01
5.859422087669372559e-01 -2.459498643875122070e-01 1.709635108709335327e-01
5.899350643157958984e-01 -2.215993255376815796e-01 1.699677556753158569e-01
4.683036506175994873e-01 4.045733511447906494e-01 -1.586483716964721680e-01
4.622154831886291504e-01 4.287477433681488037e-01 -1.606129109859466553e-01
4.731844067573547363e-01 4.052549600601196289e-01 -1.362591534852981567e-01
4.698525667190551758e-01 4.274349808692932129e-01 -1.365955621004104614e-01
-1.362003833055496216e-01 4.781908541917800903e-02 1.289653182029724121e-01
-1.526649892330169678e-01 4.836691543459892273e-02 1.248024031519889832e-01
-1.369815915822982788e-01 4.866852238774299622e-02 1.400978714227676392e-01
-1.534461975097656250e-01 4.921635240316390991e-02 1.359349638223648071e-01
-2.860077023506164551e-01 3.486672639846801758e-01 5.342898964881896973e-01
-3.003664016723632812e-01 3.554633855819702148e-01 5.330716371536254883e-01
-2.967188060283660889e-01 3.481176495552062988e-01 5.507052540779113770e-01
-3.107710480690002441e-01 3.555150330066680908e-01 5.504763722419738770e-01
2.237087935209274292e-01 -1.140293180942535400e-01 1.002819016575813293e-01
2.228464782238006592e-01 -9.932623058557510376e-02 9.615353494882583618e-02
2.310772538185119629e-01 -1.172088086605072021e-01 1.183526888489723206e-01
2.307919561862945557e-01 -1.027316153049468994e-01 1.151587069034576416e-01
-3.244197964668273926e-01 9.460224211215972900e-02 1.107059419155120850e-01
-3.272649645805358887e-01 1.113491654396057129e-01 1.144985035061836243e-01
-3.301671445369720459e-01 9.317936003208160400e-02 1.238483041524887085e-01
-3.322753310203552246e-01 1.090834736824035645e-01 1.288942396640777588e-01
2.269827425479888916e-01 3.280240595340728760e-01 -3.554852008819580078e-01
2.159901261329650879e-01 3.385316133499145508e-01 -3.478192687034606934e-01
2.196074277162551880e-01 3.290524482727050781e-01 -3.423432111740112305e-01
2.125751078128814697e-01 3.391957879066467285e-01 -3.333997428417205811e-01
-4.914366304874420166e-01 -1.008300669491291046e-02 -1.707585453987121582e-01
-5.008415579795837402e-01 1.428585313260555267e-02 -1.719574630260467529e-01
-4.795990586280822754e-01 -1.804975047707557678e-02 -1.504033654928207397e-01
-4.875067472457885742e-01 1.052506826817989349e-02 -1.517113894224166870e-01
5.082452893257141113e-01 4.038946926593780518e-01 1.147867515683174133e-01
5.089110732078552246e-01 4.211190342903137207e-01 1.062416210770606995e-01
4.988691806793212891e-01 3.916134834289550781e-01 1.347748637199401855e-01
4.988813996315002441e-01 4.090567231178283691e-01 1.256009936332702637e-01
7.884398102760314941e-01 -3.304108977317810059e-04 9.774006158113479614e-02
7.815667390823364258e-01 1.678260415792465210e-02 9.670270234346389771e-02
7.701149582862854004e-01 -1.064269617199897766e-02 1.028019711375236511e-01
7.632701992988586426e-01 6.896826438605785370e-03 1.022098362445831299e-01
-4.317966476082801819e-02 -1.891574263572692871e-01 -3.001731634140014648e-01
-4.836898669600486755e-02 -1.690691560506820679e-01 -3.023531734943389893e-01
-4.403910785913467407e-02 -1.981099992990493774e-01 -2.914011180400848389e-01
-5.040623620152473450e-02 -1.775549203157424927e-01 -2.930879592895507812e-01
-1.486796140670776367e-02 2.883590161800384521e-01 -8.915622718632221222e-03
-1.534064766019582748e-02 3.016733527183532715e-01 -9.538630023598670959e-03
-1.122110988944768906e-02 2.820208072662353516e-01 4.079404752701520920e-03
-1.240803673863410950e-02 2.946134507656097412e-01 3.349874168634414673e-03
6.003652215003967285e-01 3.574337661266326904e-01 4.329224675893783569e-02
5.817618966102600098e-01 3.604541122913360596e-01 4.406191036105155945e-02
5.927354693412780762e-01 3.570527136325836182e-01 5.336684733629226685e-02
5.747635364532470703e-01 3.616234362125396729e-01 5.438745394349098206e-02
2.371669858694076538e-01 3.392323255538940430e-01 3.266584873199462891e-01
2.304372191429138184e-01 3.551297187805175781e-01 3.203672766685485840e-01
2.175584584474563599e-01 3.278875350952148438e-01 3.381597995758056641e-01
2.145666033029556274e-01 3.467132151126861572e-01 3.319341540336608887e-01
3.247081339359283447e-01 -7.963467389345169067e-02 2.703414559364318848e-01
3.211528658866882324e-01 -6.484392285346984863e-02 2.708115577697753906e-01
3.120377063751220703e-01 -8.706510066986083984e-02 2.779325842857360840e-01
3.102079331874847412e-01 -7.358551770448684692e-02 2.784741818904876709e-01
-6.431354284286499023e-01 -3.319556638598442078e-02 -1.818916648626327515e-01
-6.478437185287475586e-01 -2.668210119009017944e-02 -1.879294663667678833e-01
-6.425026655197143555e-01 -2.878034859895706177e-02 -1.714393645524978638e-01
-6.507899165153503418e-01 -2.475938387215137482e-02 -1.752704381942749023e-01
2.756285965442657471e-01 -1.509719938039779663e-01 3.040087819099426270e-01
2.745569944381713867e-01 -1.314797550439834595e-01 3.050251007080078125e-01
2.653012275695800781e-01 -1.614957898855209351e-01 3.104043602943420410e-01
2.640909552574157715e-01 -1.426167041063308716e-01 3.116019964218139648e-01
1.361923217773437500e-01 -1.376237124204635620e-01 -1.165312081575393677e-01
1.355812102556228638e-01 -1.201629340648651123e-01 -1.204969957470893860e-01
1.465934365987777710e-01 -1.388603448867797852e-01 -9.364635497331619263e-02
1.459644138813018799e-01 -1.221298277378082275e-01 -9.739203751087188721e-02
9.756733179092407227e-01 -3.089853227138519287e-01 -4.746228083968162537e-02
9.775091409683227539e-01 -2.892038226127624512e-01 -4.681825265288352966e-02
9.579397439956665039e-01 -3.196401298046112061e-01 -4.230213165283203125e-02
9.592525959014892578e-01 -2.998623549938201904e-01 -4.102646932005882263e-02
8.607686161994934082e-01 -3.674643635749816895e-01 6.230896338820457458e-02
8.415521383285522461e-01 -3.720182776451110840e-01 5.768020823597908020e-02
8.569580912590026855e-01 -3.621791601181030273e-01 7.371465861797332764e-02
8.378247022628784180e-01 -3.670030236244201660e-01 6.916925311088562012e-02
-2.872100174427032471e-01 3.352233767509460449e-02 1.974127739667892456e-01
-2.908881008625030518e-01 4.826277494430541992e-02 1.923316717147827148e-01
-2.916547954082489014e-01 2.727803215384483337e-02 2.080226838588714600e-01
-2.960005998611450195e-01 4.158314317464828491e-02 2.031499445438385010e-01
-6.675711274147033691e-02 -1.154668033123016357e-01 -9.273034334182739258e-02
-7.022393494844436646e-02 -9.689294546842575073e-02 -9.496993571519851685e-02
-6.297457963228225708e-02 -1.191513612866401672e-01 -7.504208385944366455e-02
-6.781323999166488647e-02 -1.013884842395782471e-01 -7.657612115144729614e-02
1.792476028203964233e-01 -6.027922779321670532e-02 2.419029325246810913e-01
1.753204464912414551e-01 -4.363839328289031982e-02 2.408119589090347290e-01
1.680808365345001221e-01 -7.285233587026596069e-02 2.443771660327911377e-01
1.645702123641967773e-01 -5.714764818549156189e-02 2.434529811143875122e-01
1.662916541099548340e-01 -2.570301592350006104e-01 3.715837299823760986e-01
1.575483232736587524e-01 -2.435348927974700928e-01 3.708665370941162109e-01
1.457645595073699951e-01 -2.602362334728240967e-01 3.809641897678375244e-01
1.392928808927536011e-01 -2.468383908271789551e-01 3.829784989356994629e-01
9.739550948143005371e-01 3.206009045243263245e-02 -6.316095590591430664e-02
9.676043391227722168e-01 4.872851073741912842e-02 -6.623909622430801392e-02
9.619144797325134277e-01 1.863197609782218933e-02 -5.629575252532958984e-02
9.549130797386169434e-01 3.552906215190887451e-02 -5.926055088639259338e-02
3.731483593583106995e-04 -3.178448081016540527e-01 -3.080898523330688477e-01
-5.940661765635013580e-03 -3.049700558185577393e-01 -3.136962354183197021e-01
-6.597633007913827896e-03 -3.253319561481475830e-01 -2.980917096138000488e-01
-1.463401131331920624e-02 -3.127548992633819580e-01 -3.036056458950042725e-01
4.930563271045684814e-01 3.574047386646270752e-01 1.223217323422431946e-01
4.892036318778991699e-01 3.754143118858337402e-01 1.196025907993316650e-01
4.896982908248901367e-01 3.486099243164062500e-01 1.336804032325744629e-01
4.847161173820495605e-01 3.673709332942962646e-01 1.303754150867462158e-01
-3.442690148949623108e-02 -2.368496805429458618e-01 -2.691011726856231689e-01
-4.123980551958084106e-02 -2.185998857021331787e-01 -2.709921896457672119e-01
-3.080348297953605652e-02 -2.418379336595535278e-01 -2.473113685846328735e-01
-3.906063362956047058e-02 -2.229145318269729614e-01 -2.529611289501190186e-01
-3.979597389698028564e-01 3.306165039539337158e-01 8.118792437016963959e-03
-4.016006290912628174e-01 3.496925532817840576e-01 4.018222913146018982e-03
-3.880008757114410400e-01 3.142465353012084961e-01 2.943804487586021423e-02
-3.904653787612915039e-01 3.316596448421478271e-01 2.521466836333274841e-02
-2.846504151821136475e-01 1.610316038131713867e-01 2.337984889745712280e-01
-2.916630804538726807e-01 1.834792196750640869e-01 2.327663600444793701e-01
-2.799218297004699707e-01 1.650397926568984985e-01 2.539224624633789062e-01
-2.855059206485748291e-01 1.868399828672409058e-01 2.535532414913177490e-01
-3.442868292331695557e-01 1.980560123920440674e-01 1.311412155628204346e-01
-3.501230180263519287e-01 2.215210795402526855e-01 1.244354546070098877e-01
-3.391243815422058105e-01 1.796021461486816406e-01 1.515551209449768066e-01
-3.450050652027130127e-01 2.030353099107742310e-01 1.439194083213806152e-01
-2.794300019741058350e-01 8.968817442655563354e-02 1.470314413309097290e-01
-2.912999093532562256e-01 9.444200992584228516e-02 1.429043859243392944e-01
-2.891334295272827148e-01 8.413632214069366455e-02 1.586842834949493408e-01
-3.003903925418853760e-01 8.958548307418823242e-02 1.534720212221145630e-01
-5.056608915328979492e-01 -4.139752984046936035e-01 1.756803840398788452e-01
-5.050960779190063477e-01 -4.025230705738067627e-01 1.751416325569152832e-01
-5.156250596046447754e-01 -4.194816648960113525e-01 1.889311075210571289e-01
-5.150476098060607910e-01 -4.063490629196166992e-01 1.893722712993621826e-01
2.204851210117340088e-01 -2.094346731901168823e-01 1.096227020025253296e-01
2.189032286405563354e-01 -1.951927393674850464e-01 1.029378622770309448e-01
2.285876572132110596e-01 -2.118280827999114990e-01 1.302945315837860107e-01
2.282011061906814575e-01 -1.961767524480819702e-01 1.257365345954895020e-01
5.310699716210365295e-02 -1.869255602359771729e-01 -2.863406240940093994e-01
5.482301115989685059e-02 -1.684793531894683838e-01 -2.877962887287139893e-01
6.315039098262786865e-02 -1.905355006456375122e-01 -2.672892808914184570e-01
6.514576077461242676e-02 -1.726009249687194824e-01 -2.685351073741912842e-01
-4.226319193840026855e-01 4.564577713608741760e-02 1.648258864879608154e-01
-4.321002960205078125e-01 5.374872311949729919e-02 1.624214649200439453e-01
-4.263144135475158691e-01 4.352729767560958862e-02 1.820515245199203491e-01
-4.399046897888183594e-01 4.955149069428443909e-02 1.776935905218124390e-01
8.209353685379028320e-01 6.103402003645896912e-02 7.664568722248077393e-02
8.093726634979248047e-01 7.914626598358154297e-02 7.569379359483718872e-02
8.070148825645446777e-01 5.355350673198699951e-02 8.366864174604415894e-02
7.966781258583068848e-01 7.157509773969650269e-02 8.245303481817245483e-02
-6.811661645770072937e-03 2.146742194890975952e-01 2.599074319005012512e-02
-5.955825559794902802e-03 2.304162532091140747e-01 2.175660803914070129e-02
-6.682765670120716095e-03 2.086743116378784180e-01 4.295424371957778931e-02
-5.912445951253175735e-03 2.248930335044860840e-01 3.920482844114303589e-02
8.285937309265136719e-01 2.264553308486938477e-01 -4.507717490196228027e-02
8.236096501350402832e-01 2.395838350057601929e-01 -4.676958173513412476e-02
8.218017220497131348e-01 2.201313227415084839e-01 -3.975087404251098633e-02
8.180747628211975098e-01 2.315006107091903687e-01 -4.212787002325057983e-02
2.394564151763916016e-01 3.659776747226715088e-01 -3.561225831508636475e-01
2.268449068069458008e-01 3.749325275421142578e-01 -3.560415804386138916e-01
2.304067462682723999e-01 3.620786964893341064e-01 -3.413466215133666992e-01
2.186422199010848999e-01 3.713725507259368896e-01 -3.395710289478302002e-01
1.066954433917999268e-01 3.534878790378570557e-01 -1.201738491654396057e-01
9.809814393520355225e-02 3.617857098579406738e-01 -1.203224137425422668e-01
1.018405258655548096e-01 3.591161668300628662e-01 -1.080032363533973694e-01
9.304061532020568848e-02 3.674423396587371826e-01 -1.079230383038520813e-01
3.129206895828247070e-01 5.019837059080600739e-03 2.421649694442749023e-01
3.110215365886688232e-01 2.061221003532409668e-02 2.415223717689514160e-01
3.002842068672180176e-01 6.545218639075756073e-04 2.512232959270477295e-01
2.988121211528778076e-01 1.601793617010116577e-02 2.506236433982849121e-01
1.114311337471008301e+00 1.074282601475715637e-01 -1.325786113739013672e-01
1.108889579772949219e+00 1.300342381000518799e-01 -1.348407268524169922e-01
1.104867100715637207e+00 9.173337370157241821e-02 -1.256367117166519165e-01
1.099042773246765137e+00 1.162544414401054382e-01 -1.274787634611129761e-01
1.344456523656845093e-01 -4.085849821567535400e-01 -1.885736174881458282e-02
1.197884231805801392e-01 -4.056296944618225098e-01 -2.327736280858516693e-02
1.265179216861724854e-01 -4.099474549293518066e-01 -1.493833260610699654e-03
1.124955117702484131e-01 -4.056840538978576660e-01 -6.195251829922199249e-03
5.785138607025146484e-01 3.381604254245758057e-01 2.150632627308368683e-02
5.584966540336608887e-01 3.395555317401885986e-01 2.100937627255916595e-02
5.695156455039978027e-01 3.392163515090942383e-01 3.298510238528251648e-02
5.522033572196960449e-01 3.424414098262786865e-01 3.316222131252288818e-02
4.219696670770645142e-02 1.756617873907089233e-01 -3.678231835365295410e-01
4.075805097818374634e-02 1.902529597282409668e-01 -3.705349266529083252e-01
4.955107346177101135e-02 1.687246859073638916e-01 -3.575139045715332031e-01
4.881147667765617371e-02 1.836681663990020752e-01 -3.602743744850158691e-01
1.672410815954208374e-01 -7.721415907144546509e-02 2.465835213661193848e-01
1.638327240943908691e-01 -6.177465990185737610e-02 2.458610832691192627e-01
1.558680385351181030e-01 -8.460398018360137939e-02 2.482026219367980957e-01
1.509936004877090454e-01 -7.049951702356338501e-02 2.473486065864562988e-01
4.179079532623291016e-01 -1.758860051631927490e-01 2.139314115047454834e-01
4.226788878440856934e-01 -1.556961834430694580e-01 2.118602097034454346e-01
4.003244042396545410e-01 -1.830263435840606689e-01 2.265688031911849976e-01
4.051556885242462158e-01 -1.627508401870727539e-01 2.246432751417160034e-01
1.893814206123352051e-01 -1.627459749579429626e-02 2.343792319297790527e-01
1.870224624872207642e-01 -8.845594711601734161e-04 2.337576150894165039e-01
1.782212555408477783e-01 -2.537872083485126495e-02 2.387328743934631348e-01
1.767153590917587280e-01 -1.034331694245338440e-02 2.386718392372131348e-01
2.595394253730773926e-01 2.012662291526794434e-01 3.482499420642852783e-01
2.523973882198333740e-01 2.189825773239135742e-01 3.469323217868804932e-01
2.417697012424468994e-01 1.871839165687561035e-01 3.573626577854156494e-01
2.356135547161102295e-01 2.061425298452377319e-01 3.555665314197540283e-01
-2.185212075710296631e-02 2.281376272439956665e-01 -3.670045435428619385e-01
-1.998404227197170258e-02 2.437282353639602661e-01 -3.729918897151947021e-01
-2.111890912055969238e-02 2.279028296470642090e-01 -3.509880006313323975e-01
-1.890705712139606476e-02 2.420630604028701782e-01 -3.569488525390625000e-01
1.113588213920593262e+00 -3.781534731388092041e-01 -3.577417507767677307e-02
1.113603711128234863e+00 -3.658247590065002441e-01 -4.093273729085922241e-02
1.104506969451904297e+00 -3.805031776428222656e-01 -1.614851877093315125e-02
1.103118181228637695e+00 -3.700583279132843018e-01 -1.982483081519603729e-02
5.042954683303833008e-01 3.757272958755493164e-01 -3.583382442593574524e-02
5.052675008773803711e-01 3.886656761169433594e-01 -4.224373400211334229e-02
5.055258870124816895e-01 3.734233677387237549e-01 -1.370724290609359741e-02
5.078812837600708008e-01 3.873199820518493652e-01 -2.101003564894199371e-02
3.113085776567459106e-02 2.973295748233795166e-01 -2.753502130508422852e-01
2.701776660978794098e-02 2.994575500488281250e-01 -2.889151871204376221e-01
2.948613464832305908e-02 2.966511249542236328e-01 -2.547925710678100586e-01
2.027955651283264160e-02 2.944177389144897461e-01 -2.684119343757629395e-01
-2.349596172571182251e-01 -1.260170713067054749e-03 1.506171822547912598e-01
-2.391760796308517456e-01 1.092004682868719101e-02 1.514806151390075684e-01
-2.499182820320129395e-01 -6.756568327546119690e-03 1.583625227212905884e-01
-2.523326873779296875e-01 5.850743036717176437e-03 1.585348397493362427e-01
1.365683972835540771e-01 2.139082401990890503e-01 2.176458686590194702e-01
1.308893859386444092e-01 2.324414253234863281e-01 2.130007296800613403e-01
1.179045438766479492e-01 1.971230059862136841e-01 2.192958593368530273e-01
1.119284331798553467e-01 2.168038040399551392e-01 2.143372148275375366e-01
-2.660601437091827393e-01 1.896339058876037598e-01 2.849663197994232178e-01
-2.730175554752349854e-01 2.118877917528152466e-01 2.874144017696380615e-01
-2.626891136169433594e-01 1.981985419988632202e-01 3.053864836692810059e-01
-2.732680737972259521e-01 2.229487001895904541e-01 3.070483803749084473e-01
2.275308668613433838e-01 -3.876253366470336914e-01 -2.980348765850067139e-01
2.151764482259750366e-01 -3.754502534866333008e-01 -2.998609542846679688e-01
2.127719521522521973e-01 -3.918631076812744141e-01 -2.829608023166656494e-01
2.004811614751815796e-01 -3.792614042758941650e-01 -2.849310338497161865e-01
1.531939655542373657e-01 3.382755219936370850e-01 -1.135655641555786133e-01
1.404106169939041138e-01 3.470105826854705811e-01 -1.195160225033760071e-01
1.571829617023468018e-01 3.406277596950531006e-01 -1.023493856191635132e-01
1.446150243282318115e-01 3.491801917552947998e-01 -1.077243685722351074e-01
6.011803448200225830e-02 -2.582424581050872803e-01 -1.152914166450500488e-01
3.470965474843978882e-02 -2.353168278932571411e-01 -1.095415800809860229e-01
6.297677755355834961e-02 -2.516129016876220703e-01 -9.043404459953308105e-02
3.703546151518821716e-02 -2.282732874155044556e-01 -8.419319987297058105e-02
3.585473001003265381e-01 3.279025256633758545e-01 -3.361310064792633057e-01
3.511501550674438477e-01 3.460911214351654053e-01 -3.391140103340148926e-01
3.704328536987304688e-01 3.299531042575836182e-01 -3.217532336711883545e-01
3.641993105411529541e-01 3.476602435111999512e-01 -3.244278430938720703e-01
1.517353951930999756e-01 -1.017197221517562866e-02 -1.031330749392509460e-01
1.482853740453720093e-01 7.922079414129257202e-03 -1.127441301941871643e-01
1.608333587646484375e-01 -8.622860535979270935e-03 -8.205521106719970703e-02
1.579971909523010254e-01 8.888716809451580048e-03 -9.225945174694061279e-02
-5.293667316436767578e-01 -5.458249943330883980e-04 -2.023786753416061401e-01
-5.474555492401123047e-01 5.321337375789880753e-03 -2.106089890003204346e-01
-5.218157172203063965e-01 -4.344264976680278778e-03 -1.881241053342819214e-01
-5.390275716781616211e-01 7.476957980543375015e-03 -1.948901712894439697e-01
1.468265354633331299e-01 -2.313332706689834595e-01 4.226237833499908447e-01
1.425995975732803345e-01 -2.177412956953048706e-01 4.299608469009399414e-01
1.290269643068313599e-01 -2.343298643827438354e-01 4.292157888412475586e-01
1.220220625400543213e-01 -2.196735739707946777e-01 4.328086972236633301e-01
2.104828506708145142e-01 1.023429408669471741e-01 2.171613276004791260e-01
1.981289535760879517e-01 1.189446002244949341e-01 2.147670239210128784e-01
2.010800093412399292e-01 9.152752161026000977e-02 2.242657989263534546e-01
1.889443993568420410e-01 1.087377592921257019e-01 2.233202457427978516e-01
-3.351280391216278076e-01 -2.031396627426147461e-01 6.812193989753723145e-01
-3.500545024871826172e-01 -1.924338191747665405e-01 6.831754446029663086e-01
-3.347834944725036621e-01 -1.982442289590835571e-01 6.916221380233764648e-01
-3.495823144912719727e-01 -1.876293867826461792e-01 6.934410929679870605e-01
5.185110494494438171e-02 6.785371899604797363e-02 -3.262659907341003418e-01
5.284563824534416199e-02 8.389896154403686523e-02 -3.282759487628936768e-01
6.285056471824645996e-02 6.250444054603576660e-02 -3.093645274639129639e-01
6.442434340715408325e-02 7.990866154432296753e-02 -3.113169968128204346e-01
1.354116201400756836e-01 1.964701265096664429e-01 -1.810765266418457031e-01
1.328237950801849365e-01 2.166261672973632812e-01 -1.901116967201232910e-01
1.419612914323806763e-01 1.934315711259841919e-01 -1.650333106517791748e-01
1.396570056676864624e-01 2.153794020414352417e-01 -1.733212769031524658e-01
-6.172166466712951660e-01 2.943188510835170746e-02 -2.370763868093490601e-01
-6.305254101753234863e-01 2.852718532085418701e-02 -2.417288273572921753e-01
-6.213525533676147461e-01 3.126552700996398926e-02 -2.291222661733627319e-01
-6.339990496635437012e-01 3.028448671102523804e-02 -2.346853762865066528e-01
-6.297893524169921875e-01 -9.393861982971429825e-04 -1.494143903255462646e-01
-6.417302489280700684e-01 3.598001785576343536e-03 -1.500090509653091431e-01
-6.356734633445739746e-01 -3.651265520602464676e-03 -1.423871219158172607e-01
-6.489796042442321777e-01 7.696119719184935093e-04 -1.428547650575637817e-01
-5.752995610237121582e-01 -4.370258748531341553e-01 1.739400625228881836e-01
-5.914204716682434082e-01 -4.334463775157928467e-01 1.705430150032043457e-01
-5.723802447319030762e-01 -4.365452527999877930e-01 1.900591254234313965e-01
-5.897116065025329590e-01 -4.332529306411743164e-01 1.876799017190933228e-01
3.219033405184745789e-02 1.277076750993728638e-01 1.949215680360794067e-01
1.973587833344936371e-02 1.268531680107116699e-01 1.827937513589859009e-01
3.442781046032905579e-02 1.199856400489807129e-01 2.123243957757949829e-01
2.219423465430736542e-02 1.190191432833671570e-01 2.000631541013717651e-01
7.027548551559448242e-02 -1.537839770317077637e-01 -2.573475837707519531e-01
7.255905121564865112e-02 -1.351331472396850586e-01 -2.587091922760009766e-01
8.145050704479217529e-02 -1.552751064300537109e-01 -2.403243035078048706e-01
8.338999748229980469e-02 -1.379248052835464478e-01 -2.417165189981460571e-01
1.049680471420288086e+00 2.325389087200164795e-01 -1.346497833728790283e-01
1.042963027954101562e+00 2.463860362768173218e-01 -1.368940770626068115e-01
1.038860559463500977e+00 2.228624224662780762e-01 -1.276605576276779175e-01
1.032672405242919922e+00 2.361882328987121582e-01 -1.299989372491836548e-01
2.889795899391174316e-01 6.901580095291137695e-02 2.174330204725265503e-01
2.915275692939758301e-01 8.597238361835479736e-02 2.178050577640533447e-01
2.870395481586456299e-01 6.547723710536956787e-02 2.257318049669265747e-01
2.873765826225280762e-01 8.161444216966629028e-02 2.251034826040267944e-01
-1.566082686185836792e-01 -2.103871852159500122e-02 9.229502081871032715e-02
-1.669799387454986572e-01 -1.445231959223747253e-02 9.369862079620361328e-02
-1.601813733577728271e-01 -2.172891795635223389e-02 1.024048402905464172e-01
-1.703913360834121704e-01 -1.509890705347061157e-02 1.039441749453544617e-01
4.810678958892822266e-01 3.897192329168319702e-02 2.280493378639221191e-01
4.771974980831146240e-01 5.901223421096801758e-02 2.279844284057617188e-01
4.617202877998352051e-01 2.837908267974853516e-02 2.422024458646774292e-01
4.622718691825866699e-01 4.857099428772926331e-02 2.397970557212829590e-01
7.001159191131591797e-01 1.861374676227569580e-01 9.043148159980773926e-02
6.907514929771423340e-01 2.034484148025512695e-01 8.901529759168624878e-02
6.862301826477050781e-01 1.754858195781707764e-01 9.967865049839019775e-02
6.756849288940429688e-01 1.931459754705429077e-01 9.842163324356079102e-02
2.307339906692504883e-01 3.371813297271728516e-01 -3.553820848464965820e-01
2.201756387948989868e-01 3.478370308876037598e-01 -3.482126891613006592e-01
2.240606248378753662e-01 3.357596993446350098e-01 -3.424819707870483398e-01
2.162075787782669067e-01 3.457275629043579102e-01 -3.338964581489562988e-01
2.929887473583221436e-01 -5.308073759078979492e-02 2.376031577587127686e-01
2.920930385589599609e-01 -3.847049549221992493e-02 2.374128401279449463e-01
2.885526418685913086e-01 -5.845051258802413940e-02 2.456526607275009155e-01
2.877738773822784424e-01 -4.380521550774574280e-02 2.460242062807083130e-01
1.148627758026123047e+00 2.128101289272308350e-01 -9.769783169031143188e-02
1.147811651229858398e+00 2.293212264776229858e-01 -9.980948269367218018e-02
1.146821141242980957e+00 2.030124515295028687e-01 -8.468399941921234131e-02
1.145981907844543457e+00 2.218480706214904785e-01 -8.817299455404281616e-02
2.822456955909729004e-01 2.363938987255096436e-01 2.360149025917053223e-01
2.807573974132537842e-01 2.529310584068298340e-01 2.374469637870788574e-01
2.750670909881591797e-01 2.314938753843307495e-01 2.471145838499069214e-01
2.739722132682800293e-01 2.468441128730773926e-01 2.495047301054000854e-01
7.452394068241119385e-02 1.583238542079925537e-01 1.686392724514007568e-01
6.591518968343734741e-02 1.577353328466415405e-01 1.605376154184341431e-01
7.934614270925521851e-02 1.515318304300308228e-01 1.908406615257263184e-01
6.786056607961654663e-02 1.512298285961151123e-01 1.822633445262908936e-01
8.571010828018188477e-01 -3.261988982558250427e-02 7.742663472890853882e-02
8.494065403938293457e-01 -1.286756619811058044e-02 7.645806670188903809e-02
8.403982520103454590e-01 -4.225231707096099854e-02 8.303683996200561523e-02
8.348219394683837891e-01 -2.447931282222270966e-02 8.164739608764648438e-02
7.120130658149719238e-01 3.085980713367462158e-01 5.360475927591323853e-02
6.990663409233093262e-01 3.233142495155334473e-01 5.022897198796272278e-02
6.973087191581726074e-01 2.915653288364410400e-01 6.471348553895950317e-02
6.853777766227722168e-01 3.069036900997161865e-01 6.053310260176658630e-02
3.148949518799781799e-02 2.458668649196624756e-01 1.049755066633224487e-01
3.243175148963928223e-02 2.625459730625152588e-01 1.050026267766952515e-01
3.783319890499114990e-02 2.424549162387847900e-01 1.209276244044303894e-01
3.850487619638442993e-02 2.595660090446472168e-01 1.206663623452186584e-01
7.985802888870239258e-01 1.681607961654663086e-01 -1.967993937432765961e-02
7.910373210906982422e-01 1.794158071279525757e-01 -2.033889479935169220e-02
7.880898714065551758e-01 1.640796065330505371e-01 -1.408109348267316818e-02
7.797726392745971680e-01 1.759002059698104858e-01 -1.436849869787693024e-02
5.379791855812072754e-01 -7.366225123405456543e-02 1.154313758015632629e-01
5.382987856864929199e-01 -5.561547353863716125e-02 1.143258363008499146e-01
5.169225335121154785e-01 -8.187924325466156006e-02 1.248826980590820312e-01
5.165649652481079102e-01 -6.400176882743835449e-02 1.238680109381675720e-01
8.397607505321502686e-02 1.356697678565979004e-01 1.254825294017791748e-01
7.885109633207321167e-02 1.379165500402450562e-01 1.202853322029113770e-01
8.031730353832244873e-02 1.317772120237350464e-01 1.385661661624908447e-01
7.019513845443725586e-02 1.310640573501586914e-01 1.308700740337371826e-01
-2.995298802852630615e-01 3.377173244953155518e-01 5.314631462097167969e-01
-3.137753605842590332e-01 3.450480103492736816e-01 5.286843776702880859e-01
-3.070639669895172119e-01 3.361650407314300537e-01 5.463212728500366211e-01
-3.207369446754455566e-01 3.437750935554504395e-01 5.438815951347351074e-01
7.953577041625976562e-01 2.282316386699676514e-01 -3.150436654686927795e-02
7.926175594329833984e-01 2.415809333324432373e-01 -3.390648216009140015e-02
7.848978638648986816e-01 2.197674065828323364e-01 -2.522553130984306335e-02
7.827340960502624512e-01 2.329680025577545166e-01 -2.792178653180599213e-02
8.209703564643859863e-01 2.372174263000488281e-01 -4.524644464254379272e-02
8.154477477073669434e-01 2.514767646789550781e-01 -4.662198945879936218e-02
8.146608471870422363e-01 2.311614453792572021e-01 -3.960136696696281433e-02
8.101845383644104004e-01 2.442421317100524902e-01 -4.122637212276458740e-02
5.660979151725769043e-01 1.081435382366180420e-01 1.512755453586578369e-01
5.635842680931091309e-01 1.299482882022857666e-01 1.494523584842681885e-01
5.504611134529113770e-01 9.462122619152069092e-02 1.613296866416931152e-01
5.466290712356567383e-01 1.182828545570373535e-01 1.607841104269027710e-01
8.819773793220520020e-02 1.810476183891296387e-01 1.158640235662460327e-01
9.533167630434036255e-02 1.914181262254714966e-01 1.121806353330612183e-01
8.063318580389022827e-02 1.709894984960556030e-01 1.311003863811492920e-01
8.840349316596984863e-02 1.826533675193786621e-01 1.253538876771926880e-01
1.058648303151130676e-01 2.411556243896484375e-01 -9.823286673054099083e-04
1.047906056046485901e-01 2.591881155967712402e-01 -8.187113329768180847e-03
1.127318143844604492e-01 2.436190694570541382e-01 1.644317060708999634e-02
1.111094504594802856e-01 2.623899579048156738e-01 9.326616302132606506e-03
1.725043654441833496e-01 8.142080157995223999e-02 2.962561845779418945e-01
1.706977635622024536e-01 9.961491078138351440e-02 2.975285947322845459e-01
1.710500121116638184e-01 7.836763560771942139e-02 3.065561056137084961e-01
1.699728220701217651e-01 9.636117517948150635e-02 3.080153763294219971e-01
4.713928699493408203e-01 -4.770768433809280396e-02 1.571924984455108643e-01
4.673134982585906982e-01 -2.910105697810649872e-02 1.577383279800415039e-01
4.536872208118438721e-01 -4.933028668165206909e-02 1.734180301427841187e-01
4.487047195434570312e-01 -3.063037991523742676e-02 1.741557419300079346e-01
1.495983749628067017e-01 2.147281020879745483e-01 -1.506201922893524170e-01
1.473520994186401367e-01 2.379560023546218872e-01 -1.591019183397293091e-01
1.568559855222702026e-01 2.135853767395019531e-01 -1.326264590024948120e-01
1.546132564544677734e-01 2.349147498607635498e-01 -1.416015923023223877e-01
2.971751801669597626e-02 3.093828558921813965e-01 8.801444619894027710e-02
3.232026845216751099e-02 3.280149400234222412e-01 8.645945787429809570e-02
3.747678548097610474e-02 3.043058216571807861e-01 1.052527278661727905e-01
3.912617638707160950e-02 3.237535357475280762e-01 1.028578132390975952e-01
1.978943310678005219e-02 -1.775841861963272095e-01 -2.475115470588207245e-04
8.897667750716209412e-03 -1.686173975467681885e-01 -9.332954883575439453e-03
2.777673862874507904e-02 -1.763230860233306885e-01 1.975706592202186584e-02
1.825099997222423553e-02 -1.655311882495880127e-01 1.209680363535881042e-02
9.366333484649658203e-01 3.029892742633819580e-01 -1.156586632132530212e-01
9.306839108467102051e-01 3.180339038372039795e-01 -1.151503920555114746e-01
9.215772747993469238e-01 2.983350157737731934e-01 -1.078911721706390381e-01
9.159277081489562988e-01 3.126985430717468262e-01 -1.071146130561828613e-01
8.862537145614624023e-01 -1.662564873695373535e-01 -1.168639305979013443e-02
8.877034187316894531e-01 -1.452377587556838989e-01 -1.160084363073110580e-02
8.732395172119140625e-01 -1.774128675460815430e-01 -7.483670487999916077e-03
8.731064796447753906e-01 -1.567613482475280762e-01 -7.759969681501388550e-03
-8.058344945311546326e-03 -2.248758226633071899e-01 -2.558412253856658936e-01
-1.494359597563743591e-02 -2.071279585361480713e-01 -2.597799599170684814e-01
-7.683635689318180084e-03 -2.302343696355819702e-01 -2.287173718214035034e-01
-1.651686243712902069e-02 -2.100586444139480591e-01 -2.374341338872909546e-01
2.149231135845184326e-01 3.252328336238861084e-01 2.763855755329132080e-01
2.176683992147445679e-01 3.440213799476623535e-01 2.734211683273315430e-01
2.020003348588943481e-01 3.137309849262237549e-01 2.882617413997650146e-01
2.014713138341903687e-01 3.324466645717620850e-01 2.842901945114135742e-01
1.149841427803039551e+00 1.788632944226264954e-02 -1.144884601235389709e-01
1.142103314399719238e+00 3.641533851623535156e-02 -1.164660453796386719e-01
1.142030715942382812e+00 5.924037657678127289e-03 -1.072260588407516479e-01
1.135630726814270020e+00 2.503198757767677307e-02 -1.098339110612869263e-01
6.661921739578247070e-01 -2.482013106346130371e-01 1.436357200145721436e-01
6.539114713668823242e-01 -2.288195341825485229e-01 1.495067775249481201e-01
6.479015350341796875e-01 -2.499289214611053467e-01 1.486936360597610474e-01
6.342147588729858398e-01 -2.304152846336364746e-01 1.543947011232376099e-01
-5.304582118988037109e-01 -4.190450906753540039e-01 1.181381195783615112e-01
-5.378429293632507324e-01 -4.090658128261566162e-01 1.134203225374221802e-01
-5.360516905784606934e-01 -4.245230257511138916e-01 1.296902447938919067e-01
-5.433135032653808594e-01 -4.140891730785369873e-01 1.251108497381210327e-01
5.862256884574890137e-01 1.434072703123092651e-01 6.936490535736083984e-02
5.828837752342224121e-01 1.629194021224975586e-01 6.749088317155838013e-02
5.705332159996032715e-01 1.315953284502029419e-01 7.633570581674575806e-02
5.699514746665954590e-01 1.524005234241485596e-01 7.349006086587905884e-02
4.473655223846435547e-01 3.492242991924285889e-01 -1.654490828514099121e-01
4.402025938034057617e-01 3.683509230613708496e-01 -1.697313040494918823e-01
4.548567533493041992e-01 3.473747074604034424e-01 -1.406536251306533813e-01
4.514499008655548096e-01 3.664402067661285400e-01 -1.455231606960296631e-01
1.003337979316711426e+00 7.280015945434570312e-02 -8.094749599695205688e-02
1.001952648162841797e+00 9.574326872825622559e-02 -8.355305343866348267e-02
9.901534914970397949e-01 5.951061844825744629e-02 -7.303132116794586182e-02
9.873620867729187012e-01 8.089324831962585449e-02 -7.582283765077590942e-02
1.929407268762588501e-01 -1.962631642818450928e-01 2.463487088680267334e-01
1.842362880706787109e-01 -1.850052922964096069e-01 2.456489056348800659e-01
1.955909729003906250e-01 -1.875854134559631348e-01 2.627976238727569580e-01
1.876412332057952881e-01 -1.754936426877975464e-01 2.624799609184265137e-01
7.290282249450683594e-01 -2.494643628597259521e-01 1.216908469796180725e-01
7.273279428482055664e-01 -2.311685383319854736e-01 1.251572966575622559e-01
7.156992554664611816e-01 -2.586177587509155273e-01 1.236594095826148987e-01
7.128482460975646973e-01 -2.398028373718261719e-01 1.274808943271636963e-01
-4.873632788658142090e-01 4.427675008773803711e-01 3.426944091916084290e-02
-5.030305981636047363e-01 4.475311040878295898e-01 3.131622076034545898e-02
-4.964092969894409180e-01 4.432829618453979492e-01 4.906478896737098694e-02
-5.104235410690307617e-01 4.498827457427978516e-01 4.734911397099494934e-02
1.400621533393859863e-01 3.466972112655639648e-01 -1.131977513432502747e-01
1.277322024106979370e-01 3.557937443256378174e-01 -1.178868263959884644e-01
1.400551199913024902e-01 3.500405848026275635e-01 -1.018835157155990601e-01
1.275135874748229980e-01 3.589298725128173828e-01 -1.066072881221771240e-01
9.858365058898925781e-01 1.669755131006240845e-01 -9.188617020845413208e-02
9.834827780723571777e-01 1.796401143074035645e-01 -9.411010146141052246e-02
9.693145155906677246e-01 1.567127704620361328e-01 -8.588766306638717651e-02
9.672103524208068848e-01 1.702118068933486938e-01 -8.864776790142059326e-02
-5.015772581100463867e-01 4.977976083755493164e-01 7.277309894561767578e-02
-5.177732706069946289e-01 5.064769387245178223e-01 7.543581724166870117e-02
-5.169107317924499512e-01 4.995071291923522949e-01 7.999705523252487183e-02
-5.317251086235046387e-01 5.086742043495178223e-01 8.110380917787551880e-02
7.962069511413574219e-01 -3.701847493648529053e-01 1.499922201037406921e-02
7.811188101768493652e-01 -3.650917410850524902e-01 8.515620604157447815e-03
7.951083779335021973e-01 -3.720767498016357422e-01 3.093171864748001099e-02
7.798860669136047363e-01 -3.673601448535919189e-01 2.478497847914695740e-02
3.226141259074211121e-02 7.067744433879852295e-02 2.468802034854888916e-01
2.871664799749851227e-02 8.562073856592178345e-02 2.456572353839874268e-01
3.177599608898162842e-02 6.267850100994110107e-02 2.573999464511871338e-01
2.709931507706642151e-02 7.720675319433212280e-02 2.558640539646148682e-01
-3.336226940155029297e-01 4.138907194137573242e-01 6.030567884445190430e-01
-3.476673662662506104e-01 4.217066466808319092e-01 5.945981740951538086e-01
-3.362325727939605713e-01 4.065342545509338379e-01 6.155285239219665527e-01
-3.500809073448181152e-01 4.141481220722198486e-01 6.085270643234252930e-01
6.874061822891235352e-01 3.984164446592330933e-02 4.561553150415420532e-02
6.858070492744445801e-01 5.534331500530242920e-02 4.403355345129966736e-02
6.708486676216125488e-01 2.979346737265586853e-02 5.222140252590179443e-02
6.712082028388977051e-01 4.539706557989120483e-02 5.145897716283798218e-02
3.106494843959808350e-01 1.532182563096284866e-02 2.682909667491912842e-01
3.083410859107971191e-01 3.098870813846588135e-02 2.674614787101745605e-01
2.974449098110198975e-01 7.693045772612094879e-03 2.758982181549072266e-01
2.956658899784088135e-01 2.293995767831802368e-02 2.749394774436950684e-01
-6.309841573238372803e-02 -1.676856875419616699e-01 -1.120321005582809448e-01
-7.059248536825180054e-02 -1.494729071855545044e-01 -1.175693795084953308e-01
-5.749877542257308960e-02 -1.674855500459671021e-01 -9.192983061075210571e-02
-6.685481220483779907e-02 -1.487652808427810669e-01 -9.585426002740859985e-02
1.612930595874786377e-01 1.663212925195693970e-01 -1.127888113260269165e-01
1.615281701087951660e-01 1.848980784416198730e-01 -1.168888211250305176e-01
1.689676642417907715e-01 1.634746789932250977e-01 -9.439731389284133911e-02
1.694013476371765137e-01 1.825127601623535156e-01 -9.653654694557189941e-02
2.418276071548461914e-01 8.040845394134521484e-02 1.080822348594665527e-01
2.375184893608093262e-01 9.501416981220245361e-02 9.842366725206375122e-02
2.507254779338836670e-01 8.045469969511032104e-02 1.274084299802780151e-01
2.465137392282485962e-01 9.451068192720413208e-02 1.174798682332038879e-01
-3.009180724620819092e-01 -5.447986721992492676e-02 2.411238849163055420e-01
-3.002357184886932373e-01 -3.628112003207206726e-02 2.413247376680374146e-01
-3.023724853992462158e-01 -5.556427687406539917e-02 2.573155462741851807e-01
-3.027876615524291992e-01 -3.633856773376464844e-02 2.573775649070739746e-01
5.675914883613586426e-01 -1.612014621496200562e-01 1.122943013906478882e-01
5.639313459396362305e-01 -1.416555047035217285e-01 1.131710410118103027e-01
5.498406291007995605e-01 -1.694683730602264404e-01 1.181990727782249451e-01
5.453339815139770508e-01 -1.503783762454986572e-01 1.202557384967803955e-01
3.470413759350776672e-02 8.228095248341560364e-04 -3.499250411987304688e-01
2.135873399674892426e-02 1.205665990710258484e-02 -3.572648763656616211e-01
3.531763330101966858e-02 -1.142461597919464111e-02 -3.426103889942169189e-01
2.179868146777153015e-02 1.328585203737020493e-04 -3.510951101779937744e-01
-3.594683408737182617e-01 2.544962763786315918e-01 4.799660295248031616e-02
-3.593675792217254639e-01 2.715135514736175537e-01 4.707060754299163818e-02
-3.522948920726776123e-01 2.429727464914321899e-01 6.312488764524459839e-02
-3.526178598403930664e-01 2.614350318908691406e-01 6.110025942325592041e-02
1.741743236780166626e-01 1.357095092535018921e-01 2.218606323003768921e-01
1.652370393276214600e-01 1.519590765237808228e-01 2.179725468158721924e-01
1.593961566686630249e-01 1.202730908989906311e-01 2.271647155284881592e-01
1.491167545318603516e-01 1.343176364898681641e-01 2.211174368858337402e-01
3.821564316749572754e-01 1.664815247058868408e-01 2.834490835666656494e-01
3.770435750484466553e-01 1.877676248550415039e-01 2.824845612049102783e-01
3.622291386127471924e-01 1.587516665458679199e-01 2.972768545150756836e-01
3.576657176017761230e-01 1.803925484418869019e-01 2.956278622150421143e-01
6.404833197593688965e-01 -9.605867788195610046e-03 6.760010123252868652e-02
6.383030414581298828e-01 1.030608359724283218e-02 6.758703291416168213e-02
6.248201727867126465e-01 -1.905418559908866882e-02 7.343186438083648682e-02
