-1.913791447877883911e-01 -1.189830526709556580e-01 1.834931671619415283e-01
-2.087735682725906372e-01 -1.131398379802703857e-01 1.800999194383621216e-01
4.611665010452270508e-01 1.616663485765457153e-01 2.323291637003421783e-02
4.586675167083740234e-01 1.756113469600677490e-01 2.224968746304512024e-02
4.445880651473999023e-01 1.517987251281738281e-01 2.687625586986541748e-02
4.431823492050170898e-01 1.695217490196228027e-01 2.681159414350986481e-02
3.653348088264465332e-01 1.739518642425537109e-01 -9.387558698654174805e-02
3.571161627769470215e-01 1.755319386720657349e-01 -9.669477492570877075e-02
3.666944801807403564e-01 1.754085868597030640e-01 -8.396677672863006592e-02
3.579269051551818848e-01 1.770401746034622192e-01 -8.683624118566513062e-02
9.924716502428054810e-02 -1.852676272392272949e-01 4.573639482259750366e-02
8.874412626028060913e-02 -1.704975366592407227e-01 4.977270960807800293e-02
8.745499700307846069e-02 -1.854948401451110840e-01 5.303972959518432617e-02
7.695879042148590088e-02 -1.715256273746490479e-01 5.712652951478958130e-02
-3.687360882759094238e-01 2.942018210887908936e-01 5.370872467756271362e-02
-3.777731657028198242e-01 3.055506944656372070e-01 5.272256955504417419e-02
-3.797298967838287354e-01 2.878243327140808105e-01 5.465978756546974182e-02
-3.876779377460479736e-01 2.997510731220245361e-01 5.375056341290473938e-02
2.103474438190460205e-01 1.536117866635322571e-03 2.423484437167644501e-02
1.960232108831405640e-01 1.670933887362480164e-02 2.259483747184276581e-02
1.934018284082412720e-01 -1.598726212978363037e-02 2.648931555449962616e-02
1.758689284324645996e-01 -4.011685494333505630e-03 2.295530214905738831e-02
1.987912803888320923e-01 2.307731062173843384e-01 -2.483294717967510223e-02
1.926760822534561157e-01 2.461356073617935181e-01 -2.517198771238327026e-02
1.812599748373031616e-01 2.216477096080780029e-01 -2.420808374881744385e-02
1.757228821516036987e-01 2.362864017486572266e-01 -2.526476979255676270e-02
-1.181417778134346008e-01 -3.041541017591953278e-02 6.986606121063232422e-02
-1.229114383459091187e-01 -1.466550957411527634e-02 7.062855362892150879e-02
-1.341960877180099487e-01 -3.641404956579208374e-02 7.006236910820007324e-02
-1.379516720771789551e-01 -2.177213504910469055e-02 7.013776153326034546e-02
5.948786810040473938e-02 -2.128414511680603027e-01 1.661986708641052246e-01
4.333750531077384949e-02 -2.113646566867828369e-01 1.617350280284881592e-01
5.143449828028678894e-02 -2.046713531017303467e-01 1.782274693250656128e-01
3.308905661106109619e-02 -2.017280161380767822e-01 1.753532141447067261e-01
2.441380172967910767e-03 -1.105293631553649902e-02 -1.264497339725494385e-01
-8.399238809943199158e-03 6.206988822668790817e-03 -1.270457953214645386e-01
-1.325421687215566635e-02 -2.455621212720870972e-02 -1.261925697326660156e-01
-2.606523409485816956e-02 -6.013322621583938599e-03 -1.274633854627609253e-01
4.617556929588317871e-02 1.110499054193496704e-01 -1.307176351547241211e-01
3.980533033609390259e-02 1.257960647344589233e-01 -1.296541839838027954e-01
3.589702025055885315e-02 1.029659807682037354e-01 -1.314434856176376343e-01
2.690056525170803070e-02 1.164141893386840820e-01 -1.308991163969039917e-01
3.286864757537841797e-01 1.449280530214309692e-01 1.822263598442077637e-01
3.191721439361572266e-01 1.566324681043624878e-01 1.808288246393203735e-01
3.148688971996307373e-01 1.333239972591400146e-01 1.808471083641052246e-01
3.060032427310943604e-01 1.453682035207748413e-01 1.803087592124938965e-01
6.370747685432434082e-01 1.227412298321723938e-01 -9.409552812576293945e-02
6.238599419593811035e-01 1.437983214855194092e-01 -9.585146605968475342e-02
6.383690834045410156e-01 1.237363293766975403e-01 -8.785181492567062378e-02
6.252899169921875000e-01 1.451857089996337891e-01 -8.977606892585754395e-02
-1.648161560297012329e-01 1.929768025875091553e-01 1.004468426108360291e-01
-1.809159815311431885e-01 2.021822631359100342e-01 1.001788824796676636e-01
-1.815460622310638428e-01 1.894813776016235352e-01 1.029932498931884766e-01
-1.989010870456695557e-01 1.974979490041732788e-01 1.015190780162811279e-01
5.714019536972045898e-01 -2.052603513002395630e-01 -2.118245698511600494e-02
5.581297874450683594e-01 -1.989727914333343506e-01 -2.512628957629203796e-02
5.685665011405944824e-01 -2.117321640253067017e-01 -1.017852034419775009e-02
5.555219054222106934e-01 -2.055529356002807617e-01 -1.389618124812841415e-02
-1.208546850830316544e-02 -2.311081886291503906e-01 5.503730848431587219e-02
-2.387997135519981384e-02 -2.261399477720260620e-01 5.201465636491775513e-02
-1.152542605996131897e-02 -2.267618179321289062e-01 6.633224338293075562e-02
-2.316186577081680298e-02 -2.214593589305877686e-01 6.359490007162094116e-02
-4.496733546257019043e-01 -2.086225338280200958e-02 -7.032689452171325684e-02
-4.474406838417053223e-01 -7.981926202774047852e-03 -7.553073763847351074e-02
-4.507198929786682129e-01 -2.336482144892215729e-02 -5.765543878078460693e-02
-4.497037529945373535e-01 -1.185435056686401367e-02 -6.180999428033828735e-02
-1.958103924989700317e-01 -1.280130296945571899e-01 2.637605182826519012e-03
-1.894542425870895386e-01 -1.059868335723876953e-01 8.062201552093029022e-03
-2.166179269552230835e-01 -1.315875947475433350e-01 2.529456280171871185e-03
-2.094673067331314087e-01 -1.103640869259834290e-01 8.033819496631622314e-03
-3.490689098834991455e-01 -1.373278945684432983e-01 -7.187795639038085938e-02
-3.536479473114013672e-01 -1.213513240218162537e-01 -6.770514696836471558e-02
-3.481651842594146729e-01 -1.387996524572372437e-01 -6.063269823789596558e-02
-3.529427349567413330e-01 -1.239207684993743896e-01 -5.806491151452064514e-02
-1.422231793403625488e-01 2.974763140082359314e-02 1.726580411195755005e-02
-1.512945592403411865e-01 4.541420191526412964e-02 1.771397329866886139e-02
-1.633570492267608643e-01 7.859437726438045502e-03 1.660012267529964447e-02
-1.708650738000869751e-01 2.248530462384223938e-02 1.597487740218639374e-02
3.724619448184967041e-01 1.731128543615341187e-01 -1.120700165629386902e-01
3.644495010375976562e-01 1.751847267150878906e-01 -1.150968596339225769e-01
3.722712397575378418e-01 1.736238151788711548e-01 -1.018264442682266235e-01
3.641089200973510742e-01 1.754785031080245972e-01 -1.047636792063713074e-01
-4.142987728118896484e-02 2.658336162567138672e-01 -1.329729855060577393e-01
-5.128394439816474915e-02 2.727755606174468994e-01 -1.371015757322311401e-01
-4.782466962933540344e-02 2.619934380054473877e-01 -1.166882812976837158e-01
-5.777476727962493896e-02 2.682891786098480225e-01 -1.211814954876899719e-01
4.328349232673645020e-01 -2.323835641145706177e-01 -1.575973778963088989e-01
4.254014790058135986e-01 -2.267086952924728394e-01 -1.615003645420074463e-01
4.241284728050231934e-01 -2.411615550518035889e-01 -1.539782434701919556e-01
4.158616364002227783e-01 -2.355292141437530518e-01 -1.584078371524810791e-01
3.255464434623718262e-01 -1.658695042133331299e-01 -1.213049441576004028e-01
3.043204247951507568e-01 -1.603527069091796875e-01 -1.252530068159103394e-01
3.228856921195983887e-01 -1.679006218910217285e-01 -1.106875836849212646e-01
3.019349575042724609e-01 -1.621331572532653809e-01 -1.146537959575653076e-01
3.914406299591064453e-01 9.472250193357467651e-02 -1.230867356061935425e-01
3.822128176689147949e-01 1.120330989360809326e-01 -1.240513548254966736e-01
3.746877312660217285e-01 8.046606183052062988e-02 -1.263913363218307495e-01
3.674598634243011475e-01 1.000798121094703674e-01 -1.268321126699447632e-01
1.582600027322769165e-01 -2.140361070632934570e-01 8.418036252260208130e-02
1.450632810592651367e-01 -2.053211778402328491e-01 8.471883833408355713e-02
1.526612043380737305e-01 -2.132520973682403564e-01 9.327383339405059814e-02
1.386566758155822754e-01 -2.058190554380416870e-01 9.226536005735397339e-02
7.042502164840698242e-01 -1.914891153573989868e-01 -4.417226091027259827e-02
7.032880187034606934e-01 -1.793728470802307129e-01 -3.876259177923202515e-02
6.999103426933288574e-01 -1.960834562778472900e-01 -3.495638817548751831e-02
6.990849971771240234e-01 -1.839933544397354126e-01 -2.928193658590316772e-02
7.347580790519714355e-01 -4.036273062229156494e-02 -3.616047278046607971e-02
7.256046533584594727e-01 -2.518989332020282745e-02 -3.756197914481163025e-02
7.256849408149719238e-01 -5.845058336853981018e-02 -3.592120856046676636e-02
7.127465009689331055e-01 -4.254138469696044922e-02 -3.818446397781372070e-02
4.515926837921142578e-01 -8.028908073902130127e-02 -1.103024631738662720e-01
4.390341937541961670e-01 -6.400461494922637939e-02 -1.117738708853721619e-01
4.339631497859954834e-01 -9.667456150054931641e-02 -1.140542700886726379e-01
4.208969771862030029e-01 -8.342830836772918701e-02 -1.147037893533706665e-01
-2.767598927021026611e-01 1.153949648141860962e-01 1.515410244464874268e-01
-2.763874530792236328e-01 1.350167840719223022e-01 1.463541388511657715e-01
-2.884951829910278320e-01 1.131285876035690308e-01 1.680365651845932007e-01
-2.883181273937225342e-01 1.328592896461486816e-01 1.629254966974258423e-01
3.862384557723999023e-01 5.779797211289405823e-02 4.203258827328681946e-02
3.851798474788665771e-01 7.493475824594497681e-02 4.363457486033439636e-02
3.707356750965118408e-01 5.125995725393295288e-02 4.575681686401367188e-02
3.689842224121093750e-01 6.871341913938522339e-02 4.682162031531333923e-02
-3.660784363746643066e-01 2.420454323291778564e-01 -6.489579379558563232e-02
-3.771121203899383545e-01 2.528053522109985352e-01 -6.927333027124404907e-02
-3.668128550052642822e-01 2.408571094274520874e-01 -5.334772169589996338e-02
-3.780888915061950684e-01 2.512369453907012939e-01 -5.812954157590866089e-02
2.632947564125061035e-01 3.039927780628204346e-01 -2.286047488451004028e-02
2.524608075618743896e-01 3.071928322315216064e-01 -3.017647191882133484e-02
2.636357843875885010e-01 3.014340698719024658e-01 -8.794777095317840576e-03
2.539791166782379150e-01 3.050779700279235840e-01 -1.749026961624622345e-02
1.351483762264251709e-01 2.737148106098175049e-01 -1.040738523006439209e-01
1.154553219676017761e-01 2.747747898101806641e-01 -1.081723570823669434e-01
1.175588294863700867e-01 2.807568311691284180e-01 -9.191855788230895996e-02
9.940044581890106201e-02 2.812603414058685303e-01 -9.382892400026321411e-02
4.247222542762756348e-01 -9.963233768939971924e-02 1.425070166587829590e-01
4.242243468761444092e-01 -8.034873008728027344e-02 1.569669991731643677e-01
4.122413098812103271e-01 -1.005775406956672668e-01 1.572712510824203491e-01
4.122595787048339844e-01 -8.079819381237030029e-02 1.715728491544723511e-01
1.000708639621734619e-01 -2.242758125066757202e-01 -9.103135019540786743e-02
8.196082711219787598e-02 -2.208031862974166870e-01 -9.062002599239349365e-02
9.477970749139785767e-02 -2.201739549636840820e-01 -7.368262857198715210e-02
7.686167210340499878e-02 -2.169085890054702759e-01 -7.324534654617309570e-02
-1.818609237670898438e-01 2.240064591169357300e-01 5.037249252200126648e-02
-1.884647607803344727e-01 2.340173274278640747e-01 4.839896038174629211e-02
-1.895428299903869629e-01 2.169466763734817505e-01 5.416380986571311951e-02
-1.967707574367523193e-01 2.265251576900482178e-01 5.178514868021011353e-02
-3.640369176864624023e-01 2.355570048093795776e-01 -5.327969789505004883e-02
-3.753231465816497803e-01 2.459651976823806763e-01 -5.782430991530418396e-02
-3.627813756465911865e-01 2.345593273639678955e-01 -4.181525483727455139e-02
-3.741151392459869385e-01 2.441826313734054565e-01 -4.540268704295158386e-02
4.151351749897003174e-02 8.817415684461593628e-02 2.539668083190917969e-01
4.155421257019042969e-02 1.074505001306533813e-01 2.567450702190399170e-01
3.250505402684211731e-02 8.073728531599044800e-02 2.626651823520660400e-01
3.189155086874961853e-02 1.017512083053588867e-01 2.661886811256408691e-01
-8.770830929279327393e-02 3.304425626993179321e-02 5.976136028766632080e-02
-9.723602980375289917e-02 5.121974647045135498e-02 6.167307123541831970e-02
-1.074175685644149780e-01 2.870117127895355225e-02 6.158656999468803406e-02
-1.190945431590080261e-01 4.647490754723548889e-02 6.440381705760955811e-02
4.432268738746643066e-01 1.815383285284042358e-01 -1.891599595546722412e-01
4.289308190345764160e-01 1.885819733142852783e-01 -1.932998448610305786e-01
4.380839467048645020e-01 1.760787814855575562e-01 -1.863243579864501953e-01
4.243517518043518066e-01 1.842049509286880493e-01 -1.900227665901184082e-01
1.777998358011245728e-01 2.344898879528045654e-01 4.139284417033195496e-02
1.668972373008728027e-01 2.438820898532867432e-01 4.252525046467781067e-02
1.616473793983459473e-01 2.298794090747833252e-01 4.252037778496742249e-02
1.511457115411758423e-01 2.389590889215469360e-01 4.371181875467300415e-02
5.230674743652343750e-01 -2.327656894922256470e-01 -1.393257528543472290e-01
5.051520466804504395e-01 -2.294526100158691406e-01 -1.491867601871490479e-01
5.213998556137084961e-01 -2.434690445661544800e-01 -1.255307197570800781e-01
5.034162402153015137e-01 -2.404538691043853760e-01 -1.361526250839233398e-01
3.775208890438079834e-01 -1.903851032257080078e-01 1.019665226340293884e-01
3.733243942260742188e-01 -1.711700111627578735e-01 1.107193529605865479e-01
3.614617288112640381e-01 -1.850639581680297852e-01 1.102011874318122864e-01
3.597365617752075195e-01 -1.682468205690383911e-01 1.195544898509979248e-01
-1.072051972150802612e-01 -2.081314772367477417e-01 -1.871708184480667114e-01
-1.209300309419631958e-01 -2.052530646324157715e-01 -1.920224428176879883e-01
-1.121738255023956299e-01 -2.139486372470855713e-01 -1.734784543514251709e-01
-1.262515187263488770e-01 -2.114375829696655273e-01 -1.791065484285354614e-01
4.489710628986358643e-01 1.580084674060344696e-02 8.369098603725433350e-02
4.472188353538513184e-01 2.775369025766849518e-02 8.280918002128601074e-02
4.443384408950805664e-01 1.595161296427249908e-02 9.446977078914642334e-02
4.431908428668975830e-01 2.792558632791042328e-02 9.330496191978454590e-02
2.203355431556701660e-01 -2.787472307682037354e-01 1.348821446299552917e-02
2.091701477766036987e-01 -2.755676209926605225e-01 1.122882589697837830e-02
2.186865955591201782e-01 -2.718960344791412354e-01 2.609058469533920288e-02
2.072139233350753784e-01 -2.685671746730804443e-01 2.340985089540481567e-02
-1.290807425975799561e-01 -5.677067674696445465e-03 5.261401832103729248e-02
-1.427600383758544922e-01 1.299129240214824677e-02 5.584694445133209229e-02
-1.482834517955780029e-01 -9.577893652021884918e-03 5.611253157258033752e-02
-1.606260389089584351e-01 7.742785848677158356e-03 5.940044671297073364e-02
6.513845324516296387e-01 -1.120748743414878845e-01 2.008158527314662933e-02
6.416475176811218262e-01 -9.652003645896911621e-02 1.901155337691307068e-02
6.415852308273315430e-01 -1.222535371780395508e-01 2.147037908434867859e-02
6.326196789741516113e-01 -1.061772555112838745e-01 2.054882235825061798e-02
-1.522244960069656372e-01 3.209466338157653809e-01 8.342893794178962708e-03
-1.630846560001373291e-01 3.273524343967437744e-01 -8.790157735347747803e-04
-1.565719544887542725e-01 3.130351901054382324e-01 2.260888181626796722e-02
-1.695765405893325806e-01 3.181097805500030518e-01 1.565261930227279663e-02
-3.830845355987548828e-01 -1.145749539136886597e-01 -9.364482760429382324e-02
-3.810622394084930420e-01 -9.897796809673309326e-02 -8.688584715127944946e-02
-3.866023123264312744e-01 -1.183386743068695068e-01 -8.402227610349655151e-02
-3.832878172397613525e-01 -1.025551855564117432e-01 -7.748399674892425537e-02
-4.256011843681335449e-01 -2.149606645107269287e-01 5.181768164038658142e-02
-4.451538026332855225e-01 -2.084876000881195068e-01 4.405884072184562683e-02
-4.247765839099884033e-01 -2.101715505123138428e-01 6.664654612541198730e-02
-4.440155923366546631e-01 -2.047594934701919556e-01 5.816662684082984924e-02
-2.020600140094757080e-01 2.138148695230484009e-01 -7.714215666055679321e-02
-2.206082493066787720e-01 2.136285305023193359e-01 -8.325113356113433838e-02
-2.019573152065277100e-01 2.138651609420776367e-01 -6.597711145877838135e-02
-2.215977013111114502e-01 2.143426984548568726e-01 -7.295435667037963867e-02
-3.236470818519592285e-01 1.308435052633285522e-01 -1.359232515096664429e-01
-3.279263675212860107e-01 1.497976332902908325e-01 -1.338965296745300293e-01
-3.450169563293457031e-01 1.209942698478698730e-01 -1.373467445373535156e-01
-3.485779166221618652e-01 1.402305364608764648e-01 -1.351403892040252686e-01
4.632317274808883667e-02 -2.565141320228576660e-01 4.440096765756607056e-02
3.366154432296752930e-02 -2.564727067947387695e-01 4.319375380873680115e-02
4.540674388408660889e-02 -2.497780919075012207e-01 5.367711558938026428e-02
3.226647898554801941e-02 -2.497935593128204346e-01 5.237054824829101562e-02
-5.295142531394958496e-02 9.133946150541305542e-03 -1.266886740922927856e-01
-6.633873283863067627e-02 2.959993854165077209e-02 -1.300149112939834595e-01
-6.449165195226669312e-02 -5.151464138180017471e-03 -1.268923580646514893e-01
-7.813948392868041992e-02 1.564049348235130310e-02 -1.307827532291412354e-01
-2.539116442203521729e-01 -1.292069107294082642e-01 1.142681017518043518e-01
-2.622689604759216309e-01 -1.168995648622512817e-01 1.117325425148010254e-01
-2.627588510513305664e-01 -1.368999183177947998e-01 1.167660504579544067e-01
-2.711572051048278809e-01 -1.244297474622726440e-01 1.139578446745872498e-01
6.874816417694091797e-01 2.609071135520935059e-01 9.526864625513553619e-03
6.728828549385070801e-01 2.695712447166442871e-01 5.899374373257160187e-03
6.786764860153198242e-01 2.544909715652465820e-01 2.147999219596385956e-02
6.646954417228698730e-01 2.623423337936401367e-01 1.742800325155258179e-02
1.881553679704666138e-01 2.543013989925384521e-01 -1.399174928665161133e-01
1.696485877037048340e-01 2.614946067333221436e-01 -1.493508219718933105e-01
1.780600249767303467e-01 2.493496388196945190e-01 -1.240522786974906921e-01
1.584323793649673462e-01 2.558439075946807861e-01 -1.347870826721191406e-01
-3.152849376201629639e-01 3.015119433403015137e-01 -4.610291123390197754e-02
-3.302782177925109863e-01 3.065306544303894043e-01 -4.784440249204635620e-02
-3.232564330101013184e-01 2.988706231117248535e-01 -3.869182989001274109e-02
-3.376151323318481445e-01 3.035552799701690674e-01 -4.048281535506248474e-02
5.285235643386840820e-01 -1.815500669181346893e-02 3.971040248870849609e-02
5.219596028327941895e-01 -6.800474599003791809e-03 3.815636783838272095e-02
5.197631120681762695e-01 -3.023516386747360229e-02 3.981973603367805481e-02
5.125820040702819824e-01 -1.886729896068572998e-02 3.842623159289360046e-02
-4.986474812030792236e-01 -8.318056166172027588e-02 -3.721863031387329102e-02
-4.989313483238220215e-01 -6.982083618640899658e-02 -3.987247496843338013e-02
-4.958808422088623047e-01 -8.203376084566116333e-02 -1.923558302223682404e-02
-4.969278872013092041e-01 -6.880290806293487549e-02 -2.080900594592094421e-02
2.615358233451843262e-01 2.603950798511505127e-01 8.298605680465698242e-02
2.503568828105926514e-01 2.661276459693908691e-01 7.346137613058090210e-02
2.578411996364593506e-01 2.544093132019042969e-01 1.021287143230438232e-01
2.482031285762786865e-01 2.603017091751098633e-01 9.104651957750320435e-02
4.201682209968566895e-01 1.935642808675765991e-01 3.885996341705322266e-02
4.104518294334411621e-01 2.090972661972045898e-01 3.672451525926589966e-02
4.045941233634948730e-01 1.861976236104965210e-01 4.392663389444351196e-02
3.946743905544281006e-01 2.016449272632598877e-01 4.160855710506439209e-02
3.533082604408264160e-01 1.950411051511764526e-01 -1.847305446863174438e-01
3.314093947410583496e-01 2.024984955787658691e-01 -1.890515834093093872e-01
3.411897122859954834e-01 1.823895424604415894e-01 -1.777782887220382690e-01
3.189523816108703613e-01 1.886226236820220947e-01 -1.835640519857406616e-01
6.203788518905639648e-01 -2.516148984432220459e-01 2.730628848075866699e-02
6.125305891036987305e-01 -2.386921346187591553e-01 2.623206749558448792e-02
6.198220252990722656e-01 -2.550836205482482910e-01 3.941230475902557373e-02
6.101533770561218262e-01 -2.418156415224075317e-01 3.843624889850616455e-02
3.569225072860717773e-01 -1.672975867986679077e-01 -8.657054603099822998e-02
3.410795032978057861e-01 -1.601594686508178711e-01 -8.939853310585021973e-02
3.496216833591461182e-01 -1.673836112022399902e-01 -7.466396689414978027e-02
3.339342474937438965e-01 -1.603863090276718140e-01 -7.793289422988891602e-02
-2.771635949611663818e-01 2.172937244176864624e-01 1.583471745252609253e-01
-2.847155332565307617e-01 2.333471029996871948e-01 1.603719443082809448e-01
-2.831993997097015381e-01 2.177408188581466675e-01 1.708208918571472168e-01
-2.906351685523986816e-01 2.335799783468246460e-01 1.726525723934173584e-01
-1.934008598327636719e-01 -1.281284242868423462e-01 1.524277925491333008e-01
-2.061676084995269775e-01 -1.241449341177940369e-01 1.499268859624862671e-01
-1.993347257375717163e-01 -1.284202784299850464e-01 1.626197397708892822e-01
-2.114296853542327881e-01 -1.252187043428421021e-01 1.601536124944686890e-01
-4.319633543491363525e-01 1.456115245819091797e-01 -9.454995393753051758e-02
-4.284632503986358643e-01 1.617271006107330322e-01 -9.545281529426574707e-02
-4.396376609802246094e-01 1.436810195446014404e-01 -8.177269995212554932e-02
-4.376005828380584717e-01 1.608675569295883179e-01 -8.377137780189514160e-02
-3.300730586051940918e-01 -1.828314065933227539e-01 -1.510120183229446411e-01
-3.336783647537231445e-01 -1.648823618888854980e-01 -1.564256697893142700e-01
-3.386622369289398193e-01 -1.897570192813873291e-01 -1.396740525960922241e-01
-3.423627614974975586e-01 -1.717207282781600952e-01 -1.451719552278518677e-01
4.641962945461273193e-01 1.160413399338722229e-01 1.341511756181716919e-01
4.582555592060089111e-01 1.373237371444702148e-01 1.329401433467864990e-01
4.560242891311645508e-01 1.093134880065917969e-01 1.501757800579071045e-01
4.492395520210266113e-01 1.292022615671157837e-01 1.493774652481079102e-01
-1.472348123788833618e-01 -2.043207138776779175e-01 5.398480221629142761e-02
-1.639115363359451294e-01 -1.992256045341491699e-01 5.680868402123451233e-02
-1.642049551010131836e-01 -2.033253014087677002e-01 6.083095073699951172e-02
-1.797885745763778687e-01 -1.975677758455276489e-01 6.369220465421676636e-02
6.847887635231018066e-01 1.111045479774475098e-02 6.610422860831022263e-03
6.827912926673889160e-01 3.150706738233566284e-02 5.175864323973655701e-03
6.725181937217712402e-01 9.989202953875064850e-04 8.186790160834789276e-03
6.704088449478149414e-01 2.167926169931888580e-02 6.711798254400491714e-03
6.667184829711914062e-01 2.503972351551055908e-01 -2.382272481918334961e-02
6.568349599838256836e-01 2.601276338100433350e-01 -2.374215982854366302e-02
6.565991044044494629e-01 2.436097115278244019e-01 -1.563055627048015594e-02
6.471883058547973633e-01 2.522722780704498291e-01 -1.664464920759201050e-02
-1.318353600800037384e-02 -1.916540712118148804e-01 1.262872517108917236e-01
-2.313249930739402771e-02 -1.873776167631149292e-01 1.184595003724098206e-01
-8.913981728255748749e-03 -1.915983408689498901e-01 1.433703899383544922e-01
-2.150707691907882690e-02 -1.875573098659515381e-01 1.383497864007949829e-01
-2.548813521862030029e-01 2.474804222583770752e-02 -1.273213326930999756e-01
-2.640646100044250488e-01 4.962257295846939087e-02 -1.277891695499420166e-01
-2.721658051013946533e-01 4.538644105195999146e-03 -1.297818273305892944e-01
-2.799630761146545410e-01 2.860049530863761902e-02 -1.297178864479064941e-01
4.972167611122131348e-01 -2.889486849308013916e-01 -2.573991380631923676e-02
4.808866381645202637e-01 -2.904128134250640869e-01 -3.078385442495346069e-02
4.865961968898773193e-01 -2.901938259601593018e-01 -1.407207362353801727e-02
4.700945913791656494e-01 -2.904334664344787598e-01 -1.911445707082748413e-02
-8.126658201217651367e-02 -1.440296620130538940e-01 5.579490959644317627e-02
-9.385970979928970337e-02 -1.315108984708786011e-01 5.702188983559608459e-02
-8.669537305831909180e-02 -1.515884399414062500e-01 6.155288964509963989e-02
-9.976017475128173828e-02 -1.396286040544509888e-01 6.243024021387100220e-02
2.306507676839828491e-01 2.605801224708557129e-01 -1.760451793670654297e-01
2.165665328502655029e-01 2.711987197399139404e-01 -1.799556165933609009e-01
2.146175354719161987e-01 2.590913772583007812e-01 -1.677667647600173950e-01
2.012804001569747925e-01 2.703405320644378662e-01 -1.712544858455657959e-01
1.233926713466644287e-01 -1.873839497566223145e-01 4.544820263981819153e-02
1.114337816834449768e-01 -1.741919666528701782e-01 4.846497625112533569e-02
1.107620820403099060e-01 -1.909439563751220703e-01 5.291314423084259033e-02
9.897597879171371460e-02 -1.768552213907241821e-01 5.634583905339241028e-02
-4.295805096626281738e-01 -2.147863358259201050e-01 5.024145171046257019e-02
-4.491331279277801514e-01 -2.083132714033126831e-01 4.248261079192161560e-02
-4.261098802089691162e-01 -2.101298570632934570e-01 6.802462041378021240e-02
-4.453488886356353760e-01 -2.047178000211715698e-01 5.954470112919807434e-02
-7.790737785398960114e-03 2.947324812412261963e-01 2.243032306432723999e-02
-2.033329755067825317e-02 2.985383570194244385e-01 1.905100047588348389e-02
-2.124474197626113892e-02 2.904524803161621094e-01 3.202944993972778320e-02
-3.185950219631195068e-02 2.959798574447631836e-01 2.957823127508163452e-02
-1.873858571052551270e-01 -3.451128304004669189e-02 7.538333535194396973e-02
-1.958456784486770630e-01 -1.891448348760604858e-02 7.443401217460632324e-02
-1.984132081270217896e-01 -4.626374691724777222e-02 7.384594529867172241e-02
-2.090632319450378418e-01 -3.070637397468090057e-02 7.353120297193527222e-02
7.757864147424697876e-02 1.845669895410537720e-01 -1.306350827217102051e-01
8.026703447103500366e-02 1.999336630105972290e-01 -1.228273212909698486e-01
7.064641267061233521e-02 1.839417666196823120e-01 -1.198961660265922546e-01
7.320609688758850098e-02 1.993659734725952148e-01 -1.125718876719474792e-01
-1.155293956398963928e-01 3.286211192607879639e-01 -8.796155452728271484e-03
-1.261087507009506226e-01 3.325898945331573486e-01 -1.972576975822448730e-02
-1.208148822188377380e-01 3.225995600223541260e-01 4.178026225417852402e-03
-1.314796060323715210e-01 3.280847966670989990e-01 -7.228860631585121155e-03
-3.118152916431427002e-01 -8.870153129100799561e-02 1.712296605110168457e-01
-3.118925094604492188e-01 -6.970816105604171753e-02 1.741593182086944580e-01
-3.314662575721740723e-01 -9.610110521316528320e-02 1.777345091104507446e-01
-3.334401845932006836e-01 -7.604159414768218994e-02 1.801264137029647827e-01
1.482760161161422729e-01 3.013611733913421631e-01 7.498441729694604874e-03
1.311067789793014526e-01 3.074451684951782227e-01 1.996322534978389740e-03
1.421045213937759399e-01 2.997606992721557617e-01 1.859848760068416595e-02
1.254098266363143921e-01 3.059280514717102051e-01 1.436026953160762787e-02
2.747324109077453613e-01 -3.789331018924713135e-02 4.606107249855995178e-02
2.583709061145782471e-01 -6.814664229750633240e-03 4.469547048211097717e-02
2.565816044807434082e-01 -4.851984977722167969e-02 4.857572913169860840e-02
2.400342524051666260e-01 -1.929534971714019775e-02 4.639139026403427124e-02
-2.521207928657531738e-01 1.208174228668212891e-01 6.173232942819595337e-02
-2.600363492965698242e-01 1.352067589759826660e-01 6.153862178325653076e-02
-2.655214667320251465e-01 1.077240332961082458e-01 6.041065976023674011e-02
-2.745930850505828857e-01 1.216044872999191284e-01 6.008099764585494995e-02
1.590400338172912598e-01 -2.506337761878967285e-01 4.791827872395515442e-02
1.385368257761001587e-01 -2.545892298221588135e-01 4.876834526658058167e-02
1.505494415760040283e-01 -2.456806004047393799e-01 6.554373353719711304e-02
1.304567158222198486e-01 -2.492953240871429443e-01 6.554593145847320557e-02
-5.982062220573425293e-02 3.167884647846221924e-01 -8.422191441059112549e-02
-7.440610229969024658e-02 3.205603957176208496e-01 -9.163857251405715942e-02
-6.481593847274780273e-02 3.209485709667205811e-01 -6.832151859998703003e-02
-7.918520271778106689e-02 3.252156376838684082e-01 -7.568730413913726807e-02
4.857221841812133789e-01 -4.067098721861839294e-02 -1.045390814542770386e-01
4.741793572902679443e-01 -2.211415395140647888e-02 -1.061517819762229919e-01
4.709917008876800537e-01 -5.824876576662063599e-02 -1.077335178852081299e-01
4.590111970901489258e-01 -3.962008655071258545e-02 -1.092842966318130493e-01
7.542344927787780762e-01 -3.728915378451347351e-02 -1.407573814503848553e-03
7.481894493103027344e-01 -2.383344620466232300e-02 -2.464062534272670746e-03
7.426093816757202148e-01 -5.009842664003372192e-02 4.911923315376043320e-03
7.360653877258300781e-01 -3.609431535005569458e-02 3.810761496424674988e-03
5.988458991050720215e-01 8.285059779882431030e-02 1.208847481757402420e-02
5.905214548110961914e-01 9.975023567676544189e-02 1.208126451820135117e-02
5.831955075263977051e-01 7.353822141885757446e-02 1.298052445054054260e-02
5.751892328262329102e-01 8.959221094846725464e-02 1.319756451994180679e-02
-3.116421774029731750e-02 -1.633085906505584717e-01 -1.002052426338195801e-02
-4.788516461849212646e-02 -1.506965458393096924e-01 -9.770015254616737366e-03
-4.188506305217742920e-02 -1.727409064769744873e-01 -3.519111545756459236e-03
-5.721149221062660217e-02 -1.597258448600769043e-01 -3.085799515247344971e-03
1.356199104338884354e-02 1.184076070785522461e-01 -1.298180371522903442e-01
5.704089999198913574e-04 1.296535730361938477e-01 -1.294537484645843506e-01
1.662245020270347595e-03 1.128272563219070435e-01 -1.344289928674697876e-01
-1.436609681695699692e-02 1.241534948348999023e-01 -1.344633549451828003e-01
-2.484862655401229858e-01 -1.851444989442825317e-01 -1.101685240864753723e-01
-2.429730296134948730e-01 -1.718356013298034668e-01 -1.156868040561676025e-01
-2.423091530799865723e-01 -1.861732304096221924e-01 -9.222654253244400024e-02
-2.483128607273101807e-01 -1.776185929775238037e-01 -9.883325546979904175e-02
2.708318233489990234e-01 -2.211127281188964844e-01 -1.672609150409698486e-01
2.587587535381317139e-01 -2.145532816648483276e-01 -1.734933108091354370e-01
2.608238160610198975e-01 -2.323873043060302734e-01 -1.531459242105484009e-01
2.483623623847961426e-01 -2.250664979219436646e-01 -1.606935262680053711e-01
-1.957187652587890625e-01 -1.375935599207878113e-02 7.477750629186630249e-02
-2.031160891056060791e-01 1.902907155454158783e-03 7.372725754976272583e-02
-2.107911854982376099e-01 -2.430976927280426025e-02 7.256118953227996826e-02
-2.181823700666427612e-01 -8.790639229118824005e-03 7.211080938577651978e-02
1.977991014719009399e-01 -1.832335740327835083e-01 5.664549022912979126e-02
1.956149339675903320e-01 -1.690602898597717285e-01 6.112774088978767395e-02
1.810915321111679077e-01 -1.876239776611328125e-01 5.548232048749923706e-02
1.795757859945297241e-01 -1.754929572343826294e-01 5.952930077910423279e-02
5.041032433509826660e-01 -6.677104532718658447e-02 -1.004194915294647217e-01
4.914060533046722412e-01 -5.019465088844299316e-02 -1.029496937990188599e-01
4.900275766849517822e-01 -8.519199490547180176e-02 -1.045478880405426025e-01
4.757245779037475586e-01 -7.000199705362319946e-02 -1.071476563811302185e-01
-4.390249848365783691e-01 1.676370799541473389e-01 -1.131022721529006958e-02
-4.361734390258789062e-01 1.800970286130905151e-01 -1.302512083202600479e-02
-4.394731521606445312e-01 1.689448505640029907e-01 3.706488758325576782e-03
-4.369951486587524414e-01 1.813678890466690063e-01 1.493180170655250549e-03
5.242943763732910156e-01 -1.740383654832839966e-01 -9.211030602455139160e-02
5.085330009460449219e-01 -1.715293675661087036e-01 -9.198189526796340942e-02
5.147122144699096680e-01 -1.774555146694183350e-01 -7.846464216709136963e-02
4.997226297855377197e-01 -1.743854135274887085e-01 -7.883391529321670532e-02
-4.383336603641510010e-01 1.949123591184616089e-01 -4.168359562754631042e-02
-4.344791769981384277e-01 2.050906568765640259e-01 -4.066340997815132141e-02
-4.371777176856994629e-01 1.951415836811065674e-01 -3.236398100852966309e-02
-4.337792992591857910e-01 2.065525799989700317e-01 -3.078297153115272522e-02
2.250480502843856812e-01 2.289746999740600586e-01 4.123687371611595154e-02
2.102899700403213501e-01 2.405402660369873047e-01 4.084421694278717041e-02
2.120439112186431885e-01 2.188815623521804810e-01 4.239923506975173950e-02
1.981616020202636719e-01 2.310864776372909546e-01 4.241356253623962402e-02
5.444332957267761230e-01 -2.866136431694030762e-01 -3.676274791359901428e-02
5.313916206359863281e-01 -2.915145754814147949e-01 -4.226500540971755981e-02
5.422074794769287109e-01 -2.849628329277038574e-01 -2.102699689567089081e-02
5.278763771057128906e-01 -2.896893918514251709e-01 -2.573096193373203278e-02
2.835181951522827148e-01 -3.298414871096611023e-02 1.899323165416717529e-01
2.794961631298065186e-01 -7.194064557552337646e-03 1.892225891351699829e-01
2.684752643108367920e-01 -4.482126235961914062e-02 1.900592893362045288e-01
2.635233402252197266e-01 -2.236847020685672760e-02 1.892162561416625977e-01
2.034694552421569824e-01 1.771826446056365967e-01 -1.284161508083343506e-01
1.850585639476776123e-01 1.880368888378143311e-01 -1.293188184499740601e-01
1.950538158416748047e-01 1.712411195039749146e-01 -1.152071803808212280e-01
1.768180131912231445e-01 1.819084435701370239e-01 -1.161081865429878235e-01
-9.502866305410861969e-03 3.079065084457397461e-01 -8.286084979772567749e-02
-2.802618779242038727e-02 3.143432736396789551e-01 -9.165825694799423218e-02
-1.494499295949935913e-02 3.067193925380706787e-01 -6.331510841846466064e-02
-3.325748443603515625e-02 3.129895627498626709e-01 -7.184293866157531738e-02
6.570730209350585938e-01 -2.378233075141906738e-01 -2.264280058443546295e-02
6.576284170150756836e-01 -2.255376726388931274e-01 -2.006137743592262268e-02
6.519013643264770508e-01 -2.373905628919601440e-01 -1.029155496507883072e-02
6.518076062202453613e-01 -2.261156141757965088e-01 -8.023739792406558990e-03
2.148072123527526855e-01 -1.905604302883148193e-01 1.552174091339111328e-01
1.986521631479263306e-01 -1.842261105775833130e-01 1.595827639102935791e-01
2.070685178041458130e-01 -1.786413341760635376e-01 1.665675491094589233e-01
1.897115707397460938e-01 -1.751481890678405762e-01 1.682462692260742188e-01
5.115802884101867676e-01 -6.458457559347152710e-02 2.620935067534446716e-02
5.029268264770507812e-01 -5.272044986486434937e-02 2.744284830987453461e-02
4.994509518146514893e-01 -7.006552070379257202e-02 2.773916535079479218e-02
4.909287989139556885e-01 -5.843300372362136841e-02 2.876857854425907135e-02
2.332244366407394409e-01 1.756334453821182251e-01 1.780731230974197388e-01
2.289563119411468506e-01 1.889971494674682617e-01 1.749875396490097046e-01
2.249679118394851685e-01 1.620399057865142822e-01 1.806805580854415894e-01
2.207032442092895508e-01 1.764697134494781494e-01 1.778429448604583740e-01
-2.327864468097686768e-01 2.273741066455841064e-01 -1.973935365676879883e-01
-2.469342648983001709e-01 2.396304607391357422e-01 -1.978807896375656128e-01
-2.533468604087829590e-01 2.176622152328491211e-01 -1.877271533012390137e-01
-2.645908296108245850e-01 2.308554947376251221e-01 -1.888376623392105103e-01
-1.005713567137718201e-01 -1.863593310117721558e-01 1.299254745244979858e-01
-1.113286390900611877e-01 -1.860794425010681152e-01 1.245470941066741943e-01
-9.892442822456359863e-02 -1.805646121501922607e-01 1.434122473001480103e-01
-1.114388257265090942e-01 -1.808065921068191528e-01 1.380775421857833862e-01
-4.385111927986145020e-01 1.878226697444915771e-01 -2.190162613987922668e-02
-4.354192316532135010e-01 2.003532499074935913e-01 -2.051458507776260376e-02
-4.366083443164825439e-01 1.902459710836410522e-01 -9.626429527997970581e-03
-4.330664873123168945e-01 2.026231586933135986e-01 -8.005950599908828735e-03
3.245069682598114014e-01 -2.310562580823898315e-01 -1.184381451457738876e-02
3.247859477996826172e-01 -2.144064307212829590e-01 -1.079982426017522812e-02
3.076044321060180664e-01 -2.424929440021514893e-01 -1.250981073826551437e-02
3.046047091484069824e-01 -2.277740091085433960e-01 -1.197217404842376709e-02
4.717638194561004639e-01 -1.690266877412796021e-01 -6.890865042805671692e-03
4.614015221595764160e-01 -1.588529795408248901e-01 -7.544561289250850677e-03
4.627164304256439209e-01 -1.710519790649414062e-01 -2.539390698075294495e-05
4.539552032947540283e-01 -1.603578925132751465e-01 6.378034595400094986e-04
2.247172445058822632e-01 1.845112144947052002e-01 1.774791032075881958e-01
2.203475683927536011e-01 1.985914558172225952e-01 1.747833043336868286e-01
2.177308052778244019e-01 1.699732691049575806e-01 1.795973032712936401e-01
2.130002528429031372e-01 1.853397786617279053e-01 1.766653656959533691e-01
3.123172819614410400e-01 -6.766188889741897583e-02 4.968855902552604675e-02
2.979774177074432373e-01 -4.817484319210052490e-02 4.693599790334701538e-02
3.013459444046020508e-01 -8.806046843528747559e-02 5.444980412721633911e-02
2.786080837249755859e-01 -7.673925906419754028e-02 5.057290196418762207e-02
2.908790707588195801e-01 -3.754100762307643890e-03 -1.208083480596542358e-01
2.763758003711700439e-01 1.804464496672153473e-02 -1.210107207298278809e-01
2.728495597839355469e-01 -2.118905261158943176e-02 -1.221970096230506897e-01
2.558394074440002441e-01 1.506261527538299561e-03 -1.220906674861907959e-01
-1.907910108566284180e-01 2.739951908588409424e-01 5.879863724112510681e-02
-1.960024088621139526e-01 2.854442000389099121e-01 5.691097676753997803e-02
-1.976078748703002930e-01 2.702208459377288818e-01 6.303594261407852173e-02
-2.041556239128112793e-01 2.806786298751831055e-01 6.191835552453994751e-02
1.889961063861846924e-01 1.632676571607589722e-01 1.791034340858459473e-01
1.810634583234786987e-01 1.811296641826629639e-01 1.750132739543914795e-01
1.796727627515792847e-01 1.491107940673828125e-01 1.824800670146942139e-01
1.716860830783843994e-01 1.666263192892074585e-01 1.783264130353927612e-01
-7.732877135276794434e-02 -1.892385929822921753e-01 1.064739003777503967e-01
-8.451890945434570312e-02 -1.871922612190246582e-01 1.021313518285751343e-01
-7.998857647180557251e-02 -1.863762587308883667e-01 1.194737479090690613e-01
-8.763446658849716187e-02 -1.847426891326904297e-01 1.146055012941360474e-01
-3.218797147274017334e-01 1.705191433429718018e-01 1.604284532368183136e-02
-3.386223614215850830e-01 1.761554777622222900e-01 1.454260013997554779e-02
-3.392588198184967041e-01 1.599214524030685425e-01 1.313283480703830719e-02
-3.552589416503906250e-01 1.656657308340072632e-01 1.167191006243228912e-02
1.055052503943443298e-01 -2.634841203689575195e-01 1.724597997963428497e-02
9.235644340515136719e-02 -2.632538080215454102e-01 1.295285392552614212e-02
1.028609275817871094e-01 -2.570194900035858154e-01 2.742149122059345245e-02
9.021581709384918213e-02 -2.563813030719757080e-01 2.352792955935001373e-02
5.087319612503051758e-01 2.665816247463226318e-01 -3.349149972200393677e-02
4.957804083824157715e-01 2.719290852546691895e-01 -3.611709922552108765e-02
4.996210336685180664e-01 2.565009295940399170e-01 -2.245016954839229584e-02
4.870859086513519287e-01 2.626391351222991943e-01 -2.561414800584316254e-02
-2.266998887062072754e-01 2.990217208862304688e-01 -3.579981997609138489e-02
-2.377894967794418335e-01 3.094393312931060791e-01 -3.922043368220329285e-02
-2.395977675914764404e-01 2.910850346088409424e-01 -3.220621868968009949e-02
-2.512239217758178711e-01 3.020091950893402100e-01 -3.484625369310379028e-02
-1.912974566221237183e-01 -5.654180049896240234e-02 6.991150975227355957e-02
-2.035694718360900879e-01 -4.242755845189094543e-02 6.972708553075790405e-02
-2.021953761577606201e-01 -6.701546907424926758e-02 6.897432357072830200e-02
-2.149333059787750244e-01 -5.398130044341087341e-02 6.891755759716033936e-02
3.682214319705963135e-01 1.910554617643356323e-01 4.699336364865303040e-02
3.596845567226409912e-01 2.074266374111175537e-01 4.346035793423652649e-02
3.567390441894531250e-01 1.832431852817535400e-01 4.937597364187240601e-02
3.484037518501281738e-01 1.985162049531936646e-01 4.681605473160743713e-02
-1.736842095851898193e-01 -2.443476766347885132e-01 -5.471904948353767395e-02
-1.894685924053192139e-01 -2.380413562059402466e-01 -5.491801351308822632e-02
-1.802996546030044556e-01 -2.435276955366134644e-01 -3.991132974624633789e-02
-1.953255385160446167e-01 -2.369211763143539429e-01 -4.068502411246299744e-02
-4.490023851394653320e-01 -3.027174621820449829e-03 -4.944966360926628113e-02
-4.477828145027160645e-01 8.324507623910903931e-03 -5.457594990730285645e-02
-4.500271677970886230e-01 -2.280704677104949951e-03 -3.274395689368247986e-02
-4.491778314113616943e-01 9.427253156900405884e-03 -3.637379035353660583e-02
2.869307994842529297e-01 -2.469375729560852051e-01 -1.762500703334808350e-01
2.727562487125396729e-01 -2.418511658906936646e-01 -1.803368479013442993e-01
2.715801298618316650e-01 -2.512984871864318848e-01 -1.607960611581802368e-01
2.576977014541625977e-01 -2.468659281730651855e-01 -1.659494787454605103e-01
6.023625135421752930e-01 -4.368432611227035522e-02 2.152496576309204102e-02
5.969009399414062500e-01 -2.671223320066928864e-02 2.072460204362869263e-02
5.903233289718627930e-01 -5.154769122600555420e-02 2.172863483428955078e-02
5.848989486694335938e-01 -3.466503694653511047e-02 2.120492607355117798e-02
3.230430483818054199e-01 -8.802232146263122559e-02 4.776167124509811401e-02
3.056969940662384033e-01 -7.039470225572586060e-02 4.394780099391937256e-02
3.072005212306976318e-01 -1.012772992253303528e-01 5.412804335355758667e-02
2.903485298156738281e-01 -8.901653438806533813e-02 5.016171932220458984e-02
-2.309126108884811401e-01 -1.621568650007247925e-01 -1.397169530391693115e-01
-2.253406047821044922e-01 -1.498864144086837769e-01 -1.461870074272155762e-01
-2.381082028150558472e-01 -1.688766181468963623e-01 -1.220335587859153748e-01
-2.306361198425292969e-01 -1.562092155218124390e-01 -1.284053474664688110e-01
9.150842577219009399e-02 2.907701134681701660e-01 3.729543089866638184e-02
8.586289733648300171e-02 3.012252748012542725e-01 3.446569666266441345e-02
8.036239445209503174e-02 2.812302410602569580e-01 3.898949548602104187e-02
7.543653994798660278e-02 2.919829785823822021e-01 3.610762581229209900e-02
-5.725600942969322205e-02 2.774545252323150635e-01 3.552644327282905579e-02
-6.146959215402603149e-02 2.883155643939971924e-01 3.365245833992958069e-02
-7.145881652832031250e-02 2.626726329326629639e-01 3.850851207971572876e-02
-7.500705868005752563e-02 2.740502357482910156e-01 3.746886923909187317e-02
3.275156617164611816e-01 -2.341967523097991943e-01 -9.622472524642944336e-02
3.068083226680755615e-01 -2.301607429981231689e-01 -1.033285930752754211e-01
3.317032754421234131e-01 -2.381086498498916626e-01 -8.234077692031860352e-02
3.099681437015533447e-01 -2.341213971376419067e-01 -9.010549634695053101e-02
1.273410469293594360e-01 2.167822420597076416e-01 4.107823222875595093e-02
1.161384880542755127e-01 2.263219356536865234e-01 4.093518108129501343e-02
1.171896681189537048e-01 2.114619165658950806e-01 4.109503701329231262e-02
1.043907627463340759e-01 2.196301966905593872e-01 4.055878892540931702e-02
5.843265056610107422e-01 -9.224466979503631592e-02 1.857346296310424805e-02
5.816159248352050781e-01 -7.557134330272674561e-02 1.911810226738452911e-02
5.691465139389038086e-01 -1.063500791788101196e-01 1.833059825003147125e-02
5.673947930335998535e-01 -8.923477679491043091e-02 1.974454522132873535e-02
1.485740691423416138e-01 -1.038457825779914856e-01 4.741719365119934082e-02
1.383566409349441528e-01 -8.755409717559814453e-02 4.833348840475082397e-02
1.267364472150802612e-01 -1.161424368619918823e-01 5.232363194227218628e-02
1.191932335495948792e-01 -9.985531121492385864e-02 5.277973413467407227e-02
2.224108427762985229e-01 -4.550460353493690491e-02 4.629515111446380615e-02
2.051317840814590454e-01 -3.065736591815948486e-02 4.322073236107826233e-02
2.015218287706375122e-01 -5.731508880853652954e-02 4.621298983693122864e-02
1.823551654815673828e-01 -4.582712799310684204e-02 4.339319840073585510e-02
2.724024057388305664e-01 -4.869452491402626038e-02 1.919980943202972412e-01
2.678988575935363770e-01 -2.479761838912963867e-02 1.911419928073883057e-01
2.585908174514770508e-01 -6.151958182454109192e-02 1.922546923160552979e-01
2.529143095016479492e-01 -4.172902554273605347e-02 1.916443705558776855e-01
-1.018180605024099350e-02 -1.621307730674743652e-01 3.737900778651237488e-02
-3.367546200752258301e-02 -1.568984389305114746e-01 3.736237064003944397e-02
-1.976295188069343567e-02 -1.657432615756988525e-01 4.604417458176612854e-02
-4.310660064220428467e-02 -1.614006310701370239e-01 4.604900255799293518e-02
-2.096466720104217529e-01 -8.322367817163467407e-02 1.712098419666290283e-01
-2.256834656000137329e-01 -7.417073845863342285e-02 1.688607782125473022e-01
-2.095727473497390747e-01 -8.258504420518875122e-02 1.834084689617156982e-01
-2.245903909206390381e-01 -7.273349910974502563e-02 1.810357719659805298e-01
-3.445363044738769531e-02 2.847633361816406250e-01 1.004564538598060608e-01
-4.802285879850387573e-02 2.899573147296905518e-01 9.699125587940216064e-02
-4.119401425123214722e-02 2.831635773181915283e-01 1.115902513265609741e-01
-5.453255772590637207e-02 2.877943515777587891e-01 1.077221706509590149e-01
7.195047140121459961e-01 -1.691359877586364746e-01 9.860320016741752625e-03
7.072142362594604492e-01 -1.608855724334716797e-01 5.924809724092483521e-03
7.096972465515136719e-01 -1.757517606019973755e-01 1.892012730240821838e-02
6.961768269538879395e-01 -1.691683828830718994e-01 1.501709781587123871e-02
-1.123002544045448303e-01 -6.392437219619750977e-02 2.014405727386474609e-01
-9.774462878704071045e-02 -3.782870620489120483e-02 2.111603319644927979e-01
-1.293521225452423096e-01 -6.021329760551452637e-02 2.013858109712600708e-01
-1.183936148881912231e-01 -3.579859435558319092e-02 2.095805853605270386e-01
4.097289443016052246e-01 -1.413192786276340485e-02 -1.166820675134658813e-01
3.950005471706390381e-01 3.983180504292249680e-03 -1.169773042201995850e-01
3.957756757736206055e-01 -2.894357033073902130e-02 -1.169027984142303467e-01
3.821794986724853516e-01 -1.162097789347171783e-02 -1.176884770393371582e-01
-2.551623582839965820e-01 -3.579517826437950134e-03 -1.269855797290802002e-01
-2.656179368495941162e-01 2.157834172248840332e-02 -1.270641535520553589e-01
-2.772065401077270508e-01 -2.010139822959899902e-02 -1.323818713426589966e-01
-2.852249741554260254e-01 -6.307656876742839813e-04 -1.312633454799652100e-01
-2.355587184429168701e-01 3.026735782623291016e-01 5.424202233552932739e-02
-2.442926913499832153e-01 3.093706071376800537e-01 5.217222869396209717e-02
-2.513556182384490967e-01 3.026352822780609131e-01 5.930871143937110901e-02
-2.576369345188140869e-01 3.104862868785858154e-01 5.740910023450851440e-02
-3.358823657035827637e-01 -1.184852719306945801e-01 6.046009063720703125e-02
-3.454729914665222168e-01 -1.093543544411659241e-01 5.796881765127182007e-02
-3.425200581550598145e-01 -1.300063580274581909e-01 6.400046497583389282e-02
-3.522785604000091553e-01 -1.216111332178115845e-01 6.157486513257026672e-02
5.207903981208801270e-01 -7.889110594987869263e-02 -9.670884162187576294e-02
5.068604350090026855e-01 -6.421193480491638184e-02 -9.989018738269805908e-02
5.074049830436706543e-01 -9.395618736743927002e-02 -1.026567220687866211e-01
4.916532635688781738e-01 -8.270807564258575439e-02 -1.059299781918525696e-01
-4.526053667068481445e-01 -2.040054649114608765e-01 6.559478491544723511e-02
-4.716974198818206787e-01 -1.962421387434005737e-01 5.805619433522224426e-02
-4.486643671989440918e-01 -2.027759253978729248e-01 7.944682985544204712e-02
-4.675343036651611328e-01 -1.951428204774856567e-01 7.227622717618942261e-02
-5.447151064872741699e-01 3.129765391349792480e-01 1.097412314265966415e-02
-5.388739109039306641e-01 3.272273242473602295e-01 1.382222678512334824e-02
-5.503979325294494629e-01 3.102361857891082764e-01 2.654156088829040527e-02
-5.446686744689941406e-01 3.254999220371246338e-01 2.950067259371280670e-02
6.084178090095520020e-01 -1.175219491124153137e-01 1.847813464701175690e-02
6.008617281913757324e-01 -1.022094190120697021e-01 1.809098012745380402e-02
