9.169659614562988281e-01 2.593119740486145020e-01 7.602177858352661133e-01
9.138727784156799316e-01 2.522518932819366455e-01 7.609608173370361328e-01
9.130191206932067871e-01 2.565740942955017090e-01 7.608197331428527832e-01
8.990400433540344238e-01 7.020406126976013184e-01 7.524735927581787109e-01
8.958283066749572754e-01 7.051243782043457031e-01 7.510126233100891113e-01
8.926234841346740723e-01 6.991748809814453125e-01 7.544596791267395020e-01
8.907092809677124023e-01 7.029967308044433594e-01 7.534613013267517090e-01
9.240514636039733887e-01 2.560069262981414795e-01 7.506440877914428711e-01
9.232923984527587891e-01 2.592087090015411377e-01 7.505386471748352051e-01
9.208191633224487305e-01 2.544415593147277832e-01 7.529392838478088379e-01
9.199797511100769043e-01 2.577489316463470459e-01 7.528128623962402344e-01
8.885877728462219238e-01 4.277218282222747803e-01 7.554767727851867676e-01
8.867350220680236816e-01 4.323830902576446533e-01 7.552673816680908203e-01
8.866907358169555664e-01 4.240965843200683594e-01 7.574688196182250977e-01
8.849490880966186523e-01 4.287936091423034668e-01 7.572059631347656250e-01
1.010837435722351074e+00 5.048165321350097656e-01 7.466013431549072266e-01
1.007422924041748047e+00 5.068144202232360840e-01 7.464066147804260254e-01
1.007126212120056152e+00 5.039357542991638184e-01 7.472375035285949707e-01
1.003943085670471191e+00 5.059356093406677246e-01 7.469859719276428223e-01
9.138496518135070801e-01 4.806995689868927002e-01 7.402617931365966797e-01
9.112934470176696777e-01 4.847674667835235596e-01 7.390335798263549805e-01
9.098939895629882812e-01 4.760782122611999512e-01 7.412725687026977539e-01
9.068965911865234375e-01 4.807012975215911865e-01 7.398000359535217285e-01
8.219343423843383789e-01 6.780095100402832031e-01 7.370219230651855469e-01
8.221405148506164551e-01 6.824718117713928223e-01 7.375020384788513184e-01
8.201007843017578125e-01 6.806713342666625977e-01 7.416180372238159180e-01
8.202930092811584473e-01 6.852763891220092773e-01 7.419992089271545410e-01
1.028038859367370605e+00 5.603961944580078125e-01 7.464970350265502930e-01
1.027207136154174805e+00 5.673866868019104004e-01 7.465820312500000000e-01
1.023038744926452637e+00 5.565164089202880859e-01 7.460640072822570801e-01
1.022230029106140137e+00 5.636199712753295898e-01 7.463012933731079102e-01
9.850385785102844238e-01 5.287585258483886719e-01 7.472043037414550781e-01
9.826410412788391113e-01 5.323609709739685059e-01 7.456530332565307617e-01
9.818718433380126953e-01 5.251050591468811035e-01 7.484989166259765625e-01
9.791854619979858398e-01 5.283330082893371582e-01 7.476061582565307617e-01
9.006231427192687988e-01 4.702446460723876953e-01 7.545858621597290039e-01
8.991106152534484863e-01 4.755222499370574951e-01 7.546391487121582031e-01
8.966356515884399414e-01 4.666735231876373291e-01 7.567914724349975586e-01
8.959077596664428711e-01 4.719153046607971191e-01 7.568626999855041504e-01
9.743769764900207520e-01 2.957555055618286133e-01 7.552919387817382812e-01
9.723384380340576172e-01 2.991650104522705078e-01 7.550903558731079102e-01
9.705356359481811523e-01 2.939249575138092041e-01 7.574962377548217773e-01
9.687339067459106445e-01 2.974306344985961914e-01 7.570616006851196289e-01
9.067978858947753906e-01 6.555755138397216797e-01 7.591227889060974121e-01
9.042415618896484375e-01 6.586280465126037598e-01 7.588738799095153809e-01
9.044260382652282715e-01 6.522149443626403809e-01 7.597723007202148438e-01
9.014304280281066895e-01 6.552628278732299805e-01 7.593381404876708984e-01
9.500547051429748535e-01 5.262922644615173340e-01 7.427086234092712402e-01
9.460629224777221680e-01 5.274484753608703613e-01 7.425105571746826172e-01
9.470965862274169922e-01 5.248286724090576172e-01 7.444468140602111816e-01
9.431235790252685547e-01 5.262185335159301758e-01 7.442013025283813477e-01
9.854186773300170898e-01 5.962136387825012207e-01 7.553821206092834473e-01
9.829271435737609863e-01 5.999408364295959473e-01 7.551854848861694336e-01
9.813270568847656250e-01 5.926404595375061035e-01 7.565195560455322266e-01
9.792084097862243652e-01 5.972489118576049805e-01 7.559852004051208496e-01
8.696724772453308105e-01 5.544243454933166504e-01 7.632374167442321777e-01
8.675785660743713379e-01 5.580917000770568848e-01 7.634413838386535645e-01
8.654265403747558594e-01 5.527689456939697266e-01 7.642973065376281738e-01
8.635515570640563965e-01 5.564640760421752930e-01 7.642340064048767090e-01
1.041776895523071289e+00 2.597098946571350098e-01 7.430464625358581543e-01
1.039291143417358398e+00 2.663266062736511230e-01 7.438761591911315918e-01
1.035789966583251953e+00 2.573687136173248291e-01 7.435373067855834961e-01
1.033606171607971191e+00 2.632144987583160400e-01 7.440711259841918945e-01
9.912656545639038086e-01 3.173218071460723877e-01 7.456966042518615723e-01
9.902194142341613770e-01 3.220328986644744873e-01 7.451854348182678223e-01
9.892248511314392090e-01 3.160071074962615967e-01 7.488667964935302734e-01
9.883916974067687988e-01 3.206448256969451904e-01 7.482903003692626953e-01
9.202835559844970703e-01 2.959896028041839600e-01 7.527300119400024414e-01
9.190337061882019043e-01 3.000251948833465576e-01 7.527217268943786621e-01
9.180861115455627441e-01 2.924036681652069092e-01 7.533025741577148438e-01
9.163577556610107422e-01 2.963168621063232422e-01 7.530329823493957520e-01
9.276298880577087402e-01 5.199345350265502930e-01 7.408738732337951660e-01
9.262890219688415527e-01 5.236891508102416992e-01 7.410829663276672363e-01
9.228767752647399902e-01 5.185377001762390137e-01 7.407636642456054688e-01
9.218471646308898926e-01 5.225594639778137207e-01 7.409377694129943848e-01
1.046490907669067383e+00 3.216063082218170166e-01 7.447276711463928223e-01
1.045460224151611328e+00 3.261787891387939453e-01 7.448336482048034668e-01
1.042440414428710938e+00 3.196983635425567627e-01 7.449514269828796387e-01
1.041934609413146973e+00 3.245308995246887207e-01 7.452583312988281250e-01
8.742547035217285156e-01 2.754740715026855469e-01 7.567065358161926270e-01
8.714267015457153320e-01 2.785567641258239746e-01 7.567122578620910645e-01
8.696630001068115234e-01 2.723598182201385498e-01 7.565984725952148438e-01
8.666832447052001953e-01 2.756825685501098633e-01 7.564035654067993164e-01
9.543071985244750977e-01 3.782587349414825439e-01 7.472540736198425293e-01
9.506826996803283691e-01 3.818630874156951904e-01 7.466769814491271973e-01
9.519211649894714355e-01 3.756481707096099854e-01 7.477770447731018066e-01
9.479804039001464844e-01 3.786309659481048584e-01 7.472923398017883301e-01
9.052444696426391602e-01 5.744821429252624512e-01 7.529101371765136719e-01
9.017163515090942383e-01 5.765750408172607422e-01 7.528426051139831543e-01
9.018121957778930664e-01 5.727809667587280273e-01 7.531545162200927734e-01
8.980814814567565918e-01 5.746484398841857910e-01 7.530950307846069336e-01
9.692305326461791992e-01 3.468364477157592773e-01 7.461442351341247559e-01
9.683212041854858398e-01 3.510998487472534180e-01 7.460708022117614746e-01
9.662212133407592773e-01 3.450608849525451660e-01 7.464430332183837891e-01
9.654565453529357910e-01 3.490614891052246094e-01 7.464256286621093750e-01
9.340778589248657227e-01 6.184717416763305664e-01 7.511317133903503418e-01
9.312818050384521484e-01 6.219509243965148926e-01 7.515872716903686523e-01
9.296576380729675293e-01 6.174019575119018555e-01 7.517977952957153320e-01
9.265899062156677246e-01 6.205800771713256836e-01 7.521955370903015137e-01
8.993951082229614258e-01 3.073438405990600586e-01 7.610154747962951660e-01
8.991245031356811523e-01 3.113186955451965332e-01 7.613191604614257812e-01
8.956435322761535645e-01 3.048042356967926025e-01 7.616854310035705566e-01
8.950974345207214355e-01 3.091030716896057129e-01 7.619936466217041016e-01
9.363268017768859863e-01 6.517432332038879395e-01 7.472437620162963867e-01
9.337892532348632812e-01 6.557100415229797363e-01 7.471842169761657715e-01
9.357166290283203125e-01 6.490548849105834961e-01 7.501376271247863770e-01
9.331405758857727051e-01 6.529096961021423340e-01 7.499755024909973145e-01
8.977654576301574707e-01 6.093880534172058105e-01 7.390005588531494141e-01
8.996013402938842773e-01 6.156697869300842285e-01 7.400077581405639648e-01
8.914632797241210938e-01 6.055487394332885742e-01 7.382955551147460938e-01
8.918410539627075195e-01 6.103522181510925293e-01 7.386904954910278320e-01
8.341620564460754395e-01 6.729868650436401367e-01 7.620930075645446777e-01
8.320454359054565430e-01 6.766937971115112305e-01 7.612208724021911621e-01
8.350759148597717285e-01 6.730406880378723145e-01 7.659928202629089355e-01
8.323480486869812012e-01 6.770681142807006836e-01 7.647941112518310547e-01
9.760802984237670898e-01 6.587520241737365723e-01 7.558661699295043945e-01
9.744472503662109375e-01 6.628767848014831543e-01 7.555275559425354004e-01
9.710580706596374512e-01 6.571633219718933105e-01 7.568389177322387695e-01
9.691154360771179199e-01 6.606212258338928223e-01 7.564770579338073730e-01
8.117901086807250977e-01 4.486087262630462646e-01 7.650635242462158203e-01
8.100311756134033203e-01 4.550277292728424072e-01 7.645153403282165527e-01
8.139442801475524902e-01 4.480650424957275391e-01 7.703911662101745605e-01
8.120228648185729980e-01 4.544870853424072266e-01 7.695733904838562012e-01
9.245871305465698242e-01 5.402764081954956055e-01 7.505639791488647461e-01
9.226187467575073242e-01 5.438446998596191406e-01 7.508922219276428223e-01
9.224218130111694336e-01 5.381358861923217773e-01 7.531353235244750977e-01
9.197971224784851074e-01 5.420131087303161621e-01 7.534675002098083496e-01
1.036082029342651367e+00 2.435817867517471313e-01 7.443993687629699707e-01
1.034254193305969238e+00 2.491273283958435059e-01 7.449973225593566895e-01
1.028032541275024414e+00 2.400701493024826050e-01 7.436068654060363770e-01
1.025673031806945801e+00 2.459267079830169678e-01 7.442613244056701660e-01
9.172254204750061035e-01 4.962335824966430664e-01 7.519438862800598145e-01
9.179342389106750488e-01 4.998495280742645264e-01 7.518203854560852051e-01
9.137587547302246094e-01 4.937917590141296387e-01 7.523955106735229492e-01
9.142575860023498535e-01 4.974892735481262207e-01 7.521653175354003906e-01
8.952775001525878906e-01 4.325446486473083496e-01 7.581493258476257324e-01
8.934480547904968262e-01 4.366204440593719482e-01 7.581704258918762207e-01
8.926019668579101562e-01 4.293951690196990967e-01 7.596229314804077148e-01
8.909848928451538086e-01 4.338547587394714355e-01 7.595669031143188477e-01
9.709634184837341309e-01 5.872275233268737793e-01 7.454759478569030762e-01
9.659347534179687500e-01 5.893886685371398926e-01 7.449308633804321289e-01
9.683485627174377441e-01 5.875743627548217773e-01 7.466291189193725586e-01
9.633593559265136719e-01 5.897619724273681641e-01 7.461896538734436035e-01
1.000333070755004883e+00 5.078813433647155762e-01 7.432591319084167480e-01
1.000444531440734863e+00 5.115489959716796875e-01 7.436399459838867188e-01
9.967896342277526855e-01 5.060238242149353027e-01 7.434155941009521484e-01
9.975010752677917480e-01 5.098044872283935547e-01 7.438616752624511719e-01
9.571799039840698242e-01 3.222441077232360840e-01 7.473897933959960938e-01
9.553775191307067871e-01 3.267086446285247803e-01 7.473974227905273438e-01
9.552241563796997070e-01 3.202071189880371094e-01 7.479689121246337891e-01
9.531527161598205566e-01 3.244568407535552979e-01 7.481687068939208984e-01
8.309563994407653809e-01 6.477355957031250000e-01 7.391257882118225098e-01
8.303422927856445312e-01 6.528266668319702148e-01 7.390378117561340332e-01
8.278126716613769531e-01 6.473771333694458008e-01 7.414312362670898438e-01
8.270816206932067871e-01 6.526507735252380371e-01 7.413852810859680176e-01
9.919732809066772461e-01 2.862508893013000488e-01 7.467333674430847168e-01
9.884349107742309570e-01 2.897820770740509033e-01 7.465962767601013184e-01
9.880684614181518555e-01 2.849376499652862549e-01 7.474161982536315918e-01
9.847732782363891602e-01 2.887817323207855225e-01 7.475240230560302734e-01
9.286128878593444824e-01 6.004962325096130371e-01 7.548998594284057617e-01
9.264266490936279297e-01 6.044931411743164062e-01 7.551460266113281250e-01
9.209262728691101074e-01 6.014272570610046387e-01 7.549953460693359375e-01
9.183393120765686035e-01 6.056023836135864258e-01 7.558611035346984863e-01
8.690332174301147461e-01 2.289077937602996826e-01 7.636083364486694336e-01
8.660736680030822754e-01 2.316947728395462036e-01 7.641506195068359375e-01
8.626574873924255371e-01 2.277254760265350342e-01 7.643029689788818359e-01
8.609195947647094727e-01 2.313635349273681641e-01 7.650153636932373047e-01
1.009718656539916992e+00 6.216911077499389648e-01 7.447631955146789551e-01
1.008247017860412598e+00 6.266812682151794434e-01 7.452411055564880371e-01
1.003823637962341309e+00 6.197584867477416992e-01 7.433965802192687988e-01
1.002430438995361328e+00 6.240904927253723145e-01 7.437067627906799316e-01
9.111417531967163086e-01 3.959398567676544189e-01 7.582927942276000977e-01
9.093472361564636230e-01 4.000365138053894043e-01 7.579244375228881836e-01
9.063616991043090820e-01 3.933202922344207764e-01 7.589906454086303711e-01
9.043888449668884277e-01 3.975571990013122559e-01 7.591307163238525391e-01
8.397943377494812012e-01 7.062364816665649414e-01 7.605555653572082520e-01
8.375198841094970703e-01 7.091244459152221680e-01 7.593663930892944336e-01
8.395705819129943848e-01 7.055534720420837402e-01 7.648662924766540527e-01
8.375079631805419922e-01 7.087255120277404785e-01 7.633395791053771973e-01
8.839864134788513184e-01 5.890393853187561035e-01 7.424252033233642578e-01
8.817825913429260254e-01 5.925745368003845215e-01 7.427181005477905273e-01
8.778339624404907227e-01 5.850057005882263184e-01 7.416969537734985352e-01
8.755758404731750488e-01 5.895098447799682617e-01 7.418349981307983398e-01
1.029904484748840332e+00 5.042436718940734863e-01 7.471022009849548340e-01
1.029032707214355469e+00 5.096026062965393066e-01 7.471657991409301758e-01
1.024656891822814941e+00 5.010734796524047852e-01 7.470365166664123535e-01
1.024232625961303711e+00 5.066474080085754395e-01 7.470645904541015625e-01
8.645859956741333008e-01 2.410630136728286743e-01 7.556214332580566406e-01
8.608268499374389648e-01 2.441357523202896118e-01 7.554482817649841309e-01
8.622706532478332520e-01 2.432611137628555298e-01 7.588989734649658203e-01
8.585580587387084961e-01 2.462394535541534424e-01 7.586438655853271484e-01
9.530316591262817383e-01 5.592931509017944336e-01 7.505070567131042480e-01
9.506215453147888184e-01 5.637022256851196289e-01 7.505834698677062988e-01
9.500468373298645020e-01 5.572741031646728516e-01 7.517627477645874023e-01
9.476169347763061523e-01 5.618203282356262207e-01 7.519791126251220703e-01
8.160910606384277344e-01 5.698987245559692383e-01 7.623529434204101562e-01
8.145371675491333008e-01 5.753762125968933105e-01 7.624981999397277832e-01
8.134927749633789062e-01 5.671834945678710938e-01 7.636020183563232422e-01
8.118412494659423828e-01 5.729988813400268555e-01 7.640269994735717773e-01
9.751157164573669434e-01 3.500974476337432861e-01 7.545344829559326172e-01
9.734584093093872070e-01 3.546296060085296631e-01 7.548202276229858398e-01
9.697436094284057617e-01 3.476671278476715088e-01 7.545959353446960449e-01
9.685984849929809570e-01 3.516380786895751953e-01 7.544098496437072754e-01
9.386649727821350098e-01 5.363845229148864746e-01 7.496221661567687988e-01
9.369072914123535156e-01 5.397257208824157715e-01 7.498465180397033691e-01
9.349793791770935059e-01 5.350061058998107910e-01 7.513036131858825684e-01
9.333221316337585449e-01 5.381050705909729004e-01 7.512877583503723145e-01
9.193708896636962891e-01 5.222909450531005859e-01 7.614289522171020508e-01
9.178187847137451172e-01 5.268381834030151367e-01 7.622106671333312988e-01
9.146595597267150879e-01 5.210343599319458008e-01 7.626868486404418945e-01
9.136430621147155762e-01 5.253664255142211914e-01 7.633656859397888184e-01
9.126977324485778809e-01 3.534868061542510986e-01 7.416245937347412109e-01
9.092063903808593750e-01 3.565684854984283447e-01 7.412405610084533691e-01
9.080008268356323242e-01 3.499411642551422119e-01 7.401109933853149414e-01
9.050262570381164551e-01 3.531961739063262939e-01 7.396593689918518066e-01
9.291337728500366211e-01 4.701400995254516602e-01 7.573588490486145020e-01
9.262705445289611816e-01 4.724619090557098389e-01 7.572209835052490234e-01
9.253112673759460449e-01 4.685550630092620850e-01 7.585220932960510254e-01
9.226511716842651367e-01 4.712869822978973389e-01 7.586933970451354980e-01
9.206536412239074707e-01 6.178315877914428711e-01 7.515238523483276367e-01
9.154644608497619629e-01 6.196950674057006836e-01 7.507154941558837891e-01
9.180324673652648926e-01 6.151121258735656738e-01 7.512009739875793457e-01
9.128389358520507812e-01 6.172988414764404297e-01 7.505211830139160156e-01
9.419572353363037109e-01 4.549525976181030273e-01 7.593662738800048828e-01
9.410618543624877930e-01 4.603770375251770020e-01 7.596974372863769531e-01
9.380576014518737793e-01 4.524850845336914062e-01 7.613240480422973633e-01
9.366261959075927734e-01 4.577305018901824951e-01 7.615118622779846191e-01
1.058741092681884766e+00 3.844999969005584717e-01 7.457767128944396973e-01
1.054653882980346680e+00 3.881401419639587402e-01 7.453411817550659180e-01
1.053672432899475098e+00 3.813672363758087158e-01 7.460814118385314941e-01
1.049753904342651367e+00 3.853676319122314453e-01 7.456059455871582031e-01
9.569041132926940918e-01 5.815103650093078613e-01 7.471731305122375488e-01
9.525869488716125488e-01 5.852353572845458984e-01 7.473794817924499512e-01
9.531669020652770996e-01 5.805787444114685059e-01 7.483662962913513184e-01
9.490936398506164551e-01 5.841462612152099609e-01 7.485717535018920898e-01
1.059211969375610352e+00 4.246011376380920410e-01 7.429104447364807129e-01
1.056834936141967773e+00 4.291406571865081787e-01 7.432479858398437500e-01
1.053510904312133789e+00 4.246518909931182861e-01 7.434090971946716309e-01
1.052456378936767578e+00 4.295406043529510498e-01 7.439213395118713379e-01
9.339761734008789062e-01 3.243676722049713135e-01 7.542994618415832520e-01
9.291238784790039062e-01 3.255552053451538086e-01 7.543357014656066895e-01
9.305480718612670898e-01 3.236930370330810547e-01 7.556604146957397461e-01
9.254583716392517090e-01 3.248614668846130371e-01 7.557136416435241699e-01
9.147703647613525391e-01 4.995263814926147461e-01 7.587755918502807617e-01
9.134217500686645508e-01 5.039072632789611816e-01 7.592053413391113281e-01
9.109655618667602539e-01 4.993190467357635498e-01 7.590699791908264160e-01
9.096504449844360352e-01 5.036899447441101074e-01 7.595432996749877930e-01
9.294471144676208496e-01 6.624544858932495117e-01 7.511883974075317383e-01
9.265176653861999512e-01 6.666838526725769043e-01 7.514158487319946289e-01
9.251342415809631348e-01 6.605684161186218262e-01 7.529488205909729004e-01
9.224187731742858887e-01 6.647451519966125488e-01 7.531386017799377441e-01
8.733403682708740234e-01 4.657298028469085693e-01 7.587158679962158203e-01
8.712641596794128418e-01 4.699714779853820801e-01 7.583724856376647949e-01
8.700199127197265625e-01 4.625820815563201904e-01 7.578456997871398926e-01
8.673331737518310547e-01 4.666271507740020752e-01 7.577245831489562988e-01
9.474418163299560547e-01 4.739397168159484863e-01 7.597081661224365234e-01
9.420673847198486328e-01 4.749523401260375977e-01 7.594162225723266602e-01
9.450774192810058594e-01 4.723066389560699463e-01 7.614307403564453125e-01
9.402812123298645020e-01 4.736706018447875977e-01 7.613903880119323730e-01
9.254827499389648438e-01 5.803441405296325684e-01 7.421792149543762207e-01
9.236592650413513184e-01 5.853094458580017090e-01 7.427616119384765625e-01
9.222054481506347656e-01 5.771675705909729004e-01 7.433296442031860352e-01
9.196606278419494629e-01 5.817514657974243164e-01 7.435973882675170898e-01
8.088777065277099609e-01 5.467807054519653320e-01 7.528108358383178711e-01
8.088272213935852051e-01 5.541332364082336426e-01 7.533312439918518066e-01
8.077555894851684570e-01 5.452850461006164551e-01 7.568823695182800293e-01
8.076910376548767090e-01 5.525741577148437500e-01 7.571817040443420410e-01
9.186654090881347656e-01 3.231270611286163330e-01 7.608804702758789062e-01
9.166634678840637207e-01 3.263098001480102539e-01 7.610616683959960938e-01
9.130157828330993652e-01 3.208392262458801270e-01 7.614469528198242188e-01
9.110068082809448242e-01 3.241499662399291992e-01 7.616800069808959961e-01
9.302549958229064941e-01 4.570262134075164795e-01 7.554627656936645508e-01
9.279754161834716797e-01 4.610759317874908447e-01 7.553910613059997559e-01
9.268496632575988770e-01 4.569561481475830078e-01 7.574082612991333008e-01
9.242847561836242676e-01 4.609890878200531006e-01 7.572553157806396484e-01
8.317414522171020508e-01 6.879612207412719727e-01 7.509888410568237305e-01
8.318499326705932617e-01 6.917674541473388672e-01 7.502373456954956055e-01
8.322751522064208984e-01 6.871400475502014160e-01 7.548181414604187012e-01
8.323034048080444336e-01 6.909264326095581055e-01 7.540962100028991699e-01
8.359955549240112305e-01 6.247999072074890137e-01 7.350383400917053223e-01
8.346536755561828613e-01 6.292123198509216309e-01 7.352085709571838379e-01
8.337773084640502930e-01 6.245000362396240234e-01 7.389919757843017578e-01
8.325985074043273926e-01 6.291580796241760254e-01 7.393699884414672852e-01
8.911952376365661621e-01 5.704298019409179688e-01 7.559262514114379883e-01
8.901610374450683594e-01 5.742646455764770508e-01 7.559631466865539551e-01
8.870379924774169922e-01 5.686010122299194336e-01 7.557672858238220215e-01
8.863459825515747070e-01 5.726909041404724121e-01 7.556523084640502930e-01
8.836758136749267578e-01 3.232502043247222900e-01 7.554897069931030273e-01
8.812558054924011230e-01 3.273377120494842529e-01 7.563399672508239746e-01
8.800237774848937988e-01 3.203590810298919678e-01 7.561401724815368652e-01
8.773037791252136230e-01 3.249187469482421875e-01 7.570188641548156738e-01
8.581359386444091797e-01 5.421773791313171387e-01 7.581487894058227539e-01
8.565332293510437012e-01 5.459333062171936035e-01 7.583535909652709961e-01
8.549845814704895020e-01 5.406793951988220215e-01 7.597774863243103027e-01
8.533416390419006348e-01 5.444874167442321777e-01 7.598848938941955566e-01
1.037207603454589844e+00 3.534080088138580322e-01 7.456330657005310059e-01
1.035525798797607422e+00 3.575122952461242676e-01 7.458093166351318359e-01
1.031262993812561035e+00 3.487511277198791504e-01 7.446801662445068359e-01
1.029673576354980469e+00 3.533494174480438232e-01 7.449173927307128906e-01
9.893066287040710449e-01 4.104011356830596924e-01 7.430617809295654297e-01
9.880536794662475586e-01 4.156812131404876709e-01 7.435607314109802246e-01
9.842111468315124512e-01 4.081767797470092773e-01 7.432031631469726562e-01
9.827025532722473145e-01 4.130474627017974854e-01 7.436692714691162109e-01
8.880929946899414062e-01 4.965541362762451172e-01 7.584881782531738281e-01
8.861755132675170898e-01 5.002694129943847656e-01 7.589608430862426758e-01
8.828365802764892578e-01 4.930350184440612793e-01 7.580096125602722168e-01
8.802955150604248047e-01 4.967976212501525879e-01 7.583635449409484863e-01
8.854800462722778320e-01 5.772289037704467773e-01 7.555631399154663086e-01
8.839862346649169922e-01 5.814939737319946289e-01 7.558688521385192871e-01
8.813360929489135742e-01 5.747691988945007324e-01 7.559607625007629395e-01
8.799290657043457031e-01 5.791954994201660156e-01 7.562469840049743652e-01
8.706818819046020508e-01 4.168854951858520508e-01 7.599491477012634277e-01
8.694635033607482910e-01 4.229576885700225830e-01 7.602924108505249023e-01
8.656508922576904297e-01 4.155001342296600342e-01 7.610360383987426758e-01
8.641404509544372559e-01 4.214385151863098145e-01 7.614378333091735840e-01
9.460835456848144531e-01 7.074820399284362793e-01 7.526324987411499023e-01
9.425085186958312988e-01 7.103874683380126953e-01 7.515177726745605469e-01
9.413579702377319336e-01 7.051796317100524902e-01 7.555899620056152344e-01
9.378145933151245117e-01 7.082702517509460449e-01 7.545986771583557129e-01
8.644605278968811035e-01 6.055344343185424805e-01 7.624512314796447754e-01
8.620947003364562988e-01 6.099020242691040039e-01 7.618914842605590820e-01
8.599978685379028320e-01 6.040819883346557617e-01 7.636269330978393555e-01
8.576726913452148438e-01 6.091243028640747070e-01 7.631081938743591309e-01
8.115183711051940918e-01 4.436998963356018066e-01 7.363031506538391113e-01
8.119543790817260742e-01 4.501862525939941406e-01 7.349433302879333496e-01
8.098387718200683594e-01 4.446846246719360352e-01 7.420865297317504883e-01
8.101715445518493652e-01 4.510135352611541748e-01 7.407331466674804688e-01
8.317413926124572754e-01 5.765227675437927246e-01 7.484424114227294922e-01
8.325592875480651855e-01 5.819910764694213867e-01 7.500315308570861816e-01
8.308897614479064941e-01 5.749145746231079102e-01 7.495377063751220703e-01
8.317076563835144043e-01 5.803828835487365723e-01 7.511268258094787598e-01
9.898443818092346191e-01 5.314449667930603027e-01 7.503782510757446289e-01
9.875764250755310059e-01 5.351209640502929688e-01 7.489314079284667969e-01
9.864944815635681152e-01 5.265330076217651367e-01 7.517734766006469727e-01
9.840798974037170410e-01 5.305060744285583496e-01 7.502897381782531738e-01
9.559433460235595703e-01 2.870127856731414795e-01 7.430272698402404785e-01
9.531516432762145996e-01 2.906164824962615967e-01 7.434332370758056641e-01
9.537531137466430664e-01 2.845558226108551025e-01 7.440233230590820312e-01
9.507490992546081543e-01 2.881155312061309814e-01 7.445510625839233398e-01
9.830374717712402344e-01 4.052398204803466797e-01 7.579430937767028809e-01
9.794987440109252930e-01 4.079804718494415283e-01 7.577918767929077148e-01
9.797406792640686035e-01 4.044762253761291504e-01 7.593435049057006836e-01
9.758520722389221191e-01 4.070357084274291992e-01 7.590387463569641113e-01
1.005808591842651367e+00 4.445913732051849365e-01 7.446899414062500000e-01
1.002164602279663086e+00 4.485842287540435791e-01 7.436883449554443359e-01
1.004283547401428223e+00 4.432382285594940186e-01 7.454333305358886719e-01
1.000639200210571289e+00 4.472065269947052002e-01 7.443643212318420410e-01
1.011060953140258789e+00 5.047350525856018066e-01 7.464934587478637695e-01
1.007646441459655762e+00 5.067329406738281250e-01 7.462987303733825684e-01
1.007231950759887695e+00 5.034033656120300293e-01 7.471491694450378418e-01
1.003992199897766113e+00 5.052784085273742676e-01 7.468332648277282715e-01
9.563841223716735840e-01 2.283629477024078369e-01 7.508349418640136719e-01
9.568219780921936035e-01 2.319192588329315186e-01 7.522771954536437988e-01
9.531787633895874023e-01 2.282319068908691406e-01 7.524576783180236816e-01
9.536781907081604004e-01 2.319651544094085693e-01 7.537724971771240234e-01
8.833553194999694824e-01 6.946269869804382324e-01 7.555600404739379883e-01
8.810741901397705078e-01 6.990960240364074707e-01 7.548522949218750000e-01
8.803079128265380859e-01 6.915577054023742676e-01 7.568314075469970703e-01
8.783296942710876465e-01 6.956663727760314941e-01 7.558761239051818848e-01
9.526975750923156738e-01 3.107307553291320801e-01 7.474904656410217285e-01
9.492829442024230957e-01 3.147860169410705566e-01 7.482832670211791992e-01
9.494221210479736328e-01 3.093809783458709717e-01 7.471429705619812012e-01
9.455726146697998047e-01 3.135809004306793213e-01 7.481291890144348145e-01
8.705673813819885254e-01 3.517870306968688965e-01 7.598018646240234375e-01
8.682372570037841797e-01 3.553804159164428711e-01 7.599309086799621582e-01
8.662163615226745605e-01 3.491507470607757568e-01 7.609393000602722168e-01
8.644455671310424805e-01 3.540077209472656250e-01 7.612542510032653809e-01
8.922394514083862305e-01 4.031628668308258057e-01 7.560012340545654297e-01
8.894903063774108887e-01 4.062851965427398682e-01 7.556953430175781250e-01
8.882578015327453613e-01 4.022852480411529541e-01 7.576182484626770020e-01
8.856627941131591797e-01 4.054772853851318359e-01 7.573730945587158203e-01
8.250543475151062012e-01 3.938913345336914062e-01 7.384876608848571777e-01
8.235999345779418945e-01 3.991340100765228271e-01 7.387048006057739258e-01
8.199115991592407227e-01 3.932444453239440918e-01 7.400251030921936035e-01
8.185005784034729004e-01 3.980578184127807617e-01 7.405423521995544434e-01
1.025009751319885254e+00 2.971112132072448730e-01 7.445977926254272461e-01
1.024359703063964844e+00 3.041963279247283936e-01 7.454884648323059082e-01
1.017827749252319336e+00 2.942937910556793213e-01 7.425149679183959961e-01
1.017168521881103516e+00 3.004748523235321045e-01 7.431653738021850586e-01
8.118000030517578125e-01 3.469717800617218018e-01 7.618052363395690918e-01
8.104951977729797363e-01 3.538278937339782715e-01 7.622952461242675781e-01
8.133324980735778809e-01 3.460063338279724121e-01 7.657976746559143066e-01
8.120308518409729004e-01 3.527405858039855957e-01 7.662358283996582031e-01
1.005434989929199219e+00 2.816616594791412354e-01 7.496894001960754395e-01
1.001909852027893066e+00 2.825382649898529053e-01 7.484679818153381348e-01
1.003269076347351074e+00 2.779924273490905762e-01 7.505056262016296387e-01
9.998424053192138672e-01 2.788905203342437744e-01 7.494773268699645996e-01
9.131838679313659668e-01 3.345387279987335205e-01 7.527281045913696289e-01
9.099264144897460938e-01 3.388307690620422363e-01 7.524816989898681641e-01
9.101750850677490234e-01 3.329536914825439453e-01 7.537348866462707520e-01
9.068402051925659180e-01 3.366688489913940430e-01 7.533752322196960449e-01
8.819838166236877441e-01 2.516366243362426758e-01 7.557385563850402832e-01
8.812621235847473145e-01 2.566185295581817627e-01 7.556632757186889648e-01
8.775438070297241211e-01 2.507393360137939453e-01 7.570061683654785156e-01
8.768690228462219238e-01 2.554563879966735840e-01 7.570419907569885254e-01
9.521068930625915527e-01 5.308877825736999512e-01 7.477756738662719727e-01
9.479591846466064453e-01 5.328735113143920898e-01 7.474839091300964355e-01
9.500026106834411621e-01 5.298398137092590332e-01 7.504521012306213379e-01
9.458537697792053223e-01 5.319010615348815918e-01 7.500905394554138184e-01
9.132485985755920410e-01 6.990942358970642090e-01 7.525984644889831543e-01
9.105545282363891602e-01 7.018789649009704590e-01 7.513889074325561523e-01
9.088795781135559082e-01 6.974575519561767578e-01 7.551600337028503418e-01
9.065428376197814941e-01 7.011606097221374512e-01 7.539066076278686523e-01
9.340599179267883301e-01 4.898841977119445801e-01 7.437219619750976562e-01
9.325659871101379395e-01 4.929299950599670410e-01 7.440052628517150879e-01
9.306610226631164551e-01 4.878619313240051270e-01 7.429528236389160156e-01
9.290205240249633789e-01 4.908590018749237061e-01 7.431585788726806641e-01
9.763315320014953613e-01 4.516969323158264160e-01 7.436028718948364258e-01
9.752070307731628418e-01 4.555221796035766602e-01 7.440838813781738281e-01
9.713336825370788574e-01 4.501191079616546631e-01 7.439168095588684082e-01
9.709274172782897949e-01 4.541938006877899170e-01 7.443419694900512695e-01
1.041776299476623535e+00 2.312086671590805054e-01 7.445830702781677246e-01
1.039402484893798828e+00 2.363361567258834839e-01 7.448639869689941406e-01
1.036474823951721191e+00 2.279128134250640869e-01 7.439969182014465332e-01
1.031789779663085938e+00 2.315565049648284912e-01 7.440694570541381836e-01
9.733872413635253906e-01 2.908869385719299316e-01 7.517127990722656250e-01
9.705727100372314453e-01 2.943128645420074463e-01 7.516421675682067871e-01
9.707211852073669434e-01 2.881056368350982666e-01 7.537594437599182129e-01
9.676707386970520020e-01 2.912147939205169678e-01 7.536840438842773438e-01
8.311274051666259766e-01 2.813280224800109863e-01 7.507265806198120117e-01
8.310323953628540039e-01 2.844907045364379883e-01 7.505232095718383789e-01
8.318479061126708984e-01 2.790874242782592773e-01 7.523360848426818848e-01
8.315477371215820312e-01 2.820505201816558838e-01 7.517279386520385742e-01
9.210659265518188477e-01 4.836065471172332764e-01 7.595202326774597168e-01
9.184304475784301758e-01 4.872559010982513428e-01 7.595380544662475586e-01
9.187253713607788086e-01 4.823191165924072266e-01 7.607071399688720703e-01
9.159133434295654297e-01 4.858956336975097656e-01 7.607524394989013672e-01
9.067270159721374512e-01 5.819275379180908203e-01 7.523883581161499023e-01
9.048314690589904785e-01 5.852538347244262695e-01 7.525197863578796387e-01
9.026497006416320801e-01 5.800136327743530273e-01 7.527980804443359375e-01
9.007518291473388672e-01 5.831415653228759766e-01 7.528266310691833496e-01
8.503750562667846680e-01 4.600965678691864014e-01 7.591089010238647461e-01
8.476427793502807617e-01 4.646569490432739258e-01 7.594243884086608887e-01
8.469253182411193848e-01 4.590687453746795654e-01 7.595617175102233887e-01
8.443929553031921387e-01 4.641209840774536133e-01 7.596372961997985840e-01
9.712008237838745117e-01 4.017462432384490967e-01 7.476858496665954590e-01
9.695680737495422363e-01 4.049881100654602051e-01 7.474650144577026367e-01
9.676944613456726074e-01 3.988645970821380615e-01 7.471933960914611816e-01
9.660223722457885742e-01 4.020607769489288330e-01 7.469213008880615234e-01
9.178404808044433594e-01 2.463336586952209473e-01 7.510101795196533203e-01
9.171530604362487793e-01 2.494010925292968750e-01 7.508380413055419922e-01
9.148875474929809570e-01 2.456198781728744507e-01 7.535937428474426270e-01
9.142991304397583008e-01 2.485795915126800537e-01 7.535350918769836426e-01
1.007753729820251465e+00 2.835105955600738525e-01 7.441921830177307129e-01
1.004533171653747559e+00 2.849012017250061035e-01 7.428924441337585449e-01
1.006695151329040527e+00 2.800523638725280762e-01 7.453243136405944824e-01
1.003262639045715332e+00 2.811256647109985352e-01 7.439192533493041992e-01
8.641605377197265625e-01 3.361207544803619385e-01 7.661818265914916992e-01
8.614498972892761230e-01 3.411667346954345703e-01 7.670435309410095215e-01
8.595567941665649414e-01 3.342535197734832764e-01 7.696918249130249023e-01
8.575308918952941895e-01 3.391193449497222900e-01 7.704157829284667969e-01
1.018791675567626953e+00 2.311285436153411865e-01 7.436011433601379395e-01
1.016674876213073730e+00 2.361029833555221558e-01 7.440724372863769531e-01
1.013689517974853516e+00 2.293032407760620117e-01 7.425035238265991211e-01
1.011963009834289551e+00 2.335675209760665894e-01 7.429276108741760254e-01
9.192575216293334961e-01 4.557448327541351318e-01 7.517608404159545898e-01
9.145309329032897949e-01 4.571163952350616455e-01 7.503572702407836914e-01
9.185550212860107422e-01 4.552267491817474365e-01 7.534347176551818848e-01
9.136889576911926270e-01 4.566442668437957764e-01 7.519052624702453613e-01
9.401987791061401367e-01 2.499166876077651978e-01 7.466363906860351562e-01
9.356579184532165527e-01 2.523353397846221924e-01 7.452533841133117676e-01
9.400435686111450195e-01 2.483499050140380859e-01 7.486004829406738281e-01
9.354806542396545410e-01 2.507224678993225098e-01 7.472547292709350586e-01
8.794052004814147949e-01 3.882930576801300049e-01 7.592345476150512695e-01
8.777690529823303223e-01 3.911077082157135010e-01 7.587467432022094727e-01
8.762977719306945801e-01 3.856465816497802734e-01 7.608852386474609375e-01
8.739176392555236816e-01 3.886133730411529541e-01 7.607367038726806641e-01
9.474381208419799805e-01 4.392696619033813477e-01 7.581067681312561035e-01
9.459192156791687012e-01 4.435513019561767578e-01 7.581052184104919434e-01
9.469820261001586914e-01 4.367006719112396240e-01 7.596318721771240234e-01
9.449583888053894043e-01 4.407681524753570557e-01 7.593550086021423340e-01
8.074920177459716797e-01 6.861518025398254395e-01 7.534125447273254395e-01
8.076389431953430176e-01 6.942656040191650391e-01 7.522087097167968750e-01
8.086240887641906738e-01 6.841518282890319824e-01 7.605865597724914551e-01
8.083718419075012207e-01 6.920843124389648438e-01 7.593501806259155273e-01
8.502382636070251465e-01 3.620142936706542969e-01 7.374932765960693359e-01
8.493468761444091797e-01 3.680312931537628174e-01 7.378395795822143555e-01
8.460532426834106445e-01 3.583113253116607666e-01 7.368460297584533691e-01
8.451526165008544922e-01 3.639004528522491455e-01 7.371581792831420898e-01
9.179106354713439941e-01 5.965781807899475098e-01 7.428896427154541016e-01
9.168356657028198242e-01 6.006813645362854004e-01 7.436389923095703125e-01
9.115291237831115723e-01 5.934852957725524902e-01 7.413255572319030762e-01
9.103803634643554688e-01 5.980525612831115723e-01 7.423086762428283691e-01
8.142075538635253906e-01 5.185231566429138184e-01 7.631033658981323242e-01
8.125246763229370117e-01 5.247204899787902832e-01 7.638487219810485840e-01
8.100042939186096191e-01 5.169723629951477051e-01 7.644952535629272461e-01
8.083214163780212402e-01 5.231696963310241699e-01 7.652406096458435059e-01
1.008538126945495605e+00 2.220250517129898071e-01 7.451148033142089844e-01
1.004771113395690918e+00 2.253382354974746704e-01 7.448456287384033203e-01
1.004173994064331055e+00 2.205244749784469604e-01 7.464917302131652832e-01
9.997915029525756836e-01 2.230606228113174438e-01 7.460443973541259766e-01
9.069963097572326660e-01 6.572590470314025879e-01 7.531937956809997559e-01
9.051752090454101562e-01 6.602804064750671387e-01 7.534148097038269043e-01
9.034981727600097656e-01 6.555619239807128906e-01 7.531000375747680664e-01
9.018577933311462402e-01 6.584973335266113281e-01 7.533818483352661133e-01
9.034428596496582031e-01 4.089302122592926025e-01 7.437421083450317383e-01
9.009600281715393066e-01 4.118330776691436768e-01 7.428069710731506348e-01
8.997383713722229004e-01 4.051654934883117676e-01 7.440184354782104492e-01
8.974085450172424316e-01 4.081124961376190186e-01 7.432228326797485352e-01
8.279037475585937500e-01 4.002288579940795898e-01 7.382800579071044922e-01
8.266803622245788574e-01 4.056854844093322754e-01 7.383875846862792969e-01
8.231216669082641602e-01 3.990764021873474121e-01 7.394188642501831055e-01
8.217694163322448730e-01 4.044317901134490967e-01 7.397348880767822266e-01
9.504292607307434082e-01 4.887713789939880371e-01 7.584239244461059570e-01
9.481300115585327148e-01 4.922041594982147217e-01 7.581670284271240234e-01
9.478807449340820312e-01 4.859526455402374268e-01 7.588053941726684570e-01
9.441713094711303711e-01 4.881086945533752441e-01 7.582998275756835938e-01
9.314430952072143555e-01 2.379277646541595459e-01 7.605991363525390625e-01
9.317491650581359863e-01 2.428742945194244385e-01 7.614500522613525391e-01
9.261069297790527344e-01 2.372036427259445190e-01 7.605064511299133301e-01
9.261443018913269043e-01 2.424336373805999756e-01 7.613578438758850098e-01
8.322594165802001953e-01 3.419145941734313965e-01 7.503990530967712402e-01
8.317757844924926758e-01 3.460666537284851074e-01 7.499139904975891113e-01
8.316234350204467773e-01 3.410302996635437012e-01 7.539474964141845703e-01
8.309010863304138184e-01 3.451495170593261719e-01 7.534922957420349121e-01
9.159767627716064453e-01 4.557260572910308838e-01 7.521175146102905273e-01
9.111453294754028320e-01 4.570655226707458496e-01 7.506014704704284668e-01
9.158734083175659180e-01 4.552973210811614990e-01 7.539709210395812988e-01
9.110419750213623047e-01 4.566367864608764648e-01 7.524548768997192383e-01
8.981004953384399414e-01 6.553403139114379883e-01 7.530233860015869141e-01
8.968915343284606934e-01 6.581279635429382324e-01 7.529431581497192383e-01
8.953646421432495117e-01 6.542612910270690918e-01 7.538388371467590332e-01
8.941156268119812012e-01 6.570946574211120605e-01 7.535699009895324707e-01
9.897183775901794434e-01 5.067473053932189941e-01 7.465482354164123535e-01
9.901662468910217285e-01 5.102340579032897949e-01 7.468928098678588867e-01
9.861511588096618652e-01 5.050035715103149414e-01 7.465878725051879883e-01
9.855859279632568359e-01 5.082296729087829590e-01 7.466382980346679688e-01
9.898992180824279785e-01 3.462105691432952881e-01 7.470955848693847656e-01
9.883269071578979492e-01 3.489715754985809326e-01 7.475851774215698242e-01
9.876171946525573730e-01 3.444997370243072510e-01 7.483672499656677246e-01
9.861097931861877441e-01 3.468125760555267334e-01 7.485780715942382812e-01
8.625640273094177246e-01 6.300109624862670898e-01 7.596355676651000977e-01
8.621847629547119141e-01 6.367926001548767090e-01 7.594996690750122070e-01
8.560832738876342773e-01 6.281880140304565430e-01 7.596842646598815918e-01
8.558676838874816895e-01 6.340370774269104004e-01 7.594350576400756836e-01
8.954749703407287598e-01 2.932694554328918457e-01 7.393512725830078125e-01
8.922933340072631836e-01 2.972767949104309082e-01 7.388113141059875488e-01
8.921708464622497559e-01 2.897511720657348633e-01 7.390286922454833984e-01
8.887196779251098633e-01 2.944314479827880859e-01 7.386246919631958008e-01
8.787205815315246582e-01 3.431399166584014893e-01 7.567030787467956543e-01
8.779445886611938477e-01 3.462770879268646240e-01 7.570545673370361328e-01
8.753080964088439941e-01 3.414669632911682129e-01 7.579150199890136719e-01
8.744117021560668945e-01 3.449356257915496826e-01 7.584228515625000000e-01
8.307881355285644531e-01 4.967020452022552490e-01 7.510471940040588379e-01
8.300659656524658203e-01 5.012223720550537109e-01 7.502302527427673340e-01
8.320663571357727051e-01 4.962711334228515625e-01 7.547445893287658691e-01
8.314422369003295898e-01 5.009106993675231934e-01 7.541754245758056641e-01
8.535044193267822266e-01 2.376751154661178589e-01 7.694582343101501465e-01
8.500873446464538574e-01 2.415378838777542114e-01 7.696970105171203613e-01
8.475207090377807617e-01 2.371598780155181885e-01 7.707309722900390625e-01
8.440026044845581055e-01 2.410539388656616211e-01 7.711111307144165039e-01
8.971657156944274902e-01 2.285766303539276123e-01 7.592956423759460449e-01
8.931624889373779297e-01 2.306179851293563843e-01 7.588013410568237305e-01
8.941518664360046387e-01 2.290326058864593506e-01 7.606925368309020996e-01
8.905864357948303223e-01 2.315069139003753662e-01 7.603439092636108398e-01
9.318192601203918457e-01 5.023102164268493652e-01 7.410460114479064941e-01
9.300124645233154297e-01 5.053203105926513672e-01 7.407668232917785645e-01
9.276573061943054199e-01 4.994797110557556152e-01 7.408723235130310059e-01
9.257941246032714844e-01 5.020602941513061523e-01 7.405265569686889648e-01
8.710977435111999512e-01 3.346105515956878662e-01 7.602825164794921875e-01
8.685657978057861328e-01 3.391489982604980469e-01 7.611185908317565918e-01
8.673270940780639648e-01 3.330011963844299316e-01 7.630439400672912598e-01
8.646813631057739258e-01 3.376258313655853271e-01 7.637582421302795410e-01
8.116056323051452637e-01 3.595187067985534668e-01 7.631537318229675293e-01
8.109253048896789551e-01 3.663006424903869629e-01 7.638543844223022461e-01
8.128498792648315430e-01 3.587923943996429443e-01 7.667589783668518066e-01
8.116680383682250977e-01 3.650895655155181885e-01 7.673051953315734863e-01
9.950192570686340332e-01 2.442940920591354370e-01 7.436149120330810547e-01
9.933889508247375488e-01 2.484655380249023438e-01 7.436535954475402832e-01
9.922305345535278320e-01 2.423356920480728149e-01 7.437536120414733887e-01
9.905614852905273438e-01 2.466923147439956665e-01 7.438420653343200684e-01
9.361132979393005371e-01 6.779893040657043457e-01 7.472879290580749512e-01
9.329826235771179199e-01 6.817719936370849609e-01 7.467199563980102539e-01
9.345154762268066406e-01 6.762943267822265625e-01 7.485528588294982910e-01
9.312706589698791504e-01 6.799842715263366699e-01 7.479929327964782715e-01
8.310545682907104492e-01 5.614877939224243164e-01 7.433947920799255371e-01
8.305429816246032715e-01 5.658960342407226562e-01 7.416494488716125488e-01
8.299618959426879883e-01 5.596991777420043945e-01 7.464923262596130371e-01
8.295277953147888184e-01 5.641397833824157715e-01 7.447153925895690918e-01
9.898323416709899902e-01 5.528264641761779785e-01 7.437949776649475098e-01
9.867809414863586426e-01 5.569838285446166992e-01 7.443811893463134766e-01
9.875491857528686523e-01 5.514589548110961914e-01 7.440984249114990234e-01
9.845506548881530762e-01 5.556231737136840820e-01 7.446996569633483887e-01
9.931265115737915039e-01 4.148494303226470947e-01 7.438918352127075195e-01
9.913290143013000488e-01 4.201240241527557373e-01 7.445119023323059082e-01
9.864380955696105957e-01 4.128887355327606201e-01 7.437378168106079102e-01
9.851389527320861816e-01 4.183246791362762451e-01 7.443655133247375488e-01
8.271977305412292480e-01 5.070536732673645020e-01 7.406751513481140137e-01
8.264317512512207031e-01 5.138280987739562988e-01 7.406371831893920898e-01
8.295451402664184570e-01 5.061704516410827637e-01 7.444873452186584473e-01
8.286740183830261230e-01 5.131377577781677246e-01 7.443194985389709473e-01
9.625489115715026855e-01 2.953949868679046631e-01 7.449744343757629395e-01
9.607025384902954102e-01 2.990084290504455566e-01 7.447651028633117676e-01
9.602388739585876465e-01 2.913858294486999512e-01 7.455688118934631348e-01
9.577831625938415527e-01 2.951787710189819336e-01 7.454497814178466797e-01
9.066345691680908203e-01 5.408442020416259766e-01 7.568089365959167480e-01
9.059745669364929199e-01 5.454264283180236816e-01 7.564615607261657715e-01
9.025188684463500977e-01 5.387495160102844238e-01 7.573199272155761719e-01
9.022290110588073730e-01 5.434212684631347656e-01 7.568092346191406250e-01
9.568712711334228516e-01 5.457869172096252441e-01 7.467004060745239258e-01
9.528670310974121094e-01 5.475824475288391113e-01 7.463617920875549316e-01
9.553904533386230469e-01 5.449243783950805664e-01 7.484928965568542480e-01
9.522843360900878906e-01 5.478720664978027344e-01 7.485759258270263672e-01
9.376934766769409180e-01 4.852474629878997803e-01 7.567101716995239258e-01
9.341439604759216309e-01 4.870325326919555664e-01 7.564287781715393066e-01
9.356036186218261719e-01 4.842997491359710693e-01 7.584793567657470703e-01
9.320638775825500488e-01 4.860383868217468262e-01 7.580320239067077637e-01
8.303044438362121582e-01 5.638778805732727051e-01 7.397847771644592285e-01
8.297123312950134277e-01 5.685060024261474609e-01 7.380667924880981445e-01
8.292022347450256348e-01 5.624038577079772949e-01 7.428187727928161621e-01
8.287034034729003906e-01 5.667671561241149902e-01 7.410723567008972168e-01
8.404471874237060547e-01 4.640066623687744141e-01 7.642886042594909668e-01
8.389742970466613770e-01 4.687731564044952393e-01 7.642648220062255859e-01
8.410284519195556641e-01 4.628905951976776123e-01 7.669571638107299805e-01
8.394730687141418457e-01 4.677811563014984131e-01 7.667872309684753418e-01
9.271242022514343262e-01 2.815814018249511719e-01 7.522541880607604980e-01
9.256969690322875977e-01 2.854021191596984863e-01 7.526597976684570312e-01
9.229697585105895996e-01 2.804330587387084961e-01 7.530472874641418457e-01
9.215211868286132812e-01 2.842837572097778320e-01 7.534615397453308105e-01
9.807195067405700684e-01 3.332413434982299805e-01 7.445915937423706055e-01
9.799883961677551270e-01 3.360380530357360840e-01 7.443665266036987305e-01
9.781875014305114746e-01 3.305309712886810303e-01 7.450618743896484375e-01
9.770430326461791992e-01 3.334014117717742920e-01 7.449025511741638184e-01
9.349531531333923340e-01 2.293366342782974243e-01 7.587603926658630371e-01
9.355618953704833984e-01 2.333944737911224365e-01 7.598601579666137695e-01
9.308429360389709473e-01 2.288445085287094116e-01 7.591637969017028809e-01
9.307059049606323242e-01 2.331231236457824707e-01 7.602334618568420410e-01
8.453189134597778320e-01 3.969462215900421143e-01 7.583609223365783691e-01
8.441841602325439453e-01 4.016560018062591553e-01 7.580202221870422363e-01
8.430562615394592285e-01 3.954358696937561035e-01 7.603161931037902832e-01
8.421562314033508301e-01 3.996547460556030273e-01 7.600029110908508301e-01
8.317716717720031738e-01 4.289828538894653320e-01 7.449554204940795898e-01
8.310613036155700684e-01 4.335073828697204590e-01 7.447419762611389160e-01
8.311789035797119141e-01 4.270209372043609619e-01 7.472665309906005859e-01
8.303503394126892090e-01 4.313197731971740723e-01 7.469533085823059082e-01
8.725299835205078125e-01 5.672845244407653809e-01 7.570470571517944336e-01
8.713909387588500977e-01 5.709442496299743652e-01 7.576301693916320801e-01
8.680900931358337402e-01 5.657241344451904297e-01 7.565725445747375488e-01
8.665136694908142090e-01 5.690628886222839355e-01 7.571272253990173340e-01
8.846465945243835449e-01 5.688336491584777832e-01 7.599056363105773926e-01
