1.200751960277557373e-02 2.942205190658569336e+00 3.295063734054565430e+00
-1.697345376014709473e-01 2.938999652862548828e+00 3.241478681564331055e+00
9.712785482406616211e-01 5.344078540802001953e+00 4.459825992584228516e+00
8.161921501159667969e-01 5.406417846679687500e+00 4.408089637756347656e+00
8.536841869354248047e-01 5.264531135559082031e+00 4.510836601257324219e+00
7.007458209991455078e-01 5.335690498352050781e+00 4.458795547485351562e+00
2.863614559173583984e+00 3.375731468200683594e+00 8.728245496749877930e-01
2.686684131622314453e+00 3.357064485549926758e+00 8.284419178962707520e-01
2.785627126693725586e+00 3.442046165466308594e+00 8.971690535545349121e-01
2.602740049362182617e+00 3.433614015579223633e+00 8.574293851852416992e-01
-1.815631270408630371e+00 5.377850532531738281e+00 1.675289511680603027e+00
-1.885733962059020996e+00 5.393610954284667969e+00 1.626345753669738770e+00
-1.846297144889831543e+00 5.373600006103515625e+00 1.803921222686767578e+00
-1.919964194297790527e+00 5.382792949676513672e+00 1.753933310508728027e+00
5.634102821350097656e+00 4.952253818511962891e+00 1.087888836860656738e+00
5.547394275665283203e+00 5.075510978698730469e+00 1.086298584938049316e+00
5.499799728393554688e+00 4.898501873016357422e+00 1.107114315032958984e+00
5.415556430816650391e+00 5.021181106567382812e+00 1.111752867698669434e+00
4.529793739318847656e+00 5.541925430297851562e+00 1.811636328697204590e+00
4.371315479278564453e+00 5.546567440032958984e+00 1.733057856559753418e+00
4.488986492156982422e+00 5.540540218353271484e+00 1.994994163513183594e+00
4.334697246551513672e+00 5.539167881011962891e+00 1.912872552871704102e+00
1.153958797454833984e+01 5.541892528533935547e+00 4.016858100891113281e+00
1.144341373443603516e+01 5.568993091583251953e+00 3.929653882980346680e+00
1.151383018493652344e+01 5.508751869201660156e+00 4.167913436889648438e+00
1.140669155120849609e+01 5.521154403686523438e+00 4.091062545776367188e+00
1.035362243652343750e+01 5.548673152923583984e+00 2.139700651168823242e+00
1.021434974670410156e+01 5.539849281311035156e+00 2.049494028091430664e+00
1.033785438537597656e+01 5.538146972656250000e+00 2.328189849853515625e+00
1.018982315063476562e+01 5.531936168670654297e+00 2.213499784469604492e+00
2.508439779281616211e+00 2.940250873565673828e+00 2.629814624786376953e+00
2.320040941238403320e+00 2.926469802856445312e+00 2.487127780914306641e+00
2.506690740585327148e+00 2.949714183807373047e+00 2.859643936157226562e+00
2.335399389266967773e+00 2.933967351913452148e+00 2.715343475341796875e+00
-4.095953941345214844e+00 5.221744537353515625e+00 2.066678285598754883e+00
-4.031420707702636719e+00 5.321562290191650391e+00 2.015339612960815430e+00
-4.096550941467285156e+00 5.207806110382080078e+00 2.165458917617797852e+00
-4.038229465484619141e+00 5.289754390716552734e+00 2.103130817413330078e+00
-1.673867225646972656e+00 5.374313354492187500e+00 3.082945585250854492e+00
-1.773910880088806152e+00 5.407562255859375000e+00 3.029476881027221680e+00
-1.700416684150695801e+00 5.343253135681152344e+00 3.210678815841674805e+00
-1.798472523689270020e+00 5.379621028900146484e+00 3.157092332839965820e+00
2.398711681365966797e+00 4.835958957672119141e+00 9.924117326736450195e-01
2.257989406585693359e+00 4.894339561462402344e+00 9.892359972000122070e-01
2.299946546554565430e+00 4.772191524505615234e+00 1.038162231445312500e+00
2.151109218597412109e+00 4.827871799468994141e+00 1.031874418258666992e+00
1.049695396423339844e+01 2.948357105255126953e+00 4.024528026580810547e+00
1.033075809478759766e+01 2.924770832061767578e+00 3.948641061782836914e+00
1.046912002563476562e+01 2.935475349426269531e+00 4.185480594635009766e+00
1.031228351593017578e+01 2.922046422958374023e+00 4.123762607574462891e+00
6.947075366973876953e+00 4.715965270996093750e+00 1.322933912277221680e+00
6.874352931976318359e+00 4.835993766784667969e+00 1.323611736297607422e+00
6.716777324676513672e+00 4.611910343170166016e+00 1.305320739746093750e+00
6.636047363281250000e+00 4.725822448730468750e+00 1.295205712318420410e+00
7.466078281402587891e+00 5.536581039428710938e+00 1.319113850593566895e+00
7.298701286315917969e+00 5.528918266296386719e+00 1.308021068572998047e+00
7.320535182952880859e+00 5.523223400115966797e+00 1.390480756759643555e+00
7.151906490325927734e+00 5.516920566558837891e+00 1.378494143486022949e+00
-3.274505376815795898e+00 4.386829376220703125e+00 1.002023339271545410e+00
-3.343923330307006836e+00 4.476191520690917969e+00 9.924896359443664551e-01
-3.338621616363525391e+00 4.378428459167480469e+00 1.057110667228698730e+00
-3.412448406219482422e+00 4.463427543640136719e+00 1.047493934631347656e+00
5.992568016052246094e+00 4.956425666809082031e+00 4.454229354858398438e+00
5.873997688293457031e+00 5.081868171691894531e+00 4.408860206604003906e+00
5.895237445831298828e+00 4.840870380401611328e+00 4.457249164581298828e+00
5.781849861145019531e+00 4.978738784790039062e+00 4.417086601257324219e+00
1.424641907215118408e-01 3.252246618270874023e+00 5.793636441230773926e-01
4.881039634346961975e-02 3.303457021713256836e+00 5.781981945037841797e-01
5.242031440138816833e-02 3.264997959136962891e+00 6.190220713615417480e-01
-7.211110740900039673e-02 3.302851676940917969e+00 6.142451763153076172e-01
7.175656795501708984e+00 4.764984130859375000e+00 1.368665933609008789e+00
7.096185684204101562e+00 4.868699073791503906e+00 1.366051793098449707e+00
6.964219570159912109e+00 4.708875656127929688e+00 1.377404212951660156e+00
6.883238792419433594e+00 4.815799236297607422e+00 1.379668235778808594e+00
-9.188390374183654785e-01 3.697832822799682617e+00 7.893415093421936035e-01
-1.039821147918701172e+00 3.724950313568115234e+00 7.651253342628479004e-01
-9.804124832153320312e-01 3.699332237243652344e+00 8.266400694847106934e-01
-1.090979456901550293e+00 3.734288215637207031e+00 8.043431043624877930e-01
3.545468673110008240e-02 2.927634239196777344e+00 2.693905115127563477e+00
-1.177592054009437561e-01 2.923790693283081055e+00 2.583810806274414062e+00
6.147984415292739868e-02 2.939216375350952148e+00 2.890091419219970703e+00
-9.258145093917846680e-02 2.936827659606933594e+00 2.792422771453857422e+00
2.819873809814453125e+00 5.529098510742187500e+00 4.296484947204589844e+00
2.696389198303222656e+00 5.609000205993652344e+00 4.195495605468750000e+00
2.730090379714965820e+00 5.462581157684326172e+00 4.420791149139404297e+00
2.608949899673461914e+00 5.542735576629638672e+00 4.318276882171630859e+00
-3.589283466339111328e+00 3.008334159851074219e+00 9.236766099929809570e-01
-3.681034326553344727e+00 3.072767496109008789e+00 9.085239171981811523e-01
-3.609157085418701172e+00 3.034325122833251953e+00 1.041873574256896973e+00
-3.702873706817626953e+00 3.105711698532104492e+00 1.029411077499389648e+00
2.313116788864135742e+00 5.403155803680419922e+00 1.370414376258850098e+00
2.174845457077026367e+00 5.455820083618164062e+00 1.345148086547851562e+00
2.222025156021118164e+00 5.435155868530273438e+00 1.461552381515502930e+00
2.077669858932495117e+00 5.477273941040039062e+00 1.423740506172180176e+00
8.046143531799316406e+00 5.542176723480224609e+00 3.672398567199707031e+00
7.860194683074951172e+00 5.535246372222900391e+00 3.594886064529418945e+00
8.056715965270996094e+00 5.534139156341552734e+00 3.875266075134277344e+00
7.874883174896240234e+00 5.528718471527099609e+00 3.797877073287963867e+00
5.662455081939697266e+00 2.907967090606689453e+00 9.159769415855407715e-01
5.558381557464599609e+00 2.986547231674194336e+00 8.501549363136291504e-01
5.582584381103515625e+00 2.860528945922851562e+00 9.855629205703735352e-01
5.480381011962890625e+00 2.944186210632324219e+00 9.205840826034545898e-01
-2.944174289703369141e+00 3.073566913604736328e+00 2.468617677688598633e+00
-3.083241939544677734e+00 3.065694570541381836e+00 2.415300130844116211e+00
-2.930757045745849609e+00 3.090779542922973633e+00 2.611222267150878906e+00
-3.068414926528930664e+00 3.084805488586425781e+00 2.559525012969970703e+00
-3.136016607284545898e+00 5.396052360534667969e+00 1.648520827293395996e+00
-3.275841712951660156e+00 5.398797988891601562e+00 1.610836386680603027e+00
-3.165552616119384766e+00 5.405170440673828125e+00 1.733968615531921387e+00
-3.307681083679199219e+00 5.404770374298095703e+00 1.695634365081787109e+00
-4.979268610477447510e-01 3.922232389450073242e+00 1.395146727561950684e+00
-4.834162294864654541e-01 4.028755664825439453e+00 1.364699840545654297e+00
-5.458520650863647461e-01 3.884828567504882812e+00 1.505566954612731934e+00
-5.329179167747497559e-01 3.994847774505615234e+00 1.470224380493164062e+00
4.172339916229248047e+00 5.534799575805664062e+00 3.969854831695556641e+00
3.986855983734130859e+00 5.555812835693359375e+00 3.861528635025024414e+00
4.144239425659179688e+00 5.502690792083740234e+00 4.187808036804199219e+00
3.967461347579956055e+00 5.533538818359375000e+00 4.086775302886962891e+00
8.491874694824218750e+00 3.136491775512695312e+00 6.668443232774734497e-02
8.295495033264160156e+00 3.147220611572265625e+00 3.315104544162750244e-02
8.398654937744140625e+00 3.135002851486206055e+00 2.350670248270034790e-01
8.203608512878417969e+00 3.127839088439941406e+00 1.997880488634109497e-01
-3.919360876083374023e+00 4.045153617858886719e+00 9.941232800483703613e-01
-3.918506145477294922e+00 4.162649154663085938e+00 1.011186003684997559e+00
-3.929623603820800781e+00 4.012028694152832031e+00 1.035926103591918945e+00
-3.928062438964843750e+00 4.127413749694824219e+00 1.050684571266174316e+00
-2.420236825942993164e+00 5.338297367095947266e+00 1.826280593872070312e+00
-2.478604555130004883e+00 5.346783161163330078e+00 1.764988780021667480e+00
-2.388793706893920898e+00 5.346672534942626953e+00 1.968354940414428711e+00
-2.461080312728881836e+00 5.349768638610839844e+00 1.901511549949645996e+00
9.878355026245117188e+00 3.322313785552978516e+00 4.441132545471191406e+00
9.791452407836914062e+00 3.453139066696166992e+00 4.453304767608642578e+00
9.731581687927246094e+00 3.272141456604003906e+00 4.447110652923583984e+00
9.628927230834960938e+00 3.396029949188232422e+00 4.443853378295898438e+00
-2.140615701675415039e+00 4.365451335906982422e+00 3.631683349609375000e+00
-2.153057098388671875e+00 4.500527381896972656e+00 3.634299278259277344e+00
-2.073662519454956055e+00 4.331811904907226562e+00 3.747300624847412109e+00
-2.087524175643920898e+00 4.470736026763916016e+00 3.745866060256958008e+00
1.018590831756591797e+01 2.938793659210205078e+00 3.889213323593139648e+00
1.002363300323486328e+01 2.925683021545410156e+00 3.836357355117797852e+00
1.014633560180664062e+01 2.944527149200439453e+00 4.084374427795410156e+00
9.986966133117675781e+00 2.926656961441040039e+00 4.038458824157714844e+00
1.347965002059936523e-02 2.923336029052734375e+00 3.475375890731811523e+00
-1.726722419261932373e-01 2.915016412734985352e+00 3.426896572113037109e+00
-3.226958215236663818e-04 2.947903394699096680e+00 3.593577384948730469e+00
-1.892624497413635254e-01 2.934855222702026367e+00 3.556592941284179688e+00
-5.328658819198608398e-01 4.628505229949951172e+00 3.151939213275909424e-01
-5.306088924407958984e-01 4.762575149536132812e+00 3.178329169750213623e-01
-6.298172473907470703e-01 4.554097652435302734e+00 2.945604920387268066e-01
-6.286099553108215332e-01 4.677426338195800781e+00 2.979979515075683594e-01
1.914639398455619812e-02 3.286997079849243164e+00 7.317070960998535156e-01
-1.407668292522430420e-01 3.307687997817993164e+00 7.234256863594055176e-01
-5.855659395456314087e-02 3.308850288391113281e+00 8.423107862472534180e-01
-2.042406201362609863e-01 3.347395420074462891e+00 8.480435609817504883e-01
1.158603572845458984e+01 3.061671972274780273e+00 4.417236804962158203e+00
1.142056179046630859e+01 3.096775054931640625e+00 4.427132606506347656e+00
1.148849773406982422e+01 3.076403141021728516e+00 4.522425174713134766e+00
1.138009738922119141e+01 3.141171693801879883e+00 4.554152488708496094e+00
3.556574344635009766e+00 5.517939090728759766e+00 1.818207025527954102e+00
3.438362836837768555e+00 5.521705150604248047e+00 1.803455710411071777e+00
3.465562820434570312e+00 5.512788772583007812e+00 1.923138499259948730e+00
3.341629505157470703e+00 5.506521701812744141e+00 1.891394615173339844e+00
2.139452695846557617e+00 3.094472169876098633e+00 4.411268711090087891e+00
1.921329617500305176e+00 3.125385284423828125e+00 4.436804294586181641e+00
1.979264378547668457e+00 3.118064403533935547e+00 4.449054718017578125e+00
1.755766749382019043e+00 3.151621580123901367e+00 4.466194629669189453e+00
1.137649059295654297e+01 2.932965517044067383e+00 2.010998725891113281e+00
1.126750755310058594e+01 2.929891347885131836e+00 1.935187101364135742e+00
1.137817764282226562e+01 2.922988414764404297e+00 2.201099872589111328e+00
1.126040649414062500e+01 2.920247077941894531e+00 2.129477262496948242e+00
-3.991426944732666016e+00 3.513820886611938477e+00 9.642326831817626953e-01
-4.006457805633544922e+00 3.577950239181518555e+00 9.533013701438903809e-01
-3.978171586990356445e+00 3.520035266876220703e+00 1.059706568717956543e+00
-3.997722625732421875e+00 3.583436727523803711e+00 1.054583907127380371e+00
9.094908714294433594e+00 5.554556846618652344e+00 4.296085834503173828e+00
8.937407493591308594e+00 5.604449748992919922e+00 4.280457973480224609e+00
9.027671813964843750e+00 5.466613292694091797e+00 4.385666370391845703e+00
8.896396636962890625e+00 5.543095588684082031e+00 4.368432521820068359e+00
3.013845205307006836e+00 5.099172115325927734e+00 1.135568976402282715e+00
2.882309436798095703e+00 5.220479488372802734e+00 1.159570217132568359e+00
2.875738859176635742e+00 5.078336238861083984e+00 1.160108685493469238e+00
2.736052989959716797e+00 5.193763732910156250e+00 1.181658983230590820e+00
9.929589629173278809e-01 5.492081642150878906e+00 4.450036048889160156e+00
8.401231169700622559e-01 5.551807403564453125e+00 4.397583961486816406e+00
8.653495907783508301e-01 5.415312767028808594e+00 4.540266513824462891e+00
7.216138243675231934e-01 5.471912860870361328e+00 4.485987663269042969e+00
7.855819702148437500e+00 3.087229490280151367e+00 9.147267937660217285e-01
7.675142765045166016e+00 3.094035148620605469e+00 8.692940473556518555e-01
7.843337059020996094e+00 3.090571641921997070e+00 1.015034437179565430e+00
7.658721923828125000e+00 3.092670202255249023e+00 9.702952504158020020e-01
1.073907852172851562e+00 3.795526742935180664e+00 4.458561420440673828e+00
9.660049080848693848e-01 3.931379079818725586e+00 4.466219902038574219e+00
9.158108234405517578e-01 3.737334966659545898e+00 4.435987472534179688e+00
7.928482294082641602e-01 3.832853078842163086e+00 4.437457084655761719e+00
4.965591907501220703e+00 4.719084739685058594e+00 1.080084800720214844e+00
4.826856613159179688e+00 4.790334701538085938e+00 1.093637943267822266e+00
4.844192981719970703e+00 4.674173831939697266e+00 1.120662093162536621e+00
4.687048435211181641e+00 4.744297027587890625e+00 1.125549435615539551e+00
8.936470985412597656e+00 2.917620897293090820e+00 4.266753673553466797e+00
8.788524627685546875e+00 2.920104026794433594e+00 4.252230644226074219e+00
8.908580780029296875e+00 2.965219497680664062e+00 4.413929939270019531e+00
8.751702308654785156e+00 2.979841232299804688e+00 4.416172981262207031e+00
8.558021545410156250e+00 5.049684047698974609e+00 6.927682757377624512e-01
8.405323982238769531e+00 5.027869701385498047e+00 6.563065648078918457e-01
8.533239364624023438e+00 5.072153568267822266e+00 8.063585758209228516e-01
8.379483222961425781e+00 5.048149585723876953e+00 7.687394618988037109e-01
9.174271583557128906e+00 5.505945682525634766e+00 5.123512744903564453e-01
8.979701995849609375e+00 5.510188579559326172e+00 4.224683642387390137e-01
9.090620040893554688e+00 5.477837562561035156e+00 6.992921829223632812e-01
8.916143417358398438e+00 5.485416412353515625e+00 5.907054543495178223e-01
-7.454131245613098145e-01 3.936742544174194336e+00 8.214858770370483398e-01
-8.148632645606994629e-01 4.057236671447753906e+00 8.400267362594604492e-01
-8.253763318061828613e-01 3.898148536682128906e+00 8.360201120376586914e-01
-8.840915560722351074e-01 4.014946937561035156e+00 8.532742261886596680e-01
2.685127019882202148e+00 3.224227428436279297e+00 4.436233043670654297e+00
2.489156961441040039e+00 3.245795011520385742e+00 4.414624214172363281e+00
2.596623182296752930e+00 3.241653919219970703e+00 4.488993167877197266e+00
2.393400430679321289e+00 3.277289628982543945e+00 4.487783908843994141e+00
-2.009233236312866211e+00 5.372203350067138672e+00 3.338217139244079590e-01
-2.170254945755004883e+00 5.391544818878173828e+00 3.181132674217224121e-01
-2.064607143402099609e+00 5.385966777801513672e+00 4.147674441337585449e-01
-2.231595039367675781e+00 5.409352302551269531e+00 4.002038538455963135e-01
5.602599620819091797e+00 5.370770454406738281e+00 8.252392411231994629e-01
5.497966289520263672e+00 5.415860652923583984e+00 7.970787286758422852e-01
5.436731338500976562e+00 5.313372611999511719e+00 8.522804975509643555e-01
5.317759990692138672e+00 5.359419822692871094e+00 8.338989615440368652e-01
1.179329299926757812e+01 5.290323734283447266e+00 3.093255519866943359e+00
1.177004051208496094e+01 5.389657020568847656e+00 3.099918842315673828e+00
1.178677463531494141e+01 5.311830043792724609e+00 3.204317569732666016e+00
1.176250457763671875e+01 5.414572238922119141e+00 3.212560415267944336e+00
-1.638905167579650879e+00 5.384970664978027344e+00 8.637942075729370117e-01
-1.771396636962890625e+00 5.394798278808593750e+00 8.096258640289306641e-01
-1.647093415260314941e+00 5.411514759063720703e+00 9.828652143478393555e-01
-1.775057911872863770e+00 5.418564796447753906e+00 9.310389757156372070e-01
-4.205794811248779297e+00 5.387928009033203125e+00 7.292537689208984375e-01
-4.179123878479003906e+00 5.561870098114013672e+00 7.658078074455261230e-01
-4.239213466644287109e+00 5.334778308868408203e+00 8.535977602005004883e-01
-4.216375827789306641e+00 5.507736206054687500e+00 8.863870501518249512e-01
-6.460853219032287598e-01 4.990188598632812500e+00 3.560230970382690430e+00
-6.417060494422912598e-01 5.140696048736572266e+00 3.451374530792236328e+00
-6.469478607177734375e-01 4.950273513793945312e+00 3.758764982223510742e+00
-6.406904458999633789e-01 5.094414234161376953e+00 3.646480321884155273e+00
2.322602748870849609e+00 5.353169918060302734e+00 1.035206913948059082e+00
2.160250663757324219e+00 5.411320209503173828e+00 1.031131029129028320e+00
2.224804401397705078e+00 5.347909450531005859e+00 1.128714442253112793e+00
2.069864034652709961e+00 5.400139808654785156e+00 1.116592168807983398e+00
3.835324525833129883e+00 3.519595623016357422e+00 1.136909008026123047e+00
3.764009475708007812e+00 3.673852205276489258e+00 1.156578063964843750e+00
3.652686357498168945e+00 3.463193655014038086e+00 1.091423511505126953e+00
3.579681634902954102e+00 3.620640277862548828e+00 1.116558670997619629e+00
9.797517776489257812e+00 5.102956771850585938e+00 1.032187819480895996e+00
9.669662475585937500e+00 5.106463432312011719e+00 9.457750916481018066e-01
9.827656745910644531e+00 5.147886753082275391e+00 1.160824775695800781e+00
9.701173782348632812e+00 5.147243499755859375e+00 1.074074864387512207e+00
4.040408611297607422e+00 5.067581653594970703e+00 1.283790826797485352e+00
3.892569303512573242e+00 5.153299808502197266e+00 1.279379248619079590e+00
3.893732786178588867e+00 5.041404247283935547e+00 1.300037384033203125e+00
3.750601530075073242e+00 5.136988639831542969e+00 1.308938145637512207e+00
1.171655368804931641e+01 5.536285400390625000e+00 2.879121303558349609e+00
1.165213871002197266e+01 5.566843032836914062e+00 2.837216377258300781e+00
1.171101760864257812e+01 5.515457630157470703e+00 2.992578268051147461e+00
1.164742851257324219e+01 5.553743362426757812e+00 2.964763641357421875e+00
9.198946952819824219e+00 4.993828773498535156e+00 4.842409789562225342e-01
9.069866180419921875e+00 4.980289459228515625e+00 4.731342196464538574e-01
9.120593070983886719e+00 5.034091472625732422e+00 6.420941352844238281e-01
8.993097305297851562e+00 5.022010803222656250e+00 6.314374208450317383e-01
-3.230545282363891602e+00 5.141918182373046875e+00 2.937132358551025391e+00
-3.354929924011230469e+00 5.172660827636718750e+00 2.868564128875732422e+00
-3.240111589431762695e+00 5.058170795440673828e+00 3.005909681320190430e+00
-3.378786087036132812e+00 5.081659317016601562e+00 2.943186044692993164e+00
3.520813941955566406e+00 4.256792545318603516e+00 4.458427429199218750e+00
3.456985473632812500e+00 4.406794071197509766e+00 4.458577632904052734e+00
3.425516843795776367e+00 4.134942531585693359e+00 4.446118354797363281e+00
3.351997375488281250e+00 4.291154384613037109e+00 4.448684215545654297e+00
2.098238021135330200e-01 3.267635107040405273e+00 3.444211483001708984e-01
1.490336209535598755e-01 3.344855070114135742e+00 3.530593812465667725e-01
1.352613866329193115e-01 3.230869054794311523e+00 3.980539143085479736e-01
7.050308585166931152e-02 3.314318180084228516e+00 4.049529135227203369e-01
2.054171860218048096e-01 3.920043706893920898e+00 9.773805737495422363e-01
1.643857359886169434e-01 4.037847995758056641e+00 9.921634197235107422e-01
1.322057545185089111e-01 3.864565134048461914e+00 9.990179538726806641e-01
8.735977858304977417e-02 3.965332746505737305e+00 1.008963465690612793e+00
9.875017404556274414e-02 2.889923572540283203e+00 1.510652542114257812e+00
2.066424861550331116e-02 2.992159128189086914e+00 1.465619444847106934e+00
2.524845302104949951e-02 2.826663732528686523e+00 1.578420400619506836e+00
-5.839951336383819580e-02 2.926937341690063477e+00 1.531529188156127930e+00
1.017630338668823242e+00 5.039561748504638672e+00 3.658989071846008301e-01
9.749659895896911621e-01 5.126951217651367188e+00 3.875257670879364014e-01
9.336771965026855469e-01 5.058733940124511719e+00 3.944548368453979492e-01
8.812424540519714355e-01 5.138901710510253906e+00 4.135828018188476562e-01
5.774043083190917969e+00 5.551036357879638672e+00 2.432486057281494141e+00
5.554149627685546875e+00 5.538679122924804688e+00 2.372515439987182617e+00
5.730514049530029297e+00 5.551776885986328125e+00 2.642055749893188477e+00
5.494511127471923828e+00 5.538547515869140625e+00 2.561888217926025391e+00
5.456917762756347656e+00 5.394874095916748047e+00 1.322143554687500000e+00
5.355580806732177734e+00 5.434497356414794922e+00 1.329927206039428711e+00
5.373622894287109375e+00 5.488403797149658203e+00 1.419378042221069336e+00
5.248278617858886719e+00 5.516431331634521484e+00 1.424355626106262207e+00
-1.866179943084716797e+00 4.563916206359863281e+00 3.324007987976074219e-01
-1.888529896736145020e+00 4.727988243103027344e+00 3.175664246082305908e-01
-2.056794881820678711e+00 4.436471939086914062e+00 3.270160257816314697e-01
-2.087962150573730469e+00 4.594137668609619141e+00 3.126327991485595703e-01
7.489146709442138672e+00 4.681544780731201172e+00 1.132093548774719238e+00
7.341269016265869141e+00 4.789635658264160156e+00 1.141076922416687012e+00
7.306457996368408203e+00 4.571440696716308594e+00 1.110398173332214355e+00
7.224604606628417969e+00 4.695376396179199219e+00 1.115798234939575195e+00
8.788956642150878906e+00 2.920207500457763672e+00 4.051908016204833984e+00
8.644639968872070312e+00 2.918788671493530273e+00 4.019906520843505859e+00
8.749911308288574219e+00 2.957731723785400391e+00 4.172731876373291016e+00
8.606760025024414062e+00 2.961324930191040039e+00 4.150574684143066406e+00
5.712151527404785156e+00 3.988867282867431641e+00 4.454438686370849609e+00
5.602797985076904297e+00 4.095278263092041016e+00 4.456319332122802734e+00
5.597818851470947266e+00 3.898084640502929688e+00 4.443787097930908203e+00
5.488506317138671875e+00 4.004905223846435547e+00 4.446318149566650391e+00
7.648252964019775391e+00 4.330339908599853516e+00 4.481738567352294922e+00
7.580976963043212891e+00 4.521867275238037109e+00 4.445924758911132812e+00
7.535399436950683594e+00 4.206287384033203125e+00 4.455953598022460938e+00
7.475830554962158203e+00 4.394838809967041016e+00 4.424641609191894531e+00
4.241165518760681152e-01 4.834017753601074219e+00 3.910938203334808350e-01
3.246225416660308838e-01 4.875644683837890625e+00 3.989235162734985352e-01
3.956079781055450439e-01 4.839055061340332031e+00 4.241521656513214111e-01
2.710669934749603271e-01 4.882871150970458984e+00 4.150152802467346191e-01
9.753288269042968750e+00 5.533779144287109375e+00 1.453544259071350098e+00
9.608097076416015625e+00 5.518039703369140625e+00 1.424759745597839355e+00
9.720898628234863281e+00 5.569373130798339844e+00 1.572129726409912109e+00
9.570327758789062500e+00 5.551920890808105469e+00 1.532800436019897461e+00
1.514600872993469238e+00 2.909904241561889648e+00 4.113711357116699219e+00
1.353586196899414062e+00 2.884882211685180664e+00 4.058338165283203125e+00
1.467124581336975098e+00 2.974250555038452148e+00 4.241757392883300781e+00
1.293725252151489258e+00 2.944268465042114258e+00 4.189888000488281250e+00
6.164914608001708984e+00 5.544689178466796875e+00 3.717189788818359375e+00
6.008161067962646484e+00 5.540663242340087891e+00 3.619516849517822266e+00
6.131145477294921875e+00 5.527890205383300781e+00 3.967614173889160156e+00
5.962501525878906250e+00 5.526415348052978516e+00 3.864819765090942383e+00
5.954198837280273438e+00 3.052310943603515625e+00 1.275764584541320801e+00
5.863772869110107422e+00 3.101686239242553711e+00 1.209900259971618652e+00
5.912220478057861328e+00 2.996585607528686523e+00 1.407136440277099609e+00
5.819430351257324219e+00 3.047390937805175781e+00 1.341519474983215332e+00
-2.587161540985107422e+00 3.953901529312133789e+00 1.381037354469299316e+00
-2.676262140274047852e+00 4.053601264953613281e+00 1.380613803863525391e+00
-2.687724590301513672e+00 3.856243848800659180e+00 1.375052213668823242e+00
-2.777315616607666016e+00 3.934343814849853516e+00 1.371233463287353516e+00
1.118325948715209961e+00 4.656318187713623047e+00 1.381032466888427734e+00
9.683541059494018555e-01 4.713075160980224609e+00 1.356624364852905273e+00
9.932454824447631836e-01 4.566708564758300781e+00 1.372826576232910156e+00
8.563072085380554199e-01 4.635665893554687500e+00 1.354341864585876465e+00
1.330445647239685059e+00 4.770377635955810547e+00 1.224307537078857422e+00
1.155212283134460449e+00 4.824279308319091797e+00 1.209021568298339844e+00
1.276996850967407227e+00 4.695383548736572266e+00 1.269298672676086426e+00
1.113401293754577637e+00 4.754862308502197266e+00 1.250188589096069336e+00
1.107025432586669922e+01 5.420806884765625000e+00 4.459615230560302734e+00
1.094862937927246094e+01 5.480082988739013672e+00 4.397985458374023438e+00
1.099518394470214844e+01 5.362922191619873047e+00 4.497880935668945312e+00
1.087637901306152344e+01 5.441392898559570312e+00 4.438148975372314453e+00
8.276584625244140625e+00 2.888421297073364258e+00 1.420636653900146484e+00
8.215323448181152344e+00 2.975065469741821289e+00 1.389868855476379395e+00
8.197648048400878906e+00 2.855913400650024414e+00 1.480527162551879883e+00
8.127249717712402344e+00 2.950950145721435547e+00 1.461687803268432617e+00
1.071260094642639160e+00 2.929149627685546875e+00 3.171107769012451172e+00
9.190245866775512695e-01 2.921191453933715820e+00 3.081131458282470703e+00
1.066685914993286133e+00 2.933902978897094727e+00 3.358013391494750977e+00
9.101939797401428223e-01 2.926509141921997070e+00 3.274381875991821289e+00
8.092643022537231445e-01 2.914835453033447266e+00 4.380640506744384766e+00
6.365292072296142578e-01 2.959432840347290039e+00 4.407433032989501953e+00
7.046129703521728516e-01 3.000500440597534180e+00 4.458757400512695312e+00
5.298835635185241699e-01 3.041054487228393555e+00 4.493247032165527344e+00
1.997472882270812988e+00 5.540668010711669922e+00 3.164912939071655273e+00
1.804736137390136719e+00 5.545511722564697266e+00 3.160150051116943359e+00
1.928531050682067871e+00 5.542377471923828125e+00 3.349474191665649414e+00
1.728370904922485352e+00 5.548630714416503906e+00 3.354640007019042969e+00
8.096171379089355469e+00 4.021903038024902344e+00 4.466370582580566406e+00
8.002039909362792969e+00 4.184714317321777344e+00 4.442707061767578125e+00
7.990920066833496094e+00 3.878128290176391602e+00 4.450265884399414062e+00
7.900444030761718750e+00 4.051885128021240234e+00 4.420241832733154297e+00
1.145163059234619141e+01 4.513041973114013672e+00 1.336020112037658691e+00
1.140427207946777344e+01 4.606094837188720703e+00 1.343223452568054199e+00
1.128247928619384766e+01 4.422059535980224609e+00 1.344545722007751465e+00
1.124363994598388672e+01 4.523861408233642578e+00 1.341147422790527344e+00
2.444525808095932007e-01 3.090993642807006836e+00 1.588911861181259155e-01
1.834326684474945068e-01 3.165498018264770508e+00 1.625247150659561157e-01
1.408475935459136963e-01 3.058301687240600586e+00 2.169885635375976562e-01
7.708509266376495361e-02 3.133988380432128906e+00 2.241435945034027100e-01
1.017154407501220703e+01 4.055011749267578125e+00 4.441475391387939453e+00
1.005750179290771484e+01 4.136020660400390625e+00 4.432686328887939453e+00
1.006796169281005859e+01 3.958320617675781250e+00 4.462021827697753906e+00
9.950316429138183594e+00 4.037328243255615234e+00 4.452429294586181641e+00
5.053965091705322266e+00 5.096540927886962891e+00 4.464457511901855469e+00
4.965257167816162109e+00 5.255891323089599609e+00 4.404553890228271484e+00
4.892306327819824219e+00 4.959425926208496094e+00 4.479981899261474609e+00
4.814995765686035156e+00 5.146710395812988281e+00 4.426052570343017578e+00
-1.821957230567932129e+00 3.135992527008056641e+00 9.163743257522583008e-01
-1.891379117965698242e+00 3.245971918106079102e+00 9.686464667320251465e-01
-1.961224436759948730e+00 3.153182268142700195e+00 9.725433588027954102e-01
-2.027151584625244141e+00 3.263114690780639648e+00 1.023122668266296387e+00
2.249398469924926758e+00 2.921276092529296875e+00 1.382191538810729980e+00
2.180262804031372070e+00 2.997491836547851562e+00 1.368574261665344238e+00
2.182418346405029297e+00 2.955166578292846680e+00 1.486544847488403320e+00
2.119564294815063477e+00 2.992730617523193359e+00 1.462714910507202148e+00
5.435410499572753906e+00 3.008321285247802734e+00 1.296363830566406250e+00
5.337376117706298828e+00 3.070734739303588867e+00 1.261302351951599121e+00
5.354364871978759766e+00 2.940784215927124023e+00 1.365483522415161133e+00
5.247642517089843750e+00 3.018993377685546875e+00 1.337176680564880371e+00
-2.845487117767333984e+00 3.551693677902221680e+00 3.090719580650329590e-01
-2.939998388290405273e+00 3.673496246337890625e+00 3.044449090957641602e-01
-2.945031881332397461e+00 3.454082965850830078e+00 3.186576366424560547e-01
-3.040143966674804688e+00 3.578243732452392578e+00 3.095413148403167725e-01
-3.324878454208374023e+00 4.543812751770019531e+00 1.004796743392944336e+00
-3.387394666671752930e+00 4.637069702148437500e+00 9.936103224754333496e-01
-3.398273468017578125e+00 4.525828361511230469e+00 1.044226169586181641e+00
-3.460789680480957031e+00 4.619085311889648438e+00 1.033039808273315430e+00
2.259163379669189453e+00 5.081642150878906250e+00 1.320453763008117676e+00
2.193176507949829102e+00 5.148432254791259766e+00 1.327824115753173828e+00
2.195718765258789062e+00 5.138509750366210938e+00 1.417820096015930176e+00
2.108827352523803711e+00 5.199762821197509766e+00 1.408313155174255371e+00
-6.344167590141296387e-01 3.522644996643066406e+00 2.005135774612426758e+00
-6.498599648475646973e-01 3.632125139236450195e+00 1.926057577133178711e+00
-6.319013237953186035e-01 3.486906051635742188e+00 2.158376455307006836e+00
-6.476534008979797363e-01 3.595253467559814453e+00 2.080441713333129883e+00
1.008022308349609375e+01 5.559262275695800781e+00 3.396148681640625000e+00
9.883542060852050781e+00 5.560698032379150391e+00 3.314999580383300781e+00
1.003746128082275391e+01 5.541060447692871094e+00 3.576140880584716797e+00
9.837984085083007812e+00 5.543769359588623047e+00 3.509180784225463867e+00
-6.516926884651184082e-01 3.571686267852783203e+00 2.344995498657226562e+00
-6.558881998062133789e-01 3.729132413864135742e+00 2.319077253341674805e+00
-6.348745226860046387e-01 3.543875932693481445e+00 2.510083913803100586e+00
-6.355568170547485352e-01 3.724678277969360352e+00 2.504235744476318359e+00
-5.528124570846557617e-01 5.500819206237792969e+00 4.236310005187988281e+00
-6.766038537025451660e-01 5.545438289642333984e+00 4.170781135559082031e+00
-6.255006790161132812e-01 5.388034343719482422e+00 4.326032161712646484e+00
-7.343848347663879395e-01 5.443950176239013672e+00 4.257457256317138672e+00
1.063863468170166016e+01 5.220720291137695312e+00 1.158434629440307617e+00
1.054069709777832031e+01 5.261479377746582031e+00 1.149712920188903809e+00
1.064840126037597656e+01 5.255099296569824219e+00 1.218122243881225586e+00
1.053550338745117188e+01 5.268104076385498047e+00 1.211705207824707031e+00
2.546032667160034180e+00 3.311798095703125000e+00 4.437523365020751953e+00
2.343803405761718750e+00 3.346551895141601562e+00 4.439968585968017578e+00
2.398340463638305664e+00 3.267261743545532227e+00 4.451486110687255859e+00
2.205649375915527344e+00 3.332529067993164062e+00 4.458426475524902344e+00
6.941726207733154297e+00 2.872346162796020508e+00 4.208811759948730469e+00
6.817235946655273438e+00 2.889981746673583984e+00 4.206893444061279297e+00
6.849197864532470703e+00 2.924162149429321289e+00 4.286690235137939453e+00
6.735206604003906250e+00 2.946523904800415039e+00 4.286636352539062500e+00
4.756520748138427734e+00 3.822727441787719727e+00 4.454514503479003906e+00
4.563677787780761719e+00 4.034270286560058594e+00 4.436519145965576172e+00
4.656803131103515625e+00 3.701782226562500000e+00 4.466288089752197266e+00
4.479308605194091797e+00 3.902397394180297852e+00 4.465938091278076172e+00
1.618456482887268066e+00 3.016982078552246094e+00 1.301519393920898438e+00
1.510707736015319824e+00 3.049157857894897461e+00 1.266605734825134277e+00
1.577948570251464844e+00 3.018576145172119141e+00 1.389225125312805176e+00
1.466384768486022949e+00 3.053323745727539062e+00 1.355738162994384766e+00
-4.103811740875244141e+00 4.733345508575439453e+00 2.383833408355712891e+00
-4.061682224273681641e+00 4.870918750762939453e+00 2.344344615936279297e+00
-4.077115058898925781e+00 4.725063800811767578e+00 2.520912170410156250e+00
-4.039191722869873047e+00 4.861295223236083984e+00 2.479655742645263672e+00
-2.209312438964843750e+00 4.542903900146484375e+00 3.460634946823120117e+00
-2.209356307983398438e+00 4.664283275604248047e+00 3.457187414169311523e+00
-2.168416500091552734e+00 4.522723197937011719e+00 3.568086624145507812e+00
-2.171592712402343750e+00 4.648547172546386719e+00 3.569773435592651367e+00
1.594661474227905273e+00 5.223596572875976562e+00 1.345975399017333984e+00
1.486739158630371094e+00 5.278829574584960938e+00 1.331750512123107910e+00
1.480531096458435059e+00 5.200620651245117188e+00 1.374130845069885254e+00
1.382030248641967773e+00 5.262112140655517578e+00 1.363906621932983398e+00
3.353368639945983887e-01 3.834592342376708984e+00 1.076555848121643066e+00
3.003972470760345459e-01 3.957783699035644531e+00 1.089373111724853516e+00
2.336571514606475830e-01 3.744732618331909180e+00 1.135250329971313477e+00
2.101726233959197998e-01 3.870339632034301758e+00 1.135938644409179688e+00
4.632699012756347656e+00 3.605944395065307617e+00 1.055187225341796875e+00
4.579085826873779297e+00 3.743794202804565430e+00 1.051731586456298828e+00
4.522053718566894531e+00 3.542170763015747070e+00 1.045842051506042480e+00
4.480601310729980469e+00 3.678329229354858398e+00 1.042883396148681641e+00
-2.412065505981445312e+00 5.279433727264404297e+00 3.561059713363647461e+00
-2.508772134780883789e+00 5.290544986724853516e+00 3.490062475204467773e+00
-2.429839849472045898e+00 5.212345600128173828e+00 3.624530792236328125e+00
-2.533572435379028320e+00 5.235424518585205078e+00 3.563867568969726562e+00
6.268622398376464844e+00 3.509428977966308594e+00 1.358042716979980469e+00
6.186737537384033203e+00 3.639360427856445312e+00 1.366269946098327637e+00
6.103628635406494141e+00 3.441919088363647461e+00 1.341647505760192871e+00
6.027924537658691406e+00 3.558921575546264648e+00 1.343490123748779297e+00
8.892567634582519531e+00 2.824603557586669922e+00 9.587904214859008789e-01
8.748786926269531250e+00 2.853345394134521484e+00 9.631379246711730957e-01
8.812068939208984375e+00 2.796026945114135742e+00 1.111176133155822754e+00
8.667694091796875000e+00 2.823658466339111328e+00 1.116333484649658203e+00
-3.827013969421386719e-01 2.895738840103149414e+00 6.146432757377624512e-01
-5.217334628105163574e-01 2.918463706970214844e+00 5.776529312133789062e-01
-4.584874510765075684e-01 2.950894832611083984e+00 7.751638293266296387e-01
-5.898826718330383301e-01 2.998927831649780273e+00 7.513487935066223145e-01
-4.192356586456298828e+00 4.346130371093750000e+00 9.144508242607116699e-01
-4.196182250976562500e+00 4.456245899200439453e+00 8.889507651329040527e-01
-4.157853603363037109e+00 4.306978702545166016e+00 1.008934259414672852e+00
-4.166088581085205078e+00 4.398120403289794922e+00 9.880653619766235352e-01
1.123067283630371094e+01 5.546820640563964844e+00 2.230581045150756836e+00
1.111373519897460938e+01 5.546739578247070312e+00 2.200684547424316406e+00
1.117269706726074219e+01 5.554339408874511719e+00 2.348001480102539062e+00
1.106568241119384766e+01 5.553491592407226562e+00 2.311370372772216797e+00
-2.251684904098510742e+00 3.651982069015502930e+00 2.242956638336181641e+00
-2.240800619125366211e+00 3.829064369201660156e+00 2.234856843948364258e+00
-2.247358560562133789e+00 3.664271354675292969e+00 2.402926445007324219e+00
-2.239005804061889648e+00 3.820333242416381836e+00 2.399078845977783203e+00
-3.926368713378906250e+00 5.076731681823730469e+00 9.706909060478210449e-01
-3.906401157379150391e+00 5.200654029846191406e+00 9.615067839622497559e-01
-3.943112850189208984e+00 5.016842365264892578e+00 1.081417441368103027e+00
-3.916794776916503906e+00 5.152840614318847656e+00 1.066974163055419922e+00
5.108978271484375000e+00 5.417529582977294922e+00 1.334113597869873047e+00
4.961699962615966797e+00 5.399507999420166016e+00 1.318275451660156250e+00
5.040857791900634766e+00 5.506247997283935547e+00 1.419914722442626953e+00
4.885382652282714844e+00 5.483843803405761719e+00 1.406050086021423340e+00
7.424954414367675781e+00 3.185881376266479492e+00 1.299361109733581543e+00
7.307322025299072266e+00 3.297165870666503906e+00 1.296146273612976074e+00
7.344396591186523438e+00 3.174762964248657227e+00 1.351344943046569824e+00
7.231700897216796875e+00 3.279640197753906250e+00 1.333334684371948242e+00
-3.757508754730224609e+00 4.170555591583251953e+00 2.739995121955871582e-01
-3.750091552734375000e+00 4.342186927795410156e+00 3.252351284027099609e-01
-3.922394990921020508e+00 4.146637439727783203e+00 3.157147467136383057e-01
-3.908699989318847656e+00 4.310434818267822266e+00 3.687317371368408203e-01
-2.131918907165527344e+00 3.943768978118896484e+00 1.091128349304199219e+00
-2.208347320556640625e+00 4.075485229492187500e+00 1.087186098098754883e+00
-2.202676057815551758e+00 3.897603511810302734e+00 1.101074695587158203e+00
-2.277131557464599609e+00 4.020693302154541016e+00 1.098106384277343750e+00
2.178872823715209961e-01 4.460845947265625000e+00 3.669993877410888672e-01
1.248258873820304871e-01 4.548268795013427734e+00 3.626605272293090820e-01
1.151001304388046265e-01 4.383763790130615234e+00 3.554829657077789307e-01
4.746925085783004761e-02 4.491678714752197266e+00 3.558855652809143066e-01
1.027252388000488281e+01 4.970844268798828125e+00 6.427314281463623047e-01
1.013496303558349609e+01 5.006403923034667969e+00 6.148702502250671387e-01
1.023841762542724609e+01 5.017521381378173828e+00 7.332821488380432129e-01
1.011187458038330078e+01 5.048239707946777344e+00 7.029672265052795410e-01
-2.115347862243652344e+00 4.876159191131591797e+00 2.796808004379272461e+00
-2.252076625823974609e+00 4.944489002227783203e+00 2.770713567733764648e+00
-2.188634395599365234e+00 4.807691574096679688e+00 2.879744529724121094e+00
-2.323840141296386719e+00 4.878853797912597656e+00 2.852011442184448242e+00
1.063140201568603516e+01 2.934473037719726562e+00 3.259967327117919922e+00
1.043701171875000000e+01 2.938151836395263672e+00 3.234372854232788086e+00
1.059829998016357422e+01 2.926056146621704102e+00 3.435748100280761719e+00
1.041502571105957031e+01 2.925203800201416016e+00 3.394763946533203125e+00
7.182544708251953125e+00 3.393567800521850586e+00 1.390899777412414551e+00
7.075662136077880859e+00 3.478159666061401367e+00 1.351168870925903320e+00
7.097490787506103516e+00 3.344230175018310547e+00 1.450979113578796387e+00
6.991295814514160156e+00 3.418807268142700195e+00 1.403742551803588867e+00
-2.212359666824340820e+00 3.524095773696899414e+00 1.854810833930969238e+00
-2.239056348800659180e+00 3.627148151397705078e+00 1.784587979316711426e+00
-2.213944435119628906e+00 3.537975549697875977e+00 2.022700548171997070e+00
-2.241547107696533203e+00 3.634393692016601562e+00 1.950573921203613281e+00
1.195883083343505859e+01 3.535650491714477539e+00 1.303003191947937012e+00
1.190684223175048828e+01 3.673500537872314453e+00 1.298878550529479980e+00
1.187551116943359375e+01 3.476657152175903320e+00 1.384233593940734863e+00
1.181943607330322266e+01 3.606612443923950195e+00 1.377431273460388184e+00
-3.204074382781982422e+00 5.371018409729003906e+00 5.970043540000915527e-01
-3.316851139068603516e+00 5.457195758819580078e+00 5.647268295288085938e-01
-3.254557132720947266e+00 5.328864097595214844e+00 6.894705295562744141e-01
-3.366387605667114258e+00 5.413009643554687500e+00 6.484962105751037598e-01
5.806064128875732422e+00 5.542941570281982422e+00 3.215649366378784180e+00
5.578274726867675781e+00 5.537335872650146484e+00 3.117378711700439453e+00
5.817902565002441406e+00 5.540785312652587891e+00 3.454294681549072266e+00
5.613475799560546875e+00 5.534993648529052734e+00 3.361465692520141602e+00
1.166586780548095703e+01 3.024274826049804688e+00 1.369100928306579590e+00
1.160268115997314453e+01 3.068938255310058594e+00 1.321147799491882324e+00
1.165620422363281250e+01 2.982722759246826172e+00 1.534170031547546387e+00
1.160159206390380859e+01 3.011258363723754883e+00 1.475834012031555176e+00
2.127302169799804688e+00 3.212579011917114258e+00 7.685773372650146484e-01
1.993884801864624023e+00 3.226492881774902344e+00 7.331964969635009766e-01
2.111692428588867188e+00 3.291960716247558594e+00 9.120118021965026855e-01
1.982900619506835938e+00 3.300342559814453125e+00 8.604411482810974121e-01
-2.065646648406982422e+00 3.290084600448608398e+00 3.525133371353149414e+00
-2.193999767303466797e+00 3.308062076568603516e+00 3.488408327102661133e+00
-2.064460754394531250e+00 3.286010265350341797e+00 3.603880882263183594e+00
-2.185096263885498047e+00 3.312862634658813477e+00 3.572561264038085938e+00
1.087394905090332031e+01 3.175066471099853516e+00 5.793744921684265137e-01
1.081305408477783203e+01 3.250119686126708984e+00 5.987286567687988281e-01
1.083342552185058594e+01 3.094176054000854492e+00 7.298291921615600586e-01
1.079359436035156250e+01 3.180591583251953125e+00 7.336754798889160156e-01
3.099513530731201172e+00 3.483681917190551758e+00 4.454331874847412109e+00
2.950546264648437500e+00 3.576744556427001953e+00 4.458015441894531250e+00
2.945451021194458008e+00 3.424171209335327148e+00 4.441686153411865234e+00
2.779321908950805664e+00 3.492629766464233398e+00 4.437115669250488281e+00
1.065438938140869141e+01 4.627820968627929688e+00 4.458230972290039062e+00
1.055997943878173828e+01 4.738027095794677734e+00 4.449188709259033203e+00
1.055797672271728516e+01 4.540354728698730469e+00 4.451079845428466797e+00
1.047136402130126953e+01 4.644921779632568359e+00 4.446407794952392578e+00
8.075231552124023438e+00 3.618321657180786133e+00 1.414226889610290527e+00
7.967461109161376953e+00 3.713434219360351562e+00 1.412880182266235352e+00
7.939466476440429688e+00 3.557651758193969727e+00 1.423413395881652832e+00
7.826610565185546875e+00 3.641621112823486328e+00 1.420837759971618652e+00
-2.056820154190063477e+00 5.368522167205810547e+00 1.610070228576660156e+00
-2.156645536422729492e+00 5.387060642242431641e+00 1.581088900566101074e+00
-2.100477695465087891e+00 5.363937854766845703e+00 1.745137810707092285e+00
-2.178896903991699219e+00 5.371272087097167969e+00 1.693623304367065430e+00
8.968214988708496094e+00 4.071404457092285156e+00 7.011621594429016113e-01
8.954759597778320312e+00 4.214638710021972656e+00 6.991485953330993652e-01
8.875882148742675781e+00 3.970526933670043945e+00 6.861298680305480957e-01
8.876329421997070312e+00 4.137837886810302734e+00 6.796994805335998535e-01
4.877821922302246094e+00 5.528326034545898438e+00 4.098752975463867188e+00
4.723030090332031250e+00 5.574881076812744141e+00 4.003244876861572266e+00
4.804549217224121094e+00 5.477335929870605469e+00 4.193998336791992188e+00
4.656290054321289062e+00 5.543105125427246094e+00 4.107831478118896484e+00
1.843868732452392578e+00 5.549904346466064453e+00 2.782750129699707031e+00
1.680160164833068848e+00 5.541561126708984375e+00 2.718965053558349609e+00
1.818395853042602539e+00 5.553086757659912109e+00 2.964438676834106445e+00
1.638709545135498047e+00 5.546412944793701172e+00 2.918027639389038086e+00
-6.109701395034790039e-01 2.859145402908325195e+00 4.167178153991699219e+00
-6.882718801498413086e-01 2.958765983581542969e+00 4.155389785766601562e+00
-5.593393445014953613e-01 2.897689342498779297e+00 4.322585105895996094e+00
-6.427929997444152832e-01 2.990380048751831055e+00 4.315899848937988281e+00
-2.500465869903564453e+00 4.386717319488525391e+00 1.448961257934570312e+00
-2.560120820999145508e+00 4.509424209594726562e+00 1.432898879051208496e+00
-2.584579706192016602e+00 4.304796218872070312e+00 1.430763602256774902e+00
-2.657727479934692383e+00 4.446493148803710938e+00 1.424373269081115723e+00
1.177727699279785156e+01 4.964164733886718750e+00 1.885028481483459473e+00
1.178994274139404297e+01 5.139791488647460938e+00 1.921479105949401855e+00
1.178117275238037109e+01 4.976914405822753906e+00 2.059196949005126953e+00
1.180076408386230469e+01 5.138388633728027344e+00 2.075764656066894531e+00
-2.734308481216430664e+00 4.225757598876953125e+00 1.386443376541137695e+00
-2.816863775253295898e+00 4.375410556793212891e+00 1.384099721908569336e+00
-2.815325975418090820e+00 4.138676166534423828e+00 1.380491375923156738e+00
-2.902491092681884766e+00 4.274569988250732422e+00 1.380602598190307617e+00
1.269178152084350586e+00 3.406410455703735352e+00 7.842266559600830078e-01
1.163005948066711426e+00 3.421365261077880859e+00 7.659860849380493164e-01
1.212695479393005371e+00 3.421033382415771484e+00 8.574209213256835938e-01
1.103437662124633789e+00 3.431832790374755859e+00 8.390904068946838379e-01
-1.870751142501831055e+00 4.404160022735595703e+00 3.338942527770996094e-01
-1.883129000663757324e+00 4.570121288299560547e+00 3.242236971855163574e-01
-2.011332988739013672e+00 4.273395538330078125e+00 3.157477080821990967e-01
-2.052598714828491211e+00 4.432374954223632812e+00 3.050044178962707520e-01
4.971435964107513428e-01 4.398282051086425781e+00 4.463255405426025391e+00
3.975084125995635986e-01 4.564292430877685547e+00 4.459807872772216797e+00
3.645010590553283691e-01 4.325728893280029297e+00 4.455120086669921875e+00
2.606928646564483643e-01 4.483197689056396484e+00 4.443465709686279297e+00
9.590280532836914062e+00 4.375860214233398438e+00 4.476104736328125000e+00
9.570724487304687500e+00 4.548863887786865234e+00 4.457270145416259766e+00
9.435875892639160156e+00 4.261837482452392578e+00 4.461486816406250000e+00
9.418901443481445312e+00 4.433714866638183594e+00 4.440819263458251953e+00
9.829133033752441406e+00 2.886058330535888672e+00 4.406193256378173828e+00
9.733763694763183594e+00 2.966854572296142578e+00 4.420979022979736328e+00
9.700733184814453125e+00 2.843674659729003906e+00 4.413471221923828125e+00
9.587143898010253906e+00 2.912788152694702148e+00 4.420650482177734375e+00
5.161391735076904297e+00 5.218353748321533203e+00 4.462303161621093750e+00
5.066561222076416016e+00 5.354049205780029297e+00 4.397065162658691406e+00
5.006136894226074219e+00 5.074556350708007812e+00 4.484196186065673828e+00
