1.181878799999999963e+01 3.822149000000000019e+00 1.413267999999999969e+00
-6.413290000000000379e-01 5.365120000000000111e+00 3.535242999999999913e+00
2.465090000000000003e+00 3.892093000000000025e+00 1.045436999999999950e+00
6.656426999999999872e+00 5.545621999999999829e+00 3.540757999999999850e+00
-1.534696000000000060e+00 3.085061000000000053e+00 3.114979999999999971e-01
1.989435000000000064e+00 3.264330999999999872e+00 1.045436999999999950e+00
2.414724000000000093e+00 2.925066000000000166e+00 1.851900000000000102e+00
-3.135854999999999837e+00 3.075347999999999971e+00 5.398859999999999770e-01
2.831923999999999886e+00 5.545621999999999829e+00 4.182541999999999760e+00
6.114749999999999908e+00 5.545620999999999690e+00 3.274575000000000014e+00
9.152986999999999540e+00 3.602453999999999823e+00 6.834369999999999612e-01
1.464274000000000076e+00 4.746189000000000213e+00 8.504979999999999762e-01
6.453100000000000502e-01 5.376242999999999661e+00 1.413267999999999969e+00
-6.413290000000000379e-01 4.675855000000000317e+00 1.781976000000000004e+00
3.427553000000000072e+00 4.525288999999999895e+00 1.413267999999999969e+00
-5.283320000000000238e-01 2.981761999999999802e+00 4.427811000000000163e+00
4.464109999999999800e+00 5.545621999999999829e+00 2.081777000000000211e+00
-2.230773000000000117e+00 4.871635999999999633e+00 2.350600000000000023e+00
1.398676999999999948e+00 5.072352999999999668e+00 6.855090000000000350e-01
-3.997148000000000145e+00 5.318768000000000384e+00 2.848675000000000068e+00
2.584382999999999875e+00 2.925066000000000166e+00 2.597008999999999901e+00
1.005363999999999924e+00 4.807085999999999970e+00 3.144979999999999998e-01
-3.153164999999999996e+00 3.168445000000000178e+00 1.307401999999999953e+00
4.428435000000000343e+00 5.545621999999999829e+00 3.763466999999999896e+00
2.767225999999999964e+00 3.456204000000000054e+00 7.983550000000000368e-01
2.871306000000000136e+00 4.188106999999999580e+00 4.455436999999999870e+00
5.053454000000000335e+00 5.535433000000000270e+00 1.391351000000000004e+00
-3.015937999999999786e+00 3.754046999999999912e+00 3.114979999999999971e-01
9.402668999999999500e+00 3.765947999999999851e+00 6.834369999999999612e-01
5.933981000000000172e+00 4.071285999999999738e+00 1.045436999999999950e+00
9.784463999999999828e+00 5.405292000000000208e+00 1.236866999999999939e+00
1.416652000000000022e+00 3.051597999999999811e+00 1.366765000000000008e+00
8.220634000000000441e+00 5.545621999999999829e+00 1.852743000000000029e+00
7.587818000000000396e+00 3.708594000000000168e+00 1.413267999999999969e+00
1.431983000000000006e+00 5.545620999999999690e+00 2.354935999999999918e+00
-2.147740999999999900e+00 4.145660000000000345e+00 3.526533999999999835e+00
5.252894999999999648e+00 2.925066000000000166e+00 2.575258999999999965e+00
1.062056699999999942e+01 3.797359000000000151e+00 7.284540000000000459e-01
7.937220000000000386e-01 3.830956000000000028e+00 3.784980000000000011e-01
-3.100537000000000099e+00 3.075347999999999971e+00 1.872654999999999959e+00
5.253484000000000265e+00 4.201954999999999885e+00 4.455436999999999870e+00
2.452503999999999795e+00 2.925066000000000166e+00 3.904586000000000112e+00
4.306288999999999589e+00 2.925066000000000166e+00 8.267830000000000457e-01
-2.345667999999999864e+00 4.181467999999999741e+00 1.004321000000000019e+00
6.141539999999999999e+00 5.189874999999999794e+00 4.455436999999999870e+00
2.156754999999999978e+00 3.585385000000000044e+00 1.413267999999999969e+00
-2.871520999999999990e+00 3.186706000000000039e+00 1.327269000000000032e+00
3.842725000000000168e+00 2.925066000000000166e+00 1.476623999999999937e+00
-2.230773000000000117e+00 3.331459999999999866e+00 2.921679000000000137e+00
3.059319999999999817e-01 4.209501000000000381e+00 1.413267999999999969e+00
9.418488999999999223e+00 4.752645000000000231e+00 6.834369999999999612e-01
7.608359999999999568e-01 5.293199999999999683e+00 1.052008999999999972e+00
-3.429692999999999881e+00 3.724718999999999891e+00 1.234572999999999920e+00
4.203700000000000214e-01 5.300480000000000302e+00 2.748959999999999737e-01
-2.385261999999999993e+00 3.075347999999999971e+00 6.448519999999999808e-01
1.598645000000000094e+00 4.216846000000000316e+00 1.413267999999999969e+00
1.118005699999999969e+01 4.221270999999999773e+00 4.455436999999999870e+00
5.999769999999999825e+00 5.251076000000000299e+00 1.413267999999999969e+00
1.111007099999999959e+01 5.019741999999999926e+00 4.455436999999999870e+00
3.772397999999999918e+00 5.368781000000000247e+00 8.112679999999999891e-01
-3.159218000000000082e+00 3.480021999999999949e+00 1.031875000000000098e+00
5.490592999999999613e+00 2.925066000000000166e+00 3.557233999999999785e+00
6.898389999999999800e-01 3.355967999999999840e+00 1.209437000000000095e+00
-6.942399999999999960e-02 5.121622000000000341e+00 1.239867999999999970e+00
7.331520000000000259e-01 3.435321000000000069e+00 1.209437000000000095e+00
3.609930000000000083e-01 5.111265999999999643e+00 1.209437000000000095e+00
7.921453999999999773e+00 5.545621999999999829e+00 2.981781999999999933e+00
4.893449999999999633e+00 4.896645999999999610e+00 1.413267999999999969e+00
1.896929000000000087e+00 5.545621999999999829e+00 3.625163999999999831e+00
-1.697772999999999977e+00 5.385868000000000322e+00 1.663249999999999895e+00
6.709160999999999930e+00 5.509572999999999610e+00 1.313765999999999989e+00
3.124636999999999887e+00 4.559516000000000346e+00 1.413267999999999969e+00
8.539120000000000044e-01 5.545621999999999829e+00 3.437937999999999938e+00
-2.776651000000000202e+00 3.632693000000000172e+00 1.058861000000000052e+00
-4.071936000000000000e+00 3.592416000000000054e+00 8.870249999999999524e-01
-7.590299999999999825e-02 5.072352999999999668e+00 3.906149999999999900e-01
5.494269999999999987e-01 3.376311999999999980e+00 3.784980000000000011e-01
1.118870300000000029e+01 4.809931999999999874e+00 1.413267999999999969e+00
5.042597999999999914e+00 3.901790000000000092e+00 1.413267999999999969e+00
2.964548999999999879e+00 3.929492000000000207e+00 1.045436999999999950e+00
8.997629999999999795e-01 4.480718999999999674e+00 3.784980000000000011e-01
5.238612999999999964e+00 2.925066000000000166e+00 4.144916000000000267e+00
1.178668700000000058e+01 3.729645000000000099e+00 1.848103000000000051e+00
2.215419999999999889e-01 2.925066000000000166e+00 3.150698999999999916e+00
-4.088860000000000383e+00 4.514047999999999838e+00 1.065665000000000084e+00
5.562393000000000143e+00 2.931890999999999803e+00 1.275727000000000055e+00
5.342856000000000272e+00 2.925066000000000166e+00 1.616530000000000022e+00
4.409256000000000064e+00 4.208631999999999707e+00 1.045436999999999950e+00
8.259762000000000270e+00 4.659703999999999624e+00 4.455436999999999870e+00
8.763552000000000675e+00 2.826264000000000109e+00 3.768239999999999923e-01
8.526080999999999577e+00 2.826264000000000109e+00 9.443110000000000115e-01
2.523550999999999878e+00 5.121622000000000341e+00 8.519360000000000266e-01
7.919277000000000122e+00 4.453147000000000411e+00 1.413267999999999969e+00
-3.994555000000000078e+00 5.390100999999999587e+00 2.081789000000000112e+00
1.178668700000000058e+01 5.346986000000000239e+00 3.677321000000000062e+00
-3.815570000000000128e+00 3.075347999999999971e+00 2.377101000000000131e+00
1.701227000000000045e+00 5.545621999999999829e+00 2.701153000000000137e+00
1.701988000000000056e+00 4.870570999999999984e+00 6.130390000000000006e-01
1.459465999999999930e+00 2.925066000000000166e+00 1.937772999999999968e+00
-2.539134999999999920e+00 5.390100999999999587e+00 2.971724000000000032e+00
-3.157385999999999804e+00 4.994222999999999857e+00 1.380724999999999980e+00
-3.915159000000000056e+00 3.598508999999999958e+00 3.114979999999999971e-01
7.316180000000000128e+00 2.925066000000000166e+00 2.770881999999999845e+00
9.468989999999999796e+00 3.679298000000000179e+00 1.413267999999999969e+00
7.723951999999999707e+00 5.545621999999999829e+00 4.428071000000000090e+00
9.572549999999999670e-01 4.905641000000000140e+00 3.784980000000000011e-01
-4.026016000000000261e+00 4.771016999999999619e+00 1.677839000000000080e+00
-2.214872999999999870e+00 4.676179000000000308e+00 1.147072000000000092e+00
5.592139999999999889e-01 5.545621999999999829e+00 3.516791000000000000e+00
-6.413290000000000379e-01 3.407655000000000101e+00 1.898992999999999931e+00
-2.757700999999999958e+00 4.201004000000000183e+00 1.060197999999999974e+00
1.178668700000000058e+01 5.383691999999999922e+00 3.093758999999999926e+00
8.826482999999999635e+00 5.545621999999999829e+00 2.716451000000000171e+00
6.852355000000000196e+00 2.925066000000000166e+00 3.576691999999999982e+00
7.133421000000000234e+00 5.399867999999999668e+00 4.455436999999999870e+00
-3.818551999999999946e+00 5.390100999999999587e+00 2.574644999999999850e+00
1.179145600000000016e+01 4.215771000000000157e+00 1.503185999999999911e+00
-6.413290000000000379e-01 4.943539999999999601e+00 4.080257999999999718e+00
3.374836000000000169e+00 2.925066000000000166e+00 2.657639999999999780e+00
2.182695999999999970e+00 5.545621999999999829e+00 2.460566000000000031e+00
1.543774999999999897e+00 4.294393999999999600e+00 1.413267999999999969e+00
1.109129700000000085e+01 5.545621999999999829e+00 3.687777000000000083e+00
1.178668599999999955e+01 3.562755000000000116e+00 2.720372999999999930e+00
6.456517999999999979e+00 2.925066000000000166e+00 2.204794000000000143e+00
1.177250000000000085e+01 5.100893000000000121e+00 1.097267999999999910e+00
4.539093000000000266e+00 2.925066000000000166e+00 3.976574999999999971e+00
1.265759999999999941e-01 5.454301000000000066e+00 4.455436999999999870e+00
1.178668700000000058e+01 3.500452000000000119e+00 3.974892000000000092e+00
-8.774999999999999467e-02 5.545621999999999829e+00 2.421825000000000117e+00
-3.529799000000000131e+00 3.270548999999999928e+00 1.046230999999999911e+00
-3.081128000000000089e+00 3.687377000000000127e+00 1.004321000000000019e+00
-3.359429999999999916e-01 5.545621999999999829e+00 3.793560999999999961e+00
-6.413290000000000379e-01 5.179293999999999620e+00 2.345070999999999906e+00
-2.937863999999999809e+00 5.831699000000000410e+00 6.722390000000000310e-01
1.503293999999999908e+00 4.802134999999999820e+00 4.455436999999999870e+00
1.178668700000000058e+01 4.941296000000000355e+00 1.510632999999999893e+00
8.431741000000000597e+00 4.366509999999999891e+00 4.455436999999999870e+00
-2.230773000000000117e+00 3.559966999999999882e+00 3.377914999999999779e+00
1.562850000000000072e+00 2.925066000000000166e+00 2.787974000000000174e+00
7.026391000000000275e+00 4.388020000000000032e+00 1.413267999999999969e+00
1.750288999999999984e+00 2.925066000000000166e+00 2.542727999999999877e+00
-2.709344999999999892e+00 5.390100999999999587e+00 2.827666999999999931e+00
-1.708744999999999958e+00 5.255829000000000306e+00 3.673884999999999845e+00
1.037544100000000036e+01 3.362378999999999785e+00 7.337890000000000246e-01
5.915200999999999709e+00 2.925066000000000166e+00 2.444672000000000178e+00
9.516263999999999612e+00 5.545621999999999829e+00 2.178409999999999958e+00
-4.049680000000000391e+00 4.899733999999999590e+00 9.928500000000000103e-01
4.208648000000000167e+00 4.710239999999999760e+00 4.455436999999999870e+00
1.143226999999999993e+00 5.237263999999999697e+00 1.345056000000000029e+00
-6.413290000000000379e-01 3.660426999999999875e+00 2.068362000000000034e+00
-3.343600000000000044e-02 2.925066000000000166e+00 1.929761999999999977e+00
4.145630000000000148e-01 5.545621999999999829e+00 1.417955999999999994e+00
5.693260000000000431e+00 5.545621999999999829e+00 1.769128999999999952e+00
1.067489400000000010e+01 3.586390000000000189e+00 1.413267999999999969e+00
1.144422100000000064e+01 5.545621999999999829e+00 4.120839000000000141e+00
-3.776015999999999817e+00 3.693360999999999894e+00 3.000360000000000138e+00
-6.413290000000000379e-01 3.536274999999999835e+00 1.779665999999999970e+00
7.398164000000000406e+00 5.545621999999999829e+00 4.173326000000000313e+00
1.162053300000000000e+01 2.925066000000000166e+00 4.248095000000000176e+00
-1.868189000000000100e+00 3.107844000000000051e+00 3.673884999999999845e+00
4.067184000000000133e+00 5.545621999999999829e+00 2.160884999999999945e+00
9.771943000000000268e+00 2.925066000000000166e+00 4.112949000000000410e+00
1.188868800000000014e+01 2.964939999999999909e+00 1.877383000000000024e+00
4.000620999999999761e+00 3.082590999999999859e+00 1.413267999999999969e+00
1.103180099999999975e+01 2.925066000000000166e+00 3.680816000000000088e+00
7.991500000000000270e+00 4.975018000000000384e+00 1.045436999999999950e+00
8.326310000000000100e-01 4.579208999999999641e+00 4.455436999999999870e+00
5.879138000000000197e+00 5.545621999999999829e+00 2.125386999999999915e+00
8.731360999999999706e+00 3.332562999999999942e+00 4.455436999999999870e+00
8.535064000000000206e+00 5.545621999999999829e+00 4.352621000000000073e+00
1.093011100000000013e+01 2.925066000000000166e+00 4.243238999999999983e+00
5.193977000000000288e+00 3.131225999999999843e+00 4.455436999999999870e+00
7.893213000000000257e+00 2.925066000000000166e+00 2.369149000000000171e+00
1.186061899999999980e+01 3.014984000000000108e+00 3.637227000000000210e+00
9.100101000000000440e+00 2.925066000000000166e+00 4.310540999999999734e+00
6.712500999999999607e+00 4.209261999999999837e+00 1.413267999999999969e+00
1.139307699999999990e+01 2.925066000000000166e+00 3.743596000000000146e+00
-2.616416000000000075e+00 4.284817000000000320e+00 1.446725000000000039e+00
6.562160000000000437e+00 3.818811999999999873e+00 4.455436999999999870e+00
1.014550999999999981e+01 4.017900000000000027e+00 6.834369999999999612e-01
8.931834999999999525e+00 4.423371000000000386e+00 6.834369999999999612e-01
2.019477999999999884e+00 2.925066000000000166e+00 4.252888999999999697e+00
-3.686561999999999895e+00 3.179647000000000112e+00 3.114979999999999971e-01
1.091166699999999956e+01 5.545621999999999829e+00 2.282394000000000034e+00
5.727083999999999619e+00 3.130065999999999793e+00 7.888709999999999889e-01
1.769769999999999954e-01 4.451673000000000435e+00 4.455436999999999870e+00
4.780523999999999774e+00 5.121622000000000341e+00 1.082770000000000010e+00
-1.634733999999999909e+00 3.075347999999999971e+00 9.808620000000000116e-01
2.192738999999999994e+00 5.428547000000000011e+00 9.146560000000000246e-01
1.868136000000000019e+00 3.235066000000000219e+00 1.399000999999999939e+00
-1.210232999999999892e+00 3.075347999999999971e+00 7.100940000000000030e-01
3.221387000000000000e+00 5.436774999999999913e+00 9.107699999999999685e-01
9.172468000000000288e+00 5.545621999999999829e+00 3.085536999999999974e+00
6.262049000000000198e+00 2.999522999999999939e+00 1.275727000000000055e+00
3.409279999999999866e+00 4.274666999999999994e+00 4.455438000000000009e+00
-2.446960999999999942e+00 5.390100999999999587e+00 2.592058000000000195e+00
8.650351999999999819e+00 2.925066000000000166e+00 2.535997000000000057e+00
-3.519333000000000045e+00 3.193834999999999980e+00 3.114979999999999971e-01
1.111910600000000038e+01 5.545621999999999829e+00 1.430487000000000064e+00
1.106815600000000011e+01 5.545620999999999690e+00 3.551795999999999953e+00
1.172488999999999892e+00 2.925066000000000166e+00 2.970238999999999852e+00
2.768005000000000049e+00 2.950091000000000019e+00 1.275727000000000055e+00
1.103069799999999923e+01 5.449859000000000009e+00 1.413267999999999969e+00
1.012289999999999995e-01 5.545621999999999829e+00 4.312231999999999843e+00
1.168124099999999999e+01 3.543283000000000182e+00 1.370033999999999974e+00
1.148829500000000081e+01 2.925066000000000166e+00 3.481972999999999985e+00
6.632449000000000261e+00 3.235066000000000219e+00 1.296551999999999927e+00
7.741685000000000372e+00 2.939636000000000138e+00 1.257786999999999988e+00
4.183193000000000161e+00 3.127666000000000057e+00 9.219789999999999930e-01
1.911021000000000081e+00 5.313837000000000366e+00 1.066832999999999920e+00
1.041775699999999993e+01 5.010665000000000369e+00 5.938539999999999930e-01
-2.228539999999999965e-01 4.895960999999999785e+00 1.209437000000000095e+00
7.879226000000000063e+00 3.099765999999999799e+00 1.221565000000000012e+00
-2.230773000000000117e+00 3.580264000000000113e+00 2.673029999999999795e+00
-4.244860000000000078e+00 3.260018999999999778e+00 3.606659999999999866e-01
9.598288999999999405e+00 3.838540000000000063e+00 6.834369999999999612e-01
6.670218000000000202e+00 2.925066000000000166e+00 2.831126999999999949e+00
-2.770817000000000085e+00 3.394858999999999849e+00 3.418331999999999926e+00
-4.185787000000000369e+00 5.342380000000000351e+00 4.463739999999999930e-01
1.064954000000000001e+01 5.545621999999999829e+00 2.877672000000000008e+00
-2.452065000000000161e+00 4.781778000000000084e+00 1.380724999999999980e+00
1.051771500000000081e+01 5.545621999999999829e+00 3.717362000000000055e+00
7.824149999999999716e-01 4.388091000000000186e+00 1.209437000000000095e+00
-3.737992999999999899e+00 3.837769000000000208e+00 2.999289999999999790e+00
-4.244860000000000078e+00 5.070755000000000123e+00 3.232149999999999745e-01
-2.264107999999999787e+00 5.378134000000000192e+00 3.054279999999999884e+00
1.099751499999999993e+01 5.001256999999999842e+00 4.455436999999999870e+00
-3.580705000000000027e+00 3.532240999999999964e+00 2.926333000000000073e+00
-2.230773000000000117e+00 3.655492999999999881e+00 3.591396000000000033e+00
1.136868699999999954e+01 3.649360999999999855e+00 1.175775999999999932e+00
-2.041383999999999865e+00 3.770278999999999936e+00 1.004321000000000019e+00
3.961803999999999881e+00 4.737654000000000032e+00 4.455436999999999870e+00
1.013764800000000044e+01 5.010665000000000369e+00 5.299530000000000074e-01
7.690267000000000408e+00 5.545621999999999829e+00 2.612519999999999953e+00
6.733513000000000304e+00 4.150331000000000437e+00 1.413267999999999969e+00
7.366229999999999833e+00 4.611364000000000019e+00 1.413267999999999969e+00
-1.930975000000000108e+00 3.206084000000000156e+00 3.067203999999999819e+00
4.073593999999999937e+00 3.444465000000000110e+00 1.045436999999999950e+00
4.732350000000000168e-01 3.825972000000000151e+00 4.455436999999999870e+00
-4.089392000000000138e+00 4.092942999999999998e+00 8.870249999999999524e-01
-9.145899999999999863e-02 4.286665000000000170e+00 8.504979999999999762e-01
5.420917000000000208e+00 3.235066000000000219e+00 1.138978000000000046e+00
1.029044799999999960e+01 4.609200999999999659e+00 6.834369999999999612e-01
-1.990869999999999918e+00 3.299732999999999805e+00 1.004321000000000019e+00
-1.191240000000000077e+00 4.606774999999999842e+00 3.114979999999999971e-01
-9.715939999999999577e-01 3.468506000000000089e+00 3.784980000000000011e-01
1.017698200000000064e+01 4.974529999999999674e+00 1.413267999999999969e+00
1.155624000000000073e+01 4.284273999999999916e+00 1.413267999999999969e+00
8.623967999999999634e+00 3.417610999999999954e+00 4.455436999999999870e+00
1.092653000000000096e+00 4.351632999999999640e+00 3.144979999999999998e-01
7.834069999999999645e-01 2.925066000000000166e+00 3.653802999999999912e+00
5.217083999999999833e+00 4.808258999999999617e+00 4.455438000000000009e+00
5.839879999999999960e+00 3.879582999999999782e+00 4.455436999999999870e+00
-4.070006000000000235e+00 3.934870999999999786e+00 2.487487999999999921e+00
3.017389000000000099e+00 3.683310999999999780e+00 1.045436999999999950e+00
-3.815930000000000155e-01 4.579317999999999778e+00 3.144979999999999998e-01
9.406665999999999528e+00 2.925066000000000166e+00 3.581354000000000148e+00
5.187229000000000312e+00 3.624735999999999958e+00 1.045436999999999950e+00
4.264293999999999585e+00 5.545621999999999829e+00 3.893620999999999999e+00
1.137854399999999977e+01 4.865382999999999569e+00 4.455436999999999870e+00
1.336225999999999914e+00 4.395317999999999614e+00 1.077452000000000076e+00
-2.461253999999999831e+00 3.889005000000000045e+00 2.991448000000000107e+00
3.450454999999999828e+00 5.413513000000000019e+00 1.313765999999999989e+00
3.493629999999999791e-01 2.925066000000000166e+00 2.227395000000000014e+00
-1.491932000000000036e+00 4.446934999999999860e+00 3.114979999999999971e-01
1.730024000000000006e+00 3.234131999999999785e+00 1.246579000000000104e+00
1.185356299999999941e+01 5.545621999999999829e+00 3.824117000000000210e+00
6.368515000000000370e+00 2.925066000000000166e+00 4.256088000000000093e+00
-1.869296999999999986e+00 3.075347999999999971e+00 1.874856000000000078e+00
-3.175451999999999941e+00 3.138984999999999914e+00 1.004321000000000019e+00
-3.351156000000000024e+00 5.100756999999999763e+00 1.080394999999999994e+00
7.346995999999999860e+00 2.925066000000000166e+00 2.081268000000000118e+00
3.398059999999999969e-01 3.973742999999999803e+00 4.455436999999999870e+00
-6.413290000000000379e-01 4.556023999999999852e+00 3.471766999999999825e+00
4.785105999999999860e+00 4.124334000000000167e+00 4.455436999999999870e+00
2.849180000000000046e-01 5.411609999999999587e+00 4.455436999999999870e+00
-1.015859999999999985e+00 4.515025999999999762e+00 6.464609999999999523e-01
-1.015859999999999985e+00 3.521367000000000136e+00 6.835729999999999862e-01
9.425888000000000488e+00 2.925066000000000166e+00 3.589259000000000199e+00
3.418651000000000106e+00 3.873920000000000030e+00 1.045436999999999950e+00
-1.015859999999999985e+00 5.319094999999999906e+00 3.696699999999999986e-01
2.292241000000000195e+00 5.532409000000000354e+00 1.227589000000000041e+00
1.017909399999999920e+01 3.027258999999999922e+00 1.413267999999999969e+00
6.117019999999999680e-01 3.879719999999999835e+00 8.309980000000000144e-01
9.044064999999999799e+00 5.545621999999999829e+00 3.670990000000000197e+00
-3.866249999999999964e-01 5.041268999999999778e+00 4.455436999999999870e+00
9.087369999999999948e+00 3.591559999999999864e+00 1.413267999999999969e+00
-5.510099999999999720e-02 3.935626000000000069e+00 1.209437000000000095e+00
-2.941936000000000107e+00 5.390100999999999587e+00 2.557008000000000170e+00
8.074992999999999199e+00 3.153049000000000213e+00 4.808959999999999901e-01
1.167400000000000035e-02 4.028772000000000020e+00 1.209437000000000095e+00
-2.209271000000000207e+00 5.260303000000000395e+00 3.520992000000000122e+00
3.747834999999999805e+00 4.440883000000000358e+00 1.413267999999999969e+00
-1.524580000000000046e+00 4.421814999999999607e+00 1.004321000000000019e+00
-6.413290000000000379e-01 3.547477000000000213e+00 1.898385999999999907e+00
9.780233000000000843e+00 5.545621999999999829e+00 1.764140000000000041e+00
-5.008200000000000152e-02 4.702195999999999820e+00 3.144979999999999998e-01
1.188403899999999958e+01 5.404217000000000048e+00 4.365520000000000067e+00
1.188868599999999986e+01 5.080106999999999928e+00 1.226305999999999896e+00
5.381889000000000145e+00 4.048318000000000083e+00 1.413267999999999969e+00
1.136434200000000061e+01 5.545621999999999829e+00 2.623397999999999897e+00
5.534413999999999945e+00 3.897591999999999945e+00 1.045436999999999950e+00
3.345442999999999945e+00 5.545621999999999829e+00 2.527217999999999964e+00
-2.230773000000000117e+00 4.778546000000000404e+00 2.206526999999999905e+00
-2.392748000000000097e+00 2.838779999999999859e+00 3.645419999999999772e-01
3.903170999999999946e+00 5.121622000000000341e+00 1.082025999999999932e+00
1.022458999999999918e+01 2.925066000000000166e+00 2.646300000000000097e+00
6.889787000000000106e+00 3.627667000000000197e+00 1.045436999999999950e+00
9.614772999999999570e+00 3.235066000000000219e+00 1.264748999999999901e+00
-4.088860000000000383e+00 3.119108999999999909e+00 1.667483000000000049e+00
-3.167067999999999994e+00 4.607042999999999999e+00 2.950393000000000043e+00
1.781195000000000084e+00 5.545621999999999829e+00 2.445571999999999857e+00
-2.986199999999999966e-01 5.043395000000000294e+00 5.081480000000000441e-01
9.259857999999999478e+00 5.545621999999999829e+00 2.442820000000000213e+00
3.071959000000000106e+00 5.545621999999999829e+00 4.289600000000000080e+00
-3.032089000000000034e+00 3.075347999999999971e+00 8.724129999999999940e-01
4.365058000000000327e+00 5.202297999999999867e+00 4.455436999999999870e+00
4.767776999999999710e+00 4.172373000000000332e+00 1.045436999999999950e+00
-1.164940000000000003e-01 5.070388999999999591e+00 3.144979999999999998e-01
1.016772999999999927e+00 3.968535000000000146e+00 3.784980000000000011e-01
2.427360999999999880e+00 5.545621999999999829e+00 4.263678999999999775e+00
2.971477999999999842e+00 2.925066000000000166e+00 3.663038999999999934e+00
1.183880500000000069e+01 5.368248000000000353e+00 1.503185999999999911e+00
3.888654999999999973e+00 5.388110000000000177e+00 9.107699999999999685e-01
-2.446489000000000136e+00 3.698722000000000065e+00 1.082151000000000085e+00
5.890723999999999627e+00 2.925066000000000166e+00 8.525800000000000045e-01
-2.864593000000000167e+00 3.364691999999999794e+00 1.139154999999999918e+00
5.768909999999999982e+00 2.925066000000000166e+00 2.833454000000000139e+00
1.685016000000000069e+00 4.770273999999999681e+00 1.045436999999999950e+00
4.641939999999999955e-01 4.889769000000000254e+00 1.209437000000000095e+00
-6.413290000000000379e-01 3.793264000000000191e+00 1.851542000000000021e+00
3.776149000000000200e+00 2.925066000000000166e+00 3.153920999999999975e+00
1.178668599999999955e+01 3.768189000000000011e+00 3.376138999999999779e+00
1.108264600000000044e+01 5.545621999999999829e+00 3.434039999999999981e+00
3.688893000000000200e+00 5.121622000000000341e+00 1.362436999999999898e+00
7.461872999999999756e+00 2.925066000000000166e+00 4.369081000000000437e+00
-2.425039999999999973e-01 5.545621999999999829e+00 3.995124999999999815e+00
7.463252999999999915e+00 2.925066000000000166e+00 3.895415999999999990e+00
4.933803000000000161e+00 5.121622000000000341e+00 1.174461999999999895e+00
1.107037200000000077e+01 3.832268000000000008e+00 1.045436999999999950e+00
8.224805999999999173e+00 3.990699000000000218e+00 4.455436999999999870e+00
2.160400000000000167e-02 4.889441999999999844e+00 3.144979999999999998e-01
-2.234894999999999854e+00 4.593113999999999919e+00 1.097077000000000080e+00
1.407604000000000077e+00 5.043395000000000294e+00 4.230840000000000156e-01
8.812170999999999310e+00 5.203132000000000090e+00 1.413267999999999969e+00
4.080968000000000373e+00 3.931052000000000213e+00 4.455436999999999870e+00
1.063978200000000029e+01 4.665329999999999977e+00 1.045436999999999950e+00
5.378613999999999784e+00 3.968642000000000003e+00 1.413267999999999969e+00
3.240298000000000123e+00 4.605631999999999948e+00 1.413267999999999969e+00
1.051538799999999974e+01 4.245548999999999573e+00 1.413267999999999969e+00
1.034958100000000059e+01 4.449640999999999735e+00 6.834369999999999612e-01
4.275818000000000119e+00 3.615822999999999787e+00 1.413267999999999969e+00
1.033710699999999960e+01 3.362378999999999785e+00 7.239290000000000447e-01
1.691060000000000008e+00 5.016612000000000293e+00 1.045436999999999950e+00
-3.844834000000000085e+00 3.363636000000000070e+00 3.114979999999999971e-01
-2.498136999999999830e+00 4.676936999999999678e+00 3.114979999999999971e-01
7.961369999999999836e-01 4.752224000000000004e+00 4.455436999999999870e+00
2.981558000000000153e+00 2.925066000000000166e+00 2.231339999999999879e+00
3.041549999999999976e+00 4.907168000000000418e+00 1.413267999999999969e+00
6.750800000000000134e-01 3.807863000000000220e+00 8.504979999999999762e-01
1.178668599999999955e+01 4.351983999999999853e+00 4.324055999999999678e+00
-3.426698000000000022e+00 5.374888000000000332e+00 2.935290999999999872e+00
5.829129000000000005e+00 2.925066000000000166e+00 4.127520999999999773e+00
-3.445437999999999779e+00 5.127050999999999803e+00 1.004321000000000019e+00
9.019650000000000389e+00 4.800947999999999993e+00 4.455436999999999870e+00
7.174241000000000312e+00 4.605012000000000327e+00 1.413267999999999969e+00
9.537729000000000568e+00 4.127686999999999884e+00 6.834369999999999612e-01
8.266602999999999923e+00 3.370711000000000013e+00 4.455436999999999870e+00
-6.413290000000000379e-01 4.446163999999999561e+00 3.419061999999999824e+00
1.443988000000000049e+00 3.571705000000000130e+00 3.559829999999999939e-01
7.205855999999999817e+00 5.545621999999999829e+00 2.171695000000000153e+00
3.384459999999999802e+00 3.488354000000000177e+00 1.413267999999999969e+00
-2.230773000000000117e+00 4.956743999999999595e+00 1.776529000000000025e+00
1.074512700000000009e+01 2.925066000000000166e+00 3.167720999999999787e+00
1.178668700000000058e+01 3.278458000000000094e+00 1.667467999999999950e+00
1.001126400000000061e+01 3.212985999999999898e+00 1.413267999999999969e+00
5.667466000000000115e+00 3.286252999999999869e+00 4.455436999999999870e+00
1.589453000000000005e+00 3.863932000000000144e+00 1.413267999999999969e+00
-3.177416000000000018e+00 4.903744999999999798e+00 1.305690999999999935e+00
9.189773999999999887e+00 5.545621999999999829e+00 2.020947000000000049e+00
1.015885399999999983e+01 4.015742000000000367e+00 6.834369999999999612e-01
1.016356000000000037e+00 3.716083999999999943e+00 3.784980000000000011e-01
7.740637999999999685e+00 4.087729000000000390e+00 4.455436999999999870e+00
-2.659853000000000023e+00 4.761823999999999835e+00 2.979896000000000100e+00
6.725121999999999822e+00 2.925066000000000166e+00 1.565944000000000003e+00
-2.223036000000000012e+00 4.530132000000000048e+00 1.262787000000000104e+00
8.897107999999999350e+00 4.211775000000000269e+00 1.413267999999999969e+00
8.773986000000000729e+00 2.925066000000000166e+00 2.872641999999999918e+00
-3.776015999999999817e+00 4.386411999999999978e+00 3.081110999999999933e+00
-2.541720999999999897e+00 4.719637999999999778e+00 2.986766999999999950e+00
-7.931190000000000184e-01 3.744148000000000032e+00 8.504979999999999762e-01
1.178668700000000058e+01 3.905888000000000027e+00 2.417209999999999859e+00
8.265499000000000152e+00 2.925066000000000166e+00 2.427944999999999798e+00
4.065712000000000437e+00 3.938454000000000121e+00 1.045436999999999950e+00
7.703587999999999880e+00 5.251300999999999775e+00 1.413267999999999969e+00
-4.144721999999999795e+00 5.687739999999999796e+00 3.348880000000000190e-01
-7.706910000000000149e-01 4.205853000000000286e+00 8.504979999999999762e-01
-3.866150999999999893e+00 5.101478000000000179e+00 3.114979999999999971e-01
-1.666287000000000074e+00 4.920911000000000257e+00 1.004321000000000019e+00
5.802222000000000435e+00 5.330433000000000199e+00 9.032379999999999853e-01
5.945863000000000120e+00 5.469579999999999664e+00 9.107699999999999685e-01
2.374893000000000143e+00 5.545621999999999829e+00 2.901517000000000124e+00
7.894288000000000416e+00 3.105229000000000017e+00 4.455436999999999870e+00
1.218055000000000110e+00 3.909855999999999998e+00 1.209437000000000095e+00
4.257999999999999979e-02 5.545621999999999829e+00 1.708596999999999921e+00
-6.413290000000000379e-01 4.393436000000000341e+00 1.428255000000000052e+00
1.186051400000000022e+01 3.957333000000000212e+00 1.110884999999999900e+00
-1.405432999999999932e+00 4.723702000000000290e+00 1.004321000000000019e+00
8.652832999999999330e+00 5.085149999999999615e+00 1.413267999999999969e+00
3.101570999999999856e+00 2.925066000000000166e+00 1.934816000000000091e+00
2.647235999999999922e+00 4.003515000000000157e+00 4.455436999999999870e+00
-3.550746999999999876e+00 3.557884000000000047e+00 1.004321000000000019e+00
1.344560999999999895e+00 2.925066000000000166e+00 4.402626999999999846e+00
6.986179999999999612e-01 4.849224000000000423e+00 3.144979999999999998e-01
4.391174000000000355e+00 4.457832999999999934e+00 4.455436999999999870e+00
4.562260000000000204e-01 3.739186999999999816e+00 3.144979999999999998e-01
5.911806999999999590e+00 2.934378000000000153e+00 1.275727000000000055e+00
4.886519999999999975e+00 5.121622000000000341e+00 1.276418999999999970e+00
6.798396000000000328e+00 5.468137999999999721e+00 1.313765999999999989e+00
-2.230773000000000117e+00 5.309158000000000044e+00 2.323695999999999984e+00
-2.699656000000000056e+00 4.585516000000000147e+00 3.114979999999999971e-01
4.346803999999999668e+00 5.545621999999999829e+00 1.980941000000000063e+00
1.510091000000000072e+00 4.277924999999999756e+00 3.144979999999999998e-01
7.348019999999999996e+00 2.925066000000000166e+00 2.015562000000000076e+00
-2.230773000000000117e+00 5.153979999999999784e+00 1.960345000000000004e+00
5.757623999999999853e+00 5.545621999999999829e+00 2.540861000000000036e+00
1.178668599999999955e+01 3.552745999999999960e+00 4.357446000000000375e+00
1.701988000000000056e+00 4.027681000000000289e+00 6.942679999999999962e-01
-3.152878999999999987e+00 3.075347999999999971e+00 2.224527000000000143e+00
-1.976504000000000039e+00 5.396873000000000253e+00 3.114979999999999971e-01
-3.179835000000000189e+00 5.390100999999999587e+00 2.088386999999999993e+00
-2.229055999999999926e+00 3.542187999999999892e+00 1.097488999999999937e+00
7.689339000000000368e+00 4.065127000000000379e+00 4.455436999999999870e+00
7.115505999999999887e+00 2.925066000000000166e+00 2.852466999999999864e+00
1.841652000000000067e+00 5.505170999999999815e+00 4.455436999999999870e+00
-2.508865000000000123e+00 5.219649000000000427e+00 1.446725000000000039e+00
6.881960000000000299e+00 2.925066000000000166e+00 1.716639000000000026e+00
8.910964999999999137e+00 5.546778999999999904e+00 5.665040000000000076e-01
-3.762344000000000133e+00 5.390100000000000335e+00 2.645401000000000113e+00
3.644709999999999894e-01 3.024398000000000142e+00 1.413267999999999969e+00
-2.209271000000000207e+00 4.853728000000000264e+00 3.200035000000000185e+00
9.083807999999999439e+00 2.925066000000000166e+00 2.628408999999999995e+00
5.615654000000000146e+00 4.620947000000000138e+00 4.455438000000000009e+00
5.704457999999999807e+00 5.227350999999999637e+00 4.455436999999999870e+00
9.868062999999999363e+00 2.925066000000000166e+00 4.066607000000000305e+00
-2.230773000000000117e+00 3.964100999999999875e+00 2.417149999999999910e+00
8.813836999999999477e+00 4.403798000000000101e+00 1.413267999999999969e+00
1.298102000000000089e+00 4.602725999999999651e+00 3.144979999999999998e-01
1.108664600000000000e+01 5.121622000000000341e+00 1.377561000000000035e+00
1.125060500000000019e+01 2.925066000000000166e+00 3.114650999999999836e+00
-1.015859999999999985e+00 4.618377999999999872e+00 7.185559999999999725e-01
3.428879999999999928e+00 3.886629000000000111e+00 1.413267999999999969e+00
1.178668700000000058e+01 3.334429999999999783e+00 2.253286999999999818e+00
1.162755600000000022e+01 2.925066000000000166e+00 3.041676999999999964e+00
5.900898999999999894e+00 2.925066000000000166e+00 1.383240000000000025e+00
-1.015859999999999985e+00 4.026920999999999751e+00 7.581759999999999611e-01
-2.004996999999999918e+00 5.090042000000000399e+00 3.673884999999999845e+00
5.371275999999999939e+00 5.411539000000000321e+00 4.455436999999999870e+00
-1.360240000000000060e-01 4.453890999999999600e+00 8.504979999999999762e-01
4.275171000000000276e+00 2.946152999999999800e+00 1.413267999999999969e+00
-2.011925000000000185e+00 5.228563000000000294e+00 3.004853999999999914e+00
-2.522232999999999947e+00 3.330513999999999974e+00 1.004321000000000019e+00
1.179641299999999937e+01 3.488321000000000005e+00 4.365520000000000067e+00
4.374152999999999736e+00 2.925066000000000166e+00 3.448891999999999847e+00
1.074443600000000032e+01 5.297723000000000404e+00 4.455436999999999870e+00
7.475704999999999600e+00 5.545620999999999690e+00 2.386843999999999966e+00
1.090639600000000087e+01 4.558252000000000415e+00 1.045436999999999950e+00
9.657688999999999524e+00 3.465177999999999869e+00 4.455438000000000009e+00
1.123920999999999992e+01 3.843803999999999998e+00 1.045436999999999950e+00
1.020182600000000050e+01 4.928135000000000154e+00 1.413267999999999969e+00
-3.224188999999999972e+00 2.972998000000000030e+00 1.332395999999999914e+00
-1.398173000000000110e+00 3.263860999999999901e+00 3.114979999999999971e-01
9.848494999999999777e+00 2.925066000000000166e+00 2.172178999999999860e+00
9.690967999999999805e+00 2.946902999999999828e+00 1.157643999999999895e+00
7.406285999999999703e+00 3.548029000000000099e+00 1.413267999999999969e+00
4.618342000000000169e+00 2.925066000000000166e+00 2.828101999999999894e+00
-2.854172999999999849e+00 3.177400000000000002e+00 8.270220000000000349e-01
7.503027000000000335e+00 3.235066000000000219e+00 1.213880000000000070e+00
6.532525999999999833e+00 5.545621999999999829e+00 1.700166000000000066e+00
-3.851644999999999985e+00 3.583226999999999940e+00 2.910006999999999788e+00
5.266080999999999790e+00 4.540396999999999572e+00 4.455436999999999870e+00
1.416994000000000087e+00 2.925066000000000166e+00 3.509023000000000003e+00
1.693020000000000080e-01 2.925066000000000166e+00 4.188301000000000052e+00
-2.813057999999999836e+00 3.075347999999999971e+00 2.205709999999999837e+00
-2.616283999999999832e+00 3.213745999999999992e+00 3.178406999999999982e+00
1.157811899999999916e+01 5.005584999999999951e+00 4.455436999999999870e+00
-1.015859999999999985e+00 3.928980999999999835e+00 3.759049999999999891e-01
8.747123000000000204e+00 2.925066000000000166e+00 1.600503000000000009e+00
1.178668700000000058e+01 3.292114999999999903e+00 3.093236999999999792e+00
8.720489999999999853e+00 3.197766999999999804e+00 1.371153999999999984e+00
-6.413290000000000379e-01 2.936023000000000049e+00 1.885170000000000012e+00
2.231698999999999877e+00 5.474425000000000097e+00 8.112679999999999891e-01
3.112989999999999924e+00 3.079530999999999796e+00 9.219789999999999930e-01
5.712426999999999921e+00 5.545621999999999829e+00 3.806557000000000190e+00
-2.331663999999999959e+00 4.541247000000000256e+00 1.380724999999999980e+00
-2.770620000000000083e+00 3.075347999999999971e+00 7.347810000000000175e-01
5.937500000000000000e+00 4.454513000000000389e+00 1.045436999999999950e+00
-3.280108999999999941e+00 4.054031000000000162e+00 3.177328999999999848e+00
-3.261009999999999742e-01 5.545621999999999829e+00 2.732962000000000113e+00
6.482137999999999955e+00 3.413975000000000204e+00 1.045436999999999950e+00
-2.209271000000000207e+00 4.455851000000000006e+00 3.332069999999999865e+00
7.484988000000000419e+00 5.545621999999999829e+00 1.612044999999999950e+00
8.718194999999999695e+00 4.501602000000000103e+00 4.455438000000000009e+00
1.087744000000000044e+00 4.183451999999999948e+00 3.144979999999999998e-01
-1.987794000000000061e+00 3.155874999999999986e+00 3.526533999999999835e+00
7.932450000000000223e+00 3.467455999999999872e+00 4.455436999999999870e+00
-2.087519999999999931e-01 3.890728000000000186e+00 3.784980000000000011e-01
1.078480000000000061e+01 3.755764000000000102e+00 1.045436999999999950e+00
-2.038997999999999866e+00 5.390100999999999587e+00 3.217493999999999854e+00
7.811418999999999890e+00 4.441684999999999661e+00 1.413267999999999969e+00
3.120804999999999829e+00 3.827208000000000165e+00 4.455436999999999870e+00
9.670509999999999939e-01 5.141855999999999760e+00 4.455436999999999870e+00
7.049216000000000371e+00 5.181231000000000364e+00 4.455436999999999870e+00
2.911110000000000086e-01 2.925066000000000166e+00 3.101745000000000196e+00
1.601370000000000016e-01 4.133970999999999840e+00 1.413267999999999969e+00
4.661469000000000307e+00 2.925066000000000166e+00 3.080048000000000119e+00
8.833210000000000228e-01 3.831544000000000061e+00 3.144979999999999998e-01
-2.241308000000000078e+00 3.075347999999999971e+00 9.158079999999999554e-01
1.083312800000000031e+01 5.216175999999999924e+00 9.350309999999999455e-01
-1.694773000000000085e+00 3.079591999999999885e+00 2.361076000000000175e+00
-3.490587999999999802e+00 3.083578000000000152e+00 1.004321000000000019e+00
9.403287999999999869e+00 3.057669000000000192e+00 5.882960000000000411e-01
1.143623999999999974e+00 3.931207999999999814e+00 3.144979999999999998e-01
9.029439999999999245e+00 5.121622000000000341e+00 1.110224000000000100e+00
-1.910720999999999892e+00 3.469069000000000180e+00 3.114979999999999971e-01
8.888110000000000177e-01 4.601299000000000028e+00 3.784980000000000011e-01
2.492256999999999945e+00 5.545621999999999829e+00 3.860437999999999814e+00
-1.763471000000000011e+00 4.308825999999999823e+00 1.004321000000000019e+00
-2.693503999999999898e+00 3.075347999999999971e+00 1.766280999999999990e+00
2.151470999999999911e+00 4.861621999999999666e+00 1.019136000000000042e+00
-5.503289999999999571e-01 3.832937999999999956e+00 1.212930999999999981e+00
2.124721000000000082e+00 5.545621999999999829e+00 2.387980000000000214e+00
1.701988000000000056e+00 3.411534000000000066e+00 3.574780000000000180e-01
1.052786299999999997e+01 3.235066000000000219e+00 1.310791000000000039e+00
1.187117100000000036e+01 2.925066000000000166e+00 4.065845999999999627e+00
4.533606999999999942e+00 3.823336999999999986e+00 1.413267999999999969e+00
-2.461393000000000164e+00 2.764386000000000010e+00 2.660420000000000007e-01
3.426880999999999844e+00 4.044336000000000375e+00 1.413267999999999969e+00
1.178668700000000058e+01 3.444144000000000094e+00 4.273412999999999684e+00
8.218565999999999150e+00 3.950997999999999788e+00 8.741120000000000001e-01
-2.017247999999999930e+00 3.151205000000000034e+00 1.932039999999999980e+00
8.983204999999999885e+00 5.545621999999999829e+00 2.106961999999999779e+00
7.800538999999999668e+00 3.177979999999999805e+00 1.413267999999999969e+00
9.996366000000000085e+00 2.826264000000000109e+00 4.178160000000000207e-01
8.886390999999999707e+00 5.545621999999999829e+00 2.171469999999999789e+00
-2.094494000000000078e+00 3.447871999999999826e+00 3.004853999999999914e+00
9.644040999999999642e+00 2.925066000000000166e+00 1.655528000000000111e+00
4.809458000000000233e+00 3.235066000000000219e+00 1.098076999999999970e+00
-4.003491000000000355e+00 5.390100999999999587e+00 2.203701000000000132e+00
5.321837999999999624e+00 4.509098999999999968e+00 4.455436999999999870e+00
-6.413290000000000379e-01 2.940507999999999900e+00 3.876104999999999912e+00
9.477114999999999512e+00 2.925066000000000166e+00 3.949472000000000094e+00
5.388327999999999562e+00 2.925066000000000166e+00 3.853744999999999976e+00
1.104321599999999926e+01 4.688254999999999839e+00 1.045436999999999950e+00
8.752510000000000012e-01 2.925066000000000166e+00 2.842175000000000118e+00
4.781469999999999887e-01 4.830979000000000134e+00 4.455436999999999870e+00
-2.488703000000000110e+00 2.773198999999999970e+00 1.145308999999999910e+00
-2.558848999999999929e+00 4.361365000000000158e+00 2.985771000000000175e+00
3.237675999999999998e+00 4.816571999999999854e+00 1.413267999999999969e+00
4.677287999999999890e+00 4.946407999999999916e+00 1.413267999999999969e+00
1.125560800000000050e+01 5.545621999999999829e+00 4.177228999999999637e+00
1.083103400000000072e+01 3.235066000000000219e+00 1.190125000000000099e+00
1.178210499999999961e+01 5.545621999999999829e+00 3.539771000000000001e+00
-3.438994000000000106e+00 3.767876999999999921e+00 3.114979999999999971e-01
1.268162000000000011e+00 4.146431999999999896e+00 3.144979999999999998e-01
-2.603568999999999800e+00 5.225101999999999691e+00 1.380724999999999980e+00
9.408630000000000049e-01 2.925066000000000166e+00 3.150641999999999943e+00
1.132718799999999959e+01 3.547890000000000210e+00 1.045436999999999950e+00
-3.115129999999999844e-01 3.987849999999999895e+00 1.413267999999999969e+00
-5.503289999999999571e-01 4.311409000000000269e+00 1.300292999999999921e+00
5.458721999999999852e+00 2.925066000000000166e+00 2.595203000000000149e+00
9.041057000000000343e+00 3.362378999999999785e+00 6.150710000000000344e-01
8.699106000000000449e+00 4.300790000000000113e+00 4.455436999999999870e+00
7.857988999999999891e+00 5.545621999999999829e+00 2.811116000000000170e+00
3.287777999999999867e+00 5.545621999999999829e+00 2.459487000000000201e+00
-2.944427000000000127e+00 3.165573999999999888e+00 3.114979999999999971e-01
4.333756000000000164e+00 3.551994000000000096e+00 1.045436999999999950e+00
4.583769999999999789e-01 4.692266000000000048e+00 3.144979999999999998e-01
1.004387099999999933e+01 2.925066000000000166e+00 3.353591999999999906e+00
1.122106899999999996e+01 5.545621999999999829e+00 2.346363999999999894e+00
2.007509999999999906e+00 5.243858999999999604e+00 1.413267999999999969e+00
7.172983999999999583e+00 3.606043999999999805e+00 4.455438000000000009e+00
-3.849806000000000061e+00 3.075347999999999971e+00 2.683478000000000030e+00
1.816168000000000005e+00 3.770013000000000059e+00 4.455436999999999870e+00
-1.015859999999999985e+00 4.240293999999999563e+00 8.281600000000000072e-01
6.932522999999999769e+00 4.005169000000000423e+00 1.045436999999999950e+00
-3.978630000000000222e-01 4.665854999999999642e+00 8.504979999999999762e-01
4.100925000000000153e+00 3.636134000000000199e+00 4.455436999999999870e+00
-2.594669999999999810e+00 4.885555000000000092e+00 3.501685999999999854e+00
-4.088860000000000383e+00 5.231544999999999668e+00 1.178630999999999984e+00
-1.705300999999999956e+00 4.618532000000000082e+00 1.004321000000000019e+00
-4.244860000000000078e+00 4.162493999999999694e+00 4.468909999999999827e-01
5.793149999999999800e+00 4.415629000000000026e+00 1.413267999999999969e+00
-1.100940000000000030e+00 4.788149999999999906e+00 1.004321000000000019e+00
-5.875400000000000067e-02 2.925066000000000166e+00 4.440641000000000282e+00
5.937456000000000067e+00 2.925066000000000166e+00 4.164939000000000391e+00
-3.386331000000000202e+00 4.941375999999999991e+00 1.254291999999999963e+00
8.511250999999999678e+00 2.925066000000000166e+00 3.781449999999999978e+00
-6.413290000000000379e-01 3.980370000000000186e+00 2.543174000000000046e+00
-4.211622000000000199e+00 4.485153999999999641e+00 7.700249999999999595e-01
-3.653360999999999859e+00 3.336749000000000187e+00 3.114979999999999971e-01
1.038001299999999993e+01 5.545621999999999829e+00 2.284762999999999877e+00
6.229745999999999562e+00 2.925066000000000166e+00 2.231160000000000032e+00
1.496374000000000093e+00 3.477663000000000171e+00 1.045436999999999950e+00
1.269339999999999913e-01 3.292724000000000206e+00 4.455436999999999870e+00
-2.935430000000000206e+00 5.399740000000000428e+00 4.326670000000000238e-01
-3.312257999999999925e+00 3.075347999999999971e+00 2.659707000000000043e+00
6.220672999999999675e+00 2.925066000000000166e+00 1.621196000000000081e+00
-2.770096999999999809e+00 4.971175999999999817e+00 1.380724999999999980e+00
6.877170000000000227e-01 5.121622000000000341e+00 1.274529000000000023e+00
4.792429000000000272e+00 3.973682999999999854e+00 1.045436999999999950e+00
5.382843000000000266e+00 5.053409000000000262e+00 1.413267999999999969e+00
1.776928000000000063e+00 3.267567999999999806e+00 1.207950999999999997e+00
1.022620000000000040e+01 3.290763000000000105e+00 7.767549999999999732e-01
-1.697772999999999977e+00 5.340347999999999651e+00 1.860238999999999976e+00
3.261264000000000163e+00 5.396906000000000425e+00 8.112679999999999891e-01
-2.713909999999999823e+00 3.416026000000000007e+00 2.976751999999999843e+00
-6.413290000000000379e-01 3.794617000000000129e+00 3.343058000000000085e+00
3.653630000000000155e+00 2.925066000000000166e+00 2.767199999999999882e+00
-2.250525999999999804e+00 4.088643000000000249e+00 3.664537999999999851e+00
-1.779206999999999983e+00 5.314244000000000412e+00 1.788518000000000052e+00
4.035232999999999848e+00 5.545621999999999829e+00 1.802747000000000099e+00
-2.168810000000000127e+00 3.222665000000000113e+00 3.004853999999999914e+00
-1.228147000000000100e+00 4.840316999999999759e+00 1.004321000000000019e+00
-3.776365999999999890e+00 3.075347999999999971e+00 4.191400000000000126e-01
-1.692971000000000004e+00 3.075347999999999971e+00 3.851859999999999729e-01
-5.842180000000000151e-01 2.925066000000000166e+00 1.768029000000000073e+00
3.009676999999999936e+00 5.545621999999999829e+00 2.984989000000000114e+00
1.830152000000000001e+00 4.963993999999999573e+00 7.854370000000000518e-01
3.423903999999999836e+00 5.545621999999999829e+00 2.650097999999999843e+00
1.168524000000000029e+01 5.119722000000000328e+00 4.455436999999999870e+00
1.121249000000000073e+01 2.925066000000000166e+00 1.870324000000000098e+00
-3.388806999999999903e+00 4.898045999999999900e+00 2.937495000000000189e+00
2.084407000000000121e+00 5.545621999999999829e+00 2.940837000000000145e+00
2.642590999999999912e+00 2.925066000000000166e+00 1.774475999999999942e+00
1.119289599999999929e+01 2.925066000000000166e+00 4.450332000000000399e+00
2.944533999999999985e+00 5.475198999999999927e+00 8.112679999999999891e-01
