-2.206620216369628906e+00 1.928367018699645996e+00 2.570052623748779297e+00
-2.161009073257446289e+00 2.091470003128051758e+00 2.508785486221313477e+00
-2.210928916931152344e+00 1.925350546836853027e+00 2.724201679229736328e+00
-2.176196098327636719e+00 2.070795774459838867e+00 2.691725492477416992e+00
-5.270070552825927734e+00 -1.549649387598037720e-01 3.252992153167724609e+00
-5.259892463684082031e+00 -2.934803441166877747e-02 3.242844104766845703e+00
-5.224379062652587891e+00 -2.367665618658065796e-01 3.329502344131469727e+00
-5.219690799713134766e+00 -1.110907569527626038e-01 3.316322326660156250e+00
-1.944509863853454590e+00 6.624356746673583984e+00 3.220468521118164062e+00
-2.031792163848876953e+00 6.673103332519531250e+00 3.202970504760742188e+00
-2.032108783721923828e+00 6.631223678588867188e+00 3.308379411697387695e+00
-2.142482042312622070e+00 6.679858207702636719e+00 3.288456678390502930e+00
-4.848272323608398438e+00 -1.585933566093444824e+00 4.817520976066589355e-01
-5.024662494659423828e+00 -1.539249420166015625e+00 4.529749751091003418e-01
-4.925936222076416016e+00 -1.762513160705566406e+00 4.986507296562194824e-01
-5.094770908355712891e+00 -1.694478392601013184e+00 4.704925715923309326e-01
-6.634789943695068359e+00 -5.447574615478515625e+00 2.212776422500610352e+00
-6.613947391510009766e+00 -5.337691783905029297e+00 2.147261857986450195e+00
-6.644747257232666016e+00 -5.454806804656982422e+00 2.351305961608886719e+00
-6.621126174926757812e+00 -5.344110488891601562e+00 2.284568309783935547e+00
-5.683902740478515625e+00 -1.987397193908691406e+00 3.316021203994750977e+00
-5.679831504821777344e+00 -1.870174050331115723e+00 3.271412849426269531e+00
-5.622251510620117188e+00 -2.047709465026855469e+00 3.421826362609863281e+00
-5.619534492492675781e+00 -1.933584809303283691e+00 3.377396345138549805e+00
-1.884884238243103027e+00 6.629738807678222656e+00 2.713493585586547852e+00
-1.968280553817749023e+00 6.675456047058105469e+00 2.662586688995361328e+00
-1.883980274200439453e+00 6.633720874786376953e+00 2.837191581726074219e+00
-1.969884753227233887e+00 6.677668571472167969e+00 2.786213397979736328e+00
-3.354765892028808594e+00 6.706018447875976562e+00 2.659979760646820068e-01
-3.480475902557373047e+00 6.673693180084228516e+00 2.512312829494476318e-01
-3.408107995986938477e+00 6.731038570404052734e+00 3.538125455379486084e-01
-3.534331798553466797e+00 6.698717594146728516e+00 3.390336930751800537e-01
-4.876369476318359375e+00 1.487796068191528320e+00 1.989246249198913574e+00
-4.842353820800781250e+00 1.651644468307495117e+00 2.012596368789672852e+00
-4.881430625915527344e+00 1.446184039115905762e+00 2.086193799972534180e+00
-4.834904670715332031e+00 1.612468838691711426e+00 2.108586549758911133e+00
-6.093304157257080078e+00 -6.329769611358642578e+00 3.627898454666137695e+00
-6.231222152709960938e+00 -6.195686817169189453e+00 3.594000577926635742e+00
-6.008517265319824219e+00 -6.200334072113037109e+00 3.699748039245605469e+00
-6.133674144744873047e+00 -6.084044456481933594e+00 3.679746389389038086e+00
-4.276462078094482422e+00 2.870611906051635742e+00 4.190554022789001465e-01
-4.286219596862792969e+00 2.956336021423339844e+00 4.209278821945190430e-01
-4.291626930236816406e+00 2.848094463348388672e+00 4.727300703525543213e-01
-4.301502227783203125e+00 2.931343078613281250e+00 4.720298349857330322e-01
-3.428518772125244141e+00 3.062030553817749023e+00 3.706601381301879883e+00
-3.507727384567260742e+00 3.202666521072387695e+00 3.684046506881713867e+00
-3.524705886840820312e+00 2.928059577941894531e+00 3.689096689224243164e+00
-3.630745649337768555e+00 3.072611331939697266e+00 3.652280569076538086e+00
-1.634831547737121582e+00 6.491547107696533203e+00 1.079715132713317871e+00
-1.725912094116210938e+00 6.542016983032226562e+00 1.026463866233825684e+00
-1.619536161422729492e+00 6.477473735809326172e+00 1.210226178169250488e+00
-1.714355111122131348e+00 6.530011177062988281e+00 1.152741193771362305e+00
-4.223359584808349609e+00 -6.457254409790039062e+00 3.046345233917236328e+00
-4.171986579895019531e+00 -6.343852519989013672e+00 3.012625694274902344e+00
-4.263526439666748047e+00 -6.481844902038574219e+00 3.152807235717773438e+00
-4.211499691009521484e+00 -6.369377613067626953e+00 3.118453025817871094e+00
-4.021007537841796875e+00 -4.581382751464843750e+00 1.783218383789062500e-01
-4.038542747497558594e+00 -4.482187271118164062e+00 1.655633300542831421e-01
-4.032266139984130859e+00 -4.619061470031738281e+00 2.269452363252639771e-01
-4.053380012512207031e+00 -4.519504070281982422e+00 2.121592462062835693e-01
-3.758919954299926758e+00 3.281833887100219727e+00 1.541964113712310791e-01
-3.839111328125000000e+00 3.422185182571411133e+00 1.649651229381561279e-01
-3.841452121734619141e+00 3.240382194519042969e+00 1.769745796918869019e-01
-3.910570859909057617e+00 3.380396366119384766e+00 1.961028277873992920e-01
-1.841911315917968750e+00 3.398363590240478516e+00 1.940148234367370605e+00
-1.812363862991333008e+00 3.510764360427856445e+00 1.915309667587280273e+00
-1.847896099090576172e+00 3.386754035949707031e+00 2.062376260757446289e+00
-1.818443298339843750e+00 3.497168779373168945e+00 2.038172721862792969e+00
-6.130668163299560547e+00 -3.604215145111083984e+00 2.278353452682495117e+00
-6.098589897155761719e+00 -3.462969064712524414e+00 2.211675405502319336e+00
-6.130288124084472656e+00 -3.623070478439331055e+00 2.450803995132446289e+00
-6.097940444946289062e+00 -3.484209537506103516e+00 2.381268262863159180e+00
-5.556221485137939453e+00 -2.352740764617919922e+00 4.380401968955993652e-01
-5.582915306091308594e+00 -2.270431518554687500e+00 4.328483641147613525e-01
-5.599394321441650391e+00 -2.382545471191406250e+00 5.131409764289855957e-01
-5.626664161682128906e+00 -2.296769857406616211e+00 5.073742270469665527e-01
-4.610915184020996094e+00 -1.906063854694366455e-01 3.672025680541992188e+00
-4.708924770355224609e+00 -1.637523025274276733e-01 3.644917011260986328e+00
-4.628683090209960938e+00 -2.965846657752990723e-01 3.680467844009399414e+00
-4.726899623870849609e+00 -2.659489810466766357e-01 3.646250247955322266e+00
-4.224439620971679688e+00 -6.278617858886718750e+00 2.702932834625244141e+00
-4.199042797088623047e+00 -6.170622348785400391e+00 2.657303333282470703e+00
-4.209626197814941406e+00 -6.259305000305175781e+00 2.829415082931518555e+00
-4.187726497650146484e+00 -6.153607845306396484e+00 2.800592422485351562e+00
-6.245596885681152344e+00 -4.326562881469726562e+00 4.101130366325378418e-01
-6.240989208221435547e+00 -4.246380805969238281e+00 4.139080643653869629e-01
-6.233872890472412109e+00 -4.328750610351562500e+00 5.015143156051635742e-01
-6.236229896545410156e+00 -4.244918346405029297e+00 5.034804344177246094e-01
-6.534753799438476562e+00 -6.794442176818847656e+00 1.083986997604370117e+00
-6.638322353363037109e+00 -6.723237037658691406e+00 1.034675240516662598e+00
-6.549723148345947266e+00 -6.781007289886474609e+00 1.192627429962158203e+00
-6.663933277130126953e+00 -6.712192058563232422e+00 1.145913839340209961e+00
-2.233747959136962891e+00 5.217662811279296875e+00 5.792315602302551270e-01
-2.281233310699462891e+00 5.337174415588378906e+00 5.765006542205810547e-01
-2.327713251113891602e+00 5.117429256439208984e+00 5.806022286415100098e-01
-2.386680603027343750e+00 5.231953620910644531e+00 5.745806694030761719e-01
-3.042407035827636719e+00 2.754972696304321289e+00 3.706787586212158203e+00
-3.081333398818969727e+00 2.864174365997314453e+00 3.708067655563354492e+00
-3.163672208786010742e+00 2.684988737106323242e+00 3.693931341171264648e+00
-3.203138589859008789e+00 2.796015739440917969e+00 3.698054790496826172e+00
-2.467082738876342773e+00 2.618904829025268555e+00 3.525887489318847656e+00
-2.463605880737304688e+00 2.710265636444091797e+00 3.543004751205444336e+00
-2.589224100112915039e+00 2.597268342971801758e+00 3.569890975952148438e+00
-2.589882850646972656e+00 2.685503482818603516e+00 3.585668325424194336e+00
-4.546827316284179688e+00 8.981817215681076050e-02 3.628227949142456055e+00
-4.638510704040527344e+00 1.128318458795547485e-01 3.596512556076049805e+00
-4.572952747344970703e+00 -2.969771809875965118e-02 3.639199256896972656e+00
-4.674118995666503906e+00 -1.025049109011888504e-02 3.604108095169067383e+00
-2.760108709335327148e+00 6.261366367340087891e+00 3.644783496856689453e+00
-2.895100116729736328e+00 6.352972507476806641e+00 3.598242282867431641e+00
-2.810360193252563477e+00 6.120157241821289062e+00 3.673794984817504883e+00
-2.939345121383666992e+00 6.219388961791992188e+00 3.614377021789550781e+00
-3.938719749450683594e+00 4.961667060852050781e+00 3.335266113281250000e+00
-3.936480283737182617e+00 5.084641456604003906e+00 3.293794393539428711e+00
-3.885452985763549805e+00 4.914766788482666016e+00 3.407175540924072266e+00
-3.896277427673339844e+00 5.033185482025146484e+00 3.370641946792602539e+00
-2.887327909469604492e+00 -7.733381390571594238e-01 3.250824213027954102e+00
-2.841585159301757812e+00 -6.244842410087585449e-01 3.254438877105712891e+00
-2.996099472045898438e+00 -7.968941926956176758e-01 3.351463079452514648e+00
-2.945285081863403320e+00 -6.466559767723083496e-01 3.357835054397583008e+00
-4.555587768554687500e+00 2.047326087951660156e+00 5.401284098625183105e-01
-4.578965187072753906e+00 2.150366544723510742e+00 5.247262716293334961e-01
-4.585153102874755859e+00 1.995348453521728516e+00 6.045999526977539062e-01
-4.610513687133789062e+00 2.103029251098632812e+00 5.917500257492065430e-01
-2.902534008026123047e+00 7.875644564628601074e-01 3.509748220443725586e+00
-2.854112863540649414e+00 9.484456777572631836e-01 3.525299549102783203e+00
-3.008622169494628906e+00 7.211754322052001953e-01 3.550587892532348633e+00
-2.957254886627197266e+00 8.871409893035888672e-01 3.566167593002319336e+00
-4.319331645965576172e+00 -6.579233646392822266e+00 2.545019149780273438e+00
-4.303620338439941406e+00 -6.473974704742431641e+00 2.476796150207519531e+00
-4.304035186767578125e+00 -6.595921039581298828e+00 2.693239212036132812e+00
-4.290504455566406250e+00 -6.483627319335937500e+00 2.628002643585205078e+00
-3.721193075180053711e+00 -2.920232534408569336e+00 -1.334337051957845688e-02
-3.674254894256591797e+00 -2.807015657424926758e+00 2.181037329137325287e-02
-3.745181322097778320e+00 -2.959569692611694336e+00 3.839712589979171753e-02
-3.697788000106811523e+00 -2.846411943435668945e+00 7.592865079641342163e-02
-5.294922351837158203e+00 -2.613637745380401611e-01 4.868692457675933838e-01
-5.284704208374023438e+00 -1.688950657844543457e-01 4.934463798999786377e-01
-5.325383663177490234e+00 -2.755682468414306641e-01 6.222447752952575684e-01
-5.314300060272216797e+00 -1.717834472656250000e-01 6.295428276062011719e-01
-4.226087570190429688e+00 -2.306257009506225586e+00 5.663295984268188477e-01
-4.290843009948730469e+00 -2.240207195281982422e+00 5.604944229125976562e-01
-4.346104621887207031e+00 -2.368945360183715820e+00 5.753040313720703125e-01
-4.405035018920898438e+00 -2.310713052749633789e+00 5.622913837432861328e-01
-4.669730186462402344e+00 -3.724165916442871094e+00 1.607483029365539551e-01
-4.750375270843505859e+00 -3.594955205917358398e+00 1.651409417390823364e-01
-4.798366069793701172e+00 -3.835397720336914062e+00 1.585317403078079224e-01
-4.884755134582519531e+00 -3.713329315185546875e+00 1.599467098712921143e-01
-5.058290004730224609e+00 -6.264850616455078125e+00 3.674591541290283203e+00
-5.081488609313964844e+00 -6.143657684326171875e+00 3.700886011123657227e+00
-5.179092884063720703e+00 -6.272637367248535156e+00 3.684063673019409180e+00
-5.220772266387939453e+00 -6.151509284973144531e+00 3.701306581497192383e+00
-5.433400154113769531e+00 -4.327483654022216797e+00 3.681151628494262695e+00
-5.419461250305175781e+00 -4.150745868682861328e+00 3.693040370941162109e+00
-5.525114536285400391e+00 -4.414109230041503906e+00 3.676743030548095703e+00
-5.510972499847412109e+00 -4.245361804962158203e+00 3.691139698028564453e+00
-2.302548170089721680e+00 3.199965476989746094e+00 5.646592974662780762e-01
-2.388082027435302734e+00 3.269377470016479492e+00 5.340152382850646973e-01
-2.381757736206054688e+00 3.098972082138061523e+00 5.886138081550598145e-01
-2.414118528366088867e+00 3.209788799285888672e+00 5.790984034538269043e-01
-6.344498157501220703e+00 -6.123988151550292969e+00 5.529079437255859375e-01
-6.394221782684326172e+00 -5.996597290039062500e+00 5.440468788146972656e-01
-6.429423809051513672e+00 -6.182229995727539062e+00 5.985721945762634277e-01
-6.464527130126953125e+00 -6.056375503540039062e+00 5.875944495201110840e-01
-3.840255022048950195e+00 -4.889599800109863281e+00 1.008387684822082520e+00
-3.825597047805786133e+00 -4.782421112060546875e+00 9.691535234451293945e-01
-3.839507102966308594e+00 -4.902949333190917969e+00 1.130458354949951172e+00
-3.821948289871215820e+00 -4.800099372863769531e+00 1.095359444618225098e+00
-6.074542045593261719e+00 -4.213294982910156250e+00 3.430528640747070312e+00
-6.052029132843017578e+00 -4.091725826263427734e+00 3.423458099365234375e+00
-5.998882770538330078e+00 -4.282764911651611328e+00 3.479683876037597656e+00
-5.989011287689208984e+00 -4.169780731201171875e+00 3.473790407180786133e+00
-1.099278450012207031e+00 6.031861782073974609e+00 2.995712280273437500e+00
-1.134540438652038574e+00 6.107516288757324219e+00 3.011915683746337891e+00
-1.125707864761352539e+00 6.050945758819580078e+00 3.108432054519653320e+00
-1.161001205444335938e+00 6.135429859161376953e+00 3.133639574050903320e+00
-1.480606913566589355e+00 6.421944618225097656e+00 2.926917314529418945e+00
-1.567186594009399414e+00 6.479979515075683594e+00 2.892354249954223633e+00
-1.514901399612426758e+00 6.425804138183593750e+00 3.039349555969238281e+00
-1.602113366127014160e+00 6.484485149383544922e+00 3.020106554031372070e+00
-5.434104919433593750e+00 -5.520523071289062500e+00 3.709086656570434570e+00
-5.535683631896972656e+00 -5.388549327850341797e+00 3.704279899597167969e+00
-5.512344360351562500e+00 -5.626822471618652344e+00 3.696285963058471680e+00
-5.600596904754638672e+00 -5.515738964080810547e+00 3.690824508666992188e+00
-4.499730110168457031e+00 3.696228563785552979e-01 5.576432347297668457e-01
-4.540235996246337891e+00 5.113182663917541504e-01 5.626524686813354492e-01
-4.585171699523925781e+00 3.013839423656463623e-01 5.690441131591796875e-01
-4.618570327758789062e+00 4.479184150695800781e-01 5.749740600585937500e-01
-2.632215976715087891e+00 3.610679149627685547e+00 1.546396911144256592e-01
-2.629330873489379883e+00 3.734423875808715820e+00 1.842804849147796631e-01
-2.753211975097656250e+00 3.519108772277832031e+00 1.356883943080902100e-01
-2.762145996093750000e+00 3.639975547790527344e+00 1.632499098777770996e-01
-3.183688640594482422e+00 5.442985296249389648e-01 3.652255773544311523e+00
-3.169829130172729492e+00 6.696364283561706543e-01 3.663541316986083984e+00
-3.292020082473754883e+00 5.071086883544921875e-01 3.658031463623046875e+00
-3.308974504470825195e+00 6.101922392845153809e-01 3.666336297988891602e+00
-1.630646109580993652e+00 6.409101963043212891e+00 2.053974151611328125e+00
-1.712850689888000488e+00 6.454315185546875000e+00 2.002622842788696289e+00
-1.624430060386657715e+00 6.398814678192138672e+00 2.161802768707275391e+00
-1.710782408714294434e+00 6.442422866821289062e+00 2.114308118820190430e+00
-4.617077827453613281e+00 -7.238823890686035156e+00 5.592983961105346680e-01
-4.700400352478027344e+00 -7.248874664306640625e+00 5.277193188667297363e-01
-4.656713962554931641e+00 -7.246554374694824219e+00 6.594669818878173828e-01
-4.739299774169921875e+00 -7.259041786193847656e+00 6.285277605056762695e-01
-5.072917461395263672e+00 1.973633319139480591e-01 3.363554716110229492e+00
-5.084121227264404297e+00 2.911799252033233643e-01 3.347303152084350586e+00
-5.040337562561035156e+00 9.601527452468872070e-02 3.413296937942504883e+00
-5.043457984924316406e+00 2.020758986473083496e-01 3.398491144180297852e+00
-4.309063434600830078e+00 -3.712532043457031250e+00 3.697551012039184570e+00
-4.379912853240966797e+00 -3.619850158691406250e+00 3.723190307617187500e+00
-4.409669399261474609e+00 -3.718828678131103516e+00 3.715385198593139648e+00
-4.481553554534912109e+00 -3.625746488571166992e+00 3.742333650588989258e+00
-4.386683940887451172e+00 3.586314916610717773e+00 2.597751140594482422e+00
-4.344999313354492188e+00 3.708971977233886719e+00 2.519782543182373047e+00
-4.398488044738769531e+00 3.547513008117675781e+00 2.735474348068237305e+00
-4.356166839599609375e+00 3.670056581497192383e+00 2.663119554519653320e+00
-2.353948831558227539e+00 2.425630092620849609e+00 1.528647691011428833e-01
-2.335991144180297852e+00 2.496753454208374023e+00 1.440418958663940430e-01
-2.366808891296386719e+00 2.427625179290771484e+00 2.411506772041320801e-01
-2.346656322479248047e+00 2.493046998977661133e+00 2.284855395555496216e-01
-1.742196321487426758e+00 3.785346269607543945e+00 1.876519083976745605e+00
-1.726977705955505371e+00 3.926167488098144531e+00 1.863728880882263184e+00
-1.742271900177001953e+00 3.769623756408691406e+00 2.001050233840942383e+00
-1.727702975273132324e+00 3.910075187683105469e+00 1.985548138618469238e+00
-2.842773437500000000e+00 -6.977077126502990723e-01 1.849171280860900879e+00
-2.816103458404541016e+00 -5.744653344154357910e-01 1.786979556083679199e+00
-2.837965011596679688e+00 -6.831001043319702148e-01 1.989966869354248047e+00
-2.811136245727539062e+00 -5.553416013717651367e-01 1.907693505287170410e+00
-4.650151729583740234e+00 -6.951612472534179688e+00 3.408712863922119141e+00
-4.727102279663085938e+00 -6.904239654541015625e+00 3.438749790191650391e+00
-4.763578891754150391e+00 -6.920894622802734375e+00 3.465139150619506836e+00
-4.835954666137695312e+00 -6.862570285797119141e+00 3.507579565048217773e+00
-4.283705711364746094e+00 -6.570807456970214844e+00 1.084735751152038574e+00
-4.266284942626953125e+00 -6.446281433105468750e+00 1.021793842315673828e+00
-4.270181179046630859e+00 -6.547468662261962891e+00 1.217886209487915039e+00
-4.251636981964111328e+00 -6.415612697601318359e+00 1.145964860916137695e+00
-2.025200605392456055e+00 2.483489751815795898e+00 2.877411603927612305e+00
-2.003819227218627930e+00 2.607088565826416016e+00 2.859737157821655273e+00
-2.018013000488281250e+00 2.485448598861694336e+00 3.042442321777343750e+00
-1.997616052627563477e+00 2.614712953567504883e+00 3.035799503326416016e+00
-3.896937131881713867e+00 1.349876284599304199e+00 5.501963496208190918e-01
-3.940795421600341797e+00 1.494513988494873047e+00 5.664305686950683594e-01
-3.986081361770629883e+00 1.303530216217041016e+00 5.481645464897155762e-01
-4.071014404296875000e+00 1.413610577583312988e+00 5.544075369834899902e-01
-3.505573511123657227e+00 4.305233955383300781e+00 3.606263399124145508e-01
-3.592610120773315430e+00 4.379787921905517578e+00 3.478340506553649902e-01
-3.553535223007202148e+00 4.258483886718750000e+00 4.239312112331390381e-01
-3.616492271423339844e+00 4.337431430816650391e+00 4.077767729759216309e-01
-2.019817113876342773e+00 2.454307079315185547e+00 2.638399600982666016e+00
-1.983089804649353027e+00 2.592887163162231445e+00 2.575196266174316406e+00
-2.008837699890136719e+00 2.433078527450561523e+00 2.828134536743164062e+00
-1.985916495323181152e+00 2.555172920227050781e+00 2.795880794525146484e+00
-1.973271965980529785e+00 3.360996484756469727e+00 3.353538513183593750e+00
-1.935692310333251953e+00 3.476729869842529297e+00 3.334601163864135742e+00
-2.060553312301635742e+00 3.302947998046875000e+00 3.424023628234863281e+00
-2.020962238311767578e+00 3.420905113220214844e+00 3.410694599151611328e+00
-4.783058166503906250e+00 1.681783318519592285e+00 5.323833823204040527e-01
-4.773875713348388672e+00 1.801958084106445312e+00 5.627127289772033691e-01
-4.818385601043701172e+00 1.670210123062133789e+00 6.050341129302978516e-01
-4.810640335083007812e+00 1.786255478858947754e+00 6.327206492424011230e-01
-5.626363754272460938e+00 -6.194521903991699219e+00 3.732786655426025391e+00
-5.725652217864990234e+00 -6.074977397918701172e+00 3.736633062362670898e+00
-5.731345176696777344e+00 -6.222265720367431641e+00 3.724214553833007812e+00
-5.841978073120117188e+00 -6.119691848754882812e+00 3.725069046020507812e+00
-4.912636280059814453e+00 1.358992338180541992e+00 2.094220638275146484e+00
-4.864319324493408203e+00 1.527793169021606445e+00 2.113443136215209961e+00
-4.926127433776855469e+00 1.336008191108703613e+00 2.191704273223876953e+00
-4.874695777893066406e+00 1.499554038047790527e+00 2.198290348052978516e+00
-6.050753116607666016e+00 -3.212726116180419922e+00 5.312954187393188477e-01
-6.051046371459960938e+00 -3.079184055328369141e+00 5.289877057075500488e-01
-6.036124229431152344e+00 -3.266339302062988281e+00 6.401487588882446289e-01
-6.034378051757812500e+00 -3.128172874450683594e+00 6.359896659851074219e-01
-6.095316410064697266e+00 -7.045171737670898438e+00 3.198007583618164062e+00
-6.189085483551025391e+00 -7.004815578460693359e+00 3.154481172561645508e+00
-6.040284633636474609e+00 -7.010674953460693359e+00 3.315576553344726562e+00
-6.134699821472167969e+00 -6.970688819885253906e+00 3.270733833312988281e+00
-6.512711524963378906e+00 -5.143863201141357422e+00 2.409418344497680664e+00
-6.476174354553222656e+00 -5.010794162750244141e+00 2.367170333862304688e+00
-6.532589435577392578e+00 -5.161973953247070312e+00 2.530874490737915039e+00
-6.488501548767089844e+00 -5.014561176300048828e+00 2.489938020706176758e+00
-4.900773048400878906e+00 3.617020845413208008e-01 5.158787369728088379e-01
-4.905233860015869141e+00 5.142021775245666504e-01 5.165618062019348145e-01
-4.924152851104736328e+00 3.489110767841339111e-01 6.389828920364379883e-01
-4.928569316864013672e+00 4.932517707347869873e-01 6.300098299980163574e-01
-3.894100904464721680e+00 -5.879500508308410645e-01 5.662636160850524902e-01
-3.970530033111572266e+00 -4.744937121868133545e-01 5.675452351570129395e-01
-4.002409934997558594e+00 -6.562657356262207031e-01 5.825986266136169434e-01
-4.088090896606445312e+00 -5.576224923133850098e-01 5.843142271041870117e-01
-5.192889213562011719e+00 -7.210841178894042969e+00 9.173034429550170898e-01
-5.299047946929931641e+00 -7.190890789031982422e+00 8.813255429267883301e-01
-5.245729446411132812e+00 -7.206785202026367188e+00 1.023221850395202637e+00
-5.360731124877929688e+00 -7.197833538055419922e+00 9.936662912368774414e-01
-1.199607729911804199e+00 5.896868705749511719e+00 3.160424947738647461e+00
-1.207279801368713379e+00 5.998978137969970703e+00 3.178821325302124023e+00
-1.274556636810302734e+00 5.892474174499511719e+00 3.248360157012939453e+00
-1.267738342285156250e+00 6.018684864044189453e+00 3.278277158737182617e+00
-4.139070987701416016e+00 -3.069360494613647461e+00 3.629536390304565430e+00
-4.152395248413085938e+00 -3.006036996841430664e+00 3.632481813430786133e+00
-4.201233863830566406e+00 -3.091580629348754883e+00 3.658684015274047852e+00
-4.223215103149414062e+00 -3.030593633651733398e+00 3.657144308090209961e+00
-3.260709285736083984e+00 -2.566025972366333008e+00 2.980542182922363281e+00
-3.252350091934204102e+00 -2.434082984924316406e+00 2.964091777801513672e+00
-3.283487796783447266e+00 -2.584465265274047852e+00 3.065838336944580078e+00
-3.277718067169189453e+00 -2.443031311035156250e+00 3.062391519546508789e+00
-3.583598613739013672e+00 -1.982761263847351074e+00 3.597063302993774414e+00
-3.580079317092895508e+00 -1.854161739349365234e+00 3.594372510910034180e+00
-3.697243928909301758e+00 -2.016292333602905273e+00 3.666279792785644531e+00
-3.691817522048950195e+00 -1.885069251060485840e+00 3.664886713027954102e+00
-3.994574785232543945e+00 5.270078182220458984e+00 3.207479000091552734e+00
-3.989678859710693359e+00 5.404351234436035156e+00 3.168149948120117188e+00
-3.917624473571777344e+00 5.203324794769287109e+00 3.295594453811645508e+00
-3.912177085876464844e+00 5.341706275939941406e+00 3.255070686340332031e+00
-2.183939456939697266e+00 6.389560222625732422e+00 3.558470964431762695e+00
-2.288746595382690430e+00 6.495819091796875000e+00 3.525312900543212891e+00
-2.233277797698974609e+00 6.349190711975097656e+00 3.705511331558227539e+00
-2.328991413116455078e+00 6.456136703491210938e+00 3.663419723510742188e+00
-2.666512250900268555e+00 9.400498867034912109e-02 1.294420838356018066e+00
-2.644874572753906250e+00 2.327913641929626465e-01 1.236156105995178223e+00
-2.667638301849365234e+00 6.404265761375427246e-02 1.423541069030761719e+00
-2.644724130630493164e+00 2.025876939296722412e-01 1.353658080101013184e+00
-5.608651638031005859e+00 -2.437716960906982422e+00 4.997526407241821289e-01
-5.636250495910644531e+00 -2.351419210433959961e+00 4.968414902687072754e-01
-5.606857299804687500e+00 -2.466641664505004883e+00 5.753763914108276367e-01
-5.628925800323486328e+00 -2.374772548675537109e+00 5.734428763389587402e-01
-2.617687702178955078e+00 5.627775192260742188e+00 3.721971035003662109e+00
-2.694015026092529297e+00 5.782571315765380859e+00 3.717937231063842773e+00
-2.701965332031250000e+00 5.510424613952636719e+00 3.694023847579956055e+00
-2.787108659744262695e+00 5.655197620391845703e+00 3.682887792587280273e+00
-3.772268533706665039e+00 -3.083076953887939453e+00 4.817523658275604248e-01
-3.771879196166992188e+00 -2.972307920455932617e+00 4.963744282722473145e-01
-3.818902969360351562e+00 -3.118911743164062500e+00 5.120727419853210449e-01
-3.822077989578247070e+00 -3.013565063476562500e+00 5.219165086746215820e-01
-5.228203773498535156e+00 1.347263157367706299e-01 2.626320123672485352e+00
-5.200328350067138672e+00 2.927935719490051270e-01 2.597834348678588867e+00
-5.245512962341308594e+00 9.634999930858612061e-02 2.751704931259155273e+00
-5.216591358184814453e+00 2.444359958171844482e-01 2.717422008514404297e+00
-2.454175472259521484e+00 1.898477911949157715e+00 4.514462053775787354e-01
-2.478972434997558594e+00 1.978766560554504395e+00 4.274112880229949951e-01
-2.401922941207885742e+00 1.873773217201232910e+00 5.288203954696655273e-01
-2.425699472427368164e+00 1.954360842704772949e+00 5.058730244636535645e-01
-5.578427791595458984e+00 -4.895781517028808594e+00 5.703511238098144531e-01
-5.636738300323486328e+00 -4.781560897827148438e+00 5.807455778121948242e-01
-5.698186397552490234e+00 -4.993901252746582031e+00 5.627673864364624023e-01
-5.752264976501464844e+00 -4.881747722625732422e+00 5.725038647651672363e-01
-2.263921260833740234e+00 6.197267532348632812e+00 3.636542081832885742e+00
-2.347972154617309570e+00 6.302372932434082031e+00 3.607805728912353516e+00
-2.351774692535400391e+00 6.130808353424072266e+00 3.683428287506103516e+00
-2.426999330520629883e+00 6.244253158569335938e+00 3.655797004699707031e+00
-2.320474147796630859e+00 2.526820421218872070e+00 4.325891435146331787e-01
-2.302373647689819336e+00 2.592070579528808594e+00 4.098047614097595215e-01
-2.299378871917724609e+00 2.527067899703979492e+00 5.320500731468200684e-01
-2.280264139175415039e+00 2.590240240097045898e+00 5.130427479743957520e-01
-3.964236497879028320e+00 -3.867724180221557617e+00 3.497256517410278320e+00
-3.960901498794555664e+00 -3.796746492385864258e+00 3.500764846801757812e+00
-4.075220108032226562e+00 -3.905716896057128906e+00 3.542561769485473633e+00
-4.068427085876464844e+00 -3.831259965896606445e+00 3.543611764907836914e+00
-4.414514064788818359e+00 -5.038962841033935547e+00 5.686588883399963379e-01
-4.434811592102050781e+00 -4.929664134979248047e+00 5.698121190071105957e-01
-4.471679210662841797e+00 -5.092735767364501953e+00 5.597190260887145996e-01
-4.513904094696044922e+00 -4.982407569885253906e+00 5.736635923385620117e-01
-4.081102848052978516e+00 -4.644407749176025391e+00 3.449423074722290039e+00
-4.082344055175781250e+00 -4.533695220947265625e+00 3.462428569793701172e+00
-4.178286075592041016e+00 -4.688377380371093750e+00 3.495600700378417969e+00
-4.183587074279785156e+00 -4.579446792602539062e+00 3.507394790649414062e+00
-4.281478881835937500e+00 -6.528657913208007812e+00 3.803926408290863037e-01
-4.243867874145507812e+00 -6.376177310943603516e+00 3.736259341239929199e-01
-4.294183254241943359e+00 -6.553325176239013672e+00 4.884805679321289062e-01
-4.255784034729003906e+00 -6.409222602844238281e+00 4.775694012641906738e-01
-4.470810890197753906e+00 3.439644336700439453e+00 2.811595916748046875e+00
-4.432077884674072266e+00 3.558675527572631836e+00 2.733231544494628906e+00
-4.485819339752197266e+00 3.395201683044433594e+00 2.918741703033447266e+00
-4.452148437500000000e+00 3.513309717178344727e+00 2.849014997482299805e+00
-5.118991374969482422e+00 2.387372404336929321e-01 3.018220663070678711e-01
-5.125711441040039062e+00 3.737630248069763184e-01 3.160527348518371582e-01
-5.149338245391845703e+00 2.070899009704589844e-01 3.783809840679168701e-01
-5.158615589141845703e+00 3.326610624790191650e-01 3.933846950531005859e-01
-5.589107513427734375e+00 -1.260735869407653809e+00 6.581192016601562500e-01
-5.592808246612548828e+00 -1.107301115989685059e+00 6.532661914825439453e-01
-5.612416744232177734e+00 -1.364222407341003418e+00 7.472622394561767578e-01
-5.608550071716308594e+00 -1.191115856170654297e+00 7.377870678901672363e-01
-4.681873798370361328e+00 -1.046582698822021484e+00 3.676668643951416016e+00
-4.838713645935058594e+00 -9.957863092422485352e-01 3.620060443878173828e+00
-4.729268550872802734e+00 -1.224052906036376953e+00 3.650121450424194336e+00
-4.861335277557373047e+00 -1.158348560333251953e+00 3.601226091384887695e+00
-2.438482284545898438e+00 4.424481868743896484e+00 3.754805326461791992e+00
-2.459167480468750000e+00 4.555080890655517578e+00 3.764925241470336914e+00
-2.559416770935058594e+00 4.348323822021484375e+00 3.756962537765502930e+00
-2.583985328674316406e+00 4.475007534027099609e+00 3.767684936523437500e+00
-4.669003963470458984e+00 -3.600079536437988281e+00 5.612171292304992676e-01
-4.712157249450683594e+00 -3.525783061981201172e+00 5.740010738372802734e-01
-4.748507976531982422e+00 -3.669106960296630859e+00 5.702289342880249023e-01
-4.793048381805419922e+00 -3.598328351974487305e+00 5.825565457344055176e-01
-5.212542533874511719e+00 -4.595572948455810547e+00 5.701507925987243652e-01
-5.290455818176269531e+00 -4.532705783843994141e+00 5.637685060501098633e-01
-5.293007850646972656e+00 -4.655533790588378906e+00 5.791949629783630371e-01
-5.352610588073730469e+00 -4.587667465209960938e+00 5.815402269363403320e-01
-6.562760829925537109e+00 -5.463936805725097656e+00 4.814199805259704590e-01
-6.580063343048095703e+00 -5.360662460327148438e+00 4.932306408882141113e-01
-6.598867416381835938e+00 -5.515237808227539062e+00 5.400706529617309570e-01
-6.624197483062744141e+00 -5.418147563934326172e+00 5.488465428352355957e-01
-4.418204784393310547e+00 -4.011674880981445312e+00 5.637009143829345703e-01
-4.573853015899658203e+00 -3.920065164566040039e+00 5.582140684127807617e-01
-4.480878353118896484e+00 -4.079019546508789062e+00 5.929012894630432129e-01
-4.635358333587646484e+00 -3.984802484512329102e+00 5.856875181198120117e-01
-3.843687295913696289e+00 5.698133945465087891e+00 3.592711687088012695e-01
-3.881739139556884766e+00 5.809515953063964844e+00 3.844147622585296631e-01
-3.935867786407470703e+00 5.703683853149414062e+00 4.232203960418701172e-01
-3.969940185546875000e+00 5.814766883850097656e+00 4.491359591484069824e-01
-3.347767829895019531e+00 1.103966116905212402e+00 3.723951816558837891e+00
-3.404856920242309570e+00 1.218387484550476074e+00 3.713649272918701172e+00
-3.434498310089111328e+00 1.009866714477539062e+00 3.726037025451660156e+00
-3.491611003875732422e+00 1.123283386230468750e+00 3.718929767608642578e+00
-3.650125503540039062e+00 -4.148920059204101562e+00 3.145059585571289062e+00
-3.629287719726562500e+00 -4.048482894897460938e+00 3.141518592834472656e+00
-3.686036825180053711e+00 -4.153813362121582031e+00 3.265078306198120117e+00
-3.658003568649291992e+00 -4.054111480712890625e+00 3.256004095077514648e+00
-6.429131031036376953e+00 -4.992642402648925781e+00 5.570204257965087891e-01
-6.414872169494628906e+00 -4.899401664733886719e+00 5.222911238670349121e-01
-6.490601539611816406e+00 -5.030053615570068359e+00 6.410279870033264160e-01
-6.473847866058349609e+00 -4.935154438018798828e+00 6.057801246643066406e-01
-6.081579685211181641e+00 -4.301299095153808594e+00 3.436217308044433594e+00
-6.060909271240234375e+00 -4.179790019989013672e+00 3.433293581008911133e+00
-6.009004592895507812e+00 -4.372606754302978516e+00 3.496251344680786133e+00
-5.987297534942626953e+00 -4.249386310577392578e+00 3.496128320693969727e+00
-5.274815082550048828e+00 -7.230546951293945312e+00 2.973902225494384766e+00
-5.429502487182617188e+00 -7.209270000457763672e+00 3.007196187973022461e+00
-5.313865184783935547e+00 -7.201539993286132812e+00 3.093027591705322266e+00
-5.455985069274902344e+00 -7.185854911804199219e+00 3.121102571487426758e+00
-3.590142488479614258e+00 -1.374804735183715820e+00 5.611718893051147461e-01
-3.665954113006591797e+00 -1.243919849395751953e+00 5.883013606071472168e-01
-3.711642742156982422e+00 -1.449958443641662598e+00 5.434799790382385254e-01
-3.792296648025512695e+00 -1.322210788726806641e+00 5.729866027832031250e-01
-1.657606363296508789e+00 4.107687950134277344e+00 2.403518676757812500e+00
-1.618688583374023438e+00 4.259921073913574219e+00 2.336205244064331055e+00
-1.657715797424316406e+00 4.078980922698974609e+00 2.582308292388916016e+00
-1.621703982353210449e+00 4.234161853790283203e+00 2.520907163619995117e+00
-4.585414886474609375e+00 2.674423456192016602e+00 2.205262899398803711e+00
-4.557648181915283203e+00 2.769002676010131836e+00 2.160505771636962891e+00
-4.594658851623535156e+00 2.646640300750732422e+00 2.312073230743408203e+00
-4.565133094787597656e+00 2.747270345687866211e+00 2.268737554550170898e+00
-5.869545936584472656e+00 -3.619402647018432617e+00 1.606805622577667236e-01
-5.876500129699707031e+00 -3.510202169418334961e+00 1.817035526037216187e-01
-5.943897247314453125e+00 -3.671491384506225586e+00 2.091014385223388672e-01
-5.952784538269042969e+00 -3.559323072433471680e+00 2.334396690130233765e-01
-3.927287340164184570e+00 -4.256683826446533203e+00 4.502814114093780518e-01
-3.923523426055908203e+00 -4.167449951171875000e+00 4.492210149765014648e-01
-3.986235141754150391e+00 -4.296890735626220703e+00 5.243358016014099121e-01
-3.981563329696655273e+00 -4.206383228302001953e+00 5.207429528236389160e-01
-4.011296749114990234e+00 5.066237926483154297e+00 1.859319567680358887e+00
-3.989223241806030273e+00 5.183188915252685547e+00 1.814269185066223145e+00
-4.006241798400878906e+00 5.074626922607421875e+00 1.999125599861145020e+00
-3.994074821472167969e+00 5.183144092559814453e+00 1.938337683677673340e+00
-3.237870216369628906e+00 9.976999163627624512e-01 3.768993139266967773e+00
-3.278198242187500000e+00 1.119779467582702637e+00 3.761501073837280273e+00
-3.333226442337036133e+00 9.031642675399780273e-01 3.762119770050048828e+00
-3.381425380706787109e+00 1.024053692817687988e+00 3.750852346420288086e+00
-4.934997558593750000e+00 -7.130502700805664062e+00 1.829315543174743652e+00
-5.069351196289062500e+00 -7.161913871765136719e+00 1.776535630226135254e+00
-4.964015007019042969e+00 -7.122216224670410156e+00 1.962322115898132324e+00
-5.098918914794921875e+00 -7.152889251708984375e+00 1.909867048263549805e+00
-2.575380802154541016e+00 6.325161457061767578e+00 5.995630621910095215e-01
-2.753172397613525391e+00 6.380914211273193359e+00 5.769312977790832520e-01
-2.684622764587402344e+00 6.306948661804199219e+00 5.853738188743591309e-01
-2.852487564086914062e+00 6.371364593505859375e+00 5.661851763725280762e-01
-4.408073425292968750e+00 3.477638244628906250e+00 1.788910627365112305e+00
-4.393929481506347656e+00 3.572287082672119141e+00 1.724708080291748047e+00
-4.386168003082275391e+00 3.485593557357788086e+00 1.952487111091613770e+00
-4.368362426757812500e+00 3.579269886016845703e+00 1.891014814376831055e+00
-2.642902135848999023e+00 1.524879485368728638e-01 2.297836542129516602e+00
-2.608202934265136719e+00 2.825658917427062988e-01 2.221742868423461914e+00
-2.614660739898681641e+00 1.383611857891082764e-01 2.481524467468261719e+00
-2.590538978576660156e+00 2.682648301124572754e-01 2.416519165039062500e+00
-3.903697252273559570e+00 5.554503917694091797e+00 3.206228017807006836e+00
-3.879690408706665039e+00 5.709899902343750000e+00 3.206379652023315430e+00
-3.848309755325317383e+00 5.516589641571044922e+00 3.297062873840332031e+00
-3.831636428833007812e+00 5.659965038299560547e+00 3.287076473236083984e+00
-3.857736587524414062e+00 4.532388687133789062e+00 4.957888126373291016e-01
-3.892518281936645508e+00 4.641228199005126953e+00 4.531688094139099121e-01
-3.856193304061889648e+00 4.490958213806152344e+00 5.796078443527221680e-01
-3.894718647003173828e+00 4.593058109283447266e+00 5.472499728202819824e-01
-3.625931978225708008e+00 5.672986030578613281e+00 3.436503410339355469e+00
-3.633350610733032227e+00 5.800703525543212891e+00 3.416947841644287109e+00
-3.566691637039184570e+00 5.595887184143066406e+00 3.486608982086181641e+00
-3.581891059875488281e+00 5.723842620849609375e+00 3.463683366775512695e+00
-4.970183372497558594e+00 -2.664689302444458008e+00 3.158869147300720215e-01
-5.051772594451904297e+00 -2.624157905578613281e+00 3.213692307472229004e-01
-5.010211944580078125e+00 -2.650749683380126953e+00 3.631188869476318359e-01
-5.092004776000976562e+00 -2.610375165939331055e+00 3.674303591251373291e-01
-3.932667016983032227e+00 -5.241199016571044922e+00 3.185147523880004883e+00
-3.914691925048828125e+00 -5.140161514282226562e+00 3.196143865585327148e+00
-3.970609664916992188e+00 -5.266676425933837891e+00 3.286750793457031250e+00
-3.947071552276611328e+00 -5.167821884155273438e+00 3.290637969970703125e+00
-3.397214174270629883e+00 -3.078767061233520508e+00 8.253279328346252441e-01
-3.371170759201049805e+00 -2.949879646301269531e+00 8.029287457466125488e-01
-3.378994703292846680e+00 -3.086081504821777344e+00 9.668045639991760254e-01
-3.346593141555786133e+00 -2.944378852844238281e+00 9.441261291503906250e-01
-6.709682464599609375e+00 -5.939034938812255859e+00 2.558226585388183594e+00
-6.687193870544433594e+00 -5.823166370391845703e+00 2.542914152145385742e+00
-6.717733383178710938e+00 -6.000762939453125000e+00 2.680408000946044922e+00
-6.692162036895751953e+00 -5.845063209533691406e+00 2.674933910369873047e+00
-1.494386553764343262e+00 4.788310050964355469e+00 2.494963407516479492e+00
-1.469129562377929688e+00 4.909599781036376953e+00 2.434506893157958984e+00
-1.491981387138366699e+00 4.765197277069091797e+00 2.636568307876586914e+00
-1.466270804405212402e+00 4.885188102722167969e+00 2.576190233230590820e+00
-3.641577005386352539e+00 2.974276065826416016e+00 5.864246487617492676e-01
-3.685408353805541992e+00 3.077751874923706055e+00 5.866330265998840332e-01
-3.730046510696411133e+00 2.891118049621582031e+00 5.716351866722106934e-01
-3.775121450424194336e+00 2.987496376037597656e+00 5.704520940780639648e-01
-6.143082618713378906e+00 -3.324081659317016602e+00 2.977129936218261719e+00
-6.116167545318603516e+00 -3.176933288574218750e+00 2.918493509292602539e+00
-6.125565052032470703e+00 -3.389323949813842773e+00 3.079236030578613281e+00
-6.092263221740722656e+00 -3.244756937026977539e+00 3.040643215179443359e+00
-4.023123264312744141e+00 2.219398975372314453e+00 5.678722262382507324e-01
-4.047623157501220703e+00 2.291138172149658203e+00 5.734808444976806641e-01
-4.095949649810791016e+00 2.138806343078613281e+00 5.640207529067993164e-01
-4.115841388702392578e+00 2.214825630187988281e+00 5.659456849098205566e-01
-4.410213470458984375e+00 1.342852234840393066e+00 3.570549964904785156e+00
-4.502365589141845703e+00 1.449927687644958496e+00 3.526350021362304688e+00
-4.394467353820800781e+00 1.187279939651489258e+00 3.571134090423583984e+00
-4.529313564300537109e+00 1.271378159523010254e+00 3.521543979644775391e+00
-5.627285957336425781e+00 -3.699985027313232422e+00 1.525102257728576660e-01
-5.641554355621337891e+00 -3.603292465209960938e+00 1.514716148376464844e-01
-5.703683853149414062e+00 -3.764330148696899414e+00 1.920570284128189087e-01
-5.717832088470458984e+00 -3.663532257080078125e+00 1.967731416225433350e-01
-4.812819957733154297e+00 2.105397284030914307e-01 2.437417656183242798e-01
-4.814556598663330078e+00 3.893232345581054688e-01 2.683957815170288086e-01
-4.873423576354980469e+00 1.687544733285903931e-01 2.710203826427459717e-01
-4.870831489562988281e+00 3.380399048328399658e-01 2.904332578182220459e-01
-3.581228971481323242e+00 -1.886020421981811523e+00 2.651470601558685303e-01
-3.585138320922851562e+00 -1.758482694625854492e+00 2.844843566417694092e-01
-3.588261604309082031e+00 -1.953551888465881348e+00 3.074674904346466064e-01
-3.583325624465942383e+00 -1.835013628005981445e+00 3.282414376735687256e-01
-4.672017097473144531e+00 -2.654557466506958008e+00 4.435341060161590576e-01
-4.756083011627197266e+00 -2.612972497940063477e+00 4.292164146900177002e-01
-4.737283229827880859e+00 -2.710430145263671875e+00 4.546176493167877197e-01
-4.821989536285400391e+00 -2.669346809387207031e+00 4.398514330387115479e-01
-3.792290925979614258e+00 -3.022028446197509766e+00 1.721246540546417236e-02
-3.743335008621215820e+00 -2.909467458724975586e+00 5.950151383876800537e-02
-3.809988498687744141e+00 -3.067811727523803711e+00 6.847725808620452881e-02
-3.762114286422729492e+00 -2.958848237991333008e+00 1.061986535787582397e-01
-2.515707731246948242e+00 2.140693664550781250e+00 2.388855069875717163e-02
-2.517874956130981445e+00 2.271253824234008789e+00 1.732253096997737885e-02
-2.541919946670532227e+00 2.077962398529052734e+00 6.967188417911529541e-02
-2.547903060913085938e+00 2.218964338302612305e+00 6.510305404663085938e-02
-5.487349510192871094e+00 -7.287374734878540039e-01 2.830066680908203125e+00
-5.448366641998291016e+00 -5.976262092590332031e-01 2.797411203384399414e+00
-5.463214397430419922e+00 -7.353557348251342773e-01 3.009109973907470703e+00
-5.424122810363769531e+00 -6.009953022003173828e-01 2.978847980499267578e+00
-4.300485610961914062e+00 -3.140416145324707031e+00 3.721214056015014648e+00
-4.351924419403076172e+00 -3.084821939468383789e+00 3.715381145477294922e+00
-4.332022666931152344e+00 -3.162242650985717773e+00 3.748749017715454102e+00
-4.384042263031005859e+00 -3.104025602340698242e+00 3.745148897171020508e+00
-4.313334941864013672e+00 -3.567782163619995117e+00 3.693921804428100586e+00
-4.385749816894531250e+00 -3.484503030776977539e+00 3.715896368026733398e+00
-4.413489818572998047e+00 -3.582863330841064453e+00 3.719196081161499023e+00
-4.485076904296875000e+00 -3.501133918762207031e+00 3.741077899932861328e+00
-3.384991168975830078e+00 -1.787976145744323730e+00 4.132636487483978271e-01
-3.355875492095947266e+00 -1.637812018394470215e+00 4.419934451580047607e-01
-3.356558084487915039e+00 -1.886927485466003418e+00 4.664183855056762695e-01
-3.324766159057617188e+00 -1.746866106986999512e+00 4.865543842315673828e-01
-4.987411975860595703e+00 -2.910241127014160156e+00 1.368574947118759155e-01
-5.099053859710693359e+00 -2.855205059051513672e+00 1.528224796056747437e-01
-5.065225124359130859e+00 -2.892264127731323242e+00 1.848847568035125732e-01
-5.166357040405273438e+00 -2.840093851089477539e+00 1.972297430038452148e-01
-5.992336273193359375e+00 -2.810220003128051758e+00 1.275800108909606934e+00
-5.944831371307373047e+00 -2.648763179779052734e+00 1.208498477935791016e+00
-5.984851837158203125e+00 -2.818603992462158203e+00 1.460885405540466309e+00
-5.942125320434570312e+00 -2.659624576568603516e+00 1.394524931907653809e+00
-6.203781604766845703e+00 -3.661251306533813477e+00 3.126388788223266602e+00
-6.174761295318603516e+00 -3.521000623703002930e+00 3.101376295089721680e+00
-6.154743194580078125e+00 -3.699959754943847656e+00 3.242414951324462891e+00
-6.123993396759033203e+00 -3.556536436080932617e+00 3.220771312713623047e+00
-5.794222831726074219e+00 -2.714180231094360352e+00 3.336681365966796875e+00
-5.779595375061035156e+00 -2.546912670135498047e+00 3.335774660110473633e+00
-5.747561931610107422e+00 -2.797013521194458008e+00 3.402916908264160156e+00
-5.742892265319824219e+00 -2.646972656250000000e+00 3.398465156555175781e+00
-4.042696475982666016e+00 -5.711874485015869141e+00 1.331481456756591797e+00
-3.978413105010986328e+00 -5.558873176574707031e+00 1.236876487731933594e+00
-4.059814453125000000e+00 -5.754109382629394531e+00 1.552903532981872559e+00
-3.997629404067993164e+00 -5.598504066467285156e+00 1.457400798797607422e+00
-2.532480001449584961e+00 9.604232311248779297e-01 3.313639402389526367e+00
-2.501924514770507812e+00 1.088601469993591309e+00 3.319718122482299805e+00
-2.630393505096435547e+00 9.326410889625549316e-01 3.422343254089355469e+00
-2.596041440963745117e+00 1.059484481811523438e+00 3.429979324340820312e+00
-6.339355468750000000e+00 -4.190030574798583984e+00 1.336976051330566406e+00
-6.308085441589355469e+00 -4.070776462554931641e+00 1.297477126121520996e+00
-6.332282543182373047e+00 -4.150806903839111328e+00 1.499422907829284668e+00
-6.300648689270019531e+00 -4.018739223480224609e+00 1.455145955085754395e+00
-4.115148067474365234e+00 3.561237812042236328e+00 5.262380242347717285e-01
-4.207903385162353516e+00 3.623441934585571289e+00 5.162806510925292969e-01
-4.163300514221191406e+00 3.507128715515136719e+00 5.592797398567199707e-01
-4.255391120910644531e+00 3.571008920669555664e+00 5.518461465835571289e-01
-2.985037803649902344e+00 5.535905361175537109e+00 5.810437798500061035e-01
-2.991097927093505859e+00 5.709772109985351562e+00 5.935819149017333984e-01
-3.102039337158203125e+00 5.403097629547119141e+00 5.708101987838745117e-01
-3.111971139907836914e+00 5.593821048736572266e+00 5.857018828392028809e-01
-6.240851879119873047e+00 -3.910856246948242188e+00 3.189696788787841797e+00
-6.211371421813964844e+00 -3.769924879074096680e+00 3.162278413772583008e+00
-6.177563667297363281e+00 -3.934876203536987305e+00 3.312245607376098633e+00
-6.156105995178222656e+00 -3.803463459014892578e+00 3.286908149719238281e+00
-2.177764177322387695e+00 2.120518684387207031e+00 2.264653921127319336e+00
-2.135260105133056641e+00 2.294257640838623047e+00 2.208077907562255859e+00
-2.182375669479370117e+00 2.100933551788330078e+00 2.441342115402221680e+00
-2.136995077133178711e+00 2.279831647872924805e+00 2.377801179885864258e+00
-4.333335399627685547e+00 7.146432399749755859e-01 2.674403786659240723e-01
-4.471938133239746094e+00 7.229032516479492188e-01 2.093245685100555420e-01
-4.330537319183349609e+00 7.533195614814758301e-01 3.809626400470733643e-01
-4.470086097717285156e+00 7.649694681167602539e-01 3.247890472412109375e-01
-6.070441246032714844e+00 -3.372859477996826172e+00 2.446067571640014648e+00
-6.030108451843261719e+00 -3.230291843414306641e+00 2.373968839645385742e+00
-6.086455821990966797e+00 -3.387211561203002930e+00 2.598354339599609375e+00
-6.049823760986328125e+00 -3.245007276535034180e+00 2.527448415756225586e+00
-6.498313426971435547e+00 -6.541857719421386719e+00 3.424233436584472656e+00
-6.624109745025634766e+00 -6.428312778472900391e+00 3.374522924423217773e+00
-6.382119655609130859e+00 -6.445389747619628906e+00 3.532482862472534180e+00
-6.519182682037353516e+00 -6.325657844543457031e+00 3.491721868515014648e+00
-2.612544298171997070e+00 6.807617187500000000e+00 1.856170177459716797e+00
-2.686435699462890625e+00 6.811307430267333984e+00 1.787906527519226074e+00
-2.596249103546142578e+00 6.806516647338867188e+00 1.982294440269470215e+00
-2.683781862258911133e+00 6.815900802612304688e+00 1.917735934257507324e+00
-2.209132909774780273e+00 3.425022840499877930e+00 2.982450723648071289e-01
-2.195670127868652344e+00 3.527411460876464844e+00 3.069983422756195068e-01
-2.226975679397583008e+00 3.366635084152221680e+00 3.468455970287322998e-01
-2.240376472473144531e+00 3.457817316055297852e+00 3.459441363811492920e-01
-2.085080623626708984e+00 3.206386566162109375e+00 1.942093968391418457e-01
-2.081614971160888672e+00 3.310311555862426758e+00 1.993411481380462646e-01
-2.104528188705444336e+00 3.167336940765380859e+00 2.368489354848861694e-01
