5.172539900000000301e+01 3.223556500000000113e+01 4.803252999999999773e+00
4.484760700000000355e+01 4.690207300000000146e+01 3.886200000000000099e+00
4.093724100000000021e+01 5.451958100000000229e+01 3.114262999999999781e+00
4.351814999999999856e+01 2.917459099999999950e+01 0.000000000000000000e+00
5.522690999999999661e+01 1.337011500000000019e+01 1.981009999999999993e-01
4.755268499999999676e+01 2.099901399999999896e+01 5.238050000000000317e+00
5.643622200000000078e+01 5.554138600000000281e+01 3.886200000000000099e+00
4.777678699999999878e+01 1.868360699999999852e+01 0.000000000000000000e+00
5.070135499999999951e+01 3.259894200000000097e+01 7.194550999999999696e+00
5.695361299999999716e+01 1.718169400000000024e+01 3.886200000000000099e+00
3.941460000000000008e+01 5.173854099999999789e+01 3.886200000000000099e+00
4.873161699999999996e+01 2.167114400000000174e+01 0.000000000000000000e+00
4.202634799999999871e+01 2.027822700000000111e+01 0.000000000000000000e+00
4.908916899999999828e+01 5.257993700000000104e+01 0.000000000000000000e+00
4.874329000000000178e+01 8.524013499999999510e+01 6.123618999999999701e+00
4.828116599999999892e+01 5.736866799999999955e+01 2.004554999999999865e+00
4.085569000000000273e+01 4.129610100000000017e+01 6.080010000000000137e-01
4.089732399999999757e+01 1.755486700000000155e+01 3.886200000000000099e+00
4.691016400000000175e+01 3.736125200000000035e+01 3.886200000000000099e+00
5.144142899999999941e+01 2.621547100000000086e+01 0.000000000000000000e+00
3.922918700000000314e+01 5.066897999999999769e+01 0.000000000000000000e+00
4.794108200000000153e+01 6.874593400000000543e+01 2.625410000000000021e+00
5.319377099999999814e+01 2.644794699999999921e+01 0.000000000000000000e+00
4.565151199999999676e+01 3.233454900000000265e+01 0.000000000000000000e+00
5.131420899999999818e+01 6.702417800000000625e+01 2.693842000000000070e+00
4.195661199999999980e+01 4.915615100000000126e+01 0.000000000000000000e+00
4.728952799999999712e+01 2.514289899999999989e+01 4.650248000000000381e+00
4.650363500000000272e+01 1.727089700000000150e+01 6.311899999999999622e+00
5.699710499999999769e+01 1.409106399999999937e+01 3.886200000000000099e+00
4.949748999999999910e+01 3.901039899999999960e+01 3.886200000000000099e+00
3.940663099999999730e+01 3.208944699999999983e+01 5.440679999999999961e-01
4.738816099999999665e+01 5.828018200000000348e+01 2.625410000000000021e+00
5.151839799999999769e+01 7.978539299999999912e+01 3.005001000000000033e+00
4.624015800000000098e+01 3.866339899999999830e+01 3.886200000000000099e+00
5.462402000000000157e+01 7.868360099999999591e+01 3.626571000000000211e+00
4.992728400000000022e+01 2.371143299999999954e+01 5.874012999999999707e+00
4.957103699999999691e+01 8.416192599999999402e+01 6.203949999999999854e+00
5.060440100000000285e+01 7.593364699999999345e+01 1.947889999999999899e+00
4.549230599999999924e+01 5.349187899999999729e+01 3.886200000000000099e+00
4.008212300000000283e+01 1.853717999999999932e+01 3.886200000000000099e+00
4.332724400000000031e+01 1.351774400000000043e+01 4.842433999999999905e+00
6.009933500000000350e+01 2.577208299999999852e+01 0.000000000000000000e+00
5.445056499999999744e+01 2.790345200000000148e+01 0.000000000000000000e+00
5.057739999999999725e+01 8.596209699999999998e+01 2.142374999999999918e+00
4.718195300000000003e+01 3.145109899999999925e+01 6.401730999999999838e+00
4.561657699999999949e+01 2.430013999999999896e+01 3.886200000000000099e+00
4.062020900000000267e+01 4.320956400000000031e+01 0.000000000000000000e+00
3.663700099999999793e+01 2.247003000000000128e+01 1.321782999999999930e+00
4.793797299999999950e+01 4.601740300000000161e+01 0.000000000000000000e+00
5.329240399999999767e+01 4.557319300000000339e+01 0.000000000000000000e+00
5.062554200000000293e+01 6.971177699999999788e+01 2.625410000000000021e+00
5.831242400000000004e+01 1.472039400000000064e+01 2.560426000000000091e+00
5.959169399999999683e+01 5.222393399999999986e+01 3.816266999999999854e+00
5.473743400000000037e+01 1.760100900000000124e+01 0.000000000000000000e+00
5.882977300000000298e+01 1.815430800000000033e+01 3.886200000000000099e+00
4.445135499999999951e+01 3.997657800000000350e+01 3.886200000000000099e+00
5.751241300000000223e+01 3.333514799999999667e+01 3.331141999999999825e+00
5.004070999999999714e+01 3.668567699999999832e+01 0.000000000000000000e+00
4.262890999999999764e+01 5.154315600000000330e+01 3.886200000000000099e+00
4.264518000000000342e+01 4.526799799999999863e+01 3.886200000000000099e+00
6.010079199999999844e+01 5.053759000000000157e+01 2.464621000000000173e+00
4.673979599999999834e+01 4.007288700000000148e+01 3.964285999999999976e+00
6.092725399999999780e+01 3.153253199999999978e+01 2.884151000000000131e+00
4.333546100000000223e+01 5.130516800000000188e+01 0.000000000000000000e+00
4.879193500000000228e+01 8.366562700000000063e+01 5.933796000000000070e+00
5.057210200000000100e+01 6.114195999999999742e+01 4.806949999999999612e+00
5.391489399999999677e+01 1.461844499999999947e+01 3.886200000000000099e+00
5.671691100000000318e+01 5.170932799999999929e+01 3.886200000000000099e+00
5.147168700000000285e+01 5.930632800000000060e+01 3.463748999999999967e+00
5.062540800000000019e+01 3.268299900000000235e+01 5.853774999999999729e+00
4.536289200000000221e+01 1.950756099999999904e+01 5.944908999999999999e+00
5.816347900000000237e+01 1.464186100000000046e+01 2.293184999999999807e+00
6.240421700000000271e+01 2.120546200000000070e+01 3.084735999999999922e+00
4.671206699999999756e+01 2.433918399999999949e+01 3.891738000000000142e+00
4.841645100000000213e+01 4.058064300000000202e+01 0.000000000000000000e+00
3.889936800000000261e+01 5.014884899999999845e+01 1.196028000000000091e+00
4.954804599999999937e+01 6.841361999999999455e+01 2.625410000000000021e+00
5.197706600000000066e+01 5.715557499999999891e+01 3.711107000000000156e+00
4.440739800000000059e+01 3.679441099999999665e+01 0.000000000000000000e+00
4.204502099999999842e+01 2.684022500000000022e+01 3.886200000000000099e+00
4.855979899999999816e+01 2.649008900000000111e+01 3.886200000000000099e+00
4.568259400000000170e+01 5.063929399999999958e+01 3.886200000000000099e+00
3.948135400000000317e+01 5.054157599999999917e+01 3.886200000000000099e+00
5.671189900000000250e+01 3.853474400000000344e+01 1.200229999999999908e+00
5.674334000000000344e+01 3.891402800000000184e+01 2.682668000000000053e+00
4.333218800000000215e+01 5.164910900000000282e+01 0.000000000000000000e+00
4.766191100000000347e+01 1.739560099999999920e+01 3.886200000000000099e+00
6.069570499999999669e+01 2.946600000000000108e+01 3.382502000000000120e+00
4.762187999999999732e+01 3.268299900000000235e+01 3.935007000000000144e+00
5.873854800000000154e+01 2.159318000000000026e+01 3.886200000000000099e+00
5.671623999999999910e+01 5.528926100000000332e+01 0.000000000000000000e+00
4.875523400000000152e+01 7.523672500000000696e+01 3.723972999999999978e+00
4.490475099999999742e+01 2.121895599999999860e+01 3.886200000000000099e+00
5.620228600000000085e+01 4.800510400000000288e+01 0.000000000000000000e+00
5.099185899999999805e+01 3.360424799999999834e+01 3.886200000000000099e+00
4.709880400000000122e+01 8.316110199999999963e+01 3.417031000000000152e+00
5.559197999999999951e+01 4.838548999999999722e+01 3.886200000000000099e+00
5.154770700000000261e+01 3.336117600000000039e+01 3.886200000000000099e+00
5.218989899999999693e+01 8.332757599999999343e+01 4.090997999999999912e+00
5.440759299999999854e+01 4.107461899999999844e+01 0.000000000000000000e+00
4.846253200000000305e+01 6.546294399999999314e+01 2.625410000000000021e+00
5.268706499999999693e+01 5.374317200000000128e+01 3.886200000000000099e+00
4.835749100000000311e+01 2.038858199999999954e+01 5.359399999999999942e+00
6.103195999999999799e+01 3.117531999999999925e+01 1.525789000000000062e+00
5.607726699999999909e+01 5.444158600000000092e+01 3.886200000000000099e+00
4.500701899999999966e+01 1.908213399999999993e+01 3.886200000000000099e+00
6.006904600000000016e+01 2.398914299999999855e+01 0.000000000000000000e+00
4.881390400000000085e+01 1.751447900000000146e+01 5.276718999999999937e+00
4.777933500000000322e+01 8.363886999999999716e+01 4.974573000000000356e+00
4.811645099999999786e+01 4.067845200000000006e+01 4.806949999999999612e+00
4.807072800000000257e+01 1.263049999999999962e+01 4.321925000000000239e+00
4.225504699999999758e+01 3.825888100000000236e+01 2.837464999999999904e+00
4.674863799999999969e+01 3.511312900000000070e+01 3.886200000000000099e+00
4.263898799999999767e+01 2.261430400000000063e+01 0.000000000000000000e+00
4.973079700000000258e+01 8.200614899999999352e+01 4.418445000000000178e+00
4.904429600000000278e+01 3.066962099999999936e+01 0.000000000000000000e+00
5.159645499999999885e+01 8.263022599999999329e+01 3.828615999999999797e+00
5.119345899999999716e+01 7.453870399999999563e+01 4.377578999999999887e+00
4.779750400000000354e+01 4.878733400000000131e+01 4.806949999999999612e+00
3.789379499999999723e+01 2.786359799999999964e+01 3.421774999999999789e+00
5.738211799999999840e+01 4.101979099999999789e+01 3.886200000000000099e+00
4.794807800000000242e+01 7.301443500000000597e+01 3.648689000000000071e+00
4.997442199999999701e+01 8.586384599999999523e+01 2.012179999999999858e+00
4.697948099999999982e+01 5.470691300000000012e+01 3.886200000000000099e+00
4.710927600000000126e+01 5.072664600000000235e+01 4.740444000000000102e+00
6.103942899999999838e+01 3.027105099999999993e+01 2.465333000000000219e+00
5.998186100000000209e+01 4.720500200000000035e+01 6.749370000000000092e-01
4.787528199999999856e+01 7.114327199999999607e+01 3.724828000000000028e+00
4.750762199999999780e+01 2.415335100000000068e+01 0.000000000000000000e+00
5.587248999999999910e+01 4.208207300000000117e+01 3.886200000000000099e+00
4.045356799999999708e+01 2.721830399999999983e+01 0.000000000000000000e+00
5.495743600000000129e+01 5.655157499999999970e+01 7.477289999999999770e-01
4.356658900000000045e+01 1.452109899999999953e+01 3.886200000000000099e+00
4.756026800000000065e+01 6.304588700000000046e+01 4.341090000000000337e+00
4.497187000000000268e+01 3.064155200000000079e+01 0.000000000000000000e+00
3.837052200000000113e+01 2.452536399999999972e+01 3.886200000000000099e+00
4.887733099999999808e+01 3.851955399999999941e+01 3.886200000000000099e+00
5.212194399999999916e+01 5.408982799999999713e+01 3.886200000000000099e+00
4.634863699999999653e+01 4.020745800000000258e+01 0.000000000000000000e+00
5.077946500000000185e+01 8.382104499999999803e+01 5.124450000000000394e+00
4.870063799999999787e+01 1.902605099999999894e+01 5.232300000000000395e+00
5.827920499999999748e+01 4.444550300000000220e+01 3.886200000000000099e+00
4.897040599999999699e+01 5.518716400000000277e+01 0.000000000000000000e+00
4.202019899999999808e+01 5.516752999999999929e+01 3.886200000000000099e+00
4.725054899999999947e+01 4.154826700000000272e+01 0.000000000000000000e+00
5.329918700000000342e+01 3.655651100000000042e+01 3.886200000000000099e+00
4.013929000000000258e+01 2.139710200000000029e+01 3.886200000000000099e+00
5.210252400000000250e+01 2.196790299999999974e+01 3.886200000000000099e+00
6.100395999999999930e+01 3.123930199999999857e+01 1.639040999999999970e+00
5.329113399999999956e+01 5.701916500000000099e+01 1.136365000000000069e+00
3.931168399999999963e+01 4.200406999999999869e+01 2.962648000000000170e+00
6.006635700000000355e+01 2.576840599999999881e+01 3.886200000000000099e+00
4.557685500000000189e+01 4.763996099999999956e+01 3.886200000000000099e+00
5.221228800000000092e+01 3.973148299999999722e+01 4.120606999999999687e+00
5.525632099999999980e+01 3.011723900000000143e+01 0.000000000000000000e+00
5.354299199999999814e+01 2.502097699999999847e+01 0.000000000000000000e+00
5.590176400000000001e+01 3.666701100000000224e+01 0.000000000000000000e+00
5.350297499999999928e+01 4.166439799999999849e+01 0.000000000000000000e+00
5.938298799999999744e+01 2.209659600000000168e+01 0.000000000000000000e+00
5.231010400000000260e+01 3.794079599999999886e+01 0.000000000000000000e+00
3.976082600000000156e+01 2.793928100000000114e+01 0.000000000000000000e+00
5.193428800000000223e+01 1.263049999999999962e+01 3.225030999999999981e+00
5.973135400000000317e+01 1.586565799999999982e+01 2.677729999999999944e+00
4.640512499999999818e+01 2.407644099999999909e+01 3.886200000000000099e+00
4.617922599999999989e+01 1.935136800000000079e+01 0.000000000000000000e+00
5.494803199999999777e+01 4.349153100000000194e+01 0.000000000000000000e+00
3.677975800000000106e+01 2.035249699999999962e+01 1.468355999999999995e+00
4.820332299999999748e+01 7.465044399999999314e+01 4.806949999999999612e+00
5.227486400000000089e+01 7.786493699999999762e+01 2.914649999999999963e+00
4.926168799999999948e+01 5.238245400000000274e+01 0.000000000000000000e+00
5.125915899999999681e+01 6.132136200000000059e+01 2.625410000000000021e+00
5.316365100000000155e+01 2.024893000000000143e+01 3.886200000000000099e+00
5.445124100000000311e+01 2.860147100000000009e+01 0.000000000000000000e+00
5.286535299999999893e+01 3.354301499999999692e+01 0.000000000000000000e+00
4.428057499999999891e+01 5.035824600000000117e+01 3.886200000000000099e+00
4.877465800000000229e+01 2.678346399999999861e+01 3.886200000000000099e+00
5.664239899999999750e+01 3.649031800000000203e+01 6.544809999999999794e-01
4.928137199999999751e+01 2.514289899999999989e+01 4.992123999999999562e+00
5.654825999999999908e+01 2.789043399999999906e+01 0.000000000000000000e+00
4.238362099999999799e+01 4.828367599999999982e+01 0.000000000000000000e+00
4.166754199999999742e+01 2.187492800000000059e+01 0.000000000000000000e+00
4.807718700000000212e+01 7.629408300000000054e+01 3.874992000000000214e+00
5.813598300000000307e+01 1.836379799999999918e+01 3.886200000000000099e+00
4.590087900000000332e+01 4.621240600000000143e+01 3.886200000000000099e+00
5.329466200000000242e+01 4.232249099999999942e+01 0.000000000000000000e+00
4.800893800000000056e+01 7.457904100000000369e+01 3.951283000000000101e+00
5.057559200000000033e+01 1.939817000000000036e+01 4.933824999999999683e+00
5.367447700000000310e+01 3.094655600000000106e+01 0.000000000000000000e+00
5.993539799999999929e+01 4.688050799999999896e+01 6.755959999999999743e-01
4.017477800000000343e+01 4.850664499999999890e+01 3.886200000000000099e+00
5.116770199999999846e+01 7.339610299999999654e+01 2.961015000000000175e+00
4.475310100000000091e+01 2.892984200000000072e+01 0.000000000000000000e+00
4.762031600000000253e+01 6.458937799999999640e+01 4.171030000000000015e+00
5.590510199999999941e+01 4.750008400000000108e+01 0.000000000000000000e+00
4.383622700000000094e+01 4.408556399999999798e+01 0.000000000000000000e+00
3.663700099999999793e+01 2.325150700000000015e+01 2.695000999999999980e+00
5.130289799999999900e+01 6.634275800000000345e+01 3.046231000000000133e+00
3.874957700000000216e+01 1.660049199999999914e+01 3.184939999999999993e-01
4.372533399999999659e+01 7.544715899999999920e+01 3.841750000000000220e+00
4.413214500000000129e+01 3.701331700000000069e+01 0.000000000000000000e+00
4.685836799999999869e+01 4.349193199999999848e+01 3.931907999999999959e+00
6.019336700000000207e+01 2.250505400000000122e+01 3.886200000000000099e+00
5.096553399999999812e+01 5.961851099999999803e+01 2.625410000000000021e+00
3.663700099999999793e+01 2.240301300000000140e+01 3.535636999999999919e+00
5.230933399999999978e+01 1.267431599999999925e+01 3.387529999999999930e+00
4.870259899999999931e+01 6.584709200000000351e+01 2.625410000000000021e+00
5.148326899999999995e+01 4.115066499999999650e+01 0.000000000000000000e+00
4.113736699999999757e+01 2.017218799999999845e+01 0.000000000000000000e+00
5.021067800000000148e+01 5.121923100000000062e+01 4.806949999999999612e+00
4.418816799999999745e+01 4.648948299999999989e+01 3.886200000000000099e+00
5.099318699999999893e+01 3.689709500000000020e+01 3.886200000000000099e+00
4.985154699999999650e+01 8.615262599999999793e+01 5.830484000000000222e+00
5.288411700000000337e+01 4.441371900000000039e+01 3.886200000000000099e+00
3.957532499999999942e+01 2.211600500000000125e+01 0.000000000000000000e+00
4.956112699999999904e+01 7.014302800000000104e+01 2.522472000000000047e+00
5.491975800000000163e+01 2.309276200000000046e+01 0.000000000000000000e+00
4.641204100000000210e+01 1.725393299999999996e+01 0.000000000000000000e+00
4.605910500000000241e+01 2.902984800000000121e+01 3.886200000000000099e+00
4.502064899999999881e+01 5.704518900000000059e+01 3.076079000000000008e+00
4.526968399999999804e+01 1.950632299999999830e+01 5.679275999999999769e+00
5.669915400000000005e+01 3.560314600000000240e+01 2.708625000000000060e+00
4.176586900000000213e+01 5.183536500000000302e+01 3.886200000000000099e+00
5.786167900000000230e+01 3.280909700000000129e+01 2.325680999999999887e+00
5.172539499999999890e+01 3.150705699999999965e+01 6.060421999999999976e+00
5.418817899999999810e+01 3.661440999999999946e+01 3.886200000000000099e+00
4.744577799999999712e+01 3.268299900000000235e+01 4.972228000000000314e+00
6.110073899999999725e+01 2.168658399999999986e+01 0.000000000000000000e+00
6.066899899999999946e+01 1.695198399999999950e+01 2.129373999999999878e+00
4.883877900000000238e+01 1.800817299999999932e+01 4.170168000000000319e+00
5.664239899999999750e+01 3.640055799999999664e+01 2.175359999999999960e+00
4.444462599999999952e+01 3.497720300000000293e+01 0.000000000000000000e+00
6.045178599999999847e+01 1.747895199999999960e+01 0.000000000000000000e+00
5.053489700000000084e+01 7.570274399999999559e+01 4.221368000000000009e+00
5.282086199999999820e+01 8.099467500000000086e+01 3.841750000000000220e+00
4.944632699999999659e+01 1.263049900000000036e+01 8.853929999999999856e-01
5.110463000000000022e+01 7.726689899999999511e+01 1.961006999999999945e+00
5.792344700000000302e+01 1.451530099999999912e+01 3.881406000000000134e+00
3.926892099999999886e+01 5.175917100000000204e+01 3.694066999999999990e+00
5.308567399999999736e+01 5.704614300000000071e+01 3.705439000000000149e+00
4.221650700000000001e+01 5.499620099999999923e+01 3.886200000000000099e+00
4.387163199999999819e+01 4.342969500000000238e+01 0.000000000000000000e+00
4.636436499999999938e+01 3.523749899999999968e+01 3.886200000000000099e+00
4.369570199999999716e+01 1.874018500000000031e+01 6.311899999999999622e+00
4.465414400000000228e+01 3.148333500000000029e+01 0.000000000000000000e+00
5.352279999999999660e+01 5.560137900000000144e+01 3.886200000000000099e+00
4.815579600000000227e+01 7.783432000000000528e+01 3.252695000000000114e+00
6.032929200000000236e+01 2.604372800000000154e+01 3.886200000000000099e+00
5.218989599999999740e+01 8.414846799999999405e+01 3.679578999999999933e+00
4.394847099999999784e+01 3.422754700000000128e+01 0.000000000000000000e+00
4.284163999999999817e+01 4.620286600000000021e+01 3.886200000000000099e+00
5.263756599999999963e+01 2.827888099999999838e+01 3.886200000000000099e+00
4.547839400000000154e+01 5.549319100000000304e+01 0.000000000000000000e+00
4.815579999999999927e+01 7.792519400000000473e+01 4.196954999999999991e+00
5.726895900000000239e+01 2.648123899999999864e+01 0.000000000000000000e+00
5.985870400000000302e+01 3.176871699999999876e+01 2.874835000000000029e+00
5.885689200000000199e+01 4.375818300000000249e+01 3.886200000000000099e+00
4.289804800000000284e+01 1.706300699999999892e+01 0.000000000000000000e+00
5.664239899999999750e+01 3.768368499999999699e+01 9.513019999999999810e-01
5.518604299999999796e+01 4.153181500000000170e+01 0.000000000000000000e+00
5.062998600000000238e+01 8.306389599999999973e+01 5.124450000000000394e+00
4.320008899999999841e+01 1.495181499999999986e+01 0.000000000000000000e+00
4.604657000000000266e+01 1.367812499999999964e+01 3.886200000000000099e+00
5.671731599999999673e+01 3.860008200000000045e+01 3.220559999999999867e+00
4.828148699999999849e+01 2.384043499999999938e+01 6.410512999999999906e+00
5.643282299999999907e+01 3.494962699999999955e+01 3.886200000000000099e+00
3.663700099999999793e+01 2.127063199999999910e+01 2.628139000000000003e+00
5.924871100000000013e+01 4.436502099999999871e+01 0.000000000000000000e+00
3.849536100000000260e+01 3.113746300000000033e+01 0.000000000000000000e+00
4.911225900000000166e+01 7.669729599999999436e+01 1.951596000000000108e+00
5.594162800000000146e+01 3.133225099999999941e+01 3.886200000000000099e+00
4.795826300000000231e+01 3.042262600000000106e+01 0.000000000000000000e+00
5.324814599999999842e+01 3.416124299999999891e+01 3.886200000000000099e+00
5.431972499999999826e+01 5.665271800000000013e+01 3.886200000000000099e+00
5.184690899999999658e+01 5.023649999999999949e+01 4.179848999999999926e+00
4.463293500000000336e+01 5.555845300000000009e+01 3.886200000000000099e+00
4.025253299999999967e+01 2.321481299999999948e+01 3.886200000000000099e+00
5.723326099999999883e+01 3.206848500000000257e+01 0.000000000000000000e+00
4.234170199999999795e+01 3.759906000000000148e+01 1.664682999999999913e+00
5.662509500000000173e+01 1.387296699999999916e+01 3.151800000000000157e-01
4.103252799999999922e+01 2.357415200000000155e+01 0.000000000000000000e+00
5.246112800000000220e+01 5.625330399999999997e+01 0.000000000000000000e+00
5.594654100000000341e+01 2.076918200000000070e+01 0.000000000000000000e+00
4.621274900000000230e+01 3.289013700000000284e+01 0.000000000000000000e+00
4.225059900000000113e+01 3.843944199999999967e+01 6.812080000000000357e-01
4.839485899999999674e+01 3.688810000000000144e+01 0.000000000000000000e+00
5.096762100000000117e+01 2.236246099999999970e+01 5.359399999999999942e+00
5.126048300000000069e+01 6.811022900000000391e+01 4.211776999999999660e+00
4.266304399999999930e+01 4.984730100000000164e+01 3.886200000000000099e+00
4.735627699999999862e+01 1.842816200000000038e+01 0.000000000000000000e+00
4.140277499999999833e+01 1.903809000000000040e+01 4.063487000000000293e+00
5.477077899999999744e+01 7.734234600000000626e+01 2.914649999999999963e+00
5.104939999999999856e+01 7.861365499999999429e+01 3.567734000000000183e+00
5.411652399999999830e+01 1.417253799999999941e+01 3.886200000000000099e+00
5.681855800000000301e+01 3.982145700000000232e+01 1.423891000000000018e+00
4.147742099999999965e+01 3.218306700000000120e+01 0.000000000000000000e+00
4.879832100000000139e+01 8.106433900000000392e+01 4.806949999999999612e+00
5.571262399999999815e+01 5.165838600000000014e+01 3.886200000000000099e+00
5.181803099999999773e+01 5.110574299999999681e+01 3.886200000000000099e+00
5.191294500000000056e+01 2.589209200000000166e+01 0.000000000000000000e+00
5.973979599999999834e+01 5.112283299999999997e+01 0.000000000000000000e+00
4.929824399999999684e+01 6.466283400000000370e+01 4.806949999999999612e+00
4.577115599999999773e+01 1.342143800000000020e+01 6.311899999999999622e+00
4.464400899999999695e+01 7.960684999999999434e+01 2.914050000000000029e+00
5.113647100000000023e+01 7.327959400000000301e+01 4.778287999999999869e+00
4.905695699999999704e+01 5.815064999999999884e+01 1.194107000000000030e+00
5.032177699999999732e+01 5.489688100000000048e+01 4.806950999999999752e+00
4.964964299999999753e+01 3.145109700000000075e+01 4.940015999999999963e+00
5.218989599999999740e+01 8.381076799999999594e+01 3.276959000000000177e+00
4.353082700000000216e+01 1.344720599999999955e+01 6.153404000000000096e+00
5.202837399999999946e+01 2.305225199999999930e+01 3.886200000000000099e+00
5.914353899999999697e+01 3.190314100000000153e+01 1.914293000000000022e+00
4.845786700000000025e+01 8.525508899999999812e+01 5.048239999999999839e+00
4.627599299999999971e+01 5.252242700000000042e+01 3.886200000000000099e+00
5.968914000000000186e+01 4.120774800000000226e+01 2.611086999999999936e+00
5.209146899999999647e+01 4.320536799999999999e+01 4.774339000000000333e+00
3.875042700000000195e+01 2.690163400000000138e+01 0.000000000000000000e+00
5.584742399999999662e+01 4.373720600000000047e+01 0.000000000000000000e+00
4.128701000000000221e+01 4.605895600000000201e+01 3.886200000000000099e+00
4.635763200000000239e+01 2.162735699999999994e+01 3.886200000000000099e+00
5.298093800000000186e+01 2.505032699999999934e+01 3.886200000000000099e+00
4.822021500000000316e+01 1.544889299999999999e+01 0.000000000000000000e+00
5.385195900000000080e+01 3.612632399999999677e+01 0.000000000000000000e+00
4.646669399999999683e+01 5.453596499999999736e+01 0.000000000000000000e+00
5.780900599999999656e+01 3.288842400000000055e+01 3.000427000000000177e+00
4.833940100000000228e+01 8.402859499999999571e+01 1.992790999999999979e+00
4.367300800000000294e+01 1.832906499999999994e+01 3.886200000000000099e+00
3.919462200000000252e+01 3.123429499999999948e+01 0.000000000000000000e+00
4.943121299999999962e+01 7.617941299999999671e+01 1.956395000000000106e+00
5.522806200000000132e+01 4.028165099999999654e+01 3.886200000000000099e+00
5.775217099999999704e+01 3.297402999999999906e+01 3.411668999999999841e+00
4.940930199999999672e+01 3.344445799999999736e+01 3.886200000000000099e+00
5.053610199999999963e+01 1.263049999999999962e+01 1.628638999999999948e+00
6.009831199999999995e+01 4.801832600000000184e+01 8.770989999999999620e-01
5.163038300000000191e+01 4.930178500000000241e+01 4.806949999999999612e+00
5.022219100000000225e+01 7.138470499999999674e+01 2.531702000000000119e+00
3.874499899999999997e+01 4.867922599999999989e+01 1.377434000000000047e+00
5.675592000000000326e+01 4.178008299999999764e+01 3.886200000000000099e+00
5.694995899999999978e+01 4.315009299999999826e+01 0.000000000000000000e+00
4.772735600000000034e+01 4.417168000000000205e+01 4.806949999999999612e+00
6.184504700000000099e+01 1.900796700000000072e+01 3.576654000000000000e+00
4.914686600000000283e+01 2.506759600000000177e+01 0.000000000000000000e+00
4.213365900000000153e+01 1.649138999999999911e+01 0.000000000000000000e+00
5.838593300000000141e+01 2.223483699999999885e+01 0.000000000000000000e+00
4.228619400000000184e+01 3.649543800000000005e+01 3.780394999999999950e+00
5.302487599999999901e+01 3.804140100000000047e+01 0.000000000000000000e+00
4.852614599999999712e+01 7.975410499999999558e+01 4.806949999999999612e+00
4.173769399999999763e+01 2.477255099999999999e+01 3.886200000000000099e+00
6.130808300000000344e+01 2.162668199999999885e+01 0.000000000000000000e+00
5.048165099999999939e+01 2.096309300000000064e+01 5.359399999999999942e+00
5.829433800000000332e+01 2.421387700000000009e+01 3.886200000000000099e+00
5.160680399999999679e+01 1.434936500000000059e+01 0.000000000000000000e+00
4.712091800000000319e+01 2.478134199999999865e+01 5.359399999999999942e+00
3.844485900000000100e+01 1.966669999999999874e+01 0.000000000000000000e+00
4.310506399999999871e+01 2.554311799999999977e+01 0.000000000000000000e+00
4.794391600000000153e+01 5.098859800000000320e+01 0.000000000000000000e+00
4.378242500000000348e+01 5.650753399999999971e+01 1.185847000000000095e+00
4.062385199999999941e+01 5.223401599999999689e+01 3.886200000000000099e+00
4.783842800000000040e+01 3.141392499999999899e+01 3.886200000000000099e+00
4.557758299999999707e+01 5.619711300000000165e+01 0.000000000000000000e+00
4.840931299999999737e+01 3.792332799999999793e+01 0.000000000000000000e+00
5.196004500000000093e+01 4.698369600000000190e+01 4.073948999999999820e+00
4.701388899999999893e+01 1.719660199999999861e+01 0.000000000000000000e+00
3.970898100000000142e+01 4.950861700000000098e+01 3.886200000000000099e+00
4.225059900000000113e+01 3.834561200000000269e+01 3.668683000000000138e+00
5.125080100000000272e+01 7.617835999999999785e+01 4.009501000000000204e+00
5.598268099999999947e+01 2.060164100000000076e+01 0.000000000000000000e+00
5.492589999999999861e+01 3.754901100000000014e+01 0.000000000000000000e+00
5.326187900000000042e+01 5.680085400000000107e+01 3.886200000000000099e+00
5.018861400000000117e+01 3.967792099999999778e+01 0.000000000000000000e+00
4.877052299999999718e+01 1.665387499999999932e+01 3.903005999999999975e+00
5.427188900000000160e+01 1.310724100000000014e+01 2.728346000000000160e+00
5.664239500000000049e+01 3.674167599999999823e+01 3.608420999999999879e+00
4.611456299999999686e+01 1.499033499999999997e+01 6.311899999999999622e+00
4.790685299999999813e+01 1.788944599999999951e+01 0.000000000000000000e+00
3.912102900000000005e+01 2.537388999999999939e+01 3.886200000000000099e+00
5.383670800000000156e+01 3.954229699999999781e+01 0.000000000000000000e+00
5.660305799999999721e+01 4.797091300000000302e+01 0.000000000000000000e+00
4.590599799999999675e+01 2.783269500000000107e+01 0.000000000000000000e+00
5.518275500000000022e+01 5.241545500000000146e+01 3.886200000000000099e+00
5.169921899999999937e+01 1.728851500000000030e+01 3.886200000000000099e+00
4.116318499999999858e+01 1.442442699999999967e+01 5.000786999999999871e+00
4.823187999999999676e+01 4.589753000000000327e+01 4.806949999999999612e+00
5.560586500000000143e+01 1.350640500000000088e+01 1.508500000000000119e-01
5.110739900000000091e+01 3.145109899999999925e+01 4.836907000000000068e+00
6.118965099999999779e+01 3.081507300000000171e+01 1.557120999999999977e+00
4.302376600000000195e+01 3.269905899999999832e+01 0.000000000000000000e+00
4.455778899999999965e+01 1.309138399999999969e+01 5.567887999999999948e+00
5.910904299999999978e+01 2.229060000000000130e+01 3.886200000000000099e+00
4.031878300000000337e+01 4.755121199999999959e+01 3.886200000000000099e+00
3.877450199999999825e+01 4.808496099999999984e+01 3.680632000000000126e+00
4.871425200000000189e+01 1.744234300000000104e+01 3.886200000000000099e+00
3.971388199999999813e+01 4.275045399999999773e+01 1.339550999999999936e+00
5.107789999999999964e+01 8.098260500000000661e+01 3.244298000000000126e+00
3.804946900000000198e+01 1.756717099999999832e+01 8.836619999999999475e-01
4.322109199999999873e+01 4.044021599999999950e+01 3.886200000000000099e+00
4.930453899999999834e+01 1.198920000000000030e+01 1.535163999999999973e+00
5.108670000000000044e+01 8.159947200000000578e+01 4.526731999999999978e+00
5.058898500000000098e+01 6.747074899999999786e+01 2.625410000000000021e+00
4.890583800000000281e+01 6.057108300000000156e+01 2.625410000000000021e+00
5.279509399999999886e+01 2.930219299999999905e+01 0.000000000000000000e+00
4.787044499999999658e+01 6.754433400000000631e+01 2.625410000000000021e+00
3.995260999999999996e+01 1.886249499999999912e+01 4.264783999999999686e+00
4.839288299999999765e+01 3.848267400000000293e+01 0.000000000000000000e+00
5.280149800000000226e+01 7.726689899999999511e+01 3.089447999999999972e+00
4.565467100000000045e+01 4.949512899999999860e+01 0.000000000000000000e+00
5.208522800000000075e+01 4.979897299999999660e+01 3.886200000000000099e+00
5.025125100000000344e+01 6.100749600000000328e+01 2.625410000000000021e+00
4.807960099999999670e+01 7.718877399999999511e+01 2.571870000000000100e+00
4.188634499999999861e+01 1.406154300000000035e+01 5.617005999999999943e+00
4.441764100000000326e+01 5.224616999999999933e+01 0.000000000000000000e+00
5.114124300000000289e+01 3.268299900000000235e+01 4.107641000000000098e+00
4.023620600000000280e+01 3.003788799999999881e+01 3.886200000000000099e+00
5.097234300000000218e+01 8.194365700000000174e+01 2.687720000000000109e+00
3.875341000000000236e+01 4.818187000000000353e+01 3.136950000000000127e+00
4.365661599999999964e+01 3.384616100000000216e+01 0.000000000000000000e+00
4.579130899999999826e+01 1.822259100000000132e+01 6.311899999999999622e+00
5.766205599999999976e+01 4.597634899999999902e+01 3.886200000000000099e+00
5.199674199999999757e+01 4.592898600000000187e+01 4.607586000000000404e+00
5.581272899999999737e+01 1.513708100000000023e+01 0.000000000000000000e+00
6.242763899999999921e+01 2.134407799999999966e+01 1.716534999999999922e+00
3.934372700000000123e+01 2.632818599999999876e+01 3.886200000000000099e+00
6.236268599999999651e+01 2.171486900000000020e+01 0.000000000000000000e+00
5.109124400000000321e+01 4.274277099999999763e+01 0.000000000000000000e+00
5.141608800000000201e+01 6.162375999999999721e+01 4.576774999999999594e+00
4.983139800000000008e+01 2.935792000000000002e+01 3.886200000000000099e+00
4.630506100000000202e+01 2.938570800000000105e+01 0.000000000000000000e+00
5.150339900000000171e+01 5.719333300000000264e+01 1.467112999999999889e+00
3.739792299999999869e+01 2.497632600000000025e+01 0.000000000000000000e+00
4.924452999999999747e+01 1.475092899999999929e+01 5.359398999999999802e+00
3.888872500000000088e+01 1.761118899999999954e+01 0.000000000000000000e+00
4.805919300000000050e+01 6.720119499999999846e+01 2.625410000000000021e+00
4.630100600000000099e+01 7.981774099999999805e+01 2.913072999999999801e+00
4.422276300000000049e+01 7.687899799999999573e+01 3.637471000000000121e+00
4.727033999999999736e+01 1.838200199999999995e+01 5.641170999999999935e+00
5.038651999999999731e+01 4.858819199999999938e+01 4.806949999999999612e+00
5.628952400000000011e+01 4.472943099999999816e+01 3.886200000000000099e+00
4.835874599999999646e+01 4.468439500000000209e+01 4.806950999999999752e+00
5.352226600000000190e+01 3.260557200000000222e+01 3.886200000000000099e+00
4.392416000000000054e+01 1.691036199999999923e+01 0.000000000000000000e+00
5.125079699999999860e+01 7.603419499999999687e+01 4.095301000000000080e+00
4.872135899999999964e+01 6.410238599999999565e+01 4.806949999999999612e+00
4.619384000000000157e+01 1.498080299999999987e+01 0.000000000000000000e+00
4.755454300000000245e+01 5.612995899999999949e+01 0.000000000000000000e+00
5.150026700000000091e+01 2.572389199999999931e+01 0.000000000000000000e+00
4.052192300000000103e+01 3.232054500000000274e+01 8.009399999999999853e-01
4.871222699999999861e+01 4.091841099999999898e+01 0.000000000000000000e+00
5.978908899999999704e+01 1.592297899999999977e+01 2.122203999999999979e+00
6.233964199999999778e+01 2.424501199999999912e+01 3.110933000000000170e+00
4.560404199999999975e+01 7.687899799999999573e+01 2.955700999999999912e+00
5.337869299999999839e+01 3.093710700000000102e+01 3.886200000000000099e+00
4.595823699999999690e+01 1.834292800000000057e+01 0.000000000000000000e+00
5.054980900000000332e+01 7.752931200000000445e+01 3.563489999999999824e+00
5.678289000000000186e+01 5.341208600000000217e+01 0.000000000000000000e+00
5.604574199999999706e+01 1.991933099999999968e+01 0.000000000000000000e+00
4.072887800000000169e+01 4.175076299999999918e+01 0.000000000000000000e+00
5.007527900000000187e+01 6.088860700000000037e+01 4.806949999999999612e+00
4.574912299999999732e+01 5.190414799999999929e+01 3.886200000000000099e+00
5.829863000000000284e+01 1.952725600000000128e+01 0.000000000000000000e+00
4.755480599999999924e+01 4.567976399999999870e+01 4.806950999999999752e+00
3.698686599999999913e+01 2.575577699999999837e+01 9.919900000000000384e-01
4.348599999999999710e+01 2.100217100000000059e+01 3.886200000000000099e+00
4.972767999999999944e+01 2.913902300000000167e+01 0.000000000000000000e+00
5.699319100000000304e+01 1.881829099999999855e+01 3.886200000000000099e+00
5.116998300000000199e+01 7.188240100000000155e+01 3.341331999999999969e+00
4.969953499999999735e+01 2.990413900000000069e+01 3.886200000000000099e+00
4.876652899999999846e+01 8.425907100000000582e+01 5.720697000000000365e+00
4.206398800000000193e+01 3.477283899999999761e+01 2.735183999999999838e+00
5.489533999999999736e+01 2.501424599999999998e+01 0.000000000000000000e+00
5.723616799999999927e+01 2.861423299999999870e+01 3.886200000000000099e+00
5.428652999999999906e+01 3.096705199999999891e+01 3.886200000000000099e+00
4.558482699999999710e+01 1.695949600000000146e+01 0.000000000000000000e+00
4.330747999999999820e+01 2.505076800000000148e+01 0.000000000000000000e+00
4.835280999999999807e+01 7.917784100000000080e+01 4.806949999999999612e+00
5.214288700000000176e+01 5.113038999999999845e+01 3.886200000000000099e+00
5.415400300000000300e+01 2.065186500000000080e+01 0.000000000000000000e+00
4.745854200000000134e+01 6.043046600000000268e+01 3.263274000000000008e+00
5.888717299999999710e+01 5.342952300000000321e+01 5.207199999999999607e-01
5.971929599999999994e+01 5.187222700000000231e+01 2.610812000000000133e+00
4.457192200000000071e+01 7.687899799999999573e+01 3.722319999999999851e+00
4.557164000000000215e+01 2.323471599999999881e+01 3.886200000000000099e+00
5.135601799999999884e+01 6.561051899999999648e+01 3.699625000000000163e+00
5.046376399999999762e+01 8.285798599999999681e+01 5.888437999999999839e+00
3.893122900000000186e+01 1.634967800000000082e+01 9.003499999999999837e-01
3.983049799999999863e+01 2.221347600000000000e+01 0.000000000000000000e+00
4.138380399999999781e+01 4.980444700000000324e+01 0.000000000000000000e+00
6.088729099999999761e+01 1.722911099999999962e+01 1.666161000000000003e+00
5.472405200000000036e+01 7.744255800000000534e+01 2.914649999999999963e+00
4.586703500000000133e+01 1.279264900000000083e+01 5.887738999999999834e+00
5.845279699999999679e+01 3.223021700000000322e+01 1.979420000000000068e-01
4.608838699999999733e+01 2.502168299999999945e+01 3.886200000000000099e+00
4.885402299999999798e+01 4.733068800000000209e+01 0.000000000000000000e+00
5.349919100000000327e+01 2.911365100000000083e+01 3.886200000000000099e+00
5.490728800000000120e+01 1.695063199999999881e+01 3.886200000000000099e+00
4.643750800000000112e+01 5.520590200000000181e+01 3.886200000000000099e+00
6.194002499999999856e+01 2.311473499999999959e+01 0.000000000000000000e+00
4.521340899999999863e+01 2.181040799999999891e+01 3.886200000000000099e+00
5.361507799999999690e+01 3.957263199999999870e+01 3.886200000000000099e+00
3.986186200000000213e+01 5.044536999999999694e+01 0.000000000000000000e+00
4.320185099999999778e+01 4.845409399999999778e+01 3.886200000000000099e+00
4.487737700000000274e+01 1.588862499999999933e+01 0.000000000000000000e+00
4.640509800000000240e+01 3.633405299999999727e+01 0.000000000000000000e+00
4.205099100000000334e+01 2.935644500000000079e+01 0.000000000000000000e+00
4.213782900000000353e+01 1.710754000000000019e+01 0.000000000000000000e+00
4.585083800000000309e+01 1.853056700000000134e+01 0.000000000000000000e+00
4.676013900000000234e+01 7.871820099999999343e+01 3.810071999999999903e+00
4.694475599999999815e+01 4.598276500000000055e+01 4.021468999999999738e+00
4.884922000000000253e+01 5.675354000000000099e+01 0.000000000000000000e+00
5.423578299999999786e+01 2.870192099999999868e+01 0.000000000000000000e+00
5.826371000000000322e+01 2.703757999999999839e+01 3.886200000000000099e+00
5.662127300000000218e+01 2.875082000000000093e+01 0.000000000000000000e+00
3.663700099999999793e+01 2.385412600000000083e+01 1.245130000000000070e+00
4.175456599999999696e+01 1.428865399999999930e+01 0.000000000000000000e+00
5.417180599999999657e+01 1.382972900000000038e+01 3.886200000000000099e+00
4.582051799999999986e+01 4.044160500000000269e+01 0.000000000000000000e+00
4.225059499999999701e+01 3.866558500000000009e+01 1.421650000000000080e+00
5.384577900000000028e+01 5.630357399999999757e+01 3.886200000000000099e+00
5.218990300000000104e+01 8.422204600000000596e+01 3.277868999999999922e+00
5.199309499999999673e+01 3.123576399999999964e+01 0.000000000000000000e+00
5.264814799999999906e+01 2.185320700000000116e+01 0.000000000000000000e+00
5.814279899999999657e+01 3.239755999999999858e+01 8.500609999999999555e-01
5.215522800000000103e+01 5.183761200000000002e+01 0.000000000000000000e+00
5.053490099999999785e+01 8.138290399999999636e+01 3.784336000000000144e+00
5.501282499999999942e+01 3.306723000000000212e+01 0.000000000000000000e+00
5.136337300000000283e+01 6.382227300000000270e+01 2.715132999999999797e+00
4.498958600000000274e+01 5.104578000000000060e+01 3.886200000000000099e+00
5.660533099999999962e+01 5.565724600000000066e+01 3.886200000000000099e+00
5.335213499999999698e+01 3.729039800000000326e+01 0.000000000000000000e+00
5.794929499999999933e+01 5.453939100000000195e+01 2.180239999999999956e-01
4.483295100000000133e+01 3.044759200000000021e+01 3.886200000000000099e+00
5.018669899999999728e+01 1.764378400000000013e+01 0.000000000000000000e+00
4.978175399999999939e+01 6.392616300000000251e+01 2.625410000000000021e+00
5.165238999999999692e+01 3.926971400000000045e+01 4.137425000000000352e+00
4.993074000000000012e+01 2.858128200000000163e+01 3.886200000000000099e+00
4.267227900000000318e+01 3.011073299999999975e+01 0.000000000000000000e+00
4.862715099999999779e+01 6.320368200000000058e+01 4.806949999999999612e+00
4.882400499999999965e+01 8.535269200000000467e+01 3.702662000000000120e+00
4.746512599999999793e+01 6.059964000000000084e+01 2.688930000000000042e+00
5.316684699999999708e+01 3.909388700000000227e+01 3.886200000000000099e+00
4.306049000000000149e+01 1.361017000000000010e+01 5.306992000000000154e+00
4.170133200000000073e+01 1.930261199999999988e+01 3.886200000000000099e+00
4.717518199999999950e+01 2.627149999999999963e+01 3.886200000000000099e+00
4.452813700000000097e+01 4.239140299999999684e+01 0.000000000000000000e+00
4.773424500000000137e+01 4.679732500000000073e+01 4.806949999999999612e+00
5.057739999999999725e+01 8.635723900000000697e+01 2.014256000000000046e+00
5.150138900000000319e+01 2.384556200000000104e+01 6.527801000000000187e+00
5.212185699999999855e+01 4.233152799999999871e+01 4.700558000000000014e+00
3.917683799999999650e+01 4.710705200000000303e+01 3.886200000000000099e+00
6.128287499999999710e+01 2.675486799999999832e+01 0.000000000000000000e+00
5.488673399999999702e+01 2.652921500000000066e+01 0.000000000000000000e+00
5.135567499999999797e+01 3.145109899999999925e+01 6.130003000000000313e+00
5.748919699999999722e+01 3.279682199999999881e+01 3.886200000000000099e+00
4.409404399999999669e+01 2.929713800000000035e+01 0.000000000000000000e+00
5.614990999999999843e+01 2.258814200000000127e+01 0.000000000000000000e+00
4.336434200000000061e+01 3.952663400000000138e+01 0.000000000000000000e+00
5.161001999999999867e+01 5.704772599999999727e+01 4.181985000000000063e+00
5.044473299999999938e+01 3.728689599999999871e+01 0.000000000000000000e+00
4.081365199999999760e+01 2.489480999999999966e+01 0.000000000000000000e+00
6.018500099999999975e+01 4.895685600000000193e+01 1.740437999999999930e+00
5.439934499999999673e+01 5.391993000000000080e+01 3.886200000000000099e+00
4.796999399999999980e+01 2.052290500000000151e+01 4.278153999999999790e+00
4.154838199999999659e+01 2.209766199999999969e+01 0.000000000000000000e+00
5.076393099999999947e+01 4.535560199999999753e+01 0.000000000000000000e+00
5.433446099999999745e+01 4.514294100000000043e+01 0.000000000000000000e+00
5.200959799999999689e+01 1.916866500000000073e+01 3.886200000000000099e+00
6.185803599999999847e+01 2.338215999999999894e+01 3.886200000000000099e+00
4.946456899999999735e+01 7.725376900000000546e+01 1.945461000000000107e+00
5.708755099999999771e+01 3.401096299999999673e+01 1.249393999999999894e+00
4.435497699999999810e+01 2.091949100000000072e+01 3.886200000000000099e+00
5.523388299999999873e+01 3.265922900000000340e+01 3.886200000000000099e+00
3.969392400000000265e+01 1.723177899999999951e+01 0.000000000000000000e+00
5.846492800000000045e+01 1.927182399999999873e+01 0.000000000000000000e+00
4.851345799999999997e+01 6.506349199999999655e+01 4.806949999999999612e+00
4.726768899999999718e+01 1.511045799999999950e+01 0.000000000000000000e+00
4.733292399999999844e+01 7.996700300000000539e+01 3.030819000000000152e+00
5.745175199999999904e+01 3.090970599999999990e+01 3.886200000000000099e+00
5.111445200000000000e+01 7.419742599999999300e+01 4.653907000000000238e+00
5.022910699999999906e+01 4.058289299999999855e+01 0.000000000000000000e+00
4.448302100000000081e+01 1.640577299999999994e+01 6.311899999999999622e+00
4.380337500000000261e+01 7.545554400000000328e+01 3.841750000000000220e+00
4.724880199999999775e+01 5.474983600000000195e+01 4.592125000000000234e+00
4.896424100000000124e+01 8.204473900000000697e+01 5.808167000000000080e+00
4.075988000000000255e+01 2.051159900000000036e+01 3.886200000000000099e+00
5.147599799999999703e+01 8.254511999999999716e+01 2.308968999999999827e+00
5.172539900000000301e+01 3.145949699999999893e+01 6.849370999999999654e+00
5.435315700000000305e+01 3.658819600000000349e+01 0.000000000000000000e+00
3.692474399999999690e+01 1.981786299999999912e+01 3.289489999999999914e-01
4.929789399999999944e+01 8.232930799999999749e+01 6.203949999999999854e+00
4.751912699999999745e+01 8.286086299999999483e+01 2.012179999999999858e+00
4.337480500000000205e+01 2.659763500000000036e+01 3.886200000000000099e+00
4.474861099999999681e+01 3.184779899999999841e+01 0.000000000000000000e+00
4.789231099999999941e+01 5.329734799999999950e+01 4.806949999999999612e+00
4.566942999999999842e+01 4.930098300000000222e+01 0.000000000000000000e+00
4.305609499999999912e+01 1.488353900000000074e+01 0.000000000000000000e+00
4.157104900000000214e+01 4.476369499999999846e+01 3.886200000000000099e+00
5.874699400000000082e+01 2.692986099999999894e+01 0.000000000000000000e+00
4.882074699999999723e+01 5.622086300000000136e+01 4.806949999999999612e+00
6.076327899999999715e+01 2.971851699999999852e+01 1.424298000000000064e+00
5.028620899999999949e+01 2.064112300000000033e+01 5.359399999999999942e+00
4.608818800000000238e+01 3.186521899999999974e+01 0.000000000000000000e+00
5.073479100000000130e+01 1.366786199999999951e+01 3.886200000000000099e+00
4.826184800000000052e+01 6.963992299999999602e+01 4.806949999999999612e+00
5.729865300000000161e+01 5.234934200000000004e+01 0.000000000000000000e+00
4.608254199999999656e+01 1.752760299999999916e+01 3.886200000000000099e+00
5.399451400000000234e+01 5.050440199999999891e+01 3.886200000000000099e+00
4.177582600000000213e+01 2.843167499999999848e+01 0.000000000000000000e+00
3.885101699999999880e+01 4.773346699999999743e+01 1.979754999999999932e+00
6.018500099999999975e+01 5.012283299999999997e+01 4.944099999999999884e-02
5.216066699999999656e+01 8.120130199999999832e+01 3.423575000000000035e+00
4.298146799999999956e+01 3.133575799999999845e+01 0.000000000000000000e+00
5.640401500000000112e+01 5.583542599999999823e+01 2.811919000000000057e+00
4.632935299999999756e+01 1.760826099999999883e+01 3.886200000000000099e+00
4.953026599999999746e+01 1.367506200000000049e+01 0.000000000000000000e+00
5.016619099999999776e+01 3.031302099999999911e+01 0.000000000000000000e+00
4.794979500000000172e+01 7.305831899999999735e+01 2.750313999999999925e+00
5.297943500000000228e+01 8.072510499999999922e+01 3.841750000000000220e+00
5.797856900000000024e+01 4.580038499999999857e+01 3.886200000000000099e+00
4.054011200000000059e+01 2.164999399999999952e+01 0.000000000000000000e+00
5.849312599999999662e+01 3.220844999999999914e+01 3.356962999999999919e+00
4.720271300000000281e+01 2.984627700000000061e+01 0.000000000000000000e+00
4.753263499999999908e+01 3.656772600000000040e+01 3.886200000000000099e+00
3.663700099999999793e+01 2.303599499999999978e+01 2.805070000000000174e+00
5.104939999999999856e+01 7.853385900000000674e+01 4.241783999999999999e+00
5.043713400000000036e+01 6.497610500000000400e+01 2.625410000000000021e+00
5.270719100000000168e+01 5.210971800000000087e+01 3.886200000000000099e+00
4.834650400000000303e+01 3.268299900000000235e+01 6.503117999999999732e+00
5.046932600000000235e+01 5.105370299999999872e+01 4.806949999999999612e+00
5.135016300000000200e+01 6.437221499999999708e+01 3.596900999999999904e+00
4.231314799999999821e+01 3.682188399999999717e+01 2.453934999999999977e+00
5.503118899999999769e+01 5.077823999999999671e+01 0.000000000000000000e+00
4.322011200000000031e+01 1.364882899999999921e+01 6.311899999999999622e+00
5.697326300000000288e+01 1.453235800000000033e+01 3.886200000000000099e+00
5.437530499999999734e+01 2.488043599999999955e+01 3.886200000000000099e+00
4.321202499999999702e+01 4.000404400000000038e+01 3.886200000000000099e+00
5.502822900000000317e+01 4.114772800000000075e+01 0.000000000000000000e+00
4.422303000000000139e+01 5.247286199999999923e+01 0.000000000000000000e+00
5.032287199999999672e+01 1.569298599999999944e+01 4.352888000000000090e+00
5.997496000000000294e+01 5.097781799999999919e+01 1.150735999999999981e+00
4.632296399999999892e+01 2.351932499999999848e+01 0.000000000000000000e+00
4.795017200000000201e+01 1.675183099999999925e+01 0.000000000000000000e+00
5.458319099999999935e+01 8.134578700000000140e+01 3.841750000000000220e+00
