4.722498703002929688e+01 2.172306060791015625e+01 4.259124279022216797e+00
4.851872634887695312e+01 1.290001201629638672e+01 4.532454490661621094e+00
4.811679077148437500e+01 1.286304092407226562e+01 4.421236991882324219e+00
4.843451690673828125e+01 1.289991188049316406e+01 4.962153911590576172e+00
4.803713607788085938e+01 1.288143539428710938e+01 4.842755317687988281e+00
4.889083480834960938e+01 7.897058868408203125e+01 3.682968616485595703e+00
4.897231674194335938e+01 7.943133544921875000e+01 3.659611225128173828e+00
4.879035949707031250e+01 7.881065368652343750e+01 4.086951255798339844e+00
4.887121582031250000e+01 7.924767303466796875e+01 4.030793190002441406e+00
4.376144790649414062e+01 2.282583999633789062e+01 3.931224107742309570e+00
4.360070800781250000e+01 2.337239456176757812e+01 3.938995599746704102e+00
4.327971649169921875e+01 2.228649711608886719e+01 3.864675283432006836e+00
4.309730911254882812e+01 2.285270118713378906e+01 3.863616228103637695e+00
5.382537460327148438e+01 1.617855453491210938e+01 3.894305229187011719e+00
5.354610824584960938e+01 1.657909011840820312e+01 3.840230464935302734e+00
5.352956771850585938e+01 1.590507793426513672e+01 3.896659374237060547e+00
5.324114227294921875e+01 1.629854774475097656e+01 3.842974662780761719e+00
4.681335067749023438e+01 3.926262664794921875e+01 2.578531578183174133e-02
4.672046279907226562e+01 3.978140640258789062e+01 4.909338802099227905e-02
4.629760360717773438e+01 3.877062225341796875e+01 -4.268462955951690674e-02
4.618146514892578125e+01 3.928550720214843750e+01 -2.552581764757633209e-02
5.082769393920898438e+01 3.307369613647460938e+01 2.352003380656242371e-02
5.079812240600585938e+01 3.375217437744140625e+01 3.957019373774528503e-02
5.031812286376953125e+01 3.259946060180664062e+01 -2.219069190323352814e-02
5.024838256835937500e+01 3.325182723999023438e+01 -1.807372085750102997e-02
3.976671600341796875e+01 4.404470062255859375e+01 6.917650699615478516e-01
3.973358535766601562e+01 4.452975845336914062e+01 6.874365210533142090e-01
3.958005905151367188e+01 4.388245773315429688e+01 1.007144212722778320e+00
3.954644393920898438e+01 4.439833068847656250e+01 9.854332208633422852e-01
5.651098251342773438e+01 4.755576324462890625e+01 -1.267578452825546265e-02
5.612902069091796875e+01 4.791588592529296875e+01 -2.529533579945564270e-03
5.599227905273437500e+01 4.716099166870117188e+01 -3.709908574819564819e-02
5.563659667968750000e+01 4.754402542114257812e+01 -3.333405032753944397e-02
5.187620544433593750e+01 2.488049507141113281e+01 5.245282173156738281e+00
5.188416671752929688e+01 2.525891304016113281e+01 5.218899726867675781e+00
5.170842361450195312e+01 2.478119277954101562e+01 5.596365451812744141e+00
5.171913528442382812e+01 2.516313552856445312e+01 5.558203220367431641e+00
4.960759735107421875e+01 3.260985565185546875e+01 4.671159744262695312e+00
4.929420089721679688e+01 3.281227874755859375e+01 4.558562755584716797e+00
4.933061218261718750e+01 3.246960067749023438e+01 4.866213321685791016e+00
4.903537750244140625e+01 3.268433761596679688e+01 4.721822738647460938e+00
3.979939651489257812e+01 1.571346950531005859e+01 6.200444221496582031e+00
3.931137084960937500e+01 1.606952095031738281e+01 6.146133422851562500e+00
3.953517913818359375e+01 1.576084136962890625e+01 6.407850265502929688e+00
3.904303359985351562e+01 1.609432601928710938e+01 6.336077690124511719e+00
5.192671966552734375e+01 5.005678939819335938e+01 4.464932441711425781e+00
5.184238815307617188e+01 5.052449798583984375e+01 4.430777549743652344e+00
5.169045257568359375e+01 4.988732910156250000e+01 4.773637771606445312e+00
5.160274124145507812e+01 5.037091064453125000e+01 4.742867946624755859e+00
4.581299591064453125e+01 3.442025756835937500e+01 -2.507340349256992340e-02
4.527381896972656250e+01 3.497417449951171875e+01 -2.775324508547782898e-03
4.538836288452148438e+01 3.400946807861328125e+01 -5.058566108345985413e-02
4.488047409057617188e+01 3.455581665039062500e+01 -2.838055044412612915e-02
5.471741867065429688e+01 4.698819351196289062e+01 4.081925004720687866e-02
5.452486419677734375e+01 4.744688796997070312e+01 2.067752927541732788e-02
5.422694015502929688e+01 4.664218902587890625e+01 4.267301410436630249e-04
5.402368164062500000e+01 4.712821960449218750e+01 -2.487767860293388367e-02
3.943262863159179688e+01 1.928851890563964844e+01 3.906029462814331055e+00
3.904914474487304688e+01 1.952914619445800781e+01 3.886562824249267578e+00
3.899058151245117188e+01 1.905319976806640625e+01 3.965614080429077148e+00
3.863291549682617188e+01 1.929845619201660156e+01 3.923235177993774414e+00
4.391487884521484375e+01 4.109107971191406250e+01 2.002440579235553741e-02
4.380854797363281250e+01 4.157732009887695312e+01 4.095974192023277283e-02
4.352613449096679688e+01 4.081331253051757812e+01 -7.077546790242195129e-03
4.340792465209960938e+01 4.128869628906250000e+01 9.808440692722797394e-03
5.085178375244140625e+01 2.159810256958007812e+01 5.293656349182128906e+00
5.085243988037109375e+01 2.198684310913085938e+01 5.327991485595703125e+00
5.042359161376953125e+01 2.148243522644042969e+01 5.461465358734130859e+00
5.041631698608398438e+01 2.191734504699707031e+01 5.509602546691894531e+00
4.074009704589843750e+01 4.871190261840820312e+01 3.877406835556030273e+00
4.045182037353515625e+01 4.927703475952148438e+01 3.844821453094482422e+00
4.039346313476562500e+01 4.843144226074218750e+01 3.903789997100830078e+00
4.008916473388671875e+01 4.897279357910156250e+01 3.840598821640014648e+00
4.370710754394531250e+01 1.910865783691406250e+01 3.882940292358398438e+00
4.339449310302734375e+01 1.920289802551269531e+01 3.817715167999267578e+00
4.351646041870117188e+01 1.907782363891601562e+01 4.014928340911865234e+00
4.319147491455078125e+01 1.917542076110839844e+01 3.952901124954223633e+00
3.769647216796875000e+01 2.243992233276367188e+01 -3.534130752086639404e-02
3.760836410522460938e+01 2.282141685485839844e+01 -4.267560690641403198e-02
3.729186630249023438e+01 2.215030860900878906e+01 3.882997855544090271e-02
3.720550918579101562e+01 2.251759529113769531e+01 2.465844526886940002e-02
5.476243972778320312e+01 4.335063171386718750e+01 3.895239591598510742e+00
5.460758590698242188e+01 4.385916519165039062e+01 3.870619297027587891e+00
5.426633834838867188e+01 4.301838684082031250e+01 3.921213626861572266e+00
5.411812210083007812e+01 4.351763153076171875e+01 3.871123313903808594e+00
4.959713363647460938e+01 1.243523025512695312e+01 2.568616390228271484e+00
4.914052963256835938e+01 1.248169231414794922e+01 2.482046365737915039e+00
4.928226089477539062e+01 1.251880073547363281e+01 2.944044113159179688e+00
4.883230209350585938e+01 1.254233646392822266e+01 2.871315479278564453e+00
4.708400726318359375e+01 7.622898101806640625e+01 3.094256877899169922e+00
4.668630599975585938e+01 7.678897857666015625e+01 3.074934959411621094e+00
4.676848220825195312e+01 7.603017425537109375e+01 3.296653747558593750e+00
4.632928085327148438e+01 7.656767272949218750e+01 3.278210639953613281e+00
3.720026016235351562e+01 2.500380897521972656e+01 -4.832429066300392151e-02
3.708440017700195312e+01 2.554483222961425781e+01 -7.542551495134830475e-03
3.669831085205078125e+01 2.500010681152343750e+01 1.728240400552749634e-01
3.656132125854492188e+01 2.555517387390136719e+01 2.124877870082855225e-01
4.730373001098632812e+01 3.250659561157226562e+01 7.127050399780273438e+00
4.681981658935546875e+01 3.259332275390625000e+01 6.870095252990722656e+00
4.731022644042968750e+01 3.260643005371093750e+01 7.746551513671875000e+00
4.679912948608398438e+01 3.271445083618164062e+01 7.473456382751464844e+00
6.045574569702148438e+01 2.260520744323730469e+01 7.241509854793548584e-03
6.020413970947265625e+01 2.306547927856445312e+01 9.171713143587112427e-03
6.011922454833984375e+01 2.238173294067382812e+01 -1.615209877490997314e-02
5.984595489501953125e+01 2.286388969421386719e+01 -4.365812987089157104e-02
5.774959182739257812e+01 1.611740875244140625e+01 3.803623914718627930e+00
5.754454421997070312e+01 1.651174926757812500e+01 3.921280860900878906e+00
5.735213088989257812e+01 1.588049411773681641e+01 3.849888324737548828e+00
5.712507247924804688e+01 1.629788970947265625e+01 3.960947990417480469e+00
4.121216964721679688e+01 5.113352966308593750e+01 3.914487361907958984e+00
4.118010330200195312e+01 5.159458541870117188e+01 3.900344371795654297e+00
4.091992187500000000e+01 5.081154251098632812e+01 3.855044841766357422e+00
4.088458251953125000e+01 5.127830123901367188e+01 3.838008642196655273e+00
4.429510116577148438e+01 1.785405158996582031e+01 -2.635147422552108765e-02
4.395235824584960938e+01 1.813084030151367188e+01 2.186021953821182251e-02
4.393217468261718750e+01 1.756900787353515625e+01 -4.254705086350440979e-02
4.360262680053710938e+01 1.785636520385742188e+01 6.563873030245304108e-03
4.681895065307617188e+01 1.436300373077392578e+01 6.280120372772216797e+00
4.663299179077148438e+01 1.486042881011962891e+01 6.339544296264648438e+00
4.649488830566406250e+01 1.434867000579833984e+01 6.254330635070800781e+00
4.622553253173828125e+01 1.477378845214843750e+01 6.312560081481933594e+00
4.077489852905273438e+01 1.883551597595214844e+01 4.288282871246337891e+00
4.062776565551757812e+01 1.922307395935058594e+01 4.276874065399169922e+00
4.060477828979492188e+01 1.870871162414550781e+01 4.345279693603515625e+00
4.043457794189453125e+01 1.906895256042480469e+01 4.335301399230957031e+00
5.137020874023437500e+01 6.430095672607421875e+01 3.730444192886352539e+00
5.135430526733398438e+01 6.473649597167968750e+01 3.639111280441284180e+00
5.127171707153320312e+01 6.415678405761718750e+01 4.076567173004150391e+00
5.126910400390625000e+01 6.460206604003906250e+01 3.991935491561889648e+00
5.050825881958007812e+01 2.400016784667968750e+01 3.788860514760017395e-03
5.009671020507812500e+01 2.444709396362304688e+01 3.230458870530128479e-02
5.015171432495117188e+01 2.359362411499023438e+01 -1.995882391929626465e-02
4.972554016113281250e+01 2.404902839660644531e+01 1.031696144491434097e-02
4.115743255615234375e+01 2.705985260009765625e+01 2.857722342014312744e-03
4.075875473022460938e+01 2.743967056274414062e+01 -2.332931756973266602e-02
4.054852294921875000e+01 2.669066047668457031e+01 -4.947268590331077576e-02
4.015396118164062500e+01 2.706768989562988281e+01 -6.128954887390136719e-02
5.577414703369140625e+01 5.421155166625976562e+01 3.852711200714111328e+00
5.546864700317382812e+01 5.459139633178710938e+01 3.867156982421875000e+00
5.544170379638671875e+01 5.394889068603515625e+01 3.799781799316406250e+00
5.515628433227539062e+01 5.436111831665039062e+01 3.858339071273803711e+00
5.375880813598632812e+01 2.670573043823242188e+01 2.828197553753852844e-03
5.309917449951171875e+01 2.710383033752441406e+01 8.497022092342376709e-02
5.330590820312500000e+01 2.639588546752929688e+01 -3.700181841850280762e-02
5.263282394409179688e+01 2.682024955749511719e+01 4.134532809257507324e-02
5.496099853515625000e+01 2.933002090454101562e+01 2.328990772366523743e-02
5.466497421264648438e+01 2.987229919433593750e+01 4.324628412723541260e-02
5.456299591064453125e+01 2.901014328002929688e+01 -6.697879172861576080e-03
5.430655670166015625e+01 2.955062103271484375e+01 1.224556751549243927e-02
5.796693801879882812e+01 2.435811614990234375e+01 7.520592957735061646e-02
5.775077056884765625e+01 2.483869552612304688e+01 3.364205360412597656e-03
5.763538742065429688e+01 2.410844421386718750e+01 -4.173095803707838058e-03
5.747399139404296875e+01 2.464667510986328125e+01 -5.371845886111259460e-02
4.974754333496093750e+01 2.593922996520996094e+01 2.822594344615936279e-02
4.945016860961914062e+01 2.646151351928710938e+01 -1.120381057262420654e-04
4.939209747314453125e+01 2.559165382385253906e+01 -2.198253758251667023e-03
4.907393646240234375e+01 2.613628005981445312e+01 -1.468483079224824905e-02
3.921861267089843750e+01 5.172777557373046875e+01 2.553523302078247070e+00
3.947257614135742188e+01 5.224543380737304688e+01 2.663175344467163086e+00
3.922111892700195312e+01 5.159085083007812500e+01 2.977804899215698242e+00
3.947265243530273438e+01 5.212912750244140625e+01 3.086704730987548828e+00
4.876772689819335938e+01 1.468860626220703125e+01 3.825726509094238281e+00
4.877103805541992188e+01 1.508976268768310547e+01 3.847477436065673828e+00
4.881677627563476562e+01 1.453698730468750000e+01 4.086652755737304688e+00
4.881332397460937500e+01 1.494947910308837891e+01 4.093653678894042969e+00
5.325117492675781250e+01 2.308464241027832031e+01 3.769147157669067383e+00
5.313243103027343750e+01 2.347348594665527344e+01 3.790390014648437500e+00
5.297993850708007812e+01 2.299431800842285156e+01 3.890336751937866211e+00
5.289764404296875000e+01 2.335361480712890625e+01 3.899283647537231445e+00
5.874877548217773438e+01 5.379784393310546875e+01 3.728282451629638672e+00
5.849358367919921875e+01 5.401055145263671875e+01 3.661824226379394531e+00
5.849496459960937500e+01 5.354177093505859375e+01 3.955170869827270508e+00
5.820496368408203125e+01 5.374324417114257812e+01 3.872168302536010742e+00
5.231562423706054688e+01 7.718511199951171875e+01 2.998509645462036133e+00
5.199186706542968750e+01 7.762902832031250000e+01 2.967604398727416992e+00
5.221982574462890625e+01 7.698995971679687500e+01 3.351470232009887695e+00
5.190632629394531250e+01 7.742802429199218750e+01 3.313353300094604492e+00
5.324026870727539062e+01 1.710348701477050781e+01 3.909926414489746094e+00
5.290454864501953125e+01 1.760996437072753906e+01 3.914604663848876953e+00
5.285082244873046875e+01 1.677065467834472656e+01 3.864484548568725586e+00
5.252254104614257812e+01 1.726964759826660156e+01 3.871058940887451172e+00
4.615715408325195312e+01 2.736101341247558594e+01 -3.408509492874145508e-02
4.593272018432617188e+01 2.778460502624511719e+01 -7.880565524101257324e-02
4.579371261596679688e+01 2.707499313354492188e+01 7.664208114147186279e-02
4.562012481689453125e+01 2.751603698730468750e+01 2.926374599337577820e-02
5.856618118286132812e+01 3.213727569580078125e+01 6.659485399723052979e-02
5.823711395263671875e+01 3.236296463012695312e+01 8.453895151615142822e-02
5.827470779418945312e+01 3.213116836547851562e+01 9.861462563276290894e-02
5.794840621948242188e+01 3.234711837768554688e+01 1.178888678550720215e-01
5.547335433959960938e+01 5.435195922851562500e+01 -1.536572724580764771e-02
5.515547943115234375e+01 5.469110488891601562e+01 -7.470566779375076294e-03
5.504134750366210938e+01 5.433018112182617188e+01 -5.398808792233467102e-02
5.471025085449218750e+01 5.462485885620117188e+01 -3.904331475496292114e-02
5.650455093383789062e+01 5.483343887329101562e+01 3.786860466003417969e+00
5.613355636596679688e+01 5.518447494506835938e+01 3.739550828933715820e+00
5.630844116210937500e+01 5.456233978271484375e+01 3.939368009567260742e+00
5.597865295410156250e+01 5.491800308227539062e+01 3.918311119079589844e+00
5.009162139892578125e+01 4.521889114379882812e+01 1.820053905248641968e-02
4.985262680053710938e+01 4.567279052734375000e+01 2.784264832735061646e-02
4.971975326538085938e+01 4.478936386108398438e+01 1.037617912515997887e-03
4.953176498413085938e+01 4.526607131958007812e+01 -5.374934524297714233e-03
5.370623397827148438e+01 4.149724578857421875e+01 3.906017303466796875e+00
5.339373397827148438e+01 4.188953781127929688e+01 3.906251668930053711e+00
5.325823593139648438e+01 4.129655456542968750e+01 3.855126380920410156e+00
5.298862075805664062e+01 4.170409011840820312e+01 3.877805471420288086e+00
4.188613510131835938e+01 2.089880561828613281e+01 3.918504238128662109e+00
4.167100524902343750e+01 2.127850151062011719e+01 3.916629791259765625e+00
4.146280670166015625e+01 2.074724006652832031e+01 3.871709585189819336e+00
4.130116653442382812e+01 2.112013626098632812e+01 3.871174812316894531e+00
4.836935806274414062e+01 5.980301666259765625e+01 4.802081584930419922e+00
4.822041320800781250e+01 6.039567184448242188e+01 4.760540008544921875e+00
4.838744354248046875e+01 5.965526962280273438e+01 5.005263328552246094e+00
4.823402023315429688e+01 6.024234771728515625e+01 4.956326007843017578e+00
5.456535720825195312e+01 1.325914764404296875e+01 -8.927361667156219482e-02
5.418357467651367188e+01 1.332742595672607422e+01 -3.800508677959442139e-01
5.448495101928710938e+01 1.307678031921386719e+01 2.727044820785522461e-01
5.408585739135742188e+01 1.313373374938964844e+01 -1.166690886020660400e-02
4.898184585571289062e+01 3.266771697998046875e+01 4.209508419036865234e+00
4.867615127563476562e+01 3.289600753784179688e+01 4.083273410797119141e+00
4.883287811279296875e+01 3.246258926391601562e+01 4.559276580810546875e+00
4.849857711791992188e+01 3.269805526733398438e+01 4.402184486389160156e+00
4.592958831787109375e+01 1.521351051330566406e+01 2.488454803824424744e-02
4.566237640380859375e+01 1.579398727416992188e+01 -3.958278521895408630e-02
4.560363388061523438e+01 1.491579151153564453e+01 3.628238663077354431e-02
4.535048294067382812e+01 1.547639274597167969e+01 -3.002872318029403687e-02
4.499747848510742188e+01 8.002936553955078125e+01 2.902980327606201172e+00
4.494059371948242188e+01 8.057575225830078125e+01 2.854367971420288086e+00
4.440992736816406250e+01 7.977360534667968750e+01 3.138294696807861328e+00
4.435052108764648438e+01 8.030319976806640625e+01 3.085562944412231445e+00
5.143888854980468750e+01 7.529910278320312500e+01 3.616932392120361328e+00
5.139461898803710938e+01 7.576935577392578125e+01 3.535541772842407227e+00
5.149403381347656250e+01 7.516442871093750000e+01 4.054152488708496094e+00
5.142557144165039062e+01 7.568372344970703125e+01 3.995724678039550781e+00
4.976922225952148438e+01 4.718952941894531250e+01 4.800963401794433594e+00
4.967446136474609375e+01 4.806753921508789062e+01 4.812807559967041016e+00
4.939012527465820312e+01 4.678935241699218750e+01 4.753560543060302734e+00
4.924491500854492188e+01 4.757839965820312500e+01 4.767849922180175781e+00
5.307707595825195312e+01 2.051018524169921875e+01 3.292432054877281189e-02
5.290815353393554688e+01 2.112964439392089844e+01 8.074479177594184875e-03
5.265536880493164062e+01 2.009236717224121094e+01 -5.940510891377925873e-05
5.247193145751953125e+01 2.069768714904785156e+01 -1.585273444652557373e-02
3.900769805908203125e+01 1.642641639709472656e+01 2.274843901395797729e-01
3.879142379760742188e+01 1.679501342773437500e+01 1.349634230136871338e-01
3.878585815429687500e+01 1.626790046691894531e+01 5.843241214752197266e-01
3.857703399658203125e+01 1.662286567687988281e+01 4.906751215457916260e-01
5.705720138549804688e+01 2.181114959716796875e+01 3.912128686904907227e+00
5.678556442260742188e+01 2.234103393554687500e+01 3.947375059127807617e+00
5.658782196044921875e+01 2.139253997802734375e+01 3.820419073104858398e+00
5.630680465698242188e+01 2.195750999450683594e+01 3.861985445022583008e+00
5.467884063720703125e+01 5.368204498291015625e+01 3.889797687530517578e+00
5.441663742065429688e+01 5.414987945556640625e+01 3.934537410736083984e+00
5.429839324951171875e+01 5.333396530151367188e+01 3.831136226654052734e+00
5.406073379516601562e+01 5.381427383422851562e+01 3.876259565353393555e+00
5.578960037231445312e+01 2.696533393859863281e+01 3.586867824196815491e-02
5.557482528686523438e+01 2.747837257385253906e+01 6.411568075418472290e-02
5.539120864868164062e+01 2.663543128967285156e+01 -4.029761627316474915e-02
5.506488418579101562e+01 2.708181762695312500e+01 -1.530360244214534760e-02
5.176564407348632812e+01 1.369421958923339844e+01 -4.770727455615997314e-02
5.146742630004882812e+01 1.390278625488281250e+01 -1.588555276393890381e-01
5.144660186767578125e+01 1.344537544250488281e+01 1.512498557567596436e-01
5.116650009155273438e+01 1.371656513214111328e+01 5.327991396188735962e-02
5.069343185424804688e+01 7.761936187744140625e+01 4.296841144561767578e+00
5.052266311645507812e+01 7.816604614257812500e+01 4.308587551116943359e+00
5.031338500976562500e+01 7.742138671875000000e+01 4.498783111572265625e+00
5.015605545043945312e+01 7.791708374023437500e+01 4.438841342926025391e+00
4.243997955322265625e+01 3.848409652709960938e+01 -8.219791948795318604e-02
4.237258529663085938e+01 3.898371505737304688e+01 -7.083637267351150513e-02
4.217572021484375000e+01 3.843642425537109375e+01 1.573349833488464355e-01
4.211218261718750000e+01 3.892420959472656250e+01 1.447362154722213745e-01
4.293879318237304688e+01 1.363971042633056641e+01 2.959611415863037109e-01
4.256380844116210938e+01 1.387619876861572266e+01 1.652771234512329102e-01
4.278326034545898438e+01 1.358562278747558594e+01 6.298379302024841309e-01
4.240543365478515625e+01 1.378624534606933594e+01 4.918338954448699951e-01
4.721389389038085938e+01 8.298682403564453125e+01 2.146612644195556641e+00
4.704714202880859375e+01 8.339147186279296875e+01 2.236723423004150391e+00
4.693245697021484375e+01 8.299160003662109375e+01 2.525249481201171875e+00
4.677259063720703125e+01 8.342299652099609375e+01 2.623270034790039062e+00
4.708618545532226562e+01 3.581439971923828125e+01 -4.901934415102005005e-03
4.671258544921875000e+01 3.633808517456054688e+01 -7.045323029160499573e-03
4.665492630004882812e+01 3.540756988525390625e+01 1.310602109879255295e-02
4.621560668945312500e+01 3.594438552856445312e+01 1.036276761442422867e-02
6.175786590576171875e+01 1.850732803344726562e+01 2.985609054565429688e+00
6.195314788818359375e+01 1.897082138061523438e+01 3.026100158691406250e+00
6.137726974487304688e+01 1.839359474182128906e+01 3.343858480453491211e+00
6.156674575805664062e+01 1.880111885070800781e+01 3.384528398513793945e+00
5.781438827514648438e+01 5.465653991699218750e+01 1.229604005813598633e+00
5.740747833251953125e+01 5.488739395141601562e+01 1.185328960418701172e+00
5.784580230712890625e+01 5.486174774169921875e+01 1.481208205223083496e+00
5.743857955932617188e+01 5.506705093383789062e+01 1.437958359718322754e+00
5.100948333740234375e+01 5.662545776367187500e+01 4.737028121948242188e+00
5.072316741943359375e+01 5.701987457275390625e+01 4.691275596618652344e+00
5.056705474853515625e+01 5.632176208496093750e+01 4.837707042694091797e+00
5.032832336425781250e+01 5.675741195678710938e+01 4.787562370300292969e+00
5.698074340820312500e+01 4.031915283203125000e+01 7.129990309476852417e-02
5.696204376220703125e+01 4.071013259887695312e+01 2.346790209412574768e-02
5.679654693603515625e+01 4.000101470947265625e+01 1.177287921309471130e-01
5.678373336791992188e+01 4.038416290283203125e+01 8.447242528200149536e-02
4.419321823120117188e+01 4.219142913818359375e+01 3.920166492462158203e+00
4.405570602416992188e+01 4.270578384399414062e+01 3.972529411315917969e+00
4.370971679687500000e+01 4.175113296508789062e+01 3.755736112594604492e+00
4.356464385986328125e+01 4.230181884765625000e+01 3.810324907302856445e+00
5.127998352050781250e+01 2.245257377624511719e+01 7.504133507609367371e-03
5.087195968627929688e+01 2.280358505249023438e+01 3.831904754042625427e-02
5.088465881347656250e+01 2.212434768676757812e+01 -3.057980537414550781e-02
5.046436691284179688e+01 2.249867248535156250e+01 -5.670505575835704803e-03
4.808920669555664062e+01 7.708901214599609375e+01 2.157102823257446289e+00
4.800248336791992188e+01 7.753790283203125000e+01 2.248554706573486328e+00
4.778473663330078125e+01 7.694709014892578125e+01 2.347496747970581055e+00
4.768931961059570312e+01 7.740666961669921875e+01 2.439959526062011719e+00
5.339269638061523438e+01 2.470552825927734375e+01 2.277872152626514435e-02
5.305243682861328125e+01 2.515616989135742188e+01 3.608920425176620483e-02
5.291481018066406250e+01 2.433817481994628906e+01 -1.047449186444282532e-02
5.255365753173828125e+01 2.478314781188964844e+01 1.783062145113945007e-02
4.819974899291992188e+01 7.914837646484375000e+01 2.828229188919067383e+00
4.820125198364257812e+01 7.949581909179687500e+01 2.818102598190307617e+00
4.817236709594726562e+01 7.915232086181640625e+01 3.163107156753540039e+00
4.817057418823242188e+01 7.950232696533203125e+01 3.151038408279418945e+00
4.291456985473632812e+01 1.892103576660156250e+01 3.841267347335815430e+00
4.264683151245117188e+01 1.906828308105468750e+01 3.782799482345581055e+00
4.263573074340820312e+01 1.881173515319824219e+01 3.972590446472167969e+00
4.242647552490234375e+01 1.898424530029296875e+01 3.926303625106811523e+00
6.250077819824218750e+01 2.155888366699218750e+01 2.807394981384277344e+00
6.254267120361328125e+01 2.201522827148437500e+01 2.810236930847167969e+00
6.235441207885742188e+01 2.142384719848632812e+01 3.107582092285156250e+00
6.239773178100585938e+01 2.186432838439941406e+01 3.110785722732543945e+00
5.687832260131835938e+01 3.480610656738281250e+01 3.734593868255615234e+00
5.662660980224609375e+01 3.517271423339843750e+01 3.754186630249023438e+00
5.665419769287109375e+01 3.448725128173828125e+01 4.006997585296630859e+00
5.640205764770507812e+01 3.485548019409179688e+01 4.032140731811523438e+00
5.660120773315429688e+01 4.271329116821289062e+01 3.645006567239761353e-02
5.638199234008789062e+01 4.304554748535156250e+01 1.872584223747253418e-02
5.623335266113281250e+01 4.235688018798828125e+01 -2.158791571855545044e-02
5.602159881591796875e+01 4.268833541870117188e+01 -3.218854218721389771e-02
4.776401901245117188e+01 5.075545501708984375e+01 4.820798397064208984e+00
4.783434295654296875e+01 5.137424850463867188e+01 4.819029808044433594e+00
4.804723739624023438e+01 5.050631713867187500e+01 5.099877357482910156e+00
4.812609863281250000e+01 5.111614608764648438e+01 5.087134361267089844e+00
4.930312347412109375e+01 8.638899230957031250e+01 3.371460914611816406e+00
4.918946838378906250e+01 8.645986938476562500e+01 3.050160408020019531e+00
4.919727706909179688e+01 8.644982910156250000e+01 3.924540042877197266e+00
4.899047851562500000e+01 8.651439666748046875e+01 3.544404029846191406e+00
4.509663772583007812e+01 2.734972381591796875e+01 -5.199008435010910034e-02
4.496957778930664062e+01 2.778644371032714844e+01 -8.841166645288467407e-02
4.481680297851562500e+01 2.700066566467285156e+01 5.075532197952270508e-02
4.469799423217773438e+01 2.744033622741699219e+01 1.872785575687885284e-02
4.259040832519531250e+01 2.149628829956054688e+01 3.909790277481079102e+00
4.233144760131835938e+01 2.189640426635742188e+01 3.926871061325073242e+00
4.209554672241210938e+01 2.118374061584472656e+01 3.826687812805175781e+00
4.185816192626953125e+01 2.158466911315917969e+01 3.834816932678222656e+00
6.007508087158203125e+01 4.758449935913085938e+01 2.533827543258666992e+00
6.018942642211914062e+01 4.814770126342773438e+01 2.507061958312988281e+00
5.993553543090820312e+01 4.750531768798828125e+01 2.983375787734985352e+00
6.005213546752929688e+01 4.805282592773437500e+01 2.955916404724121094e+00
3.884951019287109375e+01 4.832806777954101562e+01 1.648465692996978760e-01
3.887250137329101562e+01 4.880694198608398438e+01 4.254793375730514526e-02
3.860986328125000000e+01 4.827802276611328125e+01 6.002030372619628906e-01
3.862348937988281250e+01 4.874098968505859375e+01 4.497449994087219238e-01
4.389530181884765625e+01 4.959906387329101562e+01 3.860687971115112305e+00
4.335095977783203125e+01 5.008995819091796875e+01 3.903961420059204102e+00
4.357777786254882812e+01 4.942481231689453125e+01 3.899782657623291016e+00
4.306535339355468750e+01 4.986632919311523438e+01 3.925207138061523438e+00
4.974137496948242188e+01 3.808838272094726562e+01 1.971730589866638184e-02
4.965202713012695312e+01 3.854080963134765625e+01 3.217292577028274536e-02
4.942095565795898438e+01 3.768077087402343750e+01 -5.694609880447387695e-02
4.934382629394531250e+01 3.814151382446289062e+01 -3.879193216562271118e-02
4.441851806640625000e+01 1.363298130035400391e+01 3.703233242034912109e+00
4.406132888793945312e+01 1.372451305389404297e+01 3.744368314743041992e+00
4.417005157470703125e+01 1.354561424255371094e+01 3.877182006835937500e+00
4.381366729736328125e+01 1.364141082763671875e+01 3.913754940032958984e+00
4.849620437622070312e+01 7.723311614990234375e+01 1.908437132835388184e+00
4.846520233154296875e+01 7.769125366210937500e+01 1.980085015296936035e+00
4.818677520751953125e+01 7.707121276855468750e+01 2.079216957092285156e+00
4.810005187988281250e+01 7.752010345458984375e+01 2.170668840408325195e+00
5.339977264404296875e+01 3.262602615356445312e+01 3.906410455703735352e+00
5.320759582519531250e+01 3.309965515136718750e+01 3.932417154312133789e+00
5.305978012084960938e+01 3.232868957519531250e+01 3.884271144866943359e+00
5.286463928222656250e+01 3.278217315673828125e+01 3.912655830383300781e+00
5.756400299072265625e+01 1.885056495666503906e+01 1.083129737526178360e-02
5.723548126220703125e+01 1.918837738037109375e+01 2.292133308947086334e-02
5.717449951171875000e+01 1.849249267578125000e+01 1.306468993425369263e-02
5.681143951416015625e+01 1.881594276428222656e+01 1.469720341265201569e-02
5.721109008789062500e+01 5.512663269042968750e+01 1.105375528335571289e+00
5.675572967529296875e+01 5.534539413452148438e+01 1.043935775756835938e+00
5.713718795776367188e+01 5.533804702758789062e+01 1.432606220245361328e+00
5.671235275268554688e+01 5.554605484008789062e+01 1.372766613960266113e+00
4.281085205078125000e+01 5.442056655883789062e+01 1.275489199906587601e-02
4.272319412231445312e+01 5.487379455566406250e+01 -3.555349260568618774e-02
4.236808395385742188e+01 5.406159210205078125e+01 -1.471997238695621490e-03
4.233649826049804688e+01 5.448251724243164062e+01 -4.127509891986846924e-02
3.948406219482421875e+01 4.714531326293945312e+01 -1.282493472099304199e-01
3.941123962402343750e+01 4.764776611328125000e+01 -2.453514337539672852e-01
3.912014389038085938e+01 4.704193115234375000e+01 2.345446646213531494e-01
3.905017852783203125e+01 4.755077743530273438e+01 9.689420461654663086e-02
5.454040527343750000e+01 5.356610107421875000e+01 4.433015733957290649e-02
5.435063171386718750e+01 5.395980453491210938e+01 6.036015599966049194e-02
5.403667831420898438e+01 5.348172378540039062e+01 -1.054980605840682983e-01
5.388759231567382812e+01 5.390381240844726562e+01 -1.201097816228866577e-01
5.258189010620117188e+01 3.469929122924804688e+01 3.937705978751182556e-02
5.228963470458984375e+01 3.510294723510742188e+01 5.957818776369094849e-02
5.208021926879882812e+01 3.429259109497070312e+01 -3.633623197674751282e-02
5.183504867553710938e+01 3.474059295654296875e+01 -2.032133005559444427e-02
3.970016479492187500e+01 4.102279663085937500e+01 6.908310055732727051e-01
3.949703216552734375e+01 4.123284530639648438e+01 6.331938505172729492e-01
3.957021331787109375e+01 4.099554824829101562e+01 1.120666503906250000e+00
3.937085723876953125e+01 4.118644332885742188e+01 1.058053135871887207e+00
5.260548019409179688e+01 7.718023681640625000e+01 3.252176284790039062e+00
5.228944396972656250e+01 7.760771179199218750e+01 3.205886602401733398e+00
5.243406295776367188e+01 7.702320861816406250e+01 3.608807563781738281e+00
5.210102462768554688e+01 7.746400451660156250e+01 3.564800500869750977e+00
3.682310485839843750e+01 2.493090438842773438e+01 3.656738996505737305e+00
3.687787246704101562e+01 2.543483734130859375e+01 3.508925914764404297e+00
3.682855606079101562e+01 2.495579719543457031e+01 4.149897575378417969e+00
3.689417648315429688e+01 2.545706367492675781e+01 3.998584747314453125e+00
4.581358718872070312e+01 1.274528598785400391e+01 5.050246715545654297e+00
4.545126724243164062e+01 1.287532138824462891e+01 4.993797302246093750e+00
4.584176254272460938e+01 1.280704879760742188e+01 5.388811111450195312e+00
4.542661285400390625e+01 1.296758842468261719e+01 5.399583816528320312e+00
5.615718841552734375e+01 3.421260070800781250e+01 5.381018668413162231e-02
5.576023101806640625e+01 3.451971817016601562e+01 -8.878409862518310547e-04
5.579746627807617188e+01 3.386465835571289062e+01 -2.178440801799297333e-02
5.541526031494140625e+01 3.417805099487304688e+01 -5.444941669702529907e-02
5.340624618530273438e+01 1.491506958007812500e+01 3.918382406234741211e+00
5.325200271606445312e+01 1.530136394500732422e+01 3.920831441879272461e+00
5.301763916015625000e+01 1.463840389251708984e+01 3.873466730117797852e+00
5.294121932983398438e+01 1.506043624877929688e+01 3.890656471252441406e+00
6.033513259887695312e+01 2.221699142456054688e+01 3.870579719543457031e+00
6.007230758666992188e+01 2.247931861877441406e+01 3.871290206909179688e+00
6.008246231079101562e+01 2.197052574157714844e+01 3.901832342147827148e+00
5.981136322021484375e+01 2.222860527038574219e+01 3.891703605651855469e+00
5.368127441406250000e+01 3.171873283386230469e+01 3.885240793228149414e+00
5.347999572753906250e+01 3.214708709716796875e+01 3.903605937957763672e+00
5.324491882324218750e+01 3.146284294128417969e+01 3.860073804855346680e+00
5.301434707641601562e+01 3.188339424133300781e+01 3.869213819503784180e+00
4.970655059814453125e+01 2.106340408325195312e+01 1.106828451156616211e-02
4.960963439941406250e+01 2.163942909240722656e+01 -1.579368114471435547e-02
4.926886367797851562e+01 2.069999694824218750e+01 -3.978930413722991943e-03
4.919218826293945312e+01 2.127889060974121094e+01 -3.664231672883033752e-02
5.500481033325195312e+01 5.653453826904296875e+01 3.534860610961914062e+00
5.469584655761718750e+01 5.675566482543945312e+01 3.425276517868041992e+00
5.491347885131835938e+01 5.633559036254882812e+01 3.772806406021118164e+00
5.457545471191406250e+01 5.657319641113281250e+01 3.664747953414916992e+00
4.754846572875976562e+01 3.422194290161132812e+01 2.062382176518440247e-02
4.723852539062500000e+01 3.467124938964843750e+01 1.170124858617782593e-03
4.716185379028320312e+01 3.394319152832031250e+01 -1.355564966797828674e-02
4.681032943725585938e+01 3.439906311035156250e+01 -3.197526931762695312e-02
4.828768920898437500e+01 3.651101684570312500e+01 3.886627197265625000e+00
4.812255477905273438e+01 3.698524093627929688e+01 3.944434404373168945e+00
4.784172439575195312e+01 3.618718338012695312e+01 3.831427335739135742e+00
4.769174575805664062e+01 3.664903640747070312e+01 3.871501207351684570e+00
5.876928710937500000e+01 4.995371627807617188e+01 3.729634046554565430e+00
5.859015655517578125e+01 5.049775314331054688e+01 3.862953186035156250e+00
5.835820388793945312e+01 4.966155624389648438e+01 3.748101234436035156e+00
5.810617828369140625e+01 5.021265029907226562e+01 3.949957847595214844e+00
5.032620620727539062e+01 3.463672256469726562e+01 3.924632310867309570e+00
5.017074203491210938e+01 3.495149230957031250e+01 3.910792112350463867e+00
4.992018127441406250e+01 3.437773132324218750e+01 3.864076852798461914e+00
4.972974395751953125e+01 3.468900299072265625e+01 3.844688892364501953e+00
4.982144927978515625e+01 3.762041473388671875e+01 3.926837444305419922e+00
4.951837921142578125e+01 3.790953445434570312e+01 3.923203229904174805e+00
4.937500381469726562e+01 3.739558029174804688e+01 3.862234830856323242e+00
4.913362503051757812e+01 3.776522064208984375e+01 3.898324251174926758e+00
5.024814987182617188e+01 1.334043312072753906e+01 5.144420623779296875e+00
4.980340194702148438e+01 1.338254928588867188e+01 5.122179508209228516e+00
4.989977264404296875e+01 1.345434093475341797e+01 5.437786102294921875e+00
4.952029418945312500e+01 1.357617759704589844e+01 5.426545619964599609e+00
5.524801254272460938e+01 3.665521621704101562e+01 -4.146868363022804260e-03
5.495698928833007812e+01 3.706340789794921875e+01 9.668054059147834778e-03
5.502880477905273438e+01 3.628783416748046875e+01 -1.106198597699403763e-02
5.469098663330078125e+01 3.670416641235351562e+01 7.205959409475326538e-03
4.977883911132812500e+01 6.824587249755859375e+01 4.742489337921142578e+00
4.964514923095703125e+01 6.899091339111328125e+01 4.768462181091308594e+00
4.935701751708984375e+01 6.794338226318359375e+01 4.783692836761474609e+00
4.922481155395507812e+01 6.869686889648437500e+01 4.812810420989990234e+00
3.684154510498046875e+01 2.196756553649902344e+01 -1.138723567128181458e-01
3.676287841796875000e+01 2.233486938476562500e+01 -1.396037489175796509e-01
3.659473419189453125e+01 2.198834228515625000e+01 2.125298231840133667e-01
3.658707427978515625e+01 2.238472557067871094e+01 1.832389235496520996e-01
5.091284942626953125e+01 3.264022064208984375e+01 6.610120773315429688e+00
5.048414230346679688e+01 3.274234008789062500e+01 6.518811225891113281e+00
5.068690872192382812e+01 3.254308319091796875e+01 6.977119922637939453e+00
5.023144912719726562e+01 3.265768814086914062e+01 6.887861251831054688e+00
5.589366531372070312e+01 2.623262977600097656e+01 5.822073668241500854e-02
5.553608322143554688e+01 2.668304824829101562e+01 7.289379090070724487e-02
5.545606231689453125e+01 2.590649414062500000e+01 -5.567381158471107483e-02
5.507690429687500000e+01 2.634694671630859375e+01 -3.284067660570144653e-02
5.141951751708984375e+01 4.911618041992187500e+01 4.677136898040771484e+00
5.131971740722656250e+01 4.968194198608398438e+01 4.715837001800537109e+00
5.111454010009765625e+01 4.893128204345703125e+01 4.942280292510986328e+00
5.101067733764648438e+01 4.953888702392578125e+01 4.991643428802490234e+00
5.437748718261718750e+01 5.676249694824218750e+01 3.256675958633422852e+00
5.402236557006835938e+01 5.698252105712890625e+01 3.165899038314819336e+00
5.412896728515625000e+01 5.665244293212890625e+01 3.370185375213623047e+00
5.377930068969726562e+01 5.688091278076171875e+01 3.298180103302001953e+00
4.166017913818359375e+01 4.384388732910156250e+01 -3.130490332841873169e-02
4.147068023681640625e+01 4.429038619995117188e+01 -9.883260354399681091e-03
4.127147293090820312e+01 4.355750656127929688e+01 -1.662945374846458435e-02
4.107970046997070312e+01 4.400156021118164062e+01 1.302434131503105164e-03
4.302075958251953125e+01 1.361643123626708984e+01 2.371773004531860352e+00
4.266949462890625000e+01 1.370919227600097656e+01 2.204154729843139648e+00
4.308362197875976562e+01 1.369123172760009766e+01 2.822337865829467773e+00
4.272900772094726562e+01 1.378601837158203125e+01 2.626820087432861328e+00
5.958258438110351562e+01 4.083739089965820312e+01 1.311952710151672363e+00
5.972767257690429688e+01 4.134088134765625000e+01 1.219581604003906250e+00
5.933185577392578125e+01 4.071488952636718750e+01 1.755870342254638672e+00
5.958642196655273438e+01 4.116100692749023438e+01 1.720393061637878418e+00
5.865774917602539062e+01 3.198178672790527344e+01 7.382600009441375732e-02
5.832762908935546875e+01 3.220716857910156250e+01 9.302603453397750854e-02
5.839001083374023438e+01 3.203739929199218750e+01 8.058355748653411865e-02
5.806094360351562500e+01 3.226308822631835938e+01 9.852765500545501709e-02
5.546864700317382812e+01 2.849605178833007812e+01 1.743666268885135651e-02
5.529455947875976562e+01 2.908337593078613281e+01 5.399155616760253906e-02
5.509107589721679688e+01 2.807602691650390625e+01 -1.437617838382720947e-02
5.490705490112304688e+01 2.864333534240722656e+01 2.906476706266403198e-02
4.769344711303710938e+01 5.656884002685546875e+01 4.485879421234130859e+00
4.728925323486328125e+01 5.690044403076171875e+01 4.375102519989013672e+00
4.731433868408203125e+01 5.611657333374023438e+01 4.523850440979003906e+00
4.690843200683593750e+01 5.643574905395507812e+01 4.407630920410156250e+00
5.952275466918945312e+01 4.521344375610351562e+01 7.639850974082946777e-01
5.954429244995117188e+01 4.568488311767578125e+01 6.966612935066223145e-01
5.970056152343750000e+01 4.517408370971679688e+01 1.191099643707275391e+00
5.972865676879882812e+01 4.566381835937500000e+01 1.139233350753784180e+00
4.872128295898437500e+01 4.069853210449218750e+01 4.362069070339202881e-02
4.861372375488281250e+01 4.132455825805664062e+01 1.497171819210052490e-03
4.830270767211914062e+01 4.026925659179687500e+01 -3.884104266762733459e-02
4.821991729736328125e+01 4.090065383911132812e+01 -7.128322869539260864e-02
5.163404464721679688e+01 7.745810699462890625e+01 3.695610523223876953e+00
5.137503433227539062e+01 7.791725921630859375e+01 3.656886100769042969e+00
5.146761322021484375e+01 7.717679595947265625e+01 3.910072565078735352e+00
5.123958587646484375e+01 7.761595153808593750e+01 3.840552568435668945e+00
4.688008880615234375e+01 1.497351551055908203e+01 1.517578959465026855e-02
4.658101272583007812e+01 1.553052997589111328e+01 -1.970059797167778015e-02
4.647739028930664062e+01 1.465230178833007812e+01 1.499159447848796844e-02
4.620015716552734375e+01 1.523885059356689453e+01 -4.137919843196868896e-02
5.119032669067382812e+01 8.238626861572265625e+01 1.988942384719848633e+00
5.130013275146484375e+01 8.269628906250000000e+01 1.846685886383056641e+00
5.121062850952148438e+01 8.219209289550781250e+01 2.321829080581665039e+00
5.134882354736328125e+01 8.253463745117187500e+01 2.211713552474975586e+00
5.185249328613281250e+01 3.153131294250488281e+01 5.603098392486572266e+00
5.157527160644531250e+01 3.147875022888183594e+01 5.454431056976318359e+00
5.180469512939453125e+01 3.152118110656738281e+01 6.090299606323242188e+00
5.153264617919921875e+01 3.146186256408691406e+01 5.916625499725341797e+00
4.530427551269531250e+01 4.441246795654296875e+01 -1.239836961030960083e-02
4.495954132080078125e+01 4.478333663940429688e+01 1.816441677510738373e-02
4.487804412841796875e+01 4.411845779418945312e+01 -6.349976360797882080e-02
4.455585479736328125e+01 4.451039886474609375e+01 -3.165387362241744995e-02
4.669414520263671875e+01 4.467670440673828125e+01 4.118083477020263672e+00
4.659370040893554688e+01 4.515272521972656250e+01 4.116289615631103516e+00
4.692865753173828125e+01 4.433028793334960938e+01 4.267978668212890625e+00
4.683525466918945312e+01 4.480191421508789062e+01 4.268308162689208984e+00
5.367875289916992188e+01 2.781256484985351562e+01 3.919918298721313477e+00
5.325809478759765625e+01 2.823053169250488281e+01 3.938122987747192383e+00
5.326920318603515625e+01 2.754345703125000000e+01 3.867258548736572266e+00
5.291730880737304688e+01 2.800362777709960938e+01 3.882119894027709961e+00
5.516484832763671875e+01 4.287724685668945312e+01 3.900305747985839844e+00
5.499557495117187500e+01 4.339068222045898438e+01 3.886978864669799805e+00
5.470321655273437500e+01 4.249356079101562500e+01 3.895443201065063477e+00
5.449020004272460938e+01 4.298852157592773438e+01 3.860520124435424805e+00
5.528143310546875000e+01 3.323895645141601562e+01 3.874009847640991211e+00
5.504816436767578125e+01 3.378641891479492188e+01 3.859572172164916992e+00
5.487890625000000000e+01 3.284335327148437500e+01 3.874663114547729492e+00
5.466543197631835938e+01 3.337433242797851562e+01 3.873220682144165039e+00
5.709337615966796875e+01 4.228445816040039062e+01 3.246680647134780884e-02
5.688373565673828125e+01 4.259267425537109375e+01 -8.855294436216354370e-03
5.673826599121093750e+01 4.189797973632812500e+01 -2.611824125051498413e-02
5.655099868774414062e+01 4.223772048950195312e+01 -5.681132525205612183e-02
5.774522399902343750e+01 2.836993789672851562e+01 1.283491775393486023e-02
5.766367721557617188e+01 2.888367652893066406e+01 2.170347422361373901e-02
5.727069473266601562e+01 2.793871307373046875e+01 -2.328154817223548889e-02
5.720104598999023438e+01 2.849663734436035156e+01 -4.607605747878551483e-03
4.345801925659179688e+01 5.635380554199218750e+01 7.923775911331176758e-01
4.312664031982421875e+01 5.617313385009765625e+01 5.364606976509094238e-01
4.332785797119140625e+01 5.632774734497070312e+01 1.195966124534606934e+00
4.299063491821289062e+01 5.614274215698242188e+01 9.143159389495849609e-01
4.774583053588867188e+01 1.775259780883789062e+01 5.607505798339843750e+00
4.768696212768554688e+01 1.828016090393066406e+01 5.577153682708740234e+00
4.766521072387695312e+01 1.757470512390136719e+01 5.938767433166503906e+00
4.760530853271484375e+01 1.809578704833984375e+01 5.909718990325927734e+00
5.183510208129882812e+01 8.303192138671875000e+01 2.268058776855468750e+00
5.192119598388671875e+01 8.342494201660156250e+01 2.112485408782958984e+00
5.182912445068359375e+01 8.291123962402343750e+01 2.717539072036743164e+00
5.194496917724609375e+01 8.328701019287109375e+01 2.557576656341552734e+00
4.870991134643554688e+01 6.647584533691406250e+01 4.627737522125244141e+00
4.852225875854492188e+01 6.703007507324218750e+01 4.642550468444824219e+00
4.871651077270507812e+01 6.616060638427734375e+01 4.779009342193603516e+00
4.853160476684570312e+01 6.671817779541015625e+01 4.832404136657714844e+00
5.069854354858398438e+01 1.260886859893798828e+01 1.729749441146850586e-01
5.031980514526367188e+01 1.292784214019775391e+01 1.945741474628448486e-03
5.049895858764648438e+01 1.234898662567138672e+01 3.676651120185852051e-01
5.010292816162109375e+01 1.266488265991210938e+01 1.889385282993316650e-01
4.696579742431640625e+01 2.549319648742675781e+01 2.426371909677982330e-02
4.656948471069335938e+01 2.594458007812500000e+01 2.065996266901493073e-02
4.654367065429687500e+01 2.510556983947753906e+01 -1.887875422835350037e-02
4.613190078735351562e+01 2.553726577758789062e+01 -2.189476415514945984e-02
3.956951522827148438e+01 5.237322235107421875e+01 1.696687698364257812e+00
3.983806610107421875e+01 5.279146575927734375e+01 1.729301214218139648e+00
3.954371643066406250e+01 5.231416320800781250e+01 2.194198131561279297e+00
3.980974197387695312e+01 5.278567123413085938e+01 2.259902954101562500e+00
4.508272171020507812e+01 1.395095157623291016e+01 6.290704250335693359e+00
4.469113540649414062e+01 1.412319183349609375e+01 6.257149696350097656e+00
4.485716247558593750e+01 1.403093147277832031e+01 6.357844829559326172e+00
4.445273208618164062e+01 1.421932220458984375e+01 6.318828105926513672e+00
5.525690078735351562e+01 1.330091667175292969e+01 2.777098178863525391e+00
5.477085113525390625e+01 1.320945549011230469e+01 2.864939451217651367e+00
5.499137878417968750e+01 1.333637523651123047e+01 3.063547849655151367e+00
5.440299224853515625e+01 1.312770557403564453e+01 3.109017610549926758e+00
4.429486846923828125e+01 5.605438232421875000e+01 -1.128557398915290833e-01
4.389976119995117188e+01 5.612548446655273438e+01 -8.787303417921066284e-02
4.389664077758789062e+01 5.604940414428710938e+01 -8.226364850997924805e-03
4.353107452392578125e+01 5.604357528686523438e+01 -5.666070431470870972e-02
5.684434509277343750e+01 3.712594223022460938e+01 3.993752598762512207e-02
5.667049407958984375e+01 3.752669143676757812e+01 2.356788143515586853e-03
5.675597381591796875e+01 3.685347747802734375e+01 1.713594943284988403e-01
5.657473754882812500e+01 3.727146148681640625e+01 1.446257829666137695e-01
4.787405395507812500e+01 6.698356628417968750e+01 3.099533081054687500e+00
4.777696609497070312e+01 6.744406890869140625e+01 3.055572748184204102e+00
4.761441040039062500e+01 6.682254028320312500e+01 3.346916198730468750e+00
4.750453567504882812e+01 6.728046417236328125e+01 3.288593053817749023e+00
5.922126007080078125e+01 4.346948623657226562e+01 3.117154359817504883e+00
5.922144699096679688e+01 4.394989395141601562e+01 2.970243930816650391e+00
5.908846282958984375e+01 4.336166000366210938e+01 3.508051395416259766e+00
5.908272933959960938e+01 4.384195709228515625e+01 3.305705785751342773e+00
5.099682998657226562e+01 8.167980194091796875e+01 4.259994506835937500e+00
5.087361145019531250e+01 8.204969787597656250e+01 4.128169536590576172e+00
5.093732452392578125e+01 8.158563995361328125e+01 4.633322238922119141e+00
5.079012298583984375e+01 8.196971130371093750e+01 4.535428524017333984e+00
5.479595184326171875e+01 7.969926452636718750e+01 3.041000604629516602e+00
5.419054794311523438e+01 7.992385101318359375e+01 2.968408346176147461e+00
5.437483596801757812e+01 7.948978424072265625e+01 3.284824371337890625e+00
5.384569168090820312e+01 7.971470642089843750e+01 3.201647043228149414e+00
4.987345123291015625e+01 6.789257049560546875e+01 4.728850841522216797e+00
4.977239227294921875e+01 6.858365631103515625e+01 4.793382167816162109e+00
4.946369171142578125e+01 6.757279205322265625e+01 4.784374713897705078e+00
4.934487152099609375e+01 6.830892944335937500e+01 4.814986228942871094e+00
5.244585418701171875e+01 5.381952667236328125e+01 3.857131481170654297e+00
5.224485778808593750e+01 5.417126846313476562e+01 3.886183023452758789e+00
5.209329223632812500e+01 5.369715881347656250e+01 3.910778760910034180e+00
5.189461517333984375e+01 5.405057907104492188e+01 3.943028450012207031e+00
5.466419219970703125e+01 5.659255218505859375e+01 1.651185393333435059e+00
