0.329567 0.124838 -0.0407285 3.60996e-05
-0.337541 0.427842 -0.0624824 0.00120925
-0.334795 0.443071 -0.0581682 0.00642398
-0.34712 0.427663 -0.0589681 0.00514938
-0.343922 0.442679 -0.0531779 0.00073309
0.412042 -0.0864957 0.236734 0.00630876
0.414234 -0.0721084 0.238628 0.00903875
0.410258 -0.0811421 0.251286 0.000167022
0.412157 -0.0677896 0.252563 0.00109212
-0.249934 0.876245 -0.0449091 0.00223007
-0.265286 0.881638 -0.0517656 0.00242912
-0.263067 0.871672 -0.0349799 8.81861e-05
-0.277821 0.875645 -0.0410292 0.00106803
-0.2659 -0.311503 0.411991 0.00601579
-0.271544 -0.293243 0.415914 0.00742979
-0.26596 -0.310522 0.420068 0.00102741
-0.26933 -0.291091 0.424966 0.000495662
0.228949 0.134508 -0.123513 0.0011385
0.221143 0.137793 -0.126433 0.000563854
0.227178 0.133422 -0.113464 0.000198956
0.220146 0.136812 -0.115929 0.00309765
-0.389623 0.136526 -0.179602 0.000409331
-0.391258 0.151568 -0.1801 0.00290446
-0.391424 0.138411 -0.165273 5.06756e-05
-0.392146 0.152012 -0.167232 0.000135569
-0.411807 0.694753 -0.0317774 0.00291718
-0.4133 0.708108 -0.0327875 0.00758578
-0.42349 0.695566 -0.0195252 0.0103197
-0.424942 0.709313 -0.0205594 0.00565343
-0.362037 0.551265 -0.0237588 0.00163044
-0.362147 0.5716 -0.016863 0.00156132
-0.371037 0.550733 -0.0118838 0.00352158
-0.370802 0.571832 -0.00459784 0.00045987
-0.379147 -0.449072 -0.391478 0.000181281
-0.379017 -0.433332 -0.390139 0.00261447
-0.374878 -0.447986 -0.377881 0.00328076
-0.375719 -0.432428 -0.375806 0.000558405
-0.0993014 -0.205725 -0.349036 0.00329596
-0.113558 -0.198683 -0.348786 0.00488174
-0.115528 -0.205465 -0.339482 0.00308947
-0.130879 -0.19925 -0.339353 0.00518932
-0.264747 -0.450206 0.197012 0.00199104
-0.269778 -0.442861 0.188011 0.00400222
-0.263131 -0.456915 0.212239 0.00315116
-0.268826 -0.44995 0.202569 0.000947765
0.146726 -0.346914 -0.534609 0.000624625
0.14641 -0.331153 -0.534474 0.00148074
0.146629 -0.344657 -0.517306 0.000227325
0.146865 -0.327677 -0.517109 0.000381817
0.155385 -0.571205 -0.636782 0.00341262
0.148945 -0.558343 -0.63724 0.000784982
0.157583 -0.565264 -0.6186 0.00181001
0.151807 -0.552061 -0.61902 0.00167219
-0.0649832 -0.13094 0.413273 0.00837799
-0.0726172 -0.119328 0.418617 0.00872831
-0.0908171 -0.119015 0.421577 0.0102647
-0.10079 -0.11014 0.426064 0.0110657
0.486223 -0.273969 0.221678 0.00141427
0.485276 -0.255697 0.225524 0.000978401
0.483493 -0.269457 0.232158 0.00464544
0.48278 -0.251814 0.23731 0.00282412
0.119902 0.00973726 0.249481 0.0105378
0.105736 0.0102794 0.243118 0.0107516
0.117077 0.0046897 0.266975 0.00939974
0.102938 0.00513681 0.260123 0.0112327
-0.273195 -0.408313 0.00897936 0.00514035
-0.281622 -0.401021 -0.00584063 0.00176115
-0.272283 -0.417759 0.0293545 0.00466781
-0.282409 -0.408869 0.0125118 0.00418657
0.272466 0.875785 -0.164054 0.00342126
0.270175 0.892069 -0.160668 0.000733392
0.260628 0.87802 -0.161402 0.0026641
0.256173 0.892431 -0.158704 0.000329833
0.201121 -0.421545 0.201119 0.00553281
0.185212 -0.421496 0.201131 0.00810778
0.193272 -0.420621 0.212488 0.00214153
0.176677 -0.419783 0.212365 0.000864669
0.437397 -0.0275358 0.183518 0.00191058
0.442604 -0.016033 0.176854 0.00113754
0.433523 -0.0394985 0.198259 0.00346406
0.439264 -0.0266802 0.192071 0.0046519
-0.0648414 0.0731727 0.0985193 0.00155319
-0.0721811 0.0766727 0.0904795 0.00103772
-0.0705134 0.0685921 0.114203 0.000833197
-0.0781106 0.0718131 0.106919 0.000144247
-0.240722 -0.489131 0.265957 0.0067139
-0.245398 -0.483146 0.265737 0.00264936
-0.251728 -0.489276 0.279704 0.00660519
-0.255757 -0.483527 0.279877 0.0085209
0.234629 -0.236262 -0.374895 0.00825534
0.224434 -0.229671 -0.378692 0.00362576
0.235617 -0.238091 -0.35763 0.00400327
0.223906 -0.232509 -0.362998 0.0022602
-0.302962 -0.263237 -0.291178 0.00131122
-0.301281 -0.250034 -0.288767 0.0016129
-0.304164 -0.262919 -0.279891 0.00481483
-0.303169 -0.249822 -0.277168 0.00311142
0.0126206 0.103653 0.0110062 0.00319579
0.00339241 0.104742 0.00320035 0.00515676
0.00987434 0.100692 0.0218739 0.0017643
0.00175227 0.102358 0.014755 0.0029313
0.421557 -0.2348 0.242153 0.00316645
0.421334 -0.218727 0.242322 0.00717282
0.41268 -0.22974 0.254516 0.009643
0.411711 -0.212405 0.255143 0.00603923
0.300914 0.770763 -0.186183 0.00205561
0.300689 0.787595 -0.184517 0.00206966
0.289367 0.768991 -0.182259 0.0048376
0.289243 0.785853 -0.180578 0.00392862
0.495212 -0.349793 0.16225 0.00368928
0.498278 -0.330702 0.168504 0.00700963
0.487865 -0.348891 0.175373 0.00295024
0.491271 -0.329658 0.181662 0.000189237
0.234441 -0.335176 -0.518514 0.00449164
0.23819 -0.318026 -0.515987 0.00853182
0.226436 -0.335934 -0.506736 0.00314938
0.230668 -0.319255 -0.503795 0.000122372
-0.373111 -0.24273 -0.341336 0.000153463
-0.370156 -0.228074 -0.341893 0.00281768
-0.378399 -0.242879 -0.326064 0.00131438
-0.375274 -0.227961 -0.326912 0.00146086
-0.374615 -0.179451 -0.305532 0.00146724
-0.372695 -0.161209 -0.301941 0.000810824
-0.379485 -0.174336 -0.294589 0.00060404
-0.377159 -0.156441 -0.291541 0.000301973
0.100464 0.0639992 0.0958746 0.00887563
0.08914 0.0657646 0.0912776 0.00929146
0.0984441 0.0595909 0.104966 0.00742152
0.0858674 0.0617794 0.100457 0.00838243
-0.19343 0.0349748 0.200615 0.00503488
-0.202965 0.0370974 0.190478 0.0061076
-0.197958 0.0283929 0.220782 0.0045762
-0.206627 0.0291253 0.210419 0.00724657
-0.0779261 0.438788 -0.162397 0.0013725
-0.093431 0.440863 -0.165131 0.00836134
-0.0978559 0.439624 -0.156076 0.00247854
-0.111747 0.440679 -0.158021 0.00755815
-0.309772 -0.387275 0.00824964 0.00638216
-0.31687 -0.379116 -0.00749288 0.00230398
-0.309344 -0.396242 0.0323564 0.00548827
-0.315149 -0.385987 0.0162991 0.000404028
0.409567 -0.313006 0.169717 0.00350849
0.408357 -0.294979 0.177204 0.00303775
0.404112 -0.303275 0.182034 0.000497822
0.402418 -0.285552 0.188873 0.00194136
-0.356714 0.0828696 -0.144271 0.00399048
-0.361935 0.0885647 -0.149673 0.00833545
-0.354475 0.0805625 -0.135813 0.00180775
-0.359858 0.083414 -0.141483 0.00147639
-0.267957 -0.886346 0.194821 0.00179991
-0.267144 -0.86857 0.196769 0.000106151
-0.266574 -0.889334 0.20293 0.00677764
-0.264891 -0.871267 0.204352 0.00468667
0.276225 0.146873 -0.117419 0.00991141
0.259656 0.150237 -0.120067 0.00821872
0.273737 0.142996 -0.105393 0.00922921
0.26013 0.145518 -0.11025 0.00906407
-0.299689 0.127353 -0.0939327 0.00337943
-0.314409 0.128582 -0.100878 0.00716629
-0.303094 0.121014 -0.0761249 0.00478432
-0.316693 0.123646 -0.0846791 0.0114008
0.480316 -0.867549 0.035935 0.00809576
0.481087 -0.847457 0.038773 0.0112972
0.471642 -0.871823 0.0510278 0.0112901
0.470595 -0.853174 0.0540261 0.00213015
-0.278759 -0.843969 0.200356 0.000868606
-0.281392 -0.825411 0.203169 0.000200352
-0.287184 -0.845264 0.203992 0.00190617
-0.289192 -0.826463 0.208027 0.00208611
-0.357389 -0.17958 -0.252426 0.00576729
-0.360441 -0.158876 -0.249283 0.00822506
-0.360457 -0.173853 -0.242464 0.00159692
-0.363491 -0.153586 -0.238588 0.000423166
0.0076168 -0.403464 0.262744 0.00195368
-0.00202578 -0.400779 0.261806 0.00201979
-0.00232942 -0.407634 0.269607 0.00528256
-0.0111549 -0.404387 0.268589 0.00136592
0.225405 0.0502418 0.146315 0.00921981
0.211273 0.0527869 0.142204 0.0081906
0.215342 0.0461734 0.160507 0.0082666
0.201018 0.0490699 0.156923 0.00672891
0.230557 0.159406 -0.160511 0.0119698
0.222941 0.16338 -0.170302 0.0118547
0.228442 0.156266 -0.147867 0.0121566
0.218952 0.159357 -0.155658 0.0116581
-0.288581 -0.270288 0.354387 0.000839588
-0.293394 -0.252201 0.361612 0.00344153
-0.291597 -0.25751 0.36443 0.000870669
-0.294738 -0.241245 0.370277 0.00226283
-0.335926 0.0809197 -0.127362 0.00249815
-0.342495 0.0801571 -0.133841 0.000540686
-0.337954 0.0737344 -0.116175 0.000490798
-0.346212 0.0716762 -0.122269 0.00478183
0.188072 0.176578 -0.256845 0.00608018
0.180688 0.187696 -0.258875 0.00240255
0.183243 0.174653 -0.244609 0.004221
0.174789 0.185237 -0.246887 0.00490719
0.253214 0.852791 -0.13806 0.000540369
0.246281 0.861953 -0.141911 0.00151302
0.254396 0.855958 -0.130007 0.0023616
0.246849 0.86421 -0.134241 0.00466819
0.19717 -0.370221 -0.583374 0.000579019
0.185616 -0.358187 -0.58045 0.00063834
0.204916 -0.358211 -0.571755 0.000470568
0.190856 -0.347271 -0.569671 0.00326359
0.261229 0.121187 -0.0389147 0.0037871
0.253072 0.125855 -0.0429994 0.00118394
0.262607 0.119018 -0.0248288 0.000803925
0.253391 0.122756 -0.0301857 0.000725042
0.334569 -0.357604 -0.179243 0.00486855
0.34077 -0.340586 -0.181355 0.00239221
0.338062 -0.366301 -0.164419 0.00696172
0.341925 -0.350617 -0.167529 0.00293175
0.38869 -0.422101 -0.00633227 0.00432199
0.379484 -0.416063 -0.016204 0.00406683
0.392952 -0.428626 0.0142727 0.0050504
0.384341 -0.422265 0.0046662 0.00469229
-0.30333 -0.812997 0.223298 0.0019641
-0.301195 -0.792885 0.226234 0.00456526
-0.316189 -0.815811 0.231639 0.00683274
-0.314471 -0.795075 0.234772 0.00426609
-0.365143 0.0762184 -0.15004 0.00221177
-0.371043 0.0841974 -0.155462 0.00430038
-0.362453 0.0753223 -0.140187 0.00377646
-0.368078 0.082647 -0.145465 0.000509668
0.30813 0.00682682 0.264236 0.00987369
0.295021 0.00874057 0.254653 0.0110153
0.30246 -0.0019104 0.283624 0.0111128
0.289137 0.00032226 0.273169 0.00992052
-0.101696 0.0969514 0.0192621 0.00729114
-0.113604 0.100954 0.00861347 0.00768874
-0.104002 0.0906345 0.0367829 0.00675797
-0.116338 0.0953986 0.0261618 0.00632871
-0.326639 0.324226 -0.0903572 0.000477751
-0.330559 0.339488 -0.0902899 0.0028861
-0.329825 0.323173 -0.0801155 0.00261238
-0.333528 0.338602 -0.0794732 0.000979169
0.227275 -0.242359 -0.494938 0.000113912
0.221656 -0.228417 -0.493049 0.00228162
0.232472 -0.230635 -0.485735 0.00250132
0.226837 -0.21806 -0.483937 0.00131757
0.108424 -0.0258872 0.367727 0.00594427
0.0954859 -0.0182906 0.363051 0.000148955
0.10599 -0.0323007 0.376014 0.00952548
0.0933085 -0.0241155 0.371656 0.00271712
-0.27927 -0.0647957 0.27183 0.000825459
-0.291713 -0.065453 0.264414 0.0022091
-0.280183 -0.0659478 0.289922 0.00587354
-0.294015 -0.0691164 0.282415 0.000174545
-0.401007 0.74265 0.0340842 0.000540958
-0.404446 0.758898 0.0284367 0.00386566
-0.401521 0.740157 0.0472545 0.00647645
-0.40587 0.756727 0.0420635 0.0001715
-0.0230079 0.460411 -0.210387 0.00183233
-0.0398755 0.46636 -0.211937 0.00688902
-0.0398241 0.46071 -0.196063 0.00904514
-0.0558825 0.464982 -0.198326 0.00279647
-0.372361 -0.234829 -0.336388 0.00110337
-0.369553 -0.220451 -0.336897 0.00146821
-0.378783 -0.234532 -0.321814 0.000857062
-0.376381 -0.219621 -0.322442 0.000547213
-0.296133 -0.502546 0.218657 0.00351515
-0.295263 -0.489291 0.215971 0.00676657
-0.303573 -0.510583 0.232756 0.0110127
-0.301456 -0.496225 0.231364 0.000194431
-0.269437 0.839135 -0.0306352 0.000663895
-0.287435 0.842912 -0.0328199 0.0097735
-0.282967 0.834789 -0.0209249 0.00352836
-0.299653 0.837725 -0.0244845 0.00715783
-0.277639 -0.0572652 0.46002 0.00594858
-0.275324 -0.0436823 0.454122 0.00492283
-0.275289 -0.0625486 0.469005 0.00651292
-0.274017 -0.0490652 0.465205 0.00332761
-0.321916 -0.364172 -0.325153 0.000776602
-0.32112 -0.349835 -0.3231 0.00474509
-0.327386 -0.357665 -0.314449 0.00408549
-0.324302 -0.343866 -0.316897 0.00333951
0.260202 0.267231 -0.227128 0.00461389
0.260822 0.283862 -0.225838 0.00777412
0.264174 0.268014 -0.216113 0.00616048
0.264891 0.285139 -0.214509 0.0028015
-0.362261 -0.630212 -0.475777 0.00586045
-0.378887 -0.630947 -0.477936 0.00132375
-0.364745 -0.62521 -0.467484 0.00123016
-0.379989 -0.623287 -0.469522 0.00444552
-0.298187 -0.68863 0.29679 0.000733668
-0.298404 -0.670463 0.300659 0.000738901
-0.311926 -0.686735 0.297477 0.00823445
-0.312228 -0.669077 0.300945 0.00837
0.45495 -0.226004 0.252908 0.00619707
0.452789 -0.208812 0.258387 0.00800036
0.448133 -0.219173 0.263877 0.000938864
0.445128 -0.202161 0.269515 0.000566113
0.359739 0.0274798 0.0246543 0.000518494
0.342867 0.0314675 0.0210569 0.00200709
0.360493 0.0237958 0.0389479 0.0010972
0.343769 0.0281552 0.0344994 0.00364615
0.183574 -0.550562 -0.68593 0.00609338
0.182148 -0.534546 -0.685977 0.0115687
0.182 -0.554026 -0.669526 0.0106918
0.181297 -0.537547 -0.668898 0.004491
0.1702 -0.132688 -0.444229 0.00402199
0.160583 -0.120923 -0.438486 0.00552847
0.171293 -0.124093 -0.434441 0.00623924
0.16234 -0.112673 -0.429803 0.00361147
-0.299385 -0.42802 -0.390525 0.00162446
-0.292281 -0.412842 -0.382601 0.00694438
-0.306116 -0.427265 -0.381998 0.00354981
-0.299132 -0.411889 -0.373544 0.00230771
0.257391 0.0383046 -0.319836 0.00251095
0.258323 0.0552975 -0.313411 0.00147138
0.24538 0.0391535 -0.311857 0.00418705
0.246599 0.0544049 -0.306282 0.00451394
0.29409 0.0356159 0.178662 0.0106439
0.279211 0.0362146 0.174545 0.00970881
0.286759 0.0326404 0.19427 0.00853387
0.273473 0.0333542 0.188372 0.00998638
-0.0805842 0.11998 -0.0435421 0.00761869
-0.0914274 0.121486 -0.0476249 0.00850255
-0.0898477 0.115532 -0.0261065 0.00531395
-0.0994774 0.117314 -0.030073 0.00546361
-0.124297 0.0630341 0.10805 0.0081479
-0.137323 0.06697 0.101207 0.00681773
-0.130954 0.0570742 0.124926 0.0082993
-0.144451 0.0614646 0.117293 0.0067944
0.188714 0.124261 -0.32928 0.00357737
0.190296 0.142799 -0.324016 0.00246449
0.177012 0.125811 -0.31529 0.00454643
0.181184 0.142616 -0.314866 0.00222454
0.179546 -0.0302734 -0.342294 0.000451074
0.176899 -0.0164679 -0.344079 0.00136537
0.185701 -0.031766 -0.329126 0.004377
0.183097 -0.0175279 -0.330839 0.00169206
-0.178075 -0.0022175 0.292895 0.00864462
-0.191522 0.00238588 0.286979 0.00633803
-0.184634 -0.00593028 0.308446 0.00683163
-0.196638 -0.00241129 0.303802 0.00503243
0.37581 -0.0129266 0.293258 0.00254605
0.364095 -0.0090289 0.290013 0.00537569
0.371646 -0.0167792 0.305707 0.0048859
0.358834 -0.0132044 0.302753 0.00611685
0.0155939 0.0443947 0.14765 0.00799654
0.00713253 0.0468275 0.142231 0.00864824
0.0108223 0.0405194 0.158368 0.00776864
0.00186496 0.0427798 0.154317 0.00869574
0.225162 0.291539 -0.29951 0.00386825
0.226159 0.307765 -0.290226 0.000108675
0.227528 0.303964 -0.287241 0.00414879
0.226686 0.318324 -0.27888 0.00712103
-0.31426 -0.39109 -0.342393 0.000415349
-0.313935 -0.377505 -0.337609 0.00125285
-0.319004 -0.382036 -0.336114 0.000922435
-0.31857 -0.36769 -0.330323 0.00208376
0.344477 0.115688 -0.134827 0.00201257
0.343626 0.127794 -0.141822 0.00228047
0.350567 0.111912 -0.120049 0.00339245
0.350332 0.124271 -0.126972 0.000908375
0.303207 0.910334 -0.16696 0.00220579
0.300804 0.927345 -0.161951 0.000138002
0.293625 0.912561 -0.163758 0.00500246
0.289902 0.927977 -0.159634 0.000244189
0.124626 0.885198 -0.154167 0.000983962
0.111642 0.888681 -0.15739 0.00414731
0.115336 0.884551 -0.147226 0.00407938
0.103353 0.887723 -0.150283 0.00149398
-0.22861 0.0238463 0.200708 0.00756014
-0.236661 0.0237006 0.189127 0.00300447
-0.227675 0.0180395 0.217759 0.00770722
-0.236937 0.0185066 0.206089 0.00455245
0.460417 -0.360992 0.198792 0.00751429
0.462263 -0.345877 0.204058 0.00686383
0.454019 -0.353367 0.20886 0.00194607
0.453614 -0.338662 0.212972 0.00296694
-0.231857 -0.271147 0.353473 0.0018435
-0.236993 -0.254727 0.357794 0.000357905
-0.230499 -0.262044 0.361553 0.00101365
-0.236533 -0.247003 0.3644 0.00153388
0.51128 -0.831394 0.0406927 0.00221425
0.510818 -0.8121 0.0454341 0.00277459
0.496336 -0.837895 0.0524802 0.00115874
0.495761 -0.818481 0.057337 0.00158141
-0.0556242 0.0804806 0.0663382 0.0054468
-0.0665641 0.0843704 0.0581865 0.00465026
-0.0632521 0.0803062 0.0772866 0.00198654
-0.0727258 0.0835864 0.0683909 0.00197342
-0.297607 -0.413725 0.363125 0.00151393
-0.301356 -0.395149 0.363159 0.000517605
-0.291439 -0.407202 0.373157 0.00115796
-0.296162 -0.388983 0.372713 0.00157771
0.165046 0.905563 -0.14559 0.000194345
0.146055 0.908007 -0.14873 0.00369978
0.155995 0.905763 -0.136437 0.00179297
0.137521 0.908363 -0.13976 0.000656309
0.186035 -0.432954 -0.622799 0.00353579
0.185747 -0.417205 -0.614631 0.00358789
0.177672 -0.427211 -0.613131 0.00332535
0.175798 -0.410624 -0.605201 0.00221315
-0.290246 0.14894 -0.112495 0.00649346
-0.306853 0.150501 -0.118198 0.00277331
-0.29712 0.14208 -0.0956113 0.00716878
-0.312745 0.143422 -0.102699 0.008353
-0.307224 -0.375139 -0.135398 0.00446873
-0.315209 -0.366379 -0.14493 0.00219785
-0.302653 -0.382036 -0.112935 0.00359207
-0.314503 -0.373668 -0.124804 0.00282465
-0.264843 0.0297013 0.207963 0.0068461
-0.270898 0.0274679 0.197961 0.0116129
-0.265152 0.025546 0.224039 0.0055621
-0.272675 0.0232973 0.21356 0.01095
0.199777 -0.19919 -0.399667 0.00207515
0.181028 -0.196591 -0.403636 0.000878511
0.203275 -0.189244 -0.392582 0.000128782
0.183589 -0.186709 -0.397027 0.000106757
-0.328773 -0.0437976 0.218484 0.00126555
-0.339961 -0.0365066 0.209865 0.00324517
-0.330793 -0.0474752 0.235762 0.00177076
-0.34185 -0.0398097 0.2266 0.00847432
-0.0423046 0.686584 -0.132412 0.0053543
-0.068501 0.701869 -0.132578 0.0151797
-0.0607654 0.678324 -0.115706 0.00719473
-0.0894889 0.693883 -0.115884 0.00486307
-0.286004 -0.380815 -0.0925095 0.00691593
-0.300125 -0.374118 -0.105482 0.00343309
-0.288912 -0.383675 -0.0736297 0.000716956
-0.301879 -0.37783 -0.0862956 0.00849698
0.327499 0.833943 -0.175405 0.00955308
0.321748 0.849256 -0.173991 0.00497269
0.310316 0.833072 -0.175667 0.00116782
0.304293 0.847777 -0.174187 0.00190456
-0.308308 -0.724933 0.231789 0.00255454
-0.303713 -0.704819 0.240493 0.0045586
-0.312721 -0.727886 0.241542 0.00195342
-0.307864 -0.707482 0.249813 0.00430698
0.261978 0.29477 -0.218749 0.00472389
0.263386 0.313227 -0.215247 0.00627352
0.253413 0.298332 -0.206342 0.00167026
0.254738 0.316923 -0.202537 0.000325399
-0.309537 -0.185261 -0.324049 0.000852632
-0.305545 -0.167306 -0.319917 0.00683229
-0.321874 -0.18988 -0.317855 0.0103031
-0.31797 -0.171622 -0.311849 0.00579152
0.0643924 -0.118846 0.382394 0.00690034
0.0697416 -0.106753 0.392082 0.00342435
0.0474965 -0.119198 0.393957 0.00217574
0.0529901 -0.107363 0.403704 0.00352532
0.191487 -0.253678 -0.42546 0.00131156
0.175033 -0.254555 -0.429689 0.00164594
0.192726 -0.244836 -0.41464 0.000874908
0.175804 -0.245863 -0.418959 0.0063251
0.113117 0.458709 -0.191986 0.00515238
0.0937663 0.466149 -0.193953 0.00612308
0.0984605 0.45761 -0.182615 0.00319708
0.0780856 0.465487 -0.185918 0.000673163
0.226826 0.260727 -0.309249 0.0036202
0.226812 0.27786 -0.299401 0.000694264
0.224174 0.270473 -0.30113 0.000896797
0.226575 0.287565 -0.290641 0.00589579
-0.385141 0.69333 0.00865789 0.00144812
-0.386919 0.708533 0.00353352 0.0031821
-0.393098 0.692819 0.0229986 0.00235055
-0.395233 0.708334 0.0169411 0.00280914
-0.185286 -0.118506 0.452089 0.00401949
-0.188772 -0.103217 0.459857 0.00238663
-0.203836 -0.115841 0.460078 0.00231612
-0.205306 -0.0988312 0.467181 0.0018486
-0.366168 -0.0903349 -0.279251 6.00381e-05
-0.375909 -0.0811072 -0.27639 0.00708779
-0.369113 -0.082492 -0.268271 0.00310151
-0.378986 -0.0721291 -0.264278 0.00499054
0.390953 0.0123975 0.0527517 0.00487347
0.379226 0.0191766 0.0525308 0.00151549
0.391562 0.0157369 0.0638604 0.0021098
0.379683 0.0231404 0.0645324 0.00941981
0.220005 0.383384 -0.207576 0.00359759
0.222216 0.410239 -0.204044 0.00534614
0.225068 0.38305 -0.194681 0.000779747
0.2269 0.409467 -0.191446 0.00122323
-0.38285 0.221484 -0.114499 0.00470514
-0.386813 0.240151 -0.112706 0.00571288
-0.383154 0.226999 -0.102152 0.00243222
-0.387999 0.246056 -0.100036 0.00191239
-0.296396 -0.180522 -0.260237 0.000194911
-0.296947 -0.160659 -0.253199 0.00169271
-0.30172 -0.180623 -0.249441 0.000394657
-0.302865 -0.160075 -0.24263 0.00178575
0.371989 0.0232888 0.167981 0.00805518
0.362515 0.0278716 0.16093 0.00349023
0.36766 0.018307 0.180029 0.000958758
0.358283 0.0229597 0.172675 0.000970367
-0.393241 0.172647 -0.14931 0.000289364
-0.392918 0.189296 -0.151492 0.00264003
-0.396777 0.173765 -0.134287 0.00763118
-0.396165 0.19086 -0.136597 0.00303956
-0.109687 -0.187212 -0.37626 0.000671821
-0.119209 -0.179529 -0.377899 0.00110852
-0.121151 -0.191528 -0.367939 0.00232944
-0.133322 -0.183615 -0.371174 0.000937796
-0.389706 0.821626 0.0185708 0.00225577
-0.407686 0.835672 0.016195 0.0064149
-0.395561 0.821882 0.0332349 0.00667237
-0.414205 0.834523 0.0322245 0.00536569
-0.208961 -0.0158932 0.304096 0.00464651
-0.225285 -0.0131294 0.299582 0.00565499
-0.218368 -0.0165579 0.3127 0.00780471
-0.234085 -0.0140681 0.309107 0.00847107
0.162577 -0.334891 -0.487516 0.00454763
0.158952 -0.319706 -0.483801 0.00347242
0.159716 -0.32391 -0.477404 0.000331507
0.15592 -0.307855 -0.472106 0.00221273
0.282632 0.0999509 0.00834315 0.00724829
0.273357 0.10497 -0.00144112 0.00578101
0.282135 0.0993103 0.0216933 0.00349674
0.272645 0.104001 0.0108188 0.00260448
0.308938 0.0680281 -0.00461239 0.00318714
0.298982 0.0760511 -0.00771145 0.00382962
0.30627 0.0706006 0.00939197 0.00300906
0.296974 0.0780351 0.00515065 0.00594729
-0.0227119 0.00865507 0.266364 0.00637073
-0.0312545 0.0123478 0.259286 0.00584415
-0.0291177 0.00699703 0.280199 0.00261005
-0.0376811 0.0107133 0.273771 0.0016633
0.295021 0.829492 -0.108667 0.00308754
0.289831 0.847825 -0.105725 0.000238846
0.287526 0.830768 -0.105847 0.00196037
0.282531 0.848234 -0.102944 0.00605377
0.313151 0.181088 -0.191659 0.00341673
0.305784 0.188549 -0.199551 0.00108669
0.313161 0.176921 -0.175269 0.00356935
0.30404 0.183799 -0.183222 0.000518962
0.439872 -0.331554 0.213001 0.00381354
0.430924 -0.320135 0.215518 0.00162185
0.432302 -0.319728 0.219461 0.000852895
0.421296 -0.308097 0.221378 0.00428607
0.198932 0.105824 -0.00388253 0.00587285
0.187644 0.108147 -0.0121998 0.00657344
0.192929 0.0994592 0.00963247 0.00691407
0.181484 0.101287 0.00282245 0.00759893
-0.338319 -0.356655 -0.101918 0.00192153
-0.343095 -0.346945 -0.108536 0.004064
-0.334563 -0.363773 -0.08008 0.00363188
-0.342326 -0.354936 -0.0892617 0.00467005
0.186995 -0.403052 0.199503 0.00192926
0.168059 -0.399834 0.198522 0.00708267
0.178992 -0.407005 0.210909 0.00641126
0.16054 -0.403422 0.209768 0.00192204
0.481037 -0.130972 0.227297 0.000485556
0.472522 -0.117908 0.227002 0.000561868
0.48605 -0.124754 0.240759 0.00110497
0.478373 -0.111615 0.239608 0.00377818
-0.14046 -0.0419024 0.386841 0.00811818
-0.148205 -0.0403792 0.380169 0.0074501
-0.143014 -0.0423934 0.396758 0.010842
-0.150158 -0.0410721 0.390618 0.010151
0.259799 0.633138 -0.145832 0.00636729
0.255753 0.652511 -0.142486 0.00247793
0.254643 0.635727 -0.142066 0.000410805
0.250597 0.6551 -0.138721 0.00380898
-0.215881 0.131815 -0.0818356 0.0117113
-0.225506 0.132967 -0.089538 0.0100781
-0.220112 0.12561 -0.0660585 0.0113134
-0.230378 0.126242 -0.0735335 0.00929304
0.175865 0.683187 -0.166482 0.0017403
0.161424 0.684637 -0.169194 0.00248284
0.16386 0.684071 -0.153561 0.000111694
0.150896 0.686562 -0.158011 0.00189952
0.0372419 -0.0316967 0.381397 0.00651597
0.024942 -0.0280599 0.379818 0.00339131
0.0264323 -0.036947 0.394376 0.00721889
0.0142848 -0.0339568 0.392504 0.00482767
0.485967 -0.21898 0.198312 0.00112872
0.484174 -0.20347 0.198357 0.0010849
0.490094 -0.218065 0.211513 0.000765703
0.488887 -0.202161 0.211301 0.000199383
0.00441459 0.0153599 0.206676 0.000316336
-0.00784381 0.0182967 0.202609 0.00159853
-0.000536055 0.0156125 0.22203 0.00578556
-0.0129457 0.0178185 0.216916 0.00605513
0.101718 0.103353 0.0100529 0.00251185
0.092966 0.103621 0.00586959 0.00390678
0.0937315 0.102105 0.0190324 0.000299623
0.0852377 0.101612 0.0155458 0.00213129
0.102961 0.0850204 0.0528125 0.00459468
0.0952769 0.0857407 0.0460375 0.00617071
0.0996566 0.083362 0.0644906 0.00238197
0.0928033 0.0836753 0.0581899 0.00402575
-0.300453 -0.447728 0.297603 0.0027631
-0.299152 -0.432244 0.298035 0.00535733
-0.299497 -0.448524 0.312872 0.00534555
-0.298464 -0.432136 0.311723 0.00301862
0.200463 -0.108719 0.357374 0.00352914
0.194388 -0.0987548 0.366083 0.000460543
0.18965 -0.1045 0.364683 0.000871572
0.18473 -0.0942823 0.372992 0.00232571
0.252042 -0.280807 -0.374696 0.00743252
0.241898 -0.27316 -0.378931 0.000667798
0.253907 -0.282424 -0.352172 0.00153375
0.241425 -0.275808 -0.360013 0.00713741
-0.0238102 0.00216752 0.289063 0.00430557
-0.0339981 0.00580137 0.283562 0.00256696
-0.0302722 9.66091e-05 0.304226 0.00136017
-0.0456285 0.00446113 0.299996 0.00141724
0.247812 0.0422543 0.149588 0.006532
0.235389 0.0442132 0.144782 0.00673506
0.244012 0.0392216 0.162403 0.0083065
0.229816 0.0406093 0.157645 0.00797969
-0.24207 -0.00684747 0.324934 0.00277092
-0.252534 -0.00368348 0.317452 0.00223733
-0.248614 -0.0127266 0.337693 0.00383438
-0.256816 -0.00884051 0.329363 0.00301505
-0.232714 -0.453046 0.284065 0.0110558
-0.239928 -0.446107 0.286593 0.00584788
-0.245033 -0.453175 0.299306 0.0080141
-0.250742 -0.445438 0.302155 0.0121746
-0.398519 0.6011 -0.060018 0.00165307
-0.3995 0.611512 -0.0570178 0.001981
-0.408478 0.597762 -0.0527086 0.00657613
-0.4088 0.608099 -0.0499655 0.00652778
0.454039 -0.628335 0.121641 0.00287486
0.451024 -0.608149 0.12525 0.00443736
0.438018 -0.627628 0.123789 0.00486709
0.434288 -0.606059 0.129301 0.00457026
0.229354 0.487782 -0.183953 0.00215087
0.227103 0.506402 -0.181764 0.000283011
0.23513 0.484649 -0.174415 0.000644336
0.232106 0.503113 -0.17205 0.00212016
-0.00866538 0.467894 -0.209104 0.000720759
-0.0262787 0.47466 -0.209926 0.00640366
-0.025123 0.468632 -0.197551 0.00704459
-0.0423456 0.474062 -0.198629 0.000392051
-0.0720721 0.143272 -0.123546 0.00797956
-0.0827726 0.146577 -0.133285 0.00750119
-0.0773922 0.138698 -0.106105 0.00964209
-0.089022 0.140894 -0.113828 0.00907225
0.377159 -0.346552 -0.092474 0.00046547
0.370652 -0.335436 -0.101771 0.00409614
0.377106 -0.351875 -0.0730154 0.0012922
0.370813 -0.340991 -0.0823021 0.00441504
-0.236332 -0.651334 0.295595 0.000253858
-0.238998 -0.629805 0.301905 0.00200686
-0.249099 -0.650532 0.301121 0.00518673
-0.25187 -0.630664 0.306125 0.0067985
0.283809 0.14124 -0.237287 0.000758848
0.28365 0.151658 -0.238274 0.000846597
0.286983 0.138654 -0.225188 0.00407914
0.287003 0.149106 -0.226185 0.00203292
0.0518721 0.895778 -0.114326 0.00451069
0.0352783 0.902914 -0.120914 0.00521756
0.0475657 0.895618 -0.101032 0.00744535
0.0310605 0.902142 -0.108442 0.00041682
0.178829 -0.196244 -0.417309 0.0101815
0.158422 -0.19312 -0.420783 0.00368404
0.174246 -0.187245 -0.408969 0.00418076
0.155767 -0.183049 -0.411504 0.000828171
0.327688 -0.396778 0.207428 0.00720206
0.308886 -0.38688 0.204086 0.00789675
0.307235 -0.399066 0.219367 0.000936895
0.288502 -0.389814 0.217831 0.00300458
-0.154662 0.134432 -0.0978469 0.00857058
-0.166415 0.137748 -0.103994 0.00965043
-0.164798 0.129428 -0.086804 0.00782972
-0.175004 0.132194 -0.0949681 0.00760457
0.181616 -0.557876 -0.606001 0.00294095
0.178471 -0.544907 -0.603855 0.0072309
0.183898 -0.556495 -0.596164 0.00469802
0.182984 -0.539865 -0.590327 0.000700808
0.264499 0.077649 0.0727198 0.00708569
0.253063 0.07907 0.0654615 0.00814785
0.255703 0.0730288 0.08766 0.0069689
0.245478 0.0755902 0.0805064 0.00656775
-0.37187 -0.45283 -0.38441 0.00150887
-0.372715 -0.437262 -0.382047 0.0038894
-0.370777 -0.448404 -0.372496 0.00423777
-0.371731 -0.432554 -0.371279 0.000503918
-0.0730813 -0.191794 -0.381229 0.00284177
-0.0842495 -0.184622 -0.381807 5.79803e-05
-0.0840029 -0.195577 -0.37423 0.00144809
-0.0946127 -0.188122 -0.374859 0.00193636
0.322435 0.0204917 0.246492 0.002651
0.312484 0.0258674 0.238829 7.27879e-05
0.31852 0.0159373 0.262154 0.00195696
0.308369 0.0207819 0.254368 0.000217739
0.270302 -0.41027 0.180629 0.00341953
0.248264 -0.401549 0.180761 0.00460054
0.249474 -0.410457 0.193861 0.00344014
0.227924 -0.404434 0.194173 0.00221698
-0.0354293 0.883886 -0.127444 0.00104613
-0.0495199 0.888025 -0.130503 0.00286111
-0.0398322 0.884949 -0.115296 0.0116969
-0.0544071 0.888336 -0.117992 0.00724334
0.188757 0.134804 -0.107875 0.00364421
0.179985 0.137644 -0.110949 0.00578954
0.184451 0.131391 -0.0969411 0.00213352
0.175623 0.134544 -0.101257 0.00523428
-0.0189242 -0.177819 -0.348224 0.000533639
-0.0355537 -0.177618 -0.348945 0.00534404
-0.0334183 -0.182253 -0.341172 0.00346103
-0.0498839 -0.181822 -0.340961 0.00115902
-0.0639485 0.112699 -0.026602 0.00849137
-0.074687 0.115148 -0.029775 0.0066278
-0.0726272 0.109925 -0.0112309 0.00644631
-0.0829355 0.112288 -0.0154601 0.00554334
0.119299 0.435513 -0.216197 0.00719446
0.0998524 0.443674 -0.21783 0.00242296
0.105093 0.434799 -0.205917 0.00446246
0.0832444 0.443272 -0.207141 0.000251219
-0.298042 -0.807698 0.21687 0.0020311
-0.296284 -0.78799 0.21959 0.00304226
-0.31244 -0.808559 0.225548 0.00489486
-0.310195 -0.788395 0.228402 0.00219041
-0.0982462 0.0535039 0.113263 0.00584439
-0.110071 0.0564501 0.110437 0.00777676
-0.101439 0.0471205 0.127005 0.00434313
-0.113375 0.0489601 0.122455 0.00457217
-0.299218 -0.157112 0.439931 0.000688474
-0.296186 -0.141064 0.441613 0.00250672
-0.299019 -0.153249 0.448491 0.00186232
-0.296009 -0.13714 0.450322 0.00157695
0.496299 -0.708876 0.0826524 0.00364505
0.49532 -0.692254 0.08629 0.00418159
0.493937 -0.707072 0.0956709 0.00402881
0.494117 -0.690491 0.098328 0.00182021
0.118545 -0.137206 -0.423663 0.00018486
0.104218 -0.13031 -0.427409 0.010588
0.110397 -0.143575 -0.411081 0.00770195
0.0953888 -0.137511 -0.415367 0.00104269
0.410286 -0.444909 0.122771 0.00362176
0.408842 -0.428042 0.121404 0.00118183
0.404963 -0.444653 0.135081 0.00124587
0.403593 -0.427924 0.133633 0.0021547
0.0929588 0.902425 -0.144209 0.00105831
0.0833398 0.905271 -0.148258 0.00479661
0.0790507 0.900359 -0.138724 0.00504732
0.0687621 0.904582 -0.141687 0.00101332
-0.281638 -0.0527118 0.448976 0.00496648
-0.280128 -0.0389417 0.442342 0.00585778
-0.276289 -0.0549086 0.461062 0.00345622
-0.276496 -0.0427679 0.454847 0.00605498
0.316956 0.0570924 -0.0011154 0.00804305
0.307005 0.0645599 -0.00471849 0.000864264
0.317008 0.0564394 0.0124745 0.00393617
0.307358 0.0636594 0.00771418 0.00260872
0.0370785 -0.0653025 0.371679 0.00168146
0.0211257 -0.0592722 0.370322 0.00627377
0.0310079 -0.0638088 0.380172 0.00540125
0.0158567 -0.0588657 0.378842 0.000557678
-0.261772 -0.435193 0.102921 0.00468202
-0.271336 -0.428908 0.0923088 0.00315669
-0.262015 -0.44282 0.117291 0.00273776
-0.270366 -0.436001 0.1085 0.00440542
-0.387393 -0.541115 -0.460586 0.000427052
-0.382835 -0.523085 -0.455202 0.00468529
-0.393506 -0.537546 -0.445947 0.00775602
-0.388213 -0.520422 -0.442567 0.00181541
0.168581 0.0745332 0.088352 0.00442402
0.160162 0.0761904 0.0825015 0.00466759
0.160516 0.0684607 0.10654 0.00456377
0.152266 0.0708897 0.0998811 0.00403325
-0.416695 0.530554 -0.0746857 0.00085669
-0.415872 0.540299 -0.0732681 0.00050551
-0.429149 0.527759 -0.0702184 0.00280582
-0.427045 0.537863 -0.0696343 0.00227635
-0.322363 0.280409 -0.100898 8.32807e-05
-0.325135 0.293773 -0.101371 0.0029157
-0.321382 0.276088 -0.0896831 0.00721485
-0.323848 0.289747 -0.0908216 0.00373722
0.330884 0.0579895 -0.0607008 0.0012492
0.324764 0.0602058 -0.0686174 0.00169686
0.335125 0.0581288 -0.0493737 0.00260325
0.326899 0.0622591 -0.0547987 0.00488647
0.364581 -0.000288125 0.104609 0.00117441
0.350344 0.00719499 0.104908 0.000213602
0.359727 -0.00496587 0.122799 0.000276416
0.346734 0.00273482 0.121558 0.00777625
0.166902 0.446417 -0.200296 0.00541299
0.152367 0.452431 -0.203865 0.012261
0.147553 0.443567 -0.191384 0.0020185
0.131375 0.449191 -0.195329 0.0049762
-0.0907398 0.0902589 0.00953799 0.00297809
-0.102265 0.0942851 -0.000911425 0.00272519
-0.0933953 0.0842086 0.0270298 0.00376356
-0.105509 0.0886559 0.015129 0.00339649
-0.23693 0.0068233 0.236637 0.00350654
-0.247 0.00410638 0.226667 0.00187997
-0.240009 0.00215604 0.247174 0.00263416
-0.249629 -0.000258497 0.237452 0.00222186
-0.309157 -0.303947 -0.25829 0.00181158
-0.308647 -0.29267 -0.258666 3.13879e-05
-0.311885 -0.30832 -0.247961 0.00518861
-0.312932 -0.296478 -0.248805 0.00390611
-0.275726 -0.307374 0.41168 0.00560517
-0.280411 -0.289456 0.41592 0.00522862
-0.275235 -0.303805 0.417725 0.00132131
-0.279259 -0.285005 0.423201 0.00112967
0.173765 -0.000431134 -0.344187 0.000408006
0.173994 0.0158067 -0.34508 0.00142368
0.179387 -0.00426622 -0.330354 0.00179357
0.179482 0.0135269 -0.331459 0.00120849
-0.397834 0.784646 0.019552 0.00401282
-0.409231 0.799114 0.0201748 0.00877577
-0.40058 0.788336 0.0342055 0.0034151
-0.412167 0.802225 0.0344241 0.00585246
-0.203017 -0.0086294 0.314426 0.00718203
-0.216387 -0.00628331 0.311294 0.00629926
-0.212827 -0.0100409 0.326618 0.00475429
-0.225009 -0.00767343 0.322329 0.00420221
-0.300031 -0.0448113 0.212962 0.000195224
-0.310576 -0.0395323 0.204926 0.00189585
-0.301699 -0.0493538 0.229885 0.000272604
-0.311586 -0.0429701 0.221023 0.00394277
0.160274 0.07402 0.0601176 0.00612943
0.1522 0.0749552 0.0557588 0.00549157
0.15547 0.068908 0.069079 0.00434746
0.147586 0.0700453 0.0641743 0.00383891
0.230946 0.147459 -0.165826 0.00093127
0.223191 0.150474 -0.175587 0.00187973
0.230768 0.141896 -0.152557 0.00240209
0.221084 0.145264 -0.160426 0.00265465
-0.0580546 0.0746426 0.0948922 0.00129571
-0.0653548 0.0787438 0.0857473 0.000624973
-0.0656332 0.0698297 0.111238 0.000645793
-0.072785 0.0735098 0.102999 0.000164167
0.310568 0.137317 -0.0864134 0.00611619
0.301427 0.143796 -0.0945123 0.00363032
0.307896 0.134696 -0.0709999 0.00264439
0.298828 0.140827 -0.0783479 3.89169e-05
-0.217662 -0.00715679 0.275213 0.00293727
-0.231291 -0.00268163 0.267382 0.00471782
-0.220037 -0.0119287 0.288247 0.00285914
-0.235394 -0.00902537 0.282083 0.00378802
-0.167259 0.66175 -0.102549 0.00601414
-0.187209 0.673223 -0.102629 0.00683979
-0.185445 0.654841 -0.091712 0.0117003
-0.206809 0.665429 -0.0927719 0.00312855
-0.364273 0.0622075 -0.154079 0.00080892
-0.370655 0.0714006 -0.159017 0.00348044
-0.358509 0.0669855 -0.14317 0.00383714
-0.364251 0.0746714 -0.14779 0.000375067
-0.267466 0.685412 -0.081483 0.00456948
-0.282348 0.693362 -0.0822246 0.00621102
-0.281829 0.683231 -0.0685647 0.00245467
-0.296486 0.688123 -0.0663787 0.0053022
-0.267545 -0.155534 0.388711 0.00260091
-0.267204 -0.141481 0.392181 0.00514096
-0.265614 -0.151013 0.403912 0.00949694
-0.264633 -0.138398 0.406582 0.0069866
0.4821 -0.358725 0.187737 0.0037569
0.485831 -0.33972 0.193385 0.000589732
0.473423 -0.355114 0.200074 0.00251134
0.476924 -0.33685 0.205435 0.000896712
0.496872 -0.632823 0.105432 2.75362e-05
0.499424 -0.616793 0.106456 0.00190052
0.486575 -0.636458 0.114582 0.000433061
0.487946 -0.619903 0.115691 0.00114593
0.217459 0.00628716 0.248093 0.00842202
0.199359 0.00739666 0.244105 0.00830794
0.208794 0.00576446 0.263718 0.0102585
0.191294 0.0055341 0.260379 0.0114312
0.234054 0.0989345 -0.366783 0.00665382
0.231443 0.116932 -0.357016 0.00242498
0.220662 0.10493 -0.359776 0.000499949
0.218587 0.124326 -0.349635 0.00317028
-0.266125 -0.457136 0.278433 0.00289768
-0.271122 -0.451281 0.278368 0.00492654
-0.272355 -0.463326 0.293241 0.0126747
-0.274996 -0.45518 0.293016 0.00997499
-0.428355 0.497044 -0.0661805 0.00101139
-0.429461 0.511407 -0.0633459 0.00135652
-0.435484 0.497223 -0.0607947 0.00491342
-0.438884 0.512383 -0.0576101 0.00609969
-0.30326 -0.343377 0.341832 0.00317469
-0.300681 -0.323132 0.346076 0.00291607
-0.302599 -0.337512 0.357244 0.000912356
-0.300545 -0.317772 0.36097 0.00156479
0.201184 0.326518 -0.258411 0.000872304
0.20269 0.345452 -0.251629 0.000424684
0.203728 0.330011 -0.245446 0.00169075
0.205193 0.350711 -0.240373 0.00105287
0.170409 -0.430816 0.219015 0.00442961
0.155566 -0.428492 0.217819 0.00417661
0.162368 -0.430276 0.231075 1.7617e-05
0.147832 -0.427473 0.229745 0.00267514
0.120487 -0.136407 -0.413502 0.00150463
0.104626 -0.13038 -0.417595 0.00671181
0.108411 -0.143513 -0.399918 0.00478866
0.0925319 -0.138185 -0.405198 0.000637694
-0.151062 -0.20219 -0.355159 3.73812e-05
-0.169971 -0.197938 -0.361339 0.00311185
-0.173274 -0.200327 -0.339051 0.00786692
-0.192149 -0.200187 -0.346689 0.00329089
-0.236105 -0.692371 0.249718 0.00307229
-0.232607 -0.675801 0.25384 0.00465638
-0.244284 -0.698004 0.257042 0.00764066
-0.240819 -0.681429 0.260834 0.0055372
-0.399193 0.448814 -0.0384751 0.00408575
-0.415615 0.464344 -0.0387069 0.000168828
-0.393438 0.457875 -0.0290181 0.0004843
-0.413055 0.472648 -0.0302755 0.00238336
0.287095 0.409728 -0.208995 0.0033673
0.291606 0.424937 -0.208554 0.000816505
0.285432 0.410165 -0.19786 0.00200081
0.289531 0.424724 -0.1978 0.000953867
0.0719238 0.449437 -0.190639 0.00633135
0.049806 0.455822 -0.192669 0.0127064
0.0517189 0.451417 -0.177104 0.00264231
0.0303982 0.457567 -0.179632 0.00231186
-0.244702 -0.150784 0.479241 0.000800095
-0.238627 -0.136363 0.484904 0.00104064
-0.254132 -0.146877 0.483772 5.29226e-05
-0.250793 -0.133129 0.488618 0.000377071
0.519219 -0.847871 0.0212074 0.0112177
0.518437 -0.827855 0.0263558 0.00941517
0.503402 -0.853038 0.0334931 0.00110472
0.502898 -0.83272 0.0386771 0.00639879
-0.387421 0.258828 -0.103506 0.00393942
-0.391929 0.278535 -0.0999566 0.0027681
-0.383729 0.263977 -0.0897898 0.00183981
-0.388845 0.283392 -0.0868805 0.00219685
-0.125707 -0.0522193 0.416408 0.0085418
-0.132995 -0.0525578 0.411621 0.00624242
-0.135174 -0.0557945 0.427718 0.00928775
-0.143095 -0.0559981 0.423594 0.00735332
0.0571651 -0.154917 -0.378393 0.00590346
0.0412822 -0.15026 -0.381718 0.00530471
0.0427275 -0.154653 -0.362296 0.00538827
0.0262322 -0.15061 -0.365488 0.00372249
0.0564915 -0.430976 0.242832 0.00154006
0.0390291 -0.428628 0.241394 0.00131756
0.0457128 -0.43455 0.250352 0.00269883
0.0287365 -0.432337 0.248369 0.00132794
0.0710443 -0.00582114 0.266653 0.00415333
0.0634613 -0.00225537 0.260331 0.00548415
0.0646337 -0.0100232 0.283011 0.00576974
0.0558573 -0.00622729 0.276822 0.00735639
-0.404387 0.387749 -0.120034 0.00348755
-0.405063 0.403042 -0.120679 0.00723009
-0.40291 0.389879 -0.105002 0.00786461
-0.403514 0.406856 -0.105146 0.00561177
0.165123 -0.18436 -0.44605 0.0110009
0.142327 -0.184012 -0.449868 0.0120141
0.156722 -0.174979 -0.435029 0.00582958
0.137634 -0.172908 -0.437808 0.00207482
0.149978 -0.145849 -0.441811 0.000731744
0.134898 -0.138933 -0.440021 0.00507911
0.143695 -0.144574 -0.428355 0.00749824
0.128621 -0.137706 -0.430595 0.00136623
0.347946 0.0376752 0.18301 0.00756169
0.339824 0.0425734 0.175631 0.00548023
0.34342 0.0341955 0.201041 0.00462176
0.33603 0.0382577 0.193188 0.0033881
-0.246024 0.432764 -0.152669 0.000633146
-0.257511 0.442053 -0.151946 0.00133183
-0.257261 0.423835 -0.140048 0.00291515
-0.268085 0.434475 -0.138695 0.00714481
0.234786 -0.34234 -0.5289 0.00637451
0.238537 -0.325093 -0.526895 0.0106307
0.228147 -0.343848 -0.515845 0.00137775
0.232032 -0.327028 -0.513337 0.00159879
0.203051 -0.33661 -0.473644 0.00228929
0.204161 -0.32241 -0.469337 0.00480307
0.198605 -0.332196 -0.465845 0.000952014
0.197121 -0.317926 -0.460145 0.00103062
-0.254394 -0.235763 0.358919 0.000939176
-0.260017 -0.220128 0.364197 0.00107266
-0.248099 -0.225973 0.368555 0.00198429
-0.254727 -0.210707 0.372603 0.00224144
-0.105604 0.142496 -0.121041 0.0081132
-0.119339 0.147263 -0.130356 0.009306
-0.110477 0.139717 -0.101146 0.0112211
-0.122928 0.143443 -0.108719 0.010502
-0.280996 -0.460338 0.360624 0.00305752
-0.283708 -0.440096 0.36351 0.0048414
-0.27734 -0.455128 0.369582 0.00273431
-0.280261 -0.434561 0.372731 0.000137968
0.171059 0.0146896 -0.354109 0.000617427
0.172439 0.0300045 -0.354608 0.000607712
0.174838 0.0128227 -0.339331 0.000530092
0.175602 0.0301844 -0.340239 0.00190227
0.192562 0.194468 -0.249854 0.00764837
0.184047 0.207606 -0.248978 0.00683715
0.189009 0.193768 -0.237636 0.00643936
0.179293 0.20601 -0.23763 0.00494765
0.46178 -0.388159 0.112256 0.000286981
0.451035 -0.373776 0.110378 0.00370313
0.470387 -0.384257 0.124192 0.00458729
0.459925 -0.369746 0.123106 0.00498539
-0.127185 0.134925 -0.06389 0.00237136
-0.136078 0.13405 -0.0726532 0.00633494
-0.129131 0.130618 -0.0499204 0.00138253
-0.137822 0.129444 -0.0569662 0.00512335
-0.306319 -0.429886 0.325163 0.000239355
-0.306853 -0.411793 0.326277 0.00215878
-0.304782 -0.426241 0.338353 0.00148867
-0.306234 -0.407555 0.339702 0.000420384
-0.259487 -0.725917 0.220417 0.00181462
-0.263738 -0.709848 0.222215 0.000662252
-0.26833 -0.72241 0.221895 0.00260516
-0.272309 -0.706679 0.22346 0.00204844
-0.265664 -0.17647 0.469496 0.00174412
-0.268698 -0.165356 0.474511 0.000846547
-0.27577 -0.168485 0.472823 0.00141365
-0.277547 -0.156743 0.476986 0.00162791
0.112831 0.145553 -0.10209 0.00506721
0.0981564 0.146578 -0.111695 0.00785145
0.112219 0.140423 -0.0818147 0.00173564
0.0991232 0.140719 -0.0922988 0.00580915
0.405666 -0.374343 -0.00918592 0.000438153
0.399646 -0.367149 -0.0183503 0.00257828
0.408716 -0.380586 0.00862497 0.00262083
0.402511 -0.373742 -0.00157989 0.000252912
-0.294293 0.0438356 0.1701 0.00491087
-0.30354 0.0492808 0.160048 0.002672
-0.291839 0.0341036 0.183116 0.00933504
-0.301723 0.0403546 0.171474 0.00726679
0.0489055 0.893316 -0.112532 0.00390418
0.0322012 0.900157 -0.11958 0.0075913
0.0442859 0.892648 -0.0995753 0.0077546
0.0277808 0.899172 -0.106985 0.000427757
0.159432 -0.573036 -0.631769 0.00259757
0.152742 -0.560568 -0.632156 0.00208223
0.160853 -0.566209 -0.615131 0.00159251
0.154904 -0.553426 -0.615027 0.00144732
0.31564 -0.281546 -0.269863 0.0109925
0.303401 -0.277753 -0.279457 0.00421995
0.310318 -0.286217 -0.257725 0.00136051
0.298702 -0.284682 -0.266225 0.00613104
0.130515 0.179165 -0.221423 0.0075998
0.120481 0.183964 -0.231233 0.00887035
0.127808 0.172231 -0.207176 0.00590285
0.1174 0.176436 -0.217215 0.00653301
0.4283 0.056837 0.134282 0.000730866
0.420592 0.0623212 0.125247 3.52863e-06
0.42949 0.0547015 0.151542 0.000308474
0.422826 0.0606946 0.143026 0.00279831
0.49402 -0.350843 0.170717 0.00255369
0.496928 -0.33202 0.176803 0.00548225
0.485696 -0.349929 0.182907 0.00369343
0.489391 -0.330377 0.188945 0.000495197
0.0887911 -0.413267 0.270447 0.00445526
0.0749156 -0.40628 0.271085 0.00273272
0.0765948 -0.417182 0.276602 0.00231107
0.0628265 -0.40998 0.277739 0.000820778
0.10941 0.0584138 0.111894 0.00866802
0.0968852 0.0600333 0.107999 0.0089118
0.103272 0.0523689 0.122584 0.00672174
0.0905768 0.0538094 0.118425 0.00672295
0.0703906 -0.190033 -0.405991 0.0032169
0.0513685 -0.18554 -0.408979 0.00203053
0.0510899 -0.188749 -0.389927 0.00187463
0.0309248 -0.185343 -0.39247 0.00498027
0.23879 -0.0841453 0.313665 0.000732607
0.232718 -0.0751663 0.323154 0.00361044
0.224105 -0.077702 0.320248 0.0004992
0.218357 -0.068667 0.330284 0.00438445
-0.0980358 -0.0661142 0.418155 0.000213172
-0.104559 -0.066296 0.412676 0.00592656
-0.104806 -0.0662657 0.432318 0.0122033
-0.11186 -0.0662634 0.426721 0.00543718
-0.291292 -0.0957486 -0.247867 0.00154942
-0.293188 -0.0817019 -0.249565 0.000987864
-0.293062 -0.0913166 -0.237151 0.000430675
-0.292159 -0.0762605 -0.239512 0.00023588
-0.310239 -0.0452744 0.209066 0.00208862
-0.320966 -0.0388744 0.201483 0.00118022
-0.311942 -0.0498934 0.229351 0.000158666
-0.321469 -0.0435177 0.220781 0.00273174
0.316974 0.0370521 0.178779 0.00967455
0.307383 0.0382739 0.172632 0.0108614
0.312425 0.0321891 0.19858 0.00717717
0.303825 0.0335111 0.191265 0.00868637
0.224348 -0.18472 -0.390792 0.00629188
0.204801 -0.182087 -0.395296 0.0049943
0.227493 -0.175232 -0.381707 0.0109223
0.210995 -0.171002 -0.385378 0.000231637
-0.318769 -0.594978 -0.463537 0.00496214
-0.325159 -0.58126 -0.459536 0.00367463
-0.320554 -0.589037 -0.453702 0.00475919
-0.326908 -0.575364 -0.449897 0.00319958
-0.375712 -0.114969 -0.248089 0.00298175
-0.379877 -0.097254 -0.243121 0.000432974
-0.373908 -0.107733 -0.234792 0.00156272
-0.379732 -0.0883078 -0.229675 0.00272484
0.229938 -0.271562 -0.38552 0.0013611
0.218711 -0.266131 -0.38949 0.00345712
0.226832 -0.272088 -0.368172 0.00479599
0.216402 -0.265517 -0.37207 0.00236078
-0.126065 -0.170219 0.395492 0.0166767
-0.139299 -0.158233 0.398444 0.00283348
-0.149687 -0.167147 0.402246 0.00834755
-0.157 -0.152929 0.406417 0.00601768
0.421052 -0.0375688 0.192385 0.00383642
0.425208 -0.0258556 0.185739 0.00382746
0.419421 -0.0473386 0.206032 0.00694041
0.424504 -0.035032 0.2013 0.0022906
0.288842 0.747804 -0.192035 0.00152944
0.288398 0.765058 -0.190583 0.00266138
0.285083 0.746712 -0.184964 0.00601551
0.28468 0.76353 -0.183098 0.00504925
-0.0972617 -0.0110979 0.314389 0.00864528
-0.108523 -0.00920791 0.308061 0.00907589
-0.105013 -0.0187643 0.331287 0.0103151
-0.114794 -0.0164444 0.323982 0.0105894
-0.29328 -0.0245716 -0.216871 0.00151517
-0.293862 -0.0107157 -0.214776 0.00165752
-0.296738 -0.0254156 -0.20522 0.00022638
-0.296414 -0.011421 -0.203193 0.000419223
-0.227442 -0.0157843 0.345822 0.00376231
-0.234355 -0.0115936 0.337816 0.00268427
-0.237764 -0.0221312 0.360955 0.00487805
-0.243798 -0.0176905 0.352583 0.00342797
-0.18571 0.696854 -0.117883 0.00435256
-0.206661 0.709002 -0.116904 0.0099964
-0.20183 0.689606 -0.10548 0.0126096
-0.221216 0.700443 -0.106493 0.00175036
0.00976807 0.0136241 0.22969 0.00663791
-0.00224727 0.0158105 0.224058 0.00665592
0.00646626 0.0114736 0.248535 0.010526
-0.00409205 0.0142058 0.24116 0.0111192
-0.0669808 0.472682 -0.171176 0.00114155
-0.0832528 0.475976 -0.173714 0.00115301
-0.0831085 0.470659 -0.160834 0.0031351
-0.098571 0.472783 -0.163065 0.002094
-0.0806101 -0.123092 0.392735 0.00423655
-0.09043 -0.112223 0.397587 0.00189818
-0.0974852 -0.127032 0.39844 0.00653807
-0.108143 -0.115099 0.402628 0.00375815
0.290075 0.0901131 -0.094656 0.0152138
0.283564 0.0964528 -0.100618 0.0119115
0.287747 0.0853942 -0.079321 0.00770622
0.280264 0.0913226 -0.0836285 0.00311825
0.316989 0.150649 -0.12133 0.00844347
0.310156 0.159451 -0.129452 0.00346681
0.323406 0.146104 -0.107757 0.00651092
0.31592 0.154613 -0.115607 0.00242655
0.309632 -0.0551688 0.306216 0.00104643
0.299216 -0.051273 0.297304 0.0108596
0.302692 -0.0621273 0.318459 0.0128039
0.293564 -0.0574034 0.311976 0.00308698
-0.2499 -0.870688 0.249192 0.000205067
-0.252063 -0.850705 0.252213 0.00331146
-0.262038 -0.87366 0.25567 0.00141966
-0.265258 -0.854199 0.258547 0.000846255
0.37645 -0.383814 -0.100562 0.00575491
0.367147 -0.372117 -0.110318 0.00253434
0.378969 -0.389305 -0.0826844 0.00226734
0.368333 -0.376927 -0.0942276 0.00649065
-0.187147 0.0428511 0.176025 0.00499443
-0.196938 0.0466478 0.165749 0.00459567
-0.194279 0.0345116 0.192595 0.00800952
-0.203763 0.0371383 0.182407 0.00832555
-0.343181 -0.352224 -0.134331 0.00184609
-0.347257 -0.342681 -0.141692 0.00163523
-0.341474 -0.357931 -0.11654 0.00186382
-0.346109 -0.34847 -0.122925 0.00275142
-0.259985 -0.491552 0.194377 0.0049865
-0.261567 -0.482258 0.187921 9.30837e-05
-0.262551 -0.494622 0.209288 0.000417431
-0.263351 -0.485233 0.202744 0.00390632
-0.381996 0.0888509 -0.0582117 0.00109056
-0.379913 0.102394 -0.065291 0.00143936
-0.382899 0.0837693 -0.0404906 0.000141862
-0.381854 0.09868 -0.0481079 0.00167926
-0.0195374 -0.444938 0.293291 0.00127697
-0.030692 -0.442262 0.290028 0.0075213
-0.0313617 -0.445701 0.30247 0.00175924
-0.0458362 -0.443667 0.298377 0.00503843
0.350203 -0.366109 -0.151036 0.00408506
0.350111 -0.354052 -0.156529 0.00130477
0.35623 -0.370355 -0.132151 0.000825131
0.351068 -0.358638 -0.139639 0.00625698
-0.28069 -0.375058 -0.0418034 0.00424148
-0.29125 -0.367507 -0.0546171 0.00292659
-0.281175 -0.381024 -0.024054 0.00191235
-0.290987 -0.373174 -0.0372631 0.00328863
-0.324278 0.0789874 -0.220595 0.000705559
-0.340183 0.0865438 -0.224936 0.00251851
-0.321298 0.0911881 -0.211343 0.00193132
-0.337405 0.0981661 -0.216365 0.00121442
0.275651 0.714748 -0.138458 0.0149867
0.268391 0.730152 -0.135496 0.00807675
0.261124 0.710019 -0.134434 0.00114156
0.251159 0.724114 -0.131736 0.00770692
0.142046 0.0697411 0.0863571 0.00910759
0.13417 0.0710931 0.0810457 0.00930481
0.140161 0.0643908 0.0983826 0.00958187
0.131403 0.065086 0.0932252 0.008609
-0.301148 -0.643137 0.246158 0.00127456
-0.305195 -0.625722 0.249466 0.00186265
-0.311894 -0.640855 0.251248 0.00445284
-0.316096 -0.622711 0.254751 0.00830249
0.20936 0.0919947 0.0411831 0.0035952
0.19729 0.0931381 0.0349806 0.00442533
0.201972 0.087803 0.0595989 0.00148933
0.190299 0.0884321 0.0530705 0.0029142
0.367291 0.0589282 0.145267 0.000441
0.354567 0.0632615 0.136008 0.000483412
0.366392 0.0519822 0.160448 0.00200542
0.355525 0.0567113 0.152944 9.22348e-05
0.113848 0.11509 -0.014632 0.000935781
0.105936 0.116928 -0.0252953 0.00315601
0.11285 0.109362 -0.00191178 0.00161858
0.104909 0.111336 -0.0112089 0.00322613
-0.37644 -0.587939 -0.454937 0.000301776
