-0.44476 0.684778 0.11983 0.0026013
-0.442715 0.707453 0.121417 0.00101361
0.249854 -0.599801 0.122453 2.15049e-05
0.238868 -0.583525 0.123556 0.00112544
0.230347 -0.616781 0.121241 0.00118951
0.221111 -0.600297 0.122199 0.000232418
0.418565 -0.629013 -0.0314987 0.00153583
0.400184 -0.623688 -0.0432004 0.000630377
0.418366 -0.633236 -0.00981899 0.00557463
0.402009 -0.625087 -0.020799 0.00141398
-0.420098 -0.26037 0.122198 0.00023259
-0.435026 -0.240493 0.121187 0.00124407
-0.435943 -0.270236 0.124241 0.00181022
-0.450837 -0.251585 0.122743 0.000312413
0.170608 -0.402611 -0.125447 0.00115908
0.155594 -0.383643 -0.126439 0.000166476
0.152743 -0.413435 -0.127677 0.00106538
0.139386 -0.393898 -0.129019 0.00240743
-0.225462 0.841071 -0.0987702 0.00814901
-0.246232 0.847445 -0.0967603 0.00179569
-0.238682 0.853523 -0.0870865 0.00428214
-0.259601 0.859612 -0.0846275 0.0103706
-0.0401582 0.703476 0.123243 0.000811937
-0.0550253 0.731071 0.121241 0.00119047
-0.0597826 0.686296 0.124304 0.00187262
-0.0746277 0.712037 0.122764 0.000333163
-0.416164 -0.859455 -0.122908 0.000332858
-0.430213 -0.849713 -0.13144 0.00552993
-0.42968 -0.868353 -0.109933 0.00909877
-0.443731 -0.858765 -0.118264 0.000396099
0.729189 0.328193 -0.111239 0.00565324
0.723442 0.351391 -0.108437 0.0165552
0.716641 0.324068 -0.108185 0.00307957
0.709604 0.346016 -0.105837 0.019837
0.305854 -0.555633 -0.126101 0.000440535
0.298903 -0.535585 -0.125796 0.000800167
0.286218 -0.570468 -0.126983 0.000375789
0.278861 -0.549584 -0.127954 0.00135823
-0.432689 -0.734104 0.121563 0.000868072
-0.443188 -0.716906 0.120717 0.00171426
-0.447397 -0.744913 0.120486 0.00194487
-0.459992 -0.72851 0.118449 0.00398205
0.677618 0.350261 0.122293 0.000137744
0.662281 0.362147 0.123071 0.00063962
0.660994 0.334486 0.121386 0.00104511
0.644396 0.345649 0.122257 0.000174319
0.486853 -0.771769 -0.121479 0.00461938
0.468001 -0.766168 -0.125681 0.000410717
0.475637 -0.78275 -0.121055 0.00504319
0.455312 -0.778321 -0.1257 0.000398405
-0.639028 -0.471636 -0.00595679 0.0155274
-0.662795 -0.469798 -0.00503018 0.00149038
-0.650089 -0.466135 0.010256 0.00409298
-0.672679 -0.464746 0.010648 0.00719481
0.141609 0.475171 -0.129077 0.0025439
0.133566 0.504122 -0.12885 0.00233125
0.127052 0.460281 -0.125401 0.00113319
0.118234 0.488603 -0.126054 0.000474872
-0.0635185 -0.396442 0.123692 0.00126058
-0.0695266 -0.373367 0.123153 0.000721755
-0.0825009 -0.410113 0.122313 0.000117903
-0.088492 -0.385705 0.121293 0.00113839
-0.1165 0.600123 -0.124451 0.00216709
-0.12878 0.617362 -0.12426 0.00236141
-0.139728 0.584581 -0.129709 0.00308813
-0.151272 0.600492 -0.129932 0.00330392
-0.163464 -0.675896 -0.127704 0.00154502
-0.171844 -0.650517 -0.12687 0.000393084
-0.178872 -0.690216 -0.128074 0.00197557
-0.197681 -0.666611 -0.128321 0.00218993
0.113206 0.531881 -0.130388 0.00395714
0.105117 0.560951 -0.126864 0.000394862
0.0943508 0.515501 -0.129375 0.00288414
0.0861905 0.543573 -0.125726 0.00078684
0.50303 -0.852216 -0.0322636 0.00148815
0.492261 -0.854536 -0.0484731 0.00159327
0.496721 -0.853922 -0.00443627 8.99279e-06
0.482844 -0.86097 -0.0251702 0.00314681
0.849235 0.426021 -0.0410189 0.00154742
0.846632 0.453202 -0.0434448 0.00415054
0.853621 0.423826 -0.0186136 0.00283889
0.851046 0.45071 -0.019796 0.000237819
-0.314391 -0.381327 0.123032 0.000600802
-0.327249 -0.360672 0.124261 0.00182987
-0.3401 -0.395361 0.120149 0.00228154
-0.35117 -0.37172 0.120748 0.00168302
0.537751 -0.551142 0.121677 0.000729118
0.547222 -0.534233 0.121096 0.0013352
0.523461 -0.564973 0.134697 0.0122661
0.531823 -0.546458 0.133509 0.0110782
0.376432 -0.376866 -0.126307 0.000183905
0.368367 -0.352722 -0.125996 0.000519137
0.354116 -0.39533 -0.127691 0.00115366
0.345609 -0.371735 -0.127576 0.00104115
-0.537296 0.16665 -0.127673 0.00115256
-0.552755 0.186328 -0.127555 0.00101325
-0.553478 0.150912 -0.1267 0.000201651
-0.570098 0.170677 -0.127092 0.000567134
-0.864002 0.453569 0.0611654 0.00614741
-0.855536 0.477218 0.0593636 0.00189431
-0.856403 0.451571 0.0826774 0.00145165
-0.850221 0.476562 0.0831258 0.00692329
-0.146071 -0.592532 0.122528 9.65621e-05
-0.156412 -0.570399 0.123084 0.000653091
-0.161706 -0.609 0.1216 0.000831378
-0.173569 -0.588366 0.122343 8.81974e-05
-0.523239 0.684241 0.0815622 0.00323071
-0.529974 0.702885 0.0783218 0.0034911
-0.5254 0.675939 0.0905007 0.00103469
-0.533817 0.693781 0.0879939 0.00733509
-0.0523132 0.318864 0.124719 0.0022879
-0.0606504 0.337923 0.123892 0.00146105
-0.0641821 0.300524 0.119494 0.00293657
-0.072723 0.32183 0.118788 0.00364324
-0.422007 -0.56032 0.12292 0.000488641
-0.433205 -0.542108 0.12365 0.00121921
-0.446314 -0.577555 0.119158 0.00327307
-0.456731 -0.558088 0.119702 0.00272861
-0.653149 -0.0760611 -0.127026 0.000457383
-0.665073 -0.0580844 -0.126381 8.45467e-05
-0.674493 -0.0939199 -0.129651 0.00327752
-0.68487 -0.0760285 -0.128922 0.00268746
-0.270157 0.137566 0.122715 0.000284421
-0.287795 0.156079 0.122752 0.000321048
-0.284144 0.126135 0.121878 0.000552607
-0.302665 0.143957 0.12223 0.00020085
-0.560723 -0.498821 0.119544 0.00288678
-0.580101 -0.48357 0.119864 0.00256672
-0.57524 -0.491632 0.122519 8.83664e-05
-0.594987 -0.477594 0.122543 0.000111582
-0.156511 -0.247785 0.121134 0.0012971
-0.173559 -0.234156 0.120629 0.00180179
-0.171698 -0.26157 0.122257 0.000174326
-0.188508 -0.247822 0.121987 0.000444082
-0.672044 -0.105093 0.123051 0.00061969
-0.684526 -0.0870257 0.123357 0.000925976
-0.691041 -0.117527 0.121387 0.00104438
-0.70193 -0.0985682 0.121136 0.00129543
-0.161092 0.789649 0.119728 0.00270255
-0.180773 0.805888 0.111152 0.0112793
-0.18407 0.768398 0.12354 0.00110892
-0.200683 0.786628 0.116758 0.00567277
-0.531221 -0.430412 -0.125947 0.000403325
-0.541706 -0.411206 -0.126167 0.00023891
-0.555211 -0.44654 -0.126855 0.000756837
-0.564302 -0.42698 -0.127587 0.00148884
-0.00884232 -0.446222 -0.122454 0.00419646
-0.018114 -0.421948 -0.124583 0.00207058
-0.0307141 -0.462528 -0.127723 0.00107495
-0.0391916 -0.437218 -0.1293 0.00264817
-0.775472 -0.11254 -0.125437 0.000660934
-0.784912 -0.0952153 -0.12429 0.00180791
-0.800587 -0.125732 -0.127012 0.000913895
-0.811133 -0.108103 -0.125934 0.000164263
-0.0199613 0.461826 -0.126324 0.000252674
-0.0356679 0.48212 -0.127939 0.00135728
-0.0415966 0.446568 -0.126924 0.000341217
-0.0595107 0.464612 -0.128237 0.00164143
-0.110569 0.798175 -0.125459 0.000639208
-0.129238 0.816511 -0.124358 0.00173992
-0.129783 0.791186 -0.124086 0.00201174
-0.149265 0.809665 -0.123974 0.00212355
0.48599 -0.724876 -0.132375 0.00631953
0.485473 -0.70918 -0.133953 0.00792207
0.492579 -0.730898 -0.116946 0.00912329
0.493043 -0.713372 -0.119362 0.00671348
0.461249 0.778419 0.122349 8.16931e-05
0.445735 0.791235 0.117386 0.00504544
0.448385 0.765405 0.126723 0.00429174
0.431658 0.778923 0.122769 0.000338102
0.0558448 -0.808683 0.121439 0.000992258
0.0277303 -0.80521 0.121896 0.000535411
0.0336159 -0.811439 0.12394 0.00150918
0.00493564 -0.808812 0.124237 0.00180614
0.0660638 -0.0122516 -0.12578 0.000807137
0.063322 0.0147129 -0.127454 0.000866076
0.0479521 -0.0304875 -0.125123 0.00146136
0.0448726 -0.00465568 -0.127268 0.000677262
-0.155472 0.162699 0.120815 0.00161565
-0.174289 0.185942 0.120848 0.0015825
-0.169493 0.147575 0.122867 0.000435675
-0.186651 0.169605 0.123268 0.000836673
0.21475 0.00379981 -0.123532 0.00302944
0.211237 0.027833 -0.123669 0.00288634
0.198396 -0.0121283 -0.129063 0.00249615
0.196317 0.00810756 -0.1288 0.00223981
0.0259383 -0.0966568 -0.124887 0.00169621
0.0160498 -0.0713283 -0.126229 0.000334408
0.00496112 -0.108899 -0.126102 0.000488209
-0.00412203 -0.0813694 -0.127621 0.00105585
0.466162 0.156385 0.123853 0.0014225
0.457098 0.177436 0.123703 0.00127202
0.447362 0.144017 0.122242 0.000189056
0.438254 0.164682 0.122572 0.000140714
-0.559411 0.50883 -0.130505 0.00440656
-0.583299 0.520255 -0.124117 0.00192049
-0.572507 0.515728 -0.126955 0.000857122
-0.597288 0.525498 -0.120548 0.00540057
-0.193874 0.527135 0.122974 0.000543105
-0.198241 0.547565 0.122685 0.000254418
-0.208721 0.508625 0.122127 0.000303542
-0.213131 0.530151 0.121922 0.000509006
0.218525 0.365025 -0.123752 0.00285409
0.211974 0.390731 -0.126031 0.000578437
0.197895 0.349586 -0.126013 0.000569941
0.192549 0.376044 -0.12836 0.00177246
-0.411437 0.61129 0.0414863 0.00241828
-0.43272 0.612024 0.0322599 0.00750188
-0.408497 0.622746 0.0624557 0.00233523
-0.429666 0.623114 0.0528145 0.00344531
0.18884 -0.76009 0.122387 4.37547e-05
0.174344 -0.74215 0.12203 0.000400988
0.163385 -0.76625 0.124976 0.00254488
0.149198 -0.746065 0.123839 0.00140815
-0.590992 0.0812627 -0.126139 0.00038739
-0.597247 0.108154 -0.126642 0.000173512
-0.608538 0.0662098 -0.126583 3.10724e-05
-0.615789 0.0906579 -0.126893 0.000360109
-0.0546368 0.186527 -0.126639 0.000152802
-0.0790554 0.211916 -0.125798 0.000680566
-0.0686321 0.175576 -0.126343 0.000176428
-0.0935717 0.199092 -0.125623 0.000864609
-0.621358 -0.458136 -0.068687 0.0180804
-0.647202 -0.450356 -0.0722071 0.00608348
-0.620631 -0.45446 -0.0500268 0.0170439
-0.645758 -0.448893 -0.0523312 0.0063686
-0.307721 0.376557 -0.126327 0.000145457
-0.319613 0.397154 -0.125067 0.00142332
-0.32609 0.361646 -0.127101 0.000653682
-0.339374 0.38236 -0.125979 0.000506899
0.408345 0.849129 -0.0736567 0.000112098
0.379925 0.847709 -0.0794103 0.00153242
0.398462 0.854102 -0.0579548 0.00486078
0.369701 0.85206 -0.0645355 0.0028189
0.251518 0.48404 0.123404 0.000973086
0.234705 0.511325 0.120908 0.0015235
0.226342 0.46728 0.121971 0.000460011
0.209301 0.495779 0.119643 0.00278845
-0.81143 -0.24301 -0.12702 0.000922463
-0.813988 -0.226623 -0.129009 0.00291052
-0.829991 -0.252077 -0.120931 0.0051454
-0.832828 -0.235504 -0.121968 0.00407674
0.175263 -0.85184 -0.127157 0.0012836
0.148801 -0.843832 -0.135854 0.0099042
0.166064 -0.860129 -0.113518 0.000906014
0.140377 -0.854357 -0.123105 0.0027227
-0.413467 -0.289963 0.122146 0.000285213
-0.427776 -0.27165 0.121127 0.00130417
-0.430796 -0.304636 0.123728 0.00129703
-0.442895 -0.287251 0.122532 0.000100861
0.0346966 -0.497643 0.123395 0.000963765
0.0297839 -0.475583 0.122589 0.00015756
0.0155143 -0.51046 0.123605 0.00117389
0.0116432 -0.488857 0.121479 0.000952301
-0.250446 0.819781 -0.1378 0.0117022
-0.267815 0.823831 -0.136581 0.0105154
-0.256567 0.833625 -0.123078 0.00288611
-0.273992 0.838909 -0.120973 0.00493814
0.190427 -0.576672 -0.125295 0.0013141
0.182517 -0.560432 -0.127581 0.000969593
0.173584 -0.59096 -0.124882 0.00173036
0.16438 -0.574453 -0.127752 0.00113789
-0.503691 -0.808454 -0.133449 0.00740743
-0.508308 -0.78363 -0.130666 0.00466747
-0.519558 -0.809401 -0.117675 0.00684164
-0.525777 -0.784461 -0.116361 0.000509093
0.276947 -0.817813 0.117606 0.00482543
0.252326 -0.803777 0.121109 0.00132227
0.253391 -0.811439 0.121316 0.00111514
0.22996 -0.802314 0.124871 0.0024396
-0.400426 -0.36146 -0.12531 0.00131006
-0.416071 -0.346268 -0.124481 0.00213194
-0.41677 -0.379784 -0.128612 0.00199019
-0.432329 -0.362208 -0.127628 0.00101607
0.064482 -0.325492 -0.126986 0.000370455
0.0539615 -0.301984 -0.127035 0.000421233
0.0465262 -0.346556 -0.127465 0.000840151
0.0359245 -0.325599 -0.126966 0.000343163
-0.274102 -0.334545 0.124183 0.00175232
-0.295828 -0.319973 0.125638 0.00320741
-0.294497 -0.34854 0.119972 0.00245883
-0.313933 -0.332559 0.121463 0.000968379
0.452273 -0.546542 -0.124145 0.00195269
0.447393 -0.523451 -0.12385 0.00235555
0.434044 -0.566799 -0.127998 0.00189999
0.427771 -0.546227 -0.128311 0.00221232
0.0978285 -0.281809 -0.127598 0.000998519
0.0864445 -0.259294 -0.127624 0.00102412
0.0751587 -0.301683 -0.12661 6.35905e-07
0.0658043 -0.277505 -0.126515 9.24646e-05
0.11324 0.14976 -0.12526 0.00128473
0.10526 0.166024 -0.127344 0.00079943
0.0957768 0.135334 -0.12794 0.00139775
0.0962258 0.156625 -0.12785 0.00131572
0.194737 0.468184 -0.128097 0.00150648
0.192413 0.494529 -0.127627 0.00102186
0.177413 0.45207 -0.126562 9.29414e-06
0.174452 0.479378 -0.125932 0.000640915
0.0374175 -0.698139 0.123082 0.000651221
0.0271497 -0.675242 0.122734 0.000302548
0.0148251 -0.714399 0.121892 0.000539099
0.00316136 -0.690327 0.121208 0.00122261
0.27496 0.293956 0.124289 0.00185802
0.264074 0.312441 0.123411 0.000980208
0.261181 0.276515 0.122124 0.00030723
0.25086 0.295073 0.121818 0.000613322
0.0182478 0.447022 -0.123861 0.00272757
0.00644069 0.465258 -0.125882 0.000707673
-0.00234293 0.430817 -0.127164 0.000586063
-0.0144017 0.449567 -0.128879 0.00230567
-0.627053 -0.521457 -0.12621 0.000248266
-0.646223 -0.511423 -0.135785 0.00977394
-0.631146 -0.525032 -0.113192 0.00851106
-0.649743 -0.515186 -0.122445 0.00352777
-0.746899 0.517464 -0.0880757 0.000405316
-0.767537 0.512202 -0.0911069 0.00566662
-0.751824 0.521997 -0.0676931 0.00412827
-0.774868 0.512861 -0.071132 0.00501591
0.288457 0.27848 0.123978 0.00154653
0.27693 0.29712 0.122927 0.00049607
0.273538 0.263448 0.123689 0.00125831
0.26209 0.281901 0.122812 0.000381301
0.358254 0.228878 -0.127588 0.000989196
0.344272 0.245457 -0.125105 0.00149437
0.333457 0.207193 -0.128903 0.00231038
0.320965 0.225059 -0.126246 0.000349017
-0.36167 0.185053 0.12378 0.0013495
-0.36713 0.206594 0.124396 0.00196455
-0.375255 0.163536 0.118172 0.0042587
-0.387016 0.183864 0.119536 0.00289503
-0.0359515 0.845108 -0.117399 0.00394716
-0.0360314 0.865808 -0.107941 0.0166767
-0.0574307 0.845986 -0.116059 0.00307793
-0.0608327 0.864718 -0.10787 0.0155572
-0.406842 0.466749 0.121553 0.000878041
-0.424677 0.494194 0.124245 0.00181436
-0.429769 0.446785 0.120867 0.00156436
-0.447266 0.474301 0.123208 0.000776659
-0.75105 -0.36731 0.0367331 0.00487069
-0.765719 -0.361047 0.0254541 0.0114317
-0.748977 -0.377131 0.0518245 0.00824563
-0.765939 -0.369467 0.0391559 0.00776458
0.518667 -0.752825 0.0364235 0.000743196
0.525202 -0.727042 0.0308505 0.0057921
0.512055 -0.751901 0.0644225 0.00735484
0.519355 -0.726895 0.0563207 5.45837e-05
-0.555053 0.421465 0.124178 0.00174684
-0.569147 0.444248 0.121749 0.000682173
-0.575247 0.403406 0.121538 0.000893188
-0.589241 0.425354 0.119828 0.00260301
-0.220798 -0.0831268 0.12408 0.00164853
-0.235807 -0.0608178 0.123127 0.000696408
-0.244069 -0.0991618 0.122227 0.000203637
-0.257364 -0.0743127 0.120191 0.00224025
-0.0480346 0.648902 0.123089 0.000657747
-0.054728 0.666676 0.124848 0.00241657
-0.0689942 0.630076 0.119866 0.00256473
-0.0761457 0.647868 0.121544 0.000887011
-0.420599 0.0522344 0.121853 0.000577715
-0.440027 0.0698705 0.12384 0.00140878
-0.43954 0.0341471 0.120905 0.00152647
-0.461031 0.0516082 0.122716 0.000285382
0.224512 -0.783916 0.121581 0.000850071
0.208741 -0.76874 0.122939 0.000507976
0.202002 -0.789261 0.123312 0.000880669
0.186667 -0.771272 0.122656 0.000225085
-0.520427 -0.663982 0.0728692 0.00652264
-0.536957 -0.648636 0.0683377 0.00785173
-0.51894 -0.658067 0.0877872 0.00830779
-0.537708 -0.644175 0.0830754 0.00785922
0.0589699 -0.562869 0.120137 0.00229402
0.0498063 -0.540508 0.121659 0.000772459
0.0401719 -0.576884 0.120893 0.00153793
0.0319699 -0.555805 0.122182 0.000248981
0.233198 0.286134 0.124405 0.00197398
0.223557 0.306042 0.125046 0.00261533
0.213899 0.269324 0.120027 0.00240423
0.204226 0.290754 0.122054 0.000376617
-0.36706 0.710348 0.12245 1.86439e-05
-0.372806 0.731806 0.123865 0.00143439
-0.386618 0.694548 0.121817 0.000613657
-0.386736 0.717732 0.123586 0.00115489
0.343395 0.518516 0.123386 0.000954608
0.329232 0.549821 0.123798 0.00136662
0.327373 0.506446 0.121729 0.000701797
0.314471 0.533499 0.121795 0.000635867
-0.385063 0.535709 -0.123562 0.00313781
-0.389722 0.558967 -0.12155 0.00465296
-0.403456 0.522169 -0.128491 0.00194874
-0.40932 0.544536 -0.127311 0.00106143
0.0958605 0.498916 0.124287 0.00185625
0.0807613 0.520343 0.125246 0.00281526
0.0782965 0.486346 0.120231 0.00220015
0.0639013 0.507767 0.12179 0.000641358
0.0992445 -8.67574e-05 -0.125943 0.000638589
0.0954084 0.025399 -0.127332 0.000751183
0.0810761 -0.0157339 -0.125378 0.00120668
0.0774297 0.0111917 -0.127132 0.000546627
-0.783463 0.37934 0.120335 0.00209599
-0.79771 0.401395 0.122902 0.00047114
-0.792486 0.367112 0.119938 0.00249303
-0.805818 0.389578 0.121614 0.000816857
0.0962735 -0.733664 -0.125125 0.00097289
0.0877714 -0.713354 -0.125135 0.000962802
0.0747727 -0.760058 -0.127966 0.00186806
0.063814 -0.738063 -0.127922 0.00182373
-0.3055 0.837903 -0.130007 0.00408714
-0.321797 0.841003 -0.129277 0.00338853
-0.312015 0.852587 -0.115043 0.00353066
-0.329413 0.855149 -0.114834 0.00609146
0.159812 0.620266 0.122953 0.000522273
0.142262 0.635194 0.124136 0.0017051
0.138817 0.605182 0.120767 0.00166415
0.122035 0.619858 0.121936 0.000494962
-0.0619487 -0.723389 -0.125803 0.000295334
-0.0735976 -0.699465 -0.132362 0.00626377
-0.0779151 -0.73985 -0.121972 0.00412642
-0.0910912 -0.715874 -0.128695 0.00259709
-0.438512 -0.136139 -0.126657 8.28024e-05
-0.457714 -0.120717 -0.126172 0.000384073
-0.45916 -0.15178 -0.126889 0.000299832
-0.479197 -0.136303 -0.12624 0.000321416
0.4231 0.781567 0.123732 0.00130067
0.407397 0.794528 0.119403 0.00302812
0.410648 0.769642 0.125395 0.00296378
0.393006 0.783195 0.12182 0.000611429
0.638181 0.526722 0.0582899 0.00607997
0.616922 0.533268 0.0466859 0.0067078
0.626102 0.509975 0.0684155 0.0131667
0.606347 0.520762 0.0602719 0.00886158
0.0279394 0.574711 -0.125967 0.000653859
0.0144432 0.597512 -0.130097 0.00344619
0.0113963 0.558938 -0.124932 0.00170247
-0.0027438 0.583119 -0.129911 0.00326947
0.807201 0.515774 0.0335286 0.00154033
0.787946 0.519936 0.0264747 0.00202081
0.798096 0.51232 0.0534274 0.00550547
0.781424 0.516549 0.0441542 0.00136096
0.163431 0.0296 0.123918 0.00148699
0.153969 0.0529911 0.121721 0.000709799
0.145816 0.0143288 0.122024 0.000407008
0.137177 0.0377088 0.12053 0.00190074
0.460681 0.162039 -0.124772 0.00182354
0.448682 0.187461 -0.127198 0.000602418
0.444084 0.144804 -0.125532 0.00106318
0.432012 0.168408 -0.126303 0.000294224
0.416045 0.0474233 0.124682 0.00225102
0.403703 0.0663045 0.125892 0.00346125
0.399401 0.0320392 0.12137 0.00106124
0.3861 0.050674 0.12242 1.13298e-05
-0.337996 0.672929 0.0169367 0.00660109
-0.325917 0.695567 0.0164156 0.00560589
-0.341106 0.667426 0.035806 0.00752901
-0.329874 0.689619 0.035605 0.000438648
-0.707292 0.0616675 -0.125112 0.000985869
-0.715342 0.0834677 -0.126602 0.000503696
-0.725833 0.0473788 -0.126127 2.85427e-05
-0.732872 0.0694161 -0.127342 0.00124449
0.00802216 0.183078 -0.126721 0.000254263
-0.0175195 0.212812 -0.126409 6.73448e-05
-0.0097521 0.169026 -0.127284 0.000812877
-0.0352397 0.198996 -0.127027 0.00055464
0.425276 -0.622583 0.118465 0.00396635
0.414066 -0.599143 0.114288 0.00814292
0.399662 -0.644625 0.120762 0.00166911
0.386022 -0.62449 0.117875 0.0045558
0.261664 0.599379 0.125251 0.00282023
0.248669 0.620189 0.124789 0.00235797
0.242423 0.579332 0.12111 0.00132069
0.229224 0.59998 0.120935 0.0014959
-0.52426 -0.707287 -0.0690252 0.0022226
-0.523415 -0.683492 -0.078636 0.0030507
-0.528843 -0.715064 -0.0467891 0.00236034
-0.528153 -0.691378 -0.0571321 0.00169029
-0.197082 -0.569461 0.12214 0.000291174
-0.206563 -0.54906 0.122368 6.25674e-05
-0.216716 -0.582307 0.122134 0.000297253
-0.226146 -0.562031 0.122148 0.000283365
0.516918 -0.760725 -0.106121 0.00239882
0.518854 -0.740216 -0.109098 0.000429431
0.517417 -0.766492 -0.0903595 0.00199317
0.519616 -0.745533 -0.0934409 0.000205889
-0.0742873 0.347986 -0.125616 0.000946904
-0.0941557 0.36724 -0.127917 0.00135417
-0.0894928 0.337609 -0.125269 0.00127876
-0.107923 0.356922 -0.127664 0.00111272
-0.638895 0.108574 -0.124797 0.0017656
-0.648902 0.12932 -0.125327 0.00111109
-0.655113 0.0951247 -0.12655 7.84091e-05
-0.664913 0.115593 -0.126258 0.00014899
0.108482 0.187476 0.122226 0.000205097
0.0956901 0.210755 0.12376 0.00132921
0.0837788 0.171306 0.120182 0.00224858
0.0698627 0.194427 0.121436 0.000994888
-0.555951 -0.187506 0.122762 0.000330741
-0.567643 -0.162553 0.122681 0.000249828
-0.574465 -0.206591 0.122711 0.000279899
-0.587885 -0.183781 0.122832 0.000400978
0.392246 -0.618025 -0.105584 0.00561424
0.376175 -0.616492 -0.114333 0.00891466
0.387381 -0.627701 -0.0885074 0.00392196
0.370894 -0.626653 -0.0995833 0.00170848
0.0707793 0.606368 -0.126051 0.000441856
0.0581634 0.627938 -0.1263 0.000171031
0.0498287 0.590724 -0.126181 0.000381085
0.037517 0.613124 -0.126785 0.00022071
-0.857792 -0.47005 0.0694461 4.77953e-05
-0.870384 -0.455482 0.0662424 0.012529
-0.849368 -0.467318 0.089465 0.00854177
-0.862079 -0.452817 0.0868086 0.00421073
-0.476053 0.123018 -0.127652 0.00115439
-0.485453 0.147304 -0.124802 0.00170721
-0.4918 0.108631 -0.128075 0.00159778
-0.501731 0.131851 -0.125844 0.000642139
-0.661161 -0.473335 0.0485895 0.00500262
-0.682438 -0.467674 0.0489398 0.00701031
-0.670039 -0.462312 0.0634534 0.00339671
-0.691322 -0.456919 0.06298 0.00281318
-0.504092 -0.488008 -0.124698 0.00140011
-0.505731 -0.464133 -0.125445 0.000855736
-0.519917 -0.510582 -0.126101 2.77858e-06
-0.523881 -0.487058 -0.127391 0.00129279
-0.336883 0.701031 0.121475 0.000955862
-0.348295 0.719387 0.122892 0.000461231
-0.353276 0.687698 0.122602 0.000171291
-0.364541 0.706641 0.123726 0.00129501
-0.471943 0.116878 -0.128119 0.00162159
-0.481343 0.141164 -0.125268 0.00123701
-0.487651 0.103414 -0.126953 0.00047622
-0.496974 0.126835 -0.124262 0.00222243
0.442326 -0.429587 -0.125696 0.0008031
0.426311 -0.405895 -0.126707 0.000215118
0.427731 -0.441555 -0.126241 0.000275921
0.412556 -0.419301 -0.1268 0.000293003
0.259392 0.0716789 -0.125543 0.0010224
0.26217 0.103626 -0.124971 0.00159058
0.234481 0.0473134 -0.12864 0.00207843
0.236592 0.0778956 -0.12807 0.00151139
0.751809 -0.0794187 -0.12603 6.84192e-05
0.738315 -0.0546669 -0.126592 0.000494234
0.734031 -0.0963752 -0.126576 0.000477783
0.720525 -0.0714387 -0.127254 0.00115555
-0.657305 0.44861 0.123272 0.000841091
-0.672609 0.467081 0.119168 0.00326317
-0.6714 0.429945 0.125042 0.00261113
-0.685043 0.44926 0.122168 0.00026269
-0.136519 -0.532513 -0.126062 0.000570447
-0.13869 -0.508956 -0.1278 0.00115905
-0.159671 -0.553148 -0.127109 0.000473769
-0.15961 -0.526713 -0.127544 0.000899238
0.247768 -0.740626 -0.124052 0.00204566
0.235008 -0.720195 -0.124573 0.00152516
0.2246 -0.75696 -0.1266 0.000502415
0.211577 -0.734346 -0.127873 0.00177457
-0.156713 -0.786009 -0.1281 0.0020018
-0.18359 -0.764073 -0.126734 0.000635631
-0.174418 -0.794918 -0.12562 0.000478052
-0.1998 -0.774413 -0.124843 0.00125504
-0.737101 0.15264 -0.125055 0.00104254
-0.748276 0.177468 -0.12493 0.00116814
-0.758651 0.136015 -0.126379 0.000281386
-0.769782 0.161791 -0.126675 0.000577144
-0.861239 -0.0389275 0.0586044 0.00338414
-0.859872 -0.0166407 0.0595927 0.0020168
-0.855947 -0.0415638 0.0816592 0.0019084
-0.855589 -0.0187007 0.0845917 0.00226555
-0.842973 -0.188219 -0.127309 0.00137381
-0.849631 -0.169201 -0.125587 0.000274741
-0.856521 -0.188525 -0.11902 0.00109979
-0.861553 -0.168001 -0.117312 0.0039157
0.228033 0.063443 0.121864 0.000566674
0.217486 0.0937905 0.12002 0.00241085
0.2108 0.0472156 0.124274 0.00184319
0.199764 0.0766837 0.121443 0.000988444
0.639977 0.309676 -0.125102 0.000989452
0.643091 0.339916 -0.122439 0.00309182
0.612291 0.294026 -0.128421 0.00222525
0.613497 0.321355 -0.125197 0.000871222
-0.0731711 0.0328502 -0.130342 0.00376098
-0.0895219 0.0545668 -0.124919 0.00165531
-0.0917781 0.0134291 -0.131015 0.00443394
-0.109031 0.0362038 -0.12575 0.000823683
-0.11502 0.446904 -0.127121 0.00051763
-0.126291 0.466966 -0.128633 0.0020227
-0.130385 0.429784 -0.127602 0.00101596
-0.141071 0.450251 -0.128827 0.00223362
0.517806 -0.707905 -0.113697 0.00145055
0.518755 -0.686149 -0.114909 0.000463291
0.52196 -0.710804 -0.0945845 0.00257719
0.523987 -0.688495 -0.0955662 0.0046248
-0.831319 -0.506471 0.115113 0.00716309
-0.850106 -0.495633 0.110491 0.00618062
-0.825474 -0.500389 0.130708 0.00833373
-0.8454 -0.488937 0.127426 0.00517594
0.80124 0.199034 0.120772 0.00165867
0.789077 0.228483 0.119303 0.00312792
0.786776 0.184802 0.123371 0.00093964
0.771021 0.212748 0.124225 0.00179388
0.190394 -0.558825 -0.125864 0.0007453
0.182954 -0.541632 -0.12822 0.00160895
0.174283 -0.573226 -0.124997 0.0016153
0.166118 -0.557119 -0.127912 0.00129764
-0.433504 0.210308 -0.128501 0.00193772
-0.447586 0.233036 -0.126106 0.000431699
-0.450079 0.196254 -0.128599 0.00203668
-0.46483 0.217491 -0.126459 8.39798e-05
0.519332 0.744831 -0.0188085 7.81871e-05
0.516165 0.772638 -0.0305483 0.00324468
0.521553 0.741182 0.00980007 0.00214286
0.518901 0.766318 -0.00508504 0.000509367
-0.787601 -0.361732 -0.122696 0.00336174
-0.795828 -0.344493 -0.122287 0.00381137
-0.811118 -0.369651 -0.125402 0.000695609
-0.816778 -0.351598 -0.124366 0.00173183
0.0461073 0.0690174 -0.127452 0.000879935
0.0449317 0.0951577 -0.126286 0.000243979
0.0345588 0.0512145 -0.127973 0.00141834
0.0312756 0.0770839 -0.127146 0.000569505
0.38849 0.244116 0.12352 0.00108947
0.371781 0.261554 0.124382 0.00195137
0.365534 0.230583 0.121072 0.00135922
0.34665 0.246054 0.122555 0.000123734
0.519005 0.671135 -0.0147402 0.000339562
0.516304 0.689908 -0.0247827 0.00308463
0.520551 0.669907 0.0115751 0.00120726
0.517748 0.688401 0.00200325 0.00164017
-0.470135 0.699852 -0.108561 0.00241782
-0.465917 0.723181 -0.108548 0.00172538
-0.47559 0.689227 -0.093325 0.00102591
-0.471885 0.713534 -0.0922502 0.00258351
-0.432474 0.598016 0.123114 0.000682744
-0.447669 0.616024 0.123126 0.000694955
-0.45289 0.583503 0.121094 0.00133747
-0.467073 0.601465 0.120822 0.00160906
0.660302 0.201968 0.122974 0.00054318
0.648935 0.220992 0.12373 0.00129895
0.64117 0.180247 0.120189 0.00224198
0.629644 0.19928 0.120701 0.00172994
-0.712207 0.008622 -0.12517 0.00092844
-0.722964 0.0262557 -0.125644 0.000454106
-0.729155 -0.00763397 -0.125591 0.000506886
-0.739298 0.00977431 -0.125966 0.00013157
-0.312687 0.788743 -0.12467 0.00142841
-0.334408 0.796312 -0.127154 0.00105587
-0.338599 0.788862 -0.123806 0.00229214
-0.357678 0.794823 -0.124637 0.00146147
0.373362 -0.624596 -0.0732557 0.00222967
0.356784 -0.62467 -0.0847944 0.00840669
0.372216 -0.632272 -0.0509217 0.00419256
0.35587 -0.632704 -0.0653437 0.00245927
-0.527823 0.114184 -0.125701 0.000748871
-0.536891 0.139034 -0.125213 0.00126899
-0.546983 0.101741 -0.125542 0.000903885
-0.553044 0.129436 -0.125703 0.000764508
-0.430958 -0.851199 -0.125205 0.000690615
-0.444794 -0.8415 -0.132953 0.00696404
-0.444199 -0.860258 -0.113932 0.00104732
-0.457218 -0.849307 -0.12206 0.00385535
-0.5562 -0.579257 -0.0440397 0.00384828
-0.573597 -0.567927 -0.0498027 0.00105679
-0.555987 -0.582927 -0.0242921 0.00155704
-0.573727 -0.571527 -0.028684 0.00371538
-0.268428 -0.518491 0.124128 0.00169666
-0.276242 -0.496247 0.123939 0.00150751
-0.285129 -0.536254 0.122919 0.000488098
-0.293059 -0.51507 0.122752 0.00032075
0.369832 -0.00125211 0.123169 0.000738027
0.353835 0.0196296 0.125155 0.0027237
0.354673 -0.0201463 0.118514 0.00391719
0.334449 4.71491e-05 0.120734 0.00169688
-0.531262 -0.369307 0.125493 0.00306211
-0.542068 -0.345264 0.123261 0.000830273
-0.54529 -0.38685 0.121231 0.00120037
-0.555956 -0.36194 0.120004 0.00242678
-0.468681 -0.165301 0.124357 0.00192577
-0.475803 -0.142817 0.122472 4.11521e-05
-0.487868 -0.185925 0.120774 0.00165699
-0.494945 -0.16324 0.11958 0.00285122
0.283673 0.261171 -0.126749 0.000149479
0.267312 0.277777 -0.124573 0.00203216
0.264946 0.245315 -0.128489 0.00189472
0.250217 0.262292 -0.126885 0.000282491
-0.569461 -0.576533 0.109587 0.00446107
-0.575096 -0.55783 0.113344 0.00543231
-0.569769 -0.572335 0.123498 0.0010668
-0.576486 -0.554474 0.127351 0.00492019
0.189993 -0.858892 0.00204635 0.000503976
0.165568 -0.861391 -0.008116 0.00199531
0.192291 -0.856407 0.0229032 0.00298895
0.166073 -0.86016 0.014924 0.000764351
-0.113893 -0.634922 -0.128428 0.00179812
-0.106303 -0.603114 -0.125247 0.00137421
-0.132452 -0.654977 -0.12933 0.00268013
-0.126159 -0.625083 -0.126767 0.000127084
-0.856399 -0.151868 -0.0757395 0.00145636
-0.853878 -0.126953 -0.0832593 0.00397656
-0.860473 -0.153915 -0.0519777 0.00261786
-0.858407 -0.130144 -0.0597649 0.000552319
0.0511594 -0.785131 0.121344 0.00108733
0.0298351 -0.776263 0.122128 0.000302558
0.0271264 -0.791544 0.121688 0.000742962
0.00534396 -0.782978 0.122549 0.000117603
-0.580177 0.520697 -0.127523 0.00142498
-0.606238 0.528941 -0.122025 0.00386751
-0.598144 0.529825 -0.122034 0.00387612
-0.624329 0.534641 -0.117716 0.00822419
-0.149352 0.424797 0.123388 0.000957126
-0.15722 0.443164 0.123592 0.00116074
-0.172321 0.410748 0.121567 0.000863974
-0.181582 0.430117 0.121785 0.00064635
-0.854688 -0.496063 -0.0774004 0.00161738
-0.859748 -0.47476 -0.0880689 0.00189264
-0.852358 -0.502659 -0.0533281 0.00137938
-0.857909 -0.481499 -0.0639039 0.000547288
-0.596263 -0.198673 0.122798 0.000366556
-0.610427 -0.177698 0.123444 0.00101263
-0.614042 -0.213912 0.121521 0.000909698
-0.627642 -0.19405 0.1224 3.06268e-05
0.515321 -0.75875 -0.0962954 0.0040891
0.5188 -0.736506 -0.0985179 0.000589541
0.515278 -0.762012 -0.0798427 0.0041325
0.519737 -0.738623 -0.0818579 0.000326528
-0.52113 -0.742934 0.0871204 0.00535291
-0.53766 -0.723533 0.0855349 0.0111769
-0.513481 -0.738717 0.102557 0.0129208
-0.531363 -0.719874 0.101123 0.00494449
-0.862942 0.392177 0.085771 0.00508734
-0.862888 0.417463 0.087703 0.00503256
-0.852153 0.381429 0.0999826 0.00563098
-0.85355 0.407754 0.101615 0.00419626
0.223588 -0.608191 0.122657 0.00022571
0.215438 -0.590618 0.123784 0.00135285
0.206645 -0.630357 0.12099 0.00144084
0.198342 -0.610916 0.122143 0.000287642
-0.0318481 -0.113005 0.123424 0.000993031
-0.0428754 -0.0909547 0.124123 0.00169233
-0.0493441 -0.125608 0.120863 0.00156848
-0.0611458 -0.104469 0.121798 0.000633245
0.164658 0.266185 -0.12517 0.00141389
0.155395 0.28432 -0.126835 0.00026097
0.147359 0.251595 -0.126836 0.000256735
0.13819 0.269374 -0.128507 0.00193528
-0.797374 -0.504453 -0.127093 0.00105439
-0.808341 -0.487708 -0.131068 0.00496995
-0.812294 -0.513975 -0.114412 0.0115322
-0.823642 -0.497321 -0.118901 0.00715416
-0.0762711 -0.300016 -0.128035 0.00140252
-0.095698 -0.284445 -0.127462 0.00083477
-0.0901493 -0.311908 -0.126913 0.000279361
-0.108439 -0.296702 -0.125763 0.000866407
-0.305025 0.84866 0.0124338 0.000581008
-0.336859 0.848929 0.00355379 0.000312429
-0.312929 0.844849 0.0425616 0.00439249
-0.345442 0.849288 0.0332449 4.68675e-05
0.849626 -0.384922 -0.00594736 0.00115617
0.851179 -0.362577 -0.0132962 0.000396646
0.849545 -0.387131 0.0163297 0.00123742
0.851625 -0.364467 0.0113812 0.000843443
0.768251 0.506747 -0.124377 0.00153546
0.748946 0.508985 -0.125221 0.000661496
0.765169 0.518001 -0.0976759 0.000134935
0.744992 0.519772 -0.097668 0.00191009
0.699326 -0.249486 0.122717 0.000286485
0.689898 -0.225994 0.120849 0.00158182
0.685387 -0.267274 0.12258 0.000149044
0.673986 -0.24494 0.121072 0.00135851
-0.850609 -0.311498 -0.105393 0.00713875
-0.855894 -0.291565 -0.109622 0.00180614
-0.864767 -0.315941 -0.094824 0.00691237
-0.868908 -0.297 -0.09877 0.0110606
0.290058 -0.845604 -0.12681 0.000902119
0.267742 -0.834468 -0.128409 0.00237204
0.272563 -0.855552 -0.121656 0.00359906
0.249333 -0.845705 -0.124187 0.00173021
-0.787009 0.21887 -0.129432 0.00333411
-0.792388 0.239831 -0.126882 0.000784181
-0.808571 0.20946 -0.125461 0.000637301
-0.814031 0.231963 -0.122673 0.00342452
0.089685 -0.106931 0.123889 0.0014584
0.0810039 -0.083649 0.122171 0.000260067
0.0732164 -0.126886 0.12269 0.000259491
0.0611556 -0.102517 0.120797 0.00163368
-0.671982 0.12373 -0.125516 0.00069682
-0.683937 0.146198 -0.125257 0.000840806
-0.68978 0.108069 -0.127584 0.00148631
-0.701104 0.131437 -0.127558 0.00146008
-0.0856227 -0.0803469 0.123141 0.000710274
-0.0961414 -0.0625193 0.123788 0.00135719
-0.109521 -0.0971426 0.120193 0.00223843
-0.120821 -0.080512 0.120805 0.0016263
0.718856 -0.428327 0.12092 0.00151106
0.704948 -0.410055 0.122403 2.77211e-05
0.699115 -0.441121 0.121522 0.000908998
0.684592 -0.424287 0.122774 0.000342565
-0.857134 0.317033 -0.0722679 0.000720658
-0.855513 0.342107 -0.0771085 0.00234173
-0.859866 0.317384 -0.0454794 0.00201078
-0.858195 0.341777 -0.0513772 0.000340245
-0.760343 -0.0845106 0.124379 0.00194795
-0.767222 -0.0616583 0.123139 0.000708001
-0.776851 -0.0990621 0.121545 0.000886304
-0.78352 -0.0744253 0.119605 0.00282553
0.0163412 -0.856809 -0.0208905 0.0025865
-0.0106133 -0.856092 -0.0307259 0.00330379
0.0173817 -0.85886 -0.000136829 0.000536044
-0.00951921 -0.859711 -0.00730004 0.000315468
-0.791159 -0.0121559 0.120667 0.00176447
-0.794223 0.00999198 0.121953 0.00047784
-0.795405 -0.0253981 0.123631 0.00120031
-0.798833 -0.00361592 0.125438 0.00300723
0.327016 -0.682862 -0.0564107 0.00241722
0.312198 -0.685822 -0.0707029 0.012184
0.333924 -0.687728 -0.0294312 0.00995688
0.319894 -0.689887 -0.0442987 0.0034813
-0.282775 0.284162 0.123824 0.00139307
-0.288464 0.302933 0.123953 0.00152176
-0.299045 0.272058 0.123256 0.000824722
-0.305087 0.292251 0.122841 0.000409695
0.379305 -0.818506 0.116167 0.00626357
0.357089 -0.81412 0.115299 0.00713226
0.367327 -0.807501 0.127976 0.00554461
0.345006 -0.800092 0.128243 0.00581185
0.0721768 0.72899 -0.125316 0.000781708
0.0604771 0.745608 -0.123953 0.00214487
0.0509616 0.72002 -0.129197 0.00309881
0.0379057 0.738211 -0.128686 0.00258814
-0.399408 -0.147221 -0.125687 0.000901547
-0.410695 -0.129809 -0.125472 0.00111682
-0.414246 -0.167104 -0.128072 0.0014814
-0.428108 -0.150978 -0.127751 0.00116489
-0.696304 0.406147 -0.123987 0.00211142
-0.702099 0.423184 -0.12538 0.000718005
-0.712119 0.392914 -0.127093 0.000995047
-0.717994 0.410063 -0.128438 0.00233952
-0.195719 -0.178454 -0.126573 2.4746e-05
-0.209468 -0.151967 -0.12699 0.000403721
-0.219448 -0.198749 -0.127635 0.00103258
-0.235966 -0.172396 -0.128767 0.00217566
0.0827027 0.00541265 -0.125585 0.000999081
0.0799807 0.0322251 -0.126984 0.000401018
0.0654263 -0.0100781 -0.124815 0.00177142
0.0626844 0.0168864 -0.126489 9.82994e-05
0.065547 0.848714 0.0244455 0.000527185
0.0382611 0.846169 0.0131555 0.00307177
0.0638774 0.843583 0.0507746 0.00565849
0.034996 0.84702 0.0406093 0.00222103
0.0682653 -0.612028 0.121901 0.000530278
0.0502436 -0.58728 0.121417 0.00101448
0.0538844 -0.62274 0.12116 0.00127121
0.037532 -0.600279 0.12114 0.00129129
0.224206 0.849464 0.00634618 0.00022288
0.204787 0.848169 -0.00611827 0.00107197
0.214779 0.847815 0.0337474 0.00142614
0.191858 0.847939 0.0201599 0.00130228
0.319281 -0.0647509 -0.126166 0.000421802
0.303979 -0.0508569 -0.125339 0.00124162
0.301025 -0.0814511 -0.127487 0.00090147
0.284661 -0.0680167 -0.126534 4.97439e-05
0.13313 0.322031 0.123078 0.000646996
0.122819 0.349299 0.125034 0.00260333
0.114167 0.302491 0.12062 0.00181146
0.102816 0.328052 0.122046 0.000385163
-0.0868326 -0.852163 -0.133047 0.00721113
-0.106527 -0.849339 -0.14521 0.0193346
-0.0910395 -0.855622 -0.105985 0.00368352
-0.112494 -0.853714 -0.120261 0.00545748
-0.145296 -0.785472 -0.128615 0.00251708
-0.172532 -0.764387 -0.126777 0.000678561
-0.164912 -0.7952 -0.125772 0.000326373
-0.191179 -0.774989 -0.124353 0.00174467
-0.630813 -0.537065 -0.000183103 0.00311301
-0.656321 -0.529847 -0.00480245 0.00105114
-0.626728 -0.534959 0.0236633 0.00038061
-0.651597 -0.527413 0.019246 0.00247388
0.497088 -0.559066 -0.124659 0.00143932
0.493663 -0.537355 -0.125128 0.000970103
0.480589 -0.579847 -0.126824 0.000725664
0.475914 -0.559326 -0.127201 0.00110321
-0.668787 -0.0178264 -0.127055 0.000679009
-0.683556 -0.00128769 -0.126592 0.00034196
-0.688237 -0.0338357 -0.126682 0.000550575
-0.702136 -0.0173555 -0.126428 0.000329725
0.72819 -0.477921 0.120335 0.00209561
0.71113 -0.462149 0.123454 0.00102297
0.705559 -0.489285 0.120491 0.00194031
0.688131 -0.474049 0.123187 0.00075564
0.474941 -0.29281 -0.126474 8.06166e-05
0.459382 -0.268909 -0.126532 2.98495e-05
0.451046 -0.310894 -0.127639 0.00110958
0.436532 -0.286496 -0.127759 0.0012169
0.326859 -0.857478 -0.0493632 0.00191798
0.302033 -0.859133 -0.0601654 0.000262578
0.320437 -0.859905 -0.02548 0.000509124
0.294909 -0.861889 -0.0359224 0.00249283
0.746585 0.426194 0.0522487 0.0036296
0.730893 0.442563 0.0468508 0.00632658
0.732731 0.415275 0.0708236 0.010603
0.717018 0.430535 0.0649664 0.00471982
-0.229792 -0.0631989 0.123869 0.00143796
-0.24035 -0.0379999 0.121896 0.000535366
-0.251844 -0.08212 0.120945 0.0014858
-0.261744 -0.0552446 0.118646 0.00378535
-0.32162 -0.615515 -0.125896 0.000264813
-0.337637 -0.590863 -0.126608 0.000194234
-0.337162 -0.63181 -0.128496 0.00239833
-0.352311 -0.610364 -0.128002 0.0019039
0.694631 -0.270977 0.122481 4.96011e-05
0.68355 -0.247774 0.121544 0.000886915
0.677608 -0.288675 0.123608 0.00117728
0.666041 -0.266461 0.122001 0.000430231
0.752096 -0.0798139 0.123341 0.000910464
0.730807 -0.0607717 0.124932 0.00250137
0.729557 -0.0949567 0.122296 0.000135352
0.708275 -0.0754766 0.123816 0.00138528
-0.570511 -0.577352 0.100316 0.00566954
-0.576146 -0.558649 0.104073 0.00428758
-0.571748 -0.57187 0.112434 0.00323408
-0.578466 -0.554009 0.116287 0.00594504
0.522395 -0.723108 0.114386 0.00319983
0.525479 -0.69767 0.110591 0.00625793
0.507977 -0.735373 0.124991 0.00255981
0.506138 -0.709026 0.124466 0.00203543
-0.667722 -0.0142035 -0.126811 0.000415589
-0.68249 0.00233523 -0.126348 5.23635e-05
-0.687487 -0.0291885 -0.126494 0.000356669
-0.701614 -0.0125969 -0.126043 5.51422e-05
-0.314111 0.0558693 -0.125488 0.00105746
-0.326805 0.0802059 -0.124778 0.00177499
-0.331458 0.0370415 -0.124762 0.00177976
-0.345035 0.0618383 -0.124474 0.00207461
0.775766 -0.451738 0.120489 0.00194228
0.762387 -0.435057 0.124423 0.00199176
0.756878 -0.462223 0.120813 0.00161778
0.743153 -0.445417 0.124142 0.00171084
0.539057 -0.294506 0.122305 0.0001263
0.528709 -0.275571 0.12153 0.000901249
0.519087 -0.311982 0.122888 0.000456567
0.508507 -0.293376 0.122496 6.53963e-05
-0.0426026 -0.299959 -0.127445 0.000811155
-0.0610539 -0.283457 -0.128191 0.00156135
-0.0570704 -0.312387 -0.125761 0.000874467
-0.0767502 -0.29617 -0.125762 0.000869354
0.0962423 0.683099 0.122653 0.000222127
0.0904442 0.704589 0.123155 0.000723834
0.0763535 0.66038 0.121623 0.000808281
0.0695968 0.682062 0.122905 0.000474433
0.632647 -0.40957 -0.125112 0.000985556
0.62882 -0.383506 -0.124134 0.00196406
0.614288 -0.427862 -0.127553 0.00145491
0.610863 -0.402772 -0.127105 0.00100734
-0.606056 0.15701 0.123234 0.000803026
-0.622466 0.180671 0.121587 0.000844223
-0.62464 0.138213 0.12354 0.00110913
-0.641268 0.161906 0.12267 0.000239487
-0.378079 -0.71145 0.12357 0.00113885
-0.386887 -0.691226 0.121667 0.000763682
-0.394963 -0.72321 0.123068 0.00063661
-0.402532 -0.704355 0.121263 0.0011677
0.564336 0.568263 0.077391 0.00716426
0.54822 0.588859 0.0787814 0.00702941
0.554142 0.560766 0.0903953 0.00553475
0.539472 0.581648 0.0913009 0.0046423
0.862521 -0.4339 0.0798589 0.0117391
0.865363 -0.413867 0.0858531 0.0145809
0.840073 -0.43931 0.0953755 0.0106871
0.841433 -0.418853 0.101302 0.00925536
0.285371 -0.450484 -0.126167 0.000421802
0.269883 -0.426266 -0.126087 0.000506627
0.265524 -0.462849 -0.12642 0.000174597
0.250074 -0.438286 -0.126727 0.000130872
-0.051046 -0.683741 0.123269 0.000837589
-0.0656585 -0.659234 0.121282 0.00114882
-0.0664244 -0.700941 0.123442 0.00101107
-0.0849305 -0.677872 0.123062 0.000631164
0.764226 0.426475 0.0261883 0.0121401
0.747542 0.441817 0.0210171 0.00509283
0.745969 0.418029 0.0462257 0.00808899
0.731047 0.435057 0.0413026 0.0111391
-0.621201 0.0294341 -0.127438 0.000891003
-0.631471 0.0490224 -0.127096 0.000506445
-0.634259 0.0140816 -0.127068 0.000517446
-0.646174 0.0328969 -0.126626 3.43136e-05
0.325131 -0.789832 0.119958 0.00247325
0.298055 -0.769365 0.123773 0.00134232
0.310165 -0.797636 0.119526 0.00290524
0.28432 -0.776904 0.12319 0.000758501
0.802527 0.492777 0.120439 0.00195213
0.788467 0.499265 0.110037 0.0123068
0.788433 0.48483 0.135678 0.0132471
0.773603 0.491876 0.126878 0.00448612
-0.857545 0.327783 0.0629806 0.000309982
-0.859219 0.354627 0.050768 0.00136431
-0.856407 0.320901 0.0864141 0.00144801
-0.858366 0.348543 0.075521 0.000510774
-0.359384 0.43942 -0.125977 0.000525688
-0.371035 0.46533 -0.124788 0.00174642
-0.378725 0.421691 -0.126895 0.000424848
-0.390616 0.44783 -0.126221 0.000242966
0.438116 0.849749 0.096902 0.000549055
0.420808 0.858134 0.0890024 0.00889321
0.429794 0.841427 0.109729 0.00765399
0.413159 0.850551 0.101892 0.00138211
0.627052 -0.0203568 0.124028 0.00159675
0.616971 0.00331797 0.124944 0.00251282
0.605389 -0.0398462 0.120476 0.00195514
0.594142 -0.0157761 0.121737 0.000694198
-0.210773 -0.856093 -0.0528198 0.00330307
-0.229673 -0.856196 -0.0650383 0.00319978
-0.212147 -0.860831 -0.0361893 0.00143455
-0.232289 -0.861855 -0.0497889 0.00245933
-0.307301 -0.0727996 -0.125183 0.00137505
-0.316755 -0.0447639 -0.128525 0.001979
-0.324394 -0.0911437 -0.127721 0.0011542
-0.336188 -0.0633784 -0.131805 0.00524315
-0.163689 0.378854 -0.127609 0.00106531
-0.176283 0.39742 -0.128015 0.00146279
-0.183117 0.366188 -0.125942 0.00058718
-0.198196 0.384941 -0.126855 0.00031775
0.536254 0.629403 0.11426 0.010552
0.527653 0.650384 0.113792 0.00774609
0.520246 0.61929 0.118079 0.00414383
0.5146 0.63949 0.116456 0.00577928
-0.61009 -0.286534 -0.126722 0.000159723
-0.62083 -0.271979 -0.126824 0.000466129
-0.630729 -0.299048 -0.125397 0.000700959
-0.641937 -0.285491 -0.125136 0.00096158
0.239414 0.422104 0.123189 0.000757704
0.228863 0.444981 0.121459 0.000972104
0.214469 0.403718 0.122569 0.000138412
0.204065 0.427346 0.120853 0.00157802
-0.228673 -0.450557 -0.12544 0.00120594
-0.239015 -0.429028 -0.125349 0.00129727
-0.255823 -0.467815 -0.128226 0.00158036
-0.267875 -0.447392 -0.127985 0.00133924
-0.490587 0.670981 0.118743 0.00368783
-0.505353 0.684493 0.117022 0.00534791
-0.497165 0.660623 0.121977 0.000449738
-0.512176 0.673238 0.119827 0.00249107
0.032615 -0.695108 0.123317 0.000885735
0.0217915 -0.671982 0.122785 0.000354054
0.0115172 -0.711521 0.121967 0.000463506
-0.000146508 -0.687448 0.121284 0.00114701
-0.462281 0.607545 -0.126746 0.000698375
-0.4702 0.623709 -0.12267 0.00335476
-0.486629 0.599448 -0.12895 0.00285151
-0.495835 0.615643 -0.12479 0.00130794
0.649999 0.467207 -0.123249 0.00268559
0.630509 0.471574 -0.127512 0.00145954
0.637027 0.463616 -0.119613 0.00636368
0.617438 0.468181 -0.122635 0.0034594
-0.099362 -0.307414 0.12547 0.00303891
-0.108037 -0.288077 0.125721 0.00329038
-0.114681 -0.319701 0.122153 0.000278344
-0.124375 -0.299935 0.122135 0.000296493
-0.611837 -0.496756 0.119339 0.00309237
-0.632693 -0.483977 0.116493 0.00593769
-0.613011 -0.483772 0.12889 0.00645878
-0.633972 -0.471152 0.126899 0.00446832
0.690153 0.0554108 0.123037 0.000605921
0.682589 0.083063 0.123299 0.000867988
0.672571 0.0402752 0.121036 0.00139489
0.66488 0.068339 0.120942 0.00148894
-0.305533 -0.0802521 0.125154 0.00272293
-0.314155 -0.0515435 0.120972 0.00145926
-0.330568 -0.0992835 0.122597 0.000166292
-0.341278 -0.0694111 0.117705 0.00472616
0.118111 0.669458 -0.124856 0.0012681
0.0989041 0.689235 -0.127465 0.00136743
0.0988619 0.655738 -0.125082 0.00130626
0.0799324 0.675486 -0.127814 0.00168369
0.0495252 0.466645 0.121191 0.00123998
0.0325939 0.485384 0.123055 0.000623564
0.0300789 0.457169 0.121759 0.000671786
0.0127201 0.474093 0.123745 0.0013142
0.759368 -0.517343 0.00681129 0.010681
0.727066 -0.533162 0.00734827 0.00513764
0.745288 -0.518797 0.0323448 0.00922732
0.712456 -0.534618 0.0308244 0.0065936
-0.101265 -0.763986 0.12194 0.000491259
-0.121741 -0.746518 0.125264 0.00283342
-0.122823 -0.772879 0.119153 0.0032779
-0.143341 -0.757257 0.121923 0.000508112
-0.588369 -0.086816 -0.126391 0.000145598
-0.600995 -0.0645168 -0.126153 0.000349278
-0.609945 -0.102905 -0.129248 0.0026913
-0.621833 -0.082028 -0.128716 0.0021874
-0.696425 0.521481 -0.0624284 0.0036198
-0.721568 0.5138 -0.0683911 0.00406874
-0.700018 0.52494 -0.0449615 0.00707054
-0.727854 0.516208 -0.0524012 0.00166107
-0.527393 -0.690681 0.00384719 0.000947375
-0.527231 -0.667202 -0.00135275 0.000339302
-0.526733 -0.694881 0.0270682 0.000272808
-0.527804 -0.672132 0.0213961 0.0010543
-0.475275 0.847301 -0.0608417 0.00198235
-0.476736 0.852832 -0.0576239 0.0035142
-0.480466 0.847654 -0.0375134 0.00177675
-0.478413 0.855713 -0.0353182 0.0062959
0.123101 0.26344 -0.124063 0.00251206
0.1149 0.281934 -0.126216 0.000350993
0.107755 0.252879 -0.125944 0.00062422
0.0987725 0.270588 -0.127928 0.00135967
-0.633074 0.524807 0.0965804 0.00135199
-0.654946 0.52286 0.0869865 0.00351614
-0.644099 0.510404 0.111096 0.0100193
-0.663018 0.515438 0.102656 0.00278871
0.575238 0.523526 0.120792 0.00155217
0.565247 0.544863 0.119749 0.00247769
0.556013 0.510574 0.12577 0.00333853
0.546437 0.531304 0.124378 0.00194708
0.127461 -0.496574 -0.128002 0.00137907
0.12719 -0.474583 -0.127364 0.000742111
0.112908 -0.512019 -0.12644 0.000187172
0.11095 -0.490413 -0.12585 0.000777227
-0.261826 0.82818 -0.13632 0.0102993
-0.27891 0.832884 -0.134903 0.00892914
-0.268489 0.843088 -0.120368 0.00550025
-0.285784 0.848094 -0.118079 0.000926383
-0.237294 -0.237268 0.121837 0.000593764
-0.246249 -0.216184 0.122198 0.000233312
-0.254273 -0.255871 0.121376 0.00105475
-0.263616 -0.233147 0.122179 0.000252028
0.479592 0.602809 0.122745 0.000314
0.476246 0.624359 0.121515 0.000916054
0.45987 0.583804 0.122818 0.000387381
0.456172 0.605187 0.121388 0.00104331
-0.478483 0.676721 -0.0421572 0.0052353
-0.473252 0.7053 -0.0342018 0.00264736
-0.477781 0.666585 -0.0278045 0.0061004
-0.473595 0.694185 -0.01965 0.000182406
-0.0181429 -0.759627 -0.127767 0.00166916
-0.0363283 -0.735672 -0.130844 0.00474595
-0.0362908 -0.772755 -0.125153 0.000944771
-0.0535193 -0.749562 -0.129557 0.00345949
-0.811277 0.504242 -0.132005 0.00606016
-0.807911 0.526199 -0.123495 0.00873163
-0.830292 0.499138 -0.116761 0.00919932
-0.82303 0.522385 -0.109228 0.00546055
0.424274 -0.491245 -0.125296 0.00121969
0.413418 -0.473105 -0.124047 0.00241002
0.403628 -0.50595 -0.12809 0.00164963
0.394733 -0.489019 -0.127059 0.000674105
0.757455 0.416774 -0.0996658 0.0019386
0.751218 0.436544 -0.101299 0.00589375
0.752971 0.418222 -0.0830896 0.00141367
0.746463 0.438223 -0.0844125 0.00215135
-0.0970064 0.0230652 -0.131262 0.00468367
-0.114259 0.0458399 -0.125997 0.000574212
-0.114052 0.00487651 -0.129125 0.00254923
-0.129387 0.0282902 -0.124112 0.0024568
0.851198 -0.186066 -0.0530123 0.000416435
0.847578 -0.159476 -0.0626465 0.00320437
0.853627 -0.189214 -0.0254109 0.00284479
0.851504 -0.162466 -0.03384 0.000721849
-0.0972279 0.122735 0.123727 0.00129643
-0.113347 0.141067 0.124246 0.00181473
-0.113488 0.103993 0.121464 0.000967232
-0.128792 0.122855 0.122387 4.35833e-05
0.33532 -0.548166 0.121708 0.000723352
0.314276 -0.522194 0.122488 5.67611e-05
0.317547 -0.56379 0.122719 0.000288139
0.297908 -0.540179 0.123427 0.000996443
-0.0810106 0.746103 -0.124584 0.00151376
-0.0956394 0.764773 -0.126548 0.000450037
-0.101351 0.730027 -0.127042 0.000943936
-0.116205 0.748683 -0.128783 0.00268517
0.455007 -0.281265 0.123361 0.000930319
0.443268 -0.26095 0.121878 0.000552756
0.437771 -0.295595 0.122345 8.63944e-05
0.425209 -0.27471 0.120345 0.00208631
0.368477 -0.740477 -0.11523 0.0200537
0.356729 -0.725767 -0.115096 0.0234851
0.343589 -0.74991 -0.117063 0.00228348
0.332531 -0.735559 -0.117521 0.00195319
-0.105331 -0.756082 0.123516 0.00108478
-0.125801 -0.738194 0.126221 0.0037903
-0.124309 -0.767416 0.118237 0.00419392
-0.143275 -0.751831 0.120663 0.00176786
0.321126 0.846961 -0.0457466 0.00227998
0.297204 0.845321 -0.0584879 0.0039203
0.321631 0.850544 -0.0151733 0.00130327
0.297656 0.849596 -0.0282089 0.000354547
-0.752169 -0.256954 0.124525 0.00209409
-0.758467 -0.241149 0.125858 0.00342708
-0.759852 -0.265799 0.119285 0.00314594
-0.769748 -0.24921 0.120668 0.0017628
0.350818 -0.237364 0.123707 0.0012756
0.347731 -0.215858 0.125094 0.00266313
0.333389 -0.25498 0.120253 0.0021785
0.330967 -0.233341 0.121472 0.00095882
-0.717163 -0.403706 0.120279 0.0021519
-0.745774 -0.388467 0.118036 0.0043953
-0.737292 -0.419995 0.121875 0.000555848
-0.765131 -0.40351 0.119854 0.0025771
-0.77549 -0.514709 0.117288 0.00499743
-0.798668 -0.502551 0.114555 0.00781658
-0.776472 -0.514004 0.128295 0.00600132
-0.800386 -0.499173 0.127316 0.00490261
0.780927 0.478803 -0.141812 0.0157144
0.761277 0.482947 -0.143671 0.0175735
