-0.131694 -0.463116 -0.76756 0.00132154
-0.131851 -0.478558 -0.748897 0.0093627
-0.132512 -0.465223 -0.755915 0.00703777
0.0296499 -0.0621333 0.328805 0.000222562
0.0291274 -0.0458349 0.339528 0.00138025
0.0154521 -0.0555683 0.337719 0.00100741
0.0142284 -0.0397645 0.34728 0.00119755
0.158933 -0.0133549 -0.356116 8.53997e-05
0.162569 0.00188498 -0.363681 0.00143342
0.162641 -0.0137518 -0.337204 0.00358371
0.165724 0.000785688 -0.343697 0.00140093
0.142557 -0.232542 -0.804031 0.000636231
0.136533 -0.216385 -0.808071 0.000824872
0.146238 -0.234269 -0.792864 0.00122359
0.141951 -0.217754 -0.796553 0.000360369
0.0925426 0.227904 0.376031 9.72496e-06
0.0906184 0.243862 0.374935 0.000557721
0.0895337 0.225674 0.392957 0.00165441
0.0879125 0.241167 0.391857 0.00114833
0.0642079 -0.165852 -0.714554 0.00186672
0.0606739 -0.150684 -0.715554 0.00200338
0.0663177 -0.16393 -0.699474 0.00312836
0.0621995 -0.148 -0.699195 0.00264719
0.102977 0.255395 -0.801607 0.00021235
0.096165 0.274794 -0.800531 0.00346047
0.116201 0.257618 -0.791806 4.44069e-05
0.109194 0.274937 -0.792345 0.00227896
0.0896348 -0.430108 -0.847888 0.0053606
0.0914205 -0.41859 -0.845157 0.00386316
0.0831374 -0.432267 -0.835935 0.000381314
0.0853247 -0.42007 -0.833102 0.00250441
-0.184999 0.322627 -0.532254 0.00482032
-0.171414 0.335126 -0.539566 0.00248489
-0.186004 0.322615 -0.513831 0.00314983
-0.172405 0.337003 -0.520625 0.00254683
-0.0176394 -0.165333 -0.0980314 0.000120278
-0.0349566 -0.161119 -0.103553 0.000924931
-0.0168567 -0.165857 -0.0825609 0.000131612
-0.0343332 -0.161428 -0.0869107 0.000863053
0.165105 0.251966 -0.356116 0.000686041
0.160481 0.262284 -0.361594 0.000456466
0.167242 0.254721 -0.34 0.000877791
0.162667 0.265875 -0.343854 0.00286794
-0.157863 -0.0651819 -0.760803 0.000887397
-0.156523 -0.0537423 -0.764208 0.0013137
-0.1629 -0.0677587 -0.746231 0.000509205
-0.162125 -0.0551285 -0.749154 0.00141398
-0.0776796 0.320247 -0.812211 2.03701e-05
-0.0719871 0.333897 -0.807047 0.000150565
-0.0957081 0.322283 -0.803582 0.000517285
-0.0896187 0.335845 -0.799683 0.000416357
0.17343 0.0293707 -0.508056 0.000217253
0.180061 0.0435891 -0.50281 0.00118823
0.170916 0.0280587 -0.493 0.00269176
0.178024 0.0418663 -0.487592 0.0057478
0.0683782 0.379903 -0.665611 0.000560739
0.0561582 0.385004 -0.671898 0.000869798
0.0711219 0.381756 -0.650223 4.93314e-06
0.0575729 0.386201 -0.656414 0.00146759
-0.158236 0.0308562 -0.760957 0.000836479
-0.156408 0.044094 -0.76456 0.000205318
-0.162898 0.0297418 -0.749306 0.00127259
-0.160552 0.0434297 -0.75501 0.000627696
-0.0834463 0.109389 0.415788 0.00225287
-0.0883758 0.122358 0.412354 0.000616014
-0.0774184 0.115577 0.430326 7.75087e-05
-0.0820477 0.129708 0.427381 0.00194204
-0.135231 0.0633168 -0.793014 0.000774974
-0.134712 0.077165 -0.793852 0.00108433
-0.146738 0.060231 -0.783038 0.000132129
-0.145949 0.0735338 -0.783658 0.000222815
0.143223 -0.200054 -0.731223 0.0011297
0.147608 -0.186671 -0.73254 0.00240997
0.137939 -0.201852 -0.719493 0.000403568
0.141683 -0.189063 -0.718494 0.00106924
0.180198 0.232898 -0.133827 0.00209676
0.166273 0.25769 -0.12824 0.00120768
0.178276 0.232019 -0.113597 0.00170478
0.16557 0.255484 -0.108747 0.00103392
0.0547705 -0.14404 -0.778158 0.00150563
0.0539698 -0.124416 -0.7796 0.00310559
0.0556383 -0.144245 -0.758371 0.00321916
0.0537046 -0.126622 -0.760196 0.00109257
0.191015 0.114432 -0.623613 0.000627469
0.188092 0.128385 -0.631636 9.83189e-05
0.19411 0.113922 -0.604512 0.00170534
0.191502 0.12709 -0.612721 0.00291621
0.127436 -0.0623149 -0.790368 0.000605811
0.125678 -0.04686 -0.794355 0.00970178
0.132353 -0.065485 -0.776423 0.000923393
0.130327 -0.0503906 -0.781332 0.0110682
0.151019 0.223663 0.0114208 0.000143067
0.145833 0.237946 0.0075357 5.69866e-05
0.148689 0.224654 0.0248312 0.000674363
0.14354 0.238977 0.0203392 0.000337694
-0.0679401 0.373321 -0.245225 0.00185083
-0.0790914 0.369333 -0.260757 0.00264253
-0.0680142 0.373332 -0.22419 0.00106813
-0.0798953 0.366788 -0.240469 0.00335262
0.169131 0.057825 -0.696144 0.0020088
0.166558 0.0762633 -0.700996 8.81269e-05
0.172345 0.0556523 -0.683335 0.000292827
0.169508 0.0738183 -0.691792 0.00129053
-0.181161 0.192892 -0.737751 0.00158957
-0.179317 0.209074 -0.737749 0.00079472
-0.185016 0.193691 -0.719335 0.000174562
-0.18317 0.208169 -0.719781 0.000302682
-0.0599144 0.403004 -0.555368 0.00112335
-0.0698239 0.401008 -0.568897 0.000545875
-0.0653902 0.402678 -0.532786 0.000837471
-0.075449 0.400468 -0.5465 0.000288251
0.044548 -0.193463 0.083134 0.00267531
0.0324866 -0.19925 0.0715448 0.0131984
0.0464467 -0.195625 0.100226 0.0108839
0.034934 -0.202257 0.0898026 0.00317031
0.120535 -0.237892 -0.833105 0.000827193
0.113482 -0.222774 -0.837077 0.00238698
0.130813 -0.236496 -0.821247 0.000163848
0.12376 -0.221296 -0.825795 0.000957673
-0.175071 0.19873 0.0279101 6.79197e-05
-0.173267 0.212014 0.020268 0.000550879
-0.172363 0.195324 0.0448928 1.09869e-05
-0.170615 0.2084 0.0374111 0.00116647
0.156897 0.277855 -0.396124 0.00128924
0.149241 0.293646 -0.394624 8.17412e-05
0.15291 0.281151 -0.377212 0.00114032
0.148143 0.292908 -0.382137 0.000226854
0.122667 -0.0327496 -0.505957 0.00165121
0.108866 -0.0408634 -0.515078 0.00221253
0.115299 -0.0369913 -0.487941 0.00329748
0.104024 -0.0425923 -0.498958 0.00260701
0.080534 -0.155764 0.0427368 5.55675e-05
0.0721814 -0.148397 0.0352406 0.00780384
0.0811879 -0.163923 0.0517468 0.00738263
0.0707715 -0.158689 0.0432847 0.00294956
0.0998561 0.164742 -0.801907 0.000866429
0.0992617 0.184892 -0.802853 7.31341e-05
0.102438 0.153364 -0.797403 0.000451298
0.104262 0.174883 -0.79558 0.0025911
-0.0683846 0.378216 -0.286885 0.000574718
-0.0776364 0.37609 -0.302022 0.000972308
-0.0730141 0.375117 -0.267269 6.52e-05
-0.0824474 0.37067 -0.282929 0.00249619
-0.0722919 -0.5564 -0.728105 0.00202673
-0.0876594 -0.558352 -0.729588 9.3867e-05
-0.0805296 -0.555579 -0.713068 0.00135365
-0.0961151 -0.555973 -0.71447 0.00091362
-0.217208 0.201898 -0.188388 0.00190207
-0.2106 0.218009 -0.191546 0.00126783
-0.215335 0.201395 -0.169533 0.00197731
-0.211267 0.215257 -0.173557 0.00209585
0.0702695 -0.155314 -0.832339 0.00300512
0.0716477 -0.136888 -0.826505 0.0042521
0.0609037 -0.156486 -0.820615 0.00547767
0.0613838 -0.137518 -0.816419 0.00501217
-0.210618 0.107103 -0.523326 0.000667757
-0.214171 0.120675 -0.533476 0.00134095
-0.205086 0.102809 -0.501523 0.00086457
-0.208501 0.116876 -0.511528 0.000821565
0.152854 0.103909 0.290249 0.000213119
0.153573 0.11935 0.286887 0.00160373
0.146183 0.101396 0.302706 0.00300142
0.14808 0.116776 0.301318 0.00092257
-0.0926409 0.375778 -0.00470317 0.00120063
-0.0781615 0.388626 -0.00517281 0.000483026
-0.0969651 0.372954 0.0149668 0.00117509
-0.0819782 0.386523 0.0140247 0.000965688
-0.0425335 0.352875 0.59847 0.000600735
-0.053261 0.347768 0.585836 0.000833714
-0.0449232 0.346275 0.613522 0.000709976
-0.0556261 0.341781 0.60008 0.000248231
-0.042725 -0.0799083 -0.538237 0.00171513
-0.0599953 -0.075252 -0.539416 0.00638376
-0.0475822 -0.0842612 -0.522497 0.001475
-0.0638115 -0.0790646 -0.525728 0.00660467
-0.0590233 0.40853 0.127562 0.00193605
-0.067109 0.402895 0.113333 0.00145313
-0.0594429 0.406432 0.148171 0.00197998
-0.061832 0.406113 0.13678 0.00127124
-0.0176822 0.417966 -0.718638 0.00124293
-0.0324886 0.416338 -0.72546 0.00236249
-0.0149982 0.41795 -0.699033 0.00048802
-0.0293377 0.416236 -0.706586 0.00101253
-0.164561 0.219415 -0.773535 0.00202819
-0.163129 0.236128 -0.773377 0.00136448
-0.171309 0.214731 -0.758744 5.50758e-05
-0.170767 0.232747 -0.757394 5.20202e-05
0.063552 0.389765 -0.611748 2.44962e-05
0.0497029 0.393922 -0.617485 0.000375871
0.0663 0.390013 -0.59371 3.65664e-05
0.0530474 0.394167 -0.598974 0.000122672
0.0915274 -0.0457673 -0.587124 0.000392497
0.0810678 -0.0519131 -0.590102 0.00140539
0.0891145 -0.0462711 -0.56828 0.000496667
0.0768791 -0.0554449 -0.57724 0.0014473
0.161034 0.166118 -0.726813 0.000583097
0.157733 0.177781 -0.733051 0.000359194
0.166463 0.168102 -0.708757 0.000771476
0.163063 0.180044 -0.715049 0.000497642
-0.055922 -0.0716195 -0.69932 0.00685467
-0.0409192 -0.0548969 -0.696603 0.00158549
-0.0565916 -0.075363 -0.690981 0.00411742
-0.0420791 -0.0593695 -0.688199 0.00233985
-0.0948879 0.375915 -0.347785 0.00176358
-0.105744 0.372234 -0.364447 0.000701563
-0.0986279 0.371439 -0.326837 1.61101e-05
-0.108704 0.367595 -0.343046 0.000521426
0.0766735 0.190762 0.456206 0.000808803
0.0781145 0.210747 0.453642 0.00117549
0.0772865 0.190188 0.477079 0.00487
0.078003 0.210238 0.473838 0.00379327
-0.051128 0.350741 0.517563 0.00121599
-0.0577274 0.344968 0.502976 0.00118019
-0.0552589 0.348104 0.536298 0.000825497
-0.0647324 0.340755 0.521335 0.00326005
0.189576 0.0898088 -0.323197 0.000987596
0.188312 0.104604 -0.335346 0.000885389
0.195328 0.0888084 -0.30075 0.00256632
0.193201 0.102362 -0.312539 0.0013395
0.18819 -0.0431777 -0.660866 0.000649233
0.191025 -0.0288875 -0.664309 0.00601427
0.18501 -0.0410284 -0.644596 0.00154554
0.189702 -0.0275957 -0.644721 0.00323579
0.0972163 -0.0872396 -0.40274 0.000106078
0.0847565 -0.0893042 -0.414369 0.00109323
0.0949922 -0.0945599 -0.387215 0.000500788
0.082728 -0.0975933 -0.398773 0.000169975
0.102302 0.0377537 0.336427 0.000206754
0.106295 0.0510364 0.340176 0.000999602
0.0808795 0.0354266 0.346805 5.46894e-05
0.0844064 0.0492847 0.350947 0.000445043
0.140013 -0.0314145 -0.779141 0.00203916
0.138307 -0.0159983 -0.781927 0.0102223
0.146381 -0.034153 -0.766189 0.00188274
0.143614 -0.0204577 -0.772016 0.0070739
-0.0391251 0.118367 0.729538 0.000218856
-0.0424368 0.129797 0.726724 0.000105142
-0.0313746 0.11771 0.744462 0.000147713
-0.0335361 0.130777 0.743389 0.00336912
0.0944967 0.143219 0.546946 0.00084546
0.0921666 0.159057 0.536573 0.000293884
0.0980057 0.143546 0.564086 0.00318806
0.0959349 0.159551 0.552881 0.00314678
0.0427157 0.380455 -0.231684 0.00100193
0.0297506 0.38371 -0.238168 5.71022e-05
0.0432154 0.378819 -0.217749 6.51774e-05
0.0301861 0.381878 -0.224056 0.00145248
0.117695 0.276897 0.536733 0.00361603
0.118714 0.290164 0.53731 0.000339107
0.104779 0.27006 0.544675 0.00772754
0.104828 0.283533 0.544752 0.00126074
0.178468 0.0969951 -0.360999 0.00151002
0.180789 0.118207 -0.36762 0.000198444
0.180498 0.095602 -0.341396 0.0042508
0.181959 0.115106 -0.350254 0.00261225
-0.209186 0.058692 -0.535583 0.000391376
-0.214452 0.074474 -0.542908 0.000756517
-0.205357 0.0554528 -0.520148 0.00301051
-0.210491 0.0717389 -0.52558 0.000748011
0.128634 -0.397532 -0.757295 0.000324093
0.125773 -0.380768 -0.761313 0.00410846
0.122372 -0.403138 -0.745488 0.00651947
0.119847 -0.38744 -0.74958 0.00314399
0.16225 -0.0686484 -0.637136 0.00163761
0.171387 -0.0571644 -0.628551 0.00238
0.152585 -0.0652825 -0.621495 0.00387551
0.160749 -0.0563048 -0.612209 0.000787102
-0.17019 0.195064 0.208641 0.00131589
-0.165035 0.211127 0.205128 0.00083408
-0.165246 0.192206 0.227959 0.00139836
-0.160434 0.208709 0.224829 0.00126055
-0.0602399 -0.316579 -0.820422 0.00389919
-0.0629716 -0.29976 -0.822151 0.00131268
-0.0594642 -0.31845 -0.807682 0.000128603
-0.061992 -0.300935 -0.809449 0.00322729
-0.166845 -0.0405839 -0.403376 0.00184097
-0.172639 -0.0277731 -0.404686 5.38512e-05
-0.166948 -0.0427181 -0.386593 0.00162293
-0.172874 -0.0312082 -0.388039 0.00267692
-0.088077 -0.117657 -0.0185597 0.00680003
-0.101331 -0.106104 -0.0167771 0.00159136
-0.0915668 -0.120598 -0.00783339 0.000836642
-0.10404 -0.109518 -0.00666871 0.00391263
-0.0793412 0.142075 0.636627 0.000384769
-0.0824004 0.152967 0.632078 5.97685e-05
-0.0747164 0.144283 0.650812 0.000817291
-0.0779233 0.154962 0.646665 0.000257022
0.0475908 0.377641 0.263354 0.000451605
0.0400634 0.389323 0.262839 0.00300252
0.0459083 0.376683 0.278486 0.00162585
0.0392294 0.387201 0.27548 0.00189458
-0.180517 -0.127078 0.0782394 0.000685807
-0.183392 -0.108975 0.0773344 0.000781124
-0.182492 -0.127256 0.095164 0.000134777
-0.185848 -0.108644 0.0943102 0.00180219
-0.0278365 -0.542808 -0.793917 0.0110488
-0.0380749 -0.547115 -0.799501 0.0020592
-0.0332944 -0.54462 -0.778045 0.00107375
-0.0446814 -0.549745 -0.78334 0.00795392
-0.115858 0.341978 0.128329 0.00228989
-0.106232 0.358271 0.120295 0.00261609
-0.118829 0.335795 0.147995 0.0033362
-0.1083 0.352034 0.140474 0.00214513
-0.131334 0.340564 -0.267019 0.000253792
-0.129347 0.344077 -0.276037 0.000799646
-0.133579 0.337115 -0.246201 0.000575413
-0.132705 0.339842 -0.255656 0.000729276
-0.150125 -0.536879 -0.76965 3.86256e-05
-0.152626 -0.524993 -0.776449 0.00418053
-0.143699 -0.54207 -0.754048 0.00757047
-0.149922 -0.530164 -0.760211 9.68514e-05
-0.061526 -0.491198 -0.842159 0.00721685
-0.067477 -0.482287 -0.849891 0.00328266
-0.0665957 -0.50123 -0.834221 0.00831605
-0.0725307 -0.492222 -0.842657 0.00122424
0.0895666 0.00971625 0.737847 0.00143571
0.0874109 0.0132028 0.731264 0.000695502
0.0913345 0.00950448 0.751758 0.000286897
0.0900407 0.0128718 0.748616 0.00246714
-0.173182 0.16268 0.117393 0.000197099
-0.171847 0.178972 0.119801 0.00100352
-0.172895 0.165187 0.135129 0.000397483
-0.171719 0.181367 0.137237 0.000612066
-0.196956 0.189668 -0.444864 0.002389
-0.193583 0.208607 -0.457695 0.00313596
-0.196539 0.186231 -0.421003 0.00221655
-0.193092 0.205558 -0.434003 0.00312145
0.0942577 0.238345 0.366237 0.000903427
0.0924774 0.253995 0.364356 3.66315e-05
0.0925903 0.233508 0.382803 0.00359178
0.0908576 0.249062 0.3817 0.00403006
-0.184653 0.0458218 0.249446 0.00051326
-0.18739 0.0607004 0.242583 0.00105346
-0.177197 0.0501819 0.267066 0.00241624
-0.179681 0.0648401 0.26064 0.00200552
-0.055324 -0.207478 -0.735288 0.000702123
-0.0531856 -0.192772 -0.730661 0.00343859
-0.0647858 -0.208168 -0.723741 0.00340689
-0.0633768 -0.193561 -0.718829 0.00216413
-0.137278 0.274927 0.208444 0.00032481
-0.130998 0.291192 0.200813 0.000422591
-0.135984 0.265202 0.231042 0.00133315
-0.130591 0.281458 0.223142 0.00182443
-0.202534 0.0812418 -0.408446 0.00107385
-0.201474 0.0948427 -0.414904 0.000937271
-0.20564 0.0748034 -0.389663 0.000268323
-0.204483 0.0898942 -0.395053 0.00155271
-0.219778 0.0939804 -0.337319 0.000816804
-0.220487 0.116617 -0.334807 0.00127693
-0.22124 0.0911397 -0.32275 0.00106612
-0.221436 0.112517 -0.320812 0.00191695
0.000840139 -0.0931052 -0.5765 0.00204915
-0.0164151 -0.08956 -0.576912 0.00134658
-0.0086259 -0.0960289 -0.560759 0.000944371
-0.0245736 -0.0923432 -0.563558 0.000473731
0.188428 0.108815 -0.639764 4.39728e-05
0.185618 0.123224 -0.646479 0.000321599
0.19242 0.109383 -0.621497 0.00155132
0.189365 0.12331 -0.629562 0.000512833
-0.111188 0.368399 -0.711318 0.001726
-0.0948284 0.381108 -0.709273 0.00175505
-0.116014 0.369377 -0.690132 0.000392814
-0.0997282 0.38223 -0.688724 0.00297776
0.205087 0.304716 0.531841 0.00892347
0.18658 0.310165 0.527778 0.00914851
0.200123 0.308956 0.538273 0.00213556
0.182076 0.313991 0.53425 0.00154263
-0.19162 0.257237 -0.654249 0.00150811
-0.187483 0.27123 -0.657909 0.00186851
-0.192759 0.258751 -0.634045 0.00111704
-0.189132 0.273384 -0.636792 0.000166681
-0.1437 0.318743 -0.773618 0.000488233
-0.132271 0.333818 -0.772848 0.00158593
-0.154566 0.319344 -0.758084 0.000577789
-0.141631 0.333123 -0.757956 0.000210953
-0.102745 -0.120923 -0.0815743 0.000401667
-0.113705 -0.111078 -0.0871617 0.000621636
-0.0989743 -0.121168 -0.0668777 0.00172561
-0.110915 -0.109048 -0.0688827 0.0019526
-0.178261 -0.0547187 -0.306016 0.00117195
-0.186385 -0.0418574 -0.311304 7.64924e-05
-0.179032 -0.0547038 -0.288432 0.000256973
-0.186903 -0.0431224 -0.293405 0.000687772
0.162627 0.149619 -0.724807 0.00104571
0.159613 0.161052 -0.730647 0.000542438
0.169384 0.150119 -0.707192 0.00142039
0.166435 0.161449 -0.712794 0.000984739
0.0597315 0.0174409 0.696881 0.000199344
0.0484438 0.0185348 0.6866 0.000946246
0.0581961 0.0126423 0.709859 0.00121446
0.0465817 0.0140388 0.700227 0.000182402
0.111208 -0.106225 -0.835564 0.000911537
0.107189 -0.0902355 -0.838216 0.00195219
0.121822 -0.10662 -0.824755 0.00414687
0.11767 -0.0899838 -0.827873 2.62576e-05
0.00345203 0.0686051 -0.850482 0.0017219
-0.00742703 0.0817623 -0.850754 0.00426406
-0.00423831 0.0614347 -0.845697 0.00277347
-0.0164546 0.0742999 -0.845858 0.00177476
0.180788 0.2689 0.525969 0.00467582
0.167534 0.276382 0.525081 0.0082251
0.170378 0.266697 0.532152 0.000595534
0.156957 0.274149 0.531632 0.000166549
0.0304328 -0.256711 0.127501 0.000337324
0.0308858 -0.239271 0.125269 0.00097809
0.038173 -0.253369 0.140478 0.00166311
0.0376682 -0.236614 0.137942 0.00197626
-0.112397 -0.510059 0.129095 0.00919779
-0.120388 -0.498989 0.124158 0.00520734
-0.116816 -0.51786 0.140638 0.00399297
-0.125903 -0.50759 0.135895 0.00120791
-0.204035 0.238265 -0.204899 0.00179171
-0.195344 0.255928 -0.206705 0.000424748
-0.202962 0.235468 -0.184605 0.000473536
-0.195011 0.250869 -0.187263 0.00141365
0.09575 0.298009 0.551826 0.00213579
0.0958747 0.30944 0.551183 0.000686002
0.0885155 0.292036 0.560157 0.00241208
0.0879319 0.30382 0.559376 0.00380781
0.200363 0.0851946 -0.0999695 0.000514494
0.202111 0.100766 -0.108564 0.00108791
0.198312 0.0798912 -0.0813097 0.00207616
0.199863 0.0965304 -0.0878595 0.000677887
-0.22085 0.0760366 -0.326643 0.000401054
-0.221617 0.0974816 -0.324148 0.000757904
-0.221859 0.0762809 -0.310688 0.00138826
-0.222342 0.0945203 -0.311037 0.00155263
-0.159634 0.348737 -0.575343 0.00118339
-0.14532 0.359048 -0.580686 0.00361752
-0.16562 0.349821 -0.556887 0.00367489
-0.156253 0.357422 -0.564538 0.00162995
-0.199706 0.239796 -0.631064 0.000270206
-0.195957 0.254639 -0.634005 0.000899096
-0.200197 0.241555 -0.61248 0.000147676
-0.197193 0.258373 -0.614291 0.00263184
-0.0882694 -0.154881 0.0287895 0.00318408
-0.0966166 -0.144234 0.0245886 0.00454223
-0.0917403 -0.158063 0.0410868 0.00740873
-0.100275 -0.146895 0.0367743 0.00802603
0.00379551 0.246232 -0.846277 0.0158196
-0.0132317 0.25319 -0.848151 0.00113495
-0.00448962 0.24383 -0.848273 0.0081675
-0.0215169 0.250787 -0.850147 0.00876914
0.201659 0.128555 -0.114596 0.000812448
0.20218 0.142456 -0.123165 0.000315896
0.199086 0.131525 -0.0997979 0.000552836
0.199275 0.145977 -0.105961 0.000277133
0.13085 -0.0699698 -0.366696 0.000722851
0.136165 -0.0607033 -0.373533 0.000615205
0.129406 -0.0755428 -0.351438 0.000183977
0.136832 -0.0641032 -0.356773 0.000649187
-0.0703141 -0.439486 -0.764827 0.00147661
-0.0732867 -0.424266 -0.766528 0.000352321
-0.0784539 -0.44793 -0.754594 2.68731e-05
-0.081612 -0.433273 -0.756509 0.00209236
0.205401 0.0966182 -0.227064 0.00126822
0.204606 0.126381 -0.218545 3.3728e-05
0.207245 0.0952889 -0.207644 0.00145219
0.206524 0.122485 -0.198495 0.000514977
-0.0483155 -0.153309 -0.373883 0.00267065
-0.0547291 -0.14388 -0.381682 0.00124894
-0.0504861 -0.153051 -0.360115 0.00315574
-0.0568886 -0.14481 -0.366951 0.00045224
0.0996526 0.123483 0.665368 0.000790757
0.0992019 0.139543 0.661457 7.84497e-05
0.0994601 0.122724 0.678869 0.000147785
0.0987709 0.138467 0.67395 0.00013855
0.159705 0.127926 0.215705 0.000512033
0.15714 0.140903 0.209408 0.000543212
0.157895 0.129632 0.234611 0.00106122
0.155217 0.142484 0.228331 0.000161199
-0.068025 -0.202616 0.149772 1.40302e-05
-0.0744725 -0.188127 0.155438 0.00364895
-0.0737878 -0.196423 0.155111 0.000867133
-0.0831919 -0.180998 0.160852 0.00566946
-0.113739 0.297809 -0.804685 0.00138853
-0.107386 0.312077 -0.802254 0.000934527
-0.132549 0.29756 -0.797817 0.00220961
-0.125743 0.31195 -0.796377 0.00216713
0.0843308 -0.45852 -0.747132 0.000742408
0.0799236 -0.452029 -0.75308 0.000218045
0.081577 -0.466439 -0.74147 0.00268987
0.0763683 -0.460895 -0.747768 0.00282915
-0.0982724 0.366478 0.12569 0.000213353
-0.0874378 0.380962 0.118247 0.00182723
-0.101665 0.359451 0.146433 0.000916424
-0.0914023 0.374469 0.139274 0.000173437
0.153971 0.0161623 0.0585003 0.000489619
0.156387 0.0337671 0.0512979 0.00203695
0.155672 0.0130609 0.0807919 0.00505186
0.157616 0.0310069 0.0722463 0.00251505
-0.152261 -0.148942 -0.698227 0.00179617
-0.15653 -0.130644 -0.69153 0.00326234
-0.153635 -0.140469 -0.688329 0.0010906
-0.158942 -0.121644 -0.680729 0.00324564
0.0574349 -0.00309888 -0.852066 0.00285264
0.0444368 0.0143463 -0.855624 0.00437769
0.0520422 -0.00414283 -0.841997 0.00506731
0.0391033 0.0132918 -0.845552 0.00282474
0.0621933 0.39406 -0.469246 0.000695273
0.0467228 0.399392 -0.475032 0.000281859
0.0566373 0.392903 -0.452327 0.00250536
0.042151 0.397888 -0.45812 0.00221351
0.0946723 0.0127003 0.749367 0.00173268
0.0947134 0.016945 0.745274 0.000796843
0.0910024 0.00956998 0.761525 0.000998346
0.0908535 0.0151481 0.760629 0.00398504
-0.118721 0.261883 0.313992 0.00101725
-0.11384 0.276416 0.310184 0.000735212
-0.115688 0.255179 0.335213 0.000857851
-0.110568 0.27177 0.332646 0.000760818
-0.0597972 -0.153148 0.00238204 0.0013593
-0.0695481 -0.143872 -0.000194363 0.00299744
-0.0600551 -0.157248 0.0152683 0.00463293
-0.0697252 -0.147076 0.0126219 0.00205862
0.0479802 0.379743 -0.267378 0.000946624
0.034748 0.383417 -0.272893 0.000580752
0.0476071 0.377875 -0.249574 6.43441e-05
0.0343197 0.381534 -0.255867 0.00144273
-0.0899066 -0.125562 -0.837061 0.00126977
-0.0956702 -0.116069 -0.836635 0.00190111
-0.0817247 -0.121383 -0.828264 0.00197437
-0.0873 -0.11222 -0.829575 0.00103017
0.048554 -0.159171 0.0831424 0.00858406
0.0356228 -0.16697 0.0712178 0.00403898
0.0499075 -0.16208 0.0970392 0.0140723
0.0372594 -0.169518 0.0854273 0.0006696
0.124917 0.292297 0.505546 0.00216626
0.121625 0.30543 0.508503 0.00230895
0.114064 0.292028 0.511231 0.00480454
0.110885 0.304009 0.513816 0.00777806
0.203759 0.124799 -0.225292 0.000443254
0.20325 0.15562 -0.217127 0.00170901
0.20355 0.124309 -0.209799 0.00208706
0.202581 0.153159 -0.200831 0.000569055
-0.257873 0.307148 0.604553 0.00191832
-0.258008 0.326625 0.607054 0.00756605
-0.272964 0.301579 0.61158 0.00612929
-0.27335 0.320412 0.613379 0.00973187
-0.124255 -0.0951199 0.0166777 0.0031657
-0.131716 -0.0814915 0.0160381 0.0042258
-0.13347 -0.103362 0.0255575 0.00484957
-0.142109 -0.089426 0.0247088 0.000660191
0.0584756 0.381256 0.186689 0.00334535
0.0509249 0.390588 0.182707 0.00070001
0.0547558 0.379972 0.201736 0.00117273
0.047733 0.388708 0.198122 0.00176434
0.0794576 0.365134 -0.028541 0.00208042
0.0642583 0.379386 -0.0352072 0.000257701
0.0805713 0.363803 -0.0114045 0.000187255
0.0653585 0.37845 -0.0173527 0.00200008
-0.170118 0.306153 -0.37089 0.000586616
-0.163424 0.319057 -0.371643 0.000519586
-0.16599 0.302922 -0.351239 0.00302624
-0.158572 0.317384 -0.350763 0.00125386
0.101432 -0.0935546 -0.374357 0.000534656
0.0915278 -0.095691 -0.385835 0.000994454
0.0953783 -0.104651 -0.35723 0.00187347
0.0865363 -0.106609 -0.36996 0.00119931
0.146445 0.209997 0.0950598 0.00043052
0.142956 0.222584 0.0916199 0.00135717
0.147333 0.208947 0.111776 0.000725154
0.144155 0.22194 0.109022 0.00119845
-0.00522576 0.357982 0.631475 0.000156834
-0.014617 0.360908 0.621903 0.00107602
-0.00803411 0.350441 0.64585 0.00106865
-0.0173949 0.353506 0.637075 0.000600219
-0.16843 0.237001 -0.76619 0.00132627
-0.166359 0.253433 -0.766328 0.000434603
-0.175046 0.232213 -0.751399 0.00229321
-0.17416 0.250042 -0.750232 0.00271798
0.116007 -0.196851 0.0566973 0.00389791
0.113572 -0.186724 0.0519215 0.00293431
0.114847 -0.201728 0.0701151 0.00502829
0.117199 -0.189079 0.0665296 0.00429044
-0.140193 -0.0924388 -0.310328 0.00158649
-0.14841 -0.0832546 -0.31683 0.00155075
-0.145646 -0.0926966 -0.294226 0.000641785
-0.153206 -0.0834372 -0.299512 0.000322661
0.00971759 -0.0734233 -0.617369 0.00147375
-0.00295071 -0.070571 -0.623945 0.00546469
0.0102094 -0.0725695 -0.601213 0.00525657
-0.00434488 -0.0693518 -0.606523 0.0134184
0.196768 0.0397787 -0.146762 0.000156629
0.19998 0.0547153 -0.147282 0.000163187
0.195714 0.0399936 -0.126475 0.000848083
0.199906 0.0543403 -0.126761 0.000295814
0.0790693 0.162292 0.506174 0.000580764
0.079314 0.177378 0.498142 0.00330512
0.0828285 0.158239 0.52685 0.00539006
0.0810607 0.17437 0.516801 0.00180264
-0.106845 -0.175555 -0.861804 0.00639217
-0.110868 -0.160104 -0.85508 0.00450569
-0.0988187 -0.17084 -0.854699 0.00279569
-0.102842 -0.155388 -0.847976 0.00297059
0.170805 0.257927 -0.564645 0.000397427
0.165633 0.268103 -0.572564 0.00130018
0.173699 0.256783 -0.548483 1.88529e-05
0.168749 0.267163 -0.556606 0.0001914
-0.0881901 0.248324 0.602624 0.000625279
-0.0904388 0.259592 0.598481 0.00210202
-0.0890434 0.246865 0.614399 0.00197584
-0.0914871 0.258338 0.609786 0.00483241
-0.226711 0.121165 -0.299643 0.000528206
-0.225992 0.136737 -0.303118 0.000134454
-0.227369 0.120194 -0.284085 0.000619411
-0.226788 0.13634 -0.28712 0.000997844
0.0314848 0.179003 0.774867 0.000745019
0.0164202 0.186135 0.769193 2.27057e-05
0.0275621 0.161995 0.779671 0.0034308
0.0115779 0.168117 0.774637 0.000686329
0.0384248 -0.45744 0.0849679 0.000827922
0.0399811 -0.438121 0.0800992 0.00204948
0.0392885 -0.461498 0.0986428 6.53607e-05
0.0403746 -0.44306 0.0935596 0.000762199
0.128375 0.325131 0.545657 0.00717679
0.127285 0.33473 0.54435 0.00783254
0.113355 0.317544 0.553459 0.00151725
0.113107 0.327243 0.552064 0.00128473
0.0940756 0.266204 0.333065 0.00177656
0.0883026 0.28033 0.32913 0.000730512
0.0932953 0.26476 0.345714 0.0022626
0.0876184 0.278946 0.343175 8.00849e-05
-0.0106889 -0.198213 -0.361577 0.00587472
-0.0150771 -0.191639 -0.371078 0.00304733
-0.0150174 -0.197864 -0.343803 0.00226669
-0.0198086 -0.192317 -0.354482 0.00120827
0.108505 -0.398792 -0.853374 0.00533127
0.107983 -0.386526 -0.850493 0.00336802
0.105914 -0.396445 -0.841898 0.00530492
0.104536 -0.384102 -0.839369 0.00652869
-0.173351 0.136339 -0.755346 0.00219764
-0.17071 0.153039 -0.75699 0.00120987
-0.181828 0.135979 -0.739442 0.0032716
-0.179994 0.152381 -0.740274 0.00120311
-0.189352 0.0485079 0.206872 0.00081429
-0.192903 0.0646556 0.202889 0.004367
-0.185649 0.053814 0.222055 0.00228131
-0.188055 0.0680863 0.217144 0.00155523
0.0481741 0.0931428 0.461782 0.00299874
0.0548554 0.107019 0.472289 0.000173189
0.0473794 0.0987022 0.481761 0.00404726
0.0534888 0.109627 0.480487 0.00490503
-0.0632306 -0.242004 -0.817711 0.000236375
-0.0641008 -0.228654 -0.820403 0.000509833
-0.0575353 -0.244415 -0.804416 0.00181224
-0.0577496 -0.230632 -0.806347 0.00124805
0.193757 0.146488 -0.0752852 1.49713e-05
0.192317 0.159899 -0.0779558 0.000324935
0.19221 0.140471 -0.0583954 0.000564467
0.190628 0.155421 -0.0595078 0.000546498
0.0673369 0.00892902 0.787233 0.00481995
0.0498165 0.00895081 0.793092 0.00246128
0.0555637 0.0117559 0.798593 0.00187862
0.0380107 0.0116727 0.803623 0.00549578
-0.155302 0.320209 -0.291536 0.000930795
-0.143659 0.33197 -0.296633 9.44813e-05
-0.157718 0.315089 -0.27373 9.19648e-05
-0.147133 0.326541 -0.277283 2.30442e-05
-0.0540748 -0.375173 0.0564145 0.00594826
-0.0567398 -0.352528 0.0563937 0.0011723
-0.0623065 -0.377667 0.0702406 0.00333395
-0.0648933 -0.355524 0.0697679 0.00966602
-0.183436 0.342181 0.596974 0.000778464
-0.198879 0.339715 0.594172 0.00101895
-0.191207 0.344318 0.607631 0.00205476
-0.205834 0.342381 0.605228 0.0014452
0.129672 -0.178217 0.0707678 0.00135237
0.132459 -0.165178 0.0673989 0.00200326
0.129904 -0.181902 0.0839479 0.00322046
0.134648 -0.167394 0.0814209 0.00111502
0.178444 0.0176593 -0.545789 0.00246279
0.184766 0.0315631 -0.544595 0.00104542
0.175721 0.0163292 -0.532138 0.00343838
0.18276 0.0307824 -0.528442 0.000427021
-0.183456 0.109802 0.122987 0.00174818
-0.180165 0.125387 0.123453 0.00108557
-0.182671 0.107304 0.140346 0.00142556
-0.179285 0.123436 0.139449 0.000866916
-0.000737313 0.355482 0.638297 0.000256479
-0.0097247 0.359124 0.629051 0.000450146
-0.0043924 0.347914 0.652513 0.00032461
-0.01375 0.351289 0.643138 0.000911139
0.14178 0.302038 -0.276453 0.000291099
0.130858 0.314698 -0.28837 9.46616e-05
0.144974 0.297123 -0.258369 0.000363398
0.133968 0.309697 -0.269574 0.00126274
0.178866 0.157427 -0.0187893 0.00141729
0.177371 0.173592 -0.0193632 0.00125542
0.1767 0.153782 -0.00435911 0.000107353
0.175215 0.169582 -0.00521386 0.000162716
-0.205941 0.0298946 -0.102133 0.00122334
-0.214392 0.0425907 -0.111252 0.0012133
-0.200391 0.0290615 -0.0843891 0.00161825
-0.20861 0.0433304 -0.0935179 0.00162524
0.186792 0.208323 -0.581481 0.000471775
0.182871 0.219185 -0.589454 0.000548535
0.188349 0.205513 -0.564214 0.00129837
0.184742 0.216556 -0.571058 0.000995824
0.0433727 -0.540794 0.106025 0.00500892
0.0358482 -0.528852 0.103577 0.0012544
0.0427149 -0.546876 0.114573 0.00374
0.0343076 -0.536036 0.111574 0.000837709
-0.184457 0.283299 -0.65613 0.00103543
-0.178513 0.297795 -0.660042 0.000630043
-0.186815 0.28441 -0.635527 0.00173607
-0.180364 0.298266 -0.639981 0.000998823
0.1066 -0.0906998 -0.369252 0.000750241
0.101971 -0.0905613 -0.380406 9.20193e-06
0.101748 -0.100799 -0.353649 0.00156865
0.0958336 -0.100995 -0.365722 0.0011937
0.14557 -0.387686 -0.779461 0.000166951
0.143707 -0.367623 -0.783496 0.00134959
0.143531 -0.390473 -0.766463 0.00477257
0.140722 -0.372045 -0.770758 0.000663483
0.166563 0.00954552 -0.0342891 0.000260389
0.172573 0.0236306 -0.0345742 0.00124005
0.161373 0.00490907 -0.0202367 0.000932603
0.16776 0.0190688 -0.0217424 0.000740893
0.0043871 0.200645 -0.83668 0.00520179
-0.0073158 0.213687 -0.836775 0.00311387
-0.00957836 0.184421 -0.838303 0.00406736
-0.0214927 0.196636 -0.838385 0.00791915
0.0157688 0.105229 -0.844009 0.0119827
0.0058621 0.117339 -0.845296 0.00738371
0.00288876 0.0961564 -0.842763 0.00330323
-0.00648788 0.109252 -0.844004 0.00690159
-0.219421 0.0242147 -0.228811 0.000866793
-0.224452 0.0382821 -0.231548 0.00245856
-0.214516 0.0248454 -0.213844 0.00350911
-0.220371 0.040636 -0.2162 0.00192023
0.149232 -0.13741 -0.729261 0.000441365
0.151573 -0.125991 -0.731297 0.00128994
0.148884 -0.139168 -0.71704 0.00141163
0.151755 -0.127861 -0.718816 0.000188133
-0.0265698 0.39028 -0.22066 0.00105849
-0.0446323 0.388011 -0.233945 0.00374351
-0.0262245 0.388691 -0.203794 0.000346487
-0.0458915 0.385311 -0.217889 0.00199844
-0.135188 0.272369 0.585907 0.00565246
-0.139975 0.291532 0.583156 0.0136939
-0.13771 0.266328 0.601679 0.00963027
-0.142806 0.285786 0.598232 0.00196984
-0.113233 0.347013 -0.0144057 0.00230079
-0.100574 0.36059 -0.0152721 0.000160439
-0.114791 0.346948 0.00560875 0.000272014
-0.101384 0.360984 0.00500901 0.00201647
-0.027804 -0.0479716 0.341707 0.00237813
-0.0400308 -0.0362761 0.343211 0.000962196
-0.0275645 -0.0364287 0.350061 0.000920322
-0.0372315 -0.0220648 0.354132 0.00268794
0.164641 0.167894 -0.709576 0.000795585
0.161241 0.179836 -0.715868 0.00106942
0.171062 0.166 -0.691725 0.000635949
0.168032 0.178162 -0.698138 0.000774612
0.178073 0.248821 -0.534119 0.00233904
0.173847 0.260642 -0.540421 0.000279686
0.178216 0.248337 -0.52036 0.00178341
0.174513 0.260289 -0.526858 5.69444e-05
-0.162382 0.254742 -0.774569 0.00202635
-0.158139 0.269934 -0.776379 0.000553216
-0.170297 0.248671 -0.759083 0.00129374
-0.166601 0.26468 -0.759526 0.00119055
-0.0928976 -0.105671 0.229902 0.000754402
-0.105199 -0.0981702 0.22305 0.00279036
-0.0879441 -0.103044 0.243241 0.00112181
-0.0997829 -0.0952441 0.236573 0.00141868
0.13691 0.103694 0.317319 0.00200425
0.138709 0.118608 0.317123 0.00295381
0.126371 0.10405 0.329484 0.000580871
0.128871 0.118777 0.330712 0.00507392
-0.18953 -0.0270712 -0.135365 0.000504586
-0.198213 -0.0166172 -0.143911 0.00152903
-0.1837 -0.0250425 -0.113348 0.00200328
-0.192541 -0.0142552 -0.121694 0.000688582
-0.177172 -0.00956973 -0.421447 0.00278519
-0.182825 0.00762495 -0.422074 0.00263193
-0.176097 -0.0126183 -0.405711 0.00181837
-0.182205 0.00422832 -0.405672 0.00184215
0.126051 -0.559589 -0.732639 0.00100108
0.108119 -0.555406 -0.736365 0.00457881
0.131064 -0.564529 -0.717396 0.0056405
0.110192 -0.558425 -0.720271 0.000243267
0.170689 0.210444 -0.0428755 0.000598644
0.167491 0.224471 -0.0459286 0.00270826
0.169326 0.204991 -0.025684 0.000781344
0.166443 0.217569 -0.030193 0.00201227
0.151733 0.0467967 -0.722732 0.000808835
0.149271 0.0648322 -0.725526 0.000107029
0.15923 0.0466547 -0.707446 0.00206393
0.15665 0.0647793 -0.710772 0.00206079
-0.176793 0.0134406 -0.0262731 0.000297193
-0.181879 0.0249189 -0.035357 0.00282812
-0.174184 0.0142179 -0.00788721 0.00174434
-0.179301 0.0254826 -0.0168848 0.00088669
0.111563 -0.12319 -0.834557 0.00279707
0.107422 -0.106789 -0.836486 0.00166435
0.121333 -0.121653 -0.823548 0.00381918
0.116974 -0.105279 -0.826206 0.000269405
-0.110129 -0.323419 0.117984 0.000349076
-0.12101 -0.308201 0.115458 0.0039497
-0.104294 -0.318874 0.125381 0.00296905
-0.115405 -0.3022 0.124229 0.000791153
0.120789 -0.0966814 0.208887 0.000359759
0.120386 -0.080969 0.214861 0.00130408
0.106292 -0.096646 0.216556 0.00090219
0.1064 -0.0808332 0.222865 0.00620491
-0.0678996 0.321773 0.661629 0.00168891
-0.0785934 0.322055 0.647892 0.00386939
-0.0668453 0.310571 0.674136 6.39547e-05
-0.0778424 0.311294 0.660084 0.00236324
-0.0495979 -0.220424 -0.774217 0.000312099
-0.0483924 -0.204972 -0.772537 0.000108985
-0.0499352 -0.221213 -0.762014 0.00167244
-0.0481193 -0.20566 -0.759232 0.00235884
0.149643 0.24712 -0.729129 0.000375458
0.142116 0.265694 -0.732194 0.00397073
0.15631 0.242123 -0.715658 0.00161859
0.148936 0.26026 -0.718653 0.00159617
-0.212972 0.210314 -0.294794 0.000284288
-0.208553 0.225932 -0.291989 0.00131425
-0.211689 0.215174 -0.275881 1.62396e-05
-0.206787 0.230919 -0.27338 0.00121789
0.0481768 0.377955 -0.726238 0.000912447
0.0329638 0.385014 -0.732053 0.000304468
0.0519309 0.382034 -0.706155 0.000168527
0.0385992 0.388561 -0.712547 0.000743364
-0.0409964 0.406043 -0.605848 0.00141295
-0.0560174 0.403076 -0.618022 5.62607e-05
-0.0442019 0.406343 -0.58754 0.000460541
-0.0576767 0.403459 -0.599932 0.00095003
-0.146671 -0.540016 -0.75316 0.00398195
-0.152314 -0.528233 -0.758573 0.00282612
-0.141197 -0.54462 -0.737682 0.0060169
-0.148858 -0.534229 -0.743066 0.0035397
-0.0206896 0.41815 0.147237 0.000266291
-0.032422 0.418701 0.139729 0.000303463
-0.0227071 0.415801 0.166204 0.000751986
-0.032623 0.416928 0.158703 0.00014173
0.0159915 0.0575874 -0.851861 0.00322022
0.00495066 0.0715581 -0.852561 0.000928416
0.009683 0.0510981 -0.844435 0.00504847
-0.00167247 0.0644189 -0.844815 0.00539239
0.151714 0.131113 0.274581 0.000741498
0.150119 0.145184 0.268864 2.87073e-05
0.148629 0.130942 0.286543 0.000766598
0.147136 0.145302 0.280943 0.000154804
-0.14848 -0.0930543 -0.199427 0.00146672
-0.161473 -0.0802822 -0.204137 0.00090693
-0.147427 -0.0931312 -0.182301 0.00142317
-0.160019 -0.0805138 -0.18754 0.00115796
-0.0815895 0.284102 0.541765 0.00322705
-0.0862316 0.306016 0.536617 0.0114707
-0.0840675 0.278944 0.554239 0.00536044
-0.0889887 0.300777 0.548433 0.0113379
0.0650441 0.306725 0.670448 0.00282509
0.0606089 0.319406 0.666058 0.00412149
0.0595991 0.299803 0.682583 0.00274029
0.0537036 0.313342 0.679047 0.00475964
-0.0543856 0.102245 -0.833059 0.00589489
-0.0590471 0.115027 -0.833331 0.0031869
-0.0677848 0.0981349 -0.828646 0.000388977
-0.0712805 0.110703 -0.828338 0.00310846
0.0549994 -0.0895362 -0.671971 0.00214599
0.044475 -0.0809593 -0.677093 0.0031033
0.0601058 -0.0837397 -0.65889 0.00116398
0.0487335 -0.0760421 -0.664127 0.000457547
0.149717 0.286438 -0.318786 0.000627403
0.141786 0.297895 -0.329688 0.000647237
0.152519 0.28222 -0.304354 7.99315e-05
0.142894 0.294498 -0.316626 0.0016015
-0.0470706 -0.019632 -0.765205 0.00124796
-0.0463942 -0.00817194 -0.771082 0.00219375
-0.0414775 -0.0248882 -0.750466 0.000381328
-0.0405425 -0.0136471 -0.756269 0.000165134
-0.0502702 -0.0388572 -0.757603 0.000726357
-0.0464899 -0.0245603 -0.76166 0.00142424
-0.0462194 -0.0409426 -0.743048 0.00182915
-0.0422933 -0.0276815 -0.747033 0.000603502
0.104261 -0.556163 0.0967397 0.00242251
0.0917711 -0.555719 0.0915631 0.00350354
0.101643 -0.559116 0.108666 0.000445252
0.0877981 -0.559641 0.103684 0.000318347
-0.139531 -0.0622838 -0.427917 0.000683207
-0.147331 -0.052171 -0.434386 0.000655819
-0.141296 -0.0666857 -0.410157 0.00091206
-0.148993 -0.0566844 -0.415991 0.000189888
-0.0566042 0.356729 0.451188 0.000857763
-0.0662618 0.354385 0.437679 0.00605842
-0.0585535 0.351281 0.471162 0.00139111
-0.0667328 0.348844 0.45817 0.0051569
-0.122734 0.362591 -0.711399 0.00101739
-0.106336 0.375571 -0.709132 0.0021789
-0.126908 0.362338 -0.690659 0.000983152
-0.110808 0.376089 -0.689298 0.00305433
-0.137023 0.296376 0.12206 0.00047801
-0.129728 0.313981 0.116027 0.00114667
-0.135205 0.292962 0.140379 0.00150107
-0.126324 0.310628 0.134202 0.00224385
0.0953956 0.113665 0.619864 0.000116572
0.0950924 0.126182 0.612272 0.000699297
0.0955392 0.110989 0.637203 0.00015926
0.095447 0.124572 0.630624 0.000909683
0.0381638 -0.256553 0.0709125 0.00277517
0.0423334 -0.237388 0.07336 0.00188233
0.0358567 -0.258837 0.082344 0.00251955
0.0392009 -0.242835 0.0844261 0.00228
-0.188957 0.01156 -0.593916 0.000426789
-0.19462 0.0219398 -0.599491 0.00164439
-0.188631 0.0150663 -0.57938 0.00045148
-0.194608 0.0254179 -0.584851 0.00131234
0.198513 0.168617 -0.13775 0.000559071
0.194406 0.181895 -0.148727 0.0035443
0.19893 0.165425 -0.121468 9.97148e-05
0.19468 0.178635 -0.132238 0.00318857
-0.100201 -0.370679 -0.767195 0.00310923
-0.108008 -0.352414 -0.768047 0.00379551
-0.10065 -0.370807 -0.756288 0.0074063
-0.108238 -0.352571 -0.757091 0.00605296
-0.205029 0.248761 0.5724 0.00280128
-0.213182 0.26263 0.572704 0.000830764
-0.220639 0.248202 0.582613 0.00061851
-0.227142 0.262565 0.582948 0.00138241
0.157223 0.14173 0.215434 0.000343308
0.154647 0.154327 0.209867 0.000418109
0.154884 0.1424 0.233043 0.000300998
0.152285 0.1552 0.226852 0.000509488
0.0689572 -0.293861 -0.769609 0.000627071
0.0643648 -0.281085 -0.772018 0.000651507
0.0724958 -0.28978 -0.75832 0.000779723
0.0671129 -0.276427 -0.760189 0.00200076
0.149953 -0.133738 0.122708 0.0022716
0.15573 -0.116545 0.12754 0.000374598
0.150213 -0.133868 0.134086 0.00061352
0.155932 -0.117352 0.137787 3.64965e-05
0.150931 -0.257332 -0.788836 0.00123738
0.1482 -0.240147 -0.791292 2.29028e-06
0.150533 -0.255998 -0.777795 0.00251601
0.149587 -0.238404 -0.779212 0.00144683
0.100684 0.207981 0.33963 0.000400803
0.099011 0.222627 0.334936 0.00184928
0.0991168 0.205744 0.354553 9.38147e-05
0.0975764 0.221018 0.350665 0.000765441
-0.156366 0.257862 0.0896667 0.00197721
-0.152197 0.272489 0.0866238 0.00143634
-0.153898 0.255394 0.10583 0.00207095
-0.149605 0.272507 0.103445 0.000912207
0.139557 0.0888097 -0.751244 0.000362346
0.138328 0.104877 -0.753435 0.00281493
0.148611 0.0877174 -0.73617 0.00280052
0.146934 0.10316 -0.739219 0.000650946
0.0870218 0.355382 -0.0470601 0.00448121
0.072112 0.369007 -0.053025 0.0018964
0.0848679 0.353836 -0.0354886 0.000180979
0.0702923 0.367066 -0.0426959 0.00220094
-0.100997 -0.260615 -0.857262 0.00599357
-0.101184 -0.245172 -0.857778 0.00641056
-0.100109 -0.262579 -0.84672 0.00397323
-0.0989685 -0.246527 -0.847388 0.00391208
0.0777869 -0.0310021 0.303823 0.00244824
0.0777202 -0.0134974 0.315246 0.000192762
0.0629855 -0.0284326 0.318779 5.09176e-05
0.0626482 -0.00973062 0.331301 0.00116614
0.144226 -0.0170911 -0.486304 0.00119983
0.148512 -0.0123886 -0.492399 0.00356343
0.136865 -0.0200499 -0.470957 0.00581353
0.141835 -0.0140146 -0.477212 0.00227875
-0.0839028 -0.137753 -0.0521961 0.00144621
-0.0974911 -0.12354 -0.0505129 0.000768683
-0.0805571 -0.1377 -0.0379857 0.00108442
-0.095038 -0.123211 -0.0347191 0.00103815
0.0939109 0.0613013 0.697627 0.000624897
0.0937461 0.0762263 0.692045 0.000757395
0.0995068 0.0551023 0.715782 0.00314311
0.0993637 0.0707479 0.709283 0.000729265
-0.109481 -0.0446377 -0.540958 0.00145037
-0.119359 -0.0402885 -0.545681 0.00317025
-0.106776 -0.0463276 -0.521872 0.00362291
-0.116621 -0.0388921 -0.529606 0.00281739
0.105561 -0.155935 0.202416 0.000170699
0.108457 -0.143613 0.206105 0.000125395
0.0945356 -0.15935 0.206345 0.00468769
0.0969326 -0.146553 0.211122 0.00646823
0.133352 -0.0558208 -0.402705 0.000438595
0.144105 -0.0395486 -0.411524 0.00119889
0.138424 -0.0588899 -0.387404 0.00285189
0.147219 -0.0441867 -0.394974 0.000807475
-0.0308432 0.401215 -0.394964 5.9913e-05
-0.0488199 0.400578 -0.405052 0.00196486
-0.0324263 0.398639 -0.378723 0.000477388
-0.0502954 0.398001 -0.388478 0.00185894
0.164069 -0.0430616 -0.136473 0.000172528
0.174282 -0.0299948 -0.137926 0.00355893
0.158711 -0.045648 -0.120541 0.00101222
0.169106 -0.032455 -0.12121 0.00246877
-0.136784 -0.281529 -0.775285 0.00213969
-0.141517 -0.268932 -0.777501 0.000298967
-0.133971 -0.275994 -0.76072 0.000126547
-0.139336 -0.264297 -0.762421 0.00189053
-0.0239685 0.414692 -0.698327 0.00160897
-0.0373007 0.411739 -0.706296 0.000774777
-0.026444 0.415332 -0.680602 0.000817147
-0.0386235 0.41133 -0.689199 0.000336653
-0.161737 0.255476 -0.00854345 0.000243705
-0.153541 0.271814 -0.00985727 0.000693607
-0.163403 0.251271 0.00917682 0.00278247
-0.155514 0.266913 0.00628757 0.00200409
0.0941041 -0.112589 -0.116616 0.000238995
0.110437 -0.0969355 -0.112422 0.00161861
0.0917549 -0.112157 -0.0955785 0.000427427
0.106279 -0.0991542 -0.093487 9.22107e-05
-0.0865082 0.364413 -0.156876 6.48118e-05
-0.10021 0.35466 -0.173372 0.00208825
-0.0931371 0.361318 -0.136222 0.00170349
-0.106631 0.35135 -0.152933 0.000208349
0.0530075 0.327549 0.530686 0.00227247
0.044765 0.334211 0.524631 0.00103468
0.0519671 0.33075 0.543801 0.000104808
0.0430903 0.3365 0.536723 0.00194934
0.187225 0.150411 -0.642191 0.00215996
0.183118 0.164268 -0.651784 0.00141034
0.192481 0.149646 -0.621603 0.000745687
0.187826 0.163601 -0.632291 8.5931e-05
-0.163579 0.107679 0.307791 0.00141626
-0.162945 0.123112 0.306919 0.00438401
-0.153985 0.111032 0.319637 0.000677236
-0.155513 0.124975 0.317268 0.00330438
-0.215197 0.184509 -0.148413 0.00105935
-0.213312 0.199905 -0.154046 0.00141334
-0.211274 0.183196 -0.130864 0.0031122
-0.209603 0.19879 -0.136807 0.00041133
0.118305 -0.046284 -0.00347482 0.00164764
0.127185 -0.0332329 -0.00738704 0.00291353
0.117847 -0.0475097 0.0170241 0.00694505
0.125893 -0.0342599 0.0129402 0.0010571
0.0247844 -0.14215 0.284078 0.00259955
0.0289648 -0.12901 0.293581 0.000683408
0.0160626 -0.129967 0.296424 0.00576323
0.0178807 -0.1167 0.305825 0.00222968
0.161687 0.15171 0.0682837 0.000626167
0.159734 0.166562 0.0602319 0.000566882
0.160257 0.148857 0.0861078 0.000485371
0.157781 0.164354 0.0796557 0.000719248
-0.0888779 0.384837 0.0840771 0.00234441
-0.075127 0.396596 0.0788464 0.000828307
-0.0900505 0.382735 0.108602 0.00174552
-0.0804709 0.392082 0.100942 0.000382286
0.152749 -0.0525466 -0.770228 0.000262573
0.150001 -0.0380469 -0.775669 0.000222954
0.158851 -0.0558956 -0.755392 0.000141124
0.156539 -0.0414004 -0.760281 0.00058744
-0.157291 0.330783 -0.724835 0.00306649
-0.143261 0.343817 -0.724737 0.000998946
-0.164589 0.328989 -0.705242 0.00473943
-0.150883 0.342061 -0.704948 1.86477e-05
0.0194356 -0.137766 -0.426623 0.00497914
0.00968294 -0.139167 -0.434998 0.000203575
0.0167565 -0.144578 -0.412766 0.00238549
0.00647796 -0.146154 -0.421267 0.00337038
-0.091239 -0.272874 0.0204239 0.000292458
-0.0972818 -0.253548 0.0250606 0.00175079
-0.0939738 -0.271313 0.0257264 0.00399047
-0.0998941 -0.252053 0.0302187 0.000833603
-0.118666 -0.163525 -0.677869 0.000494347
-0.121195 -0.147996 -0.669668 0.0031779
-0.125133 -0.155927 -0.669376 0.00345617
-0.127624 -0.139859 -0.660666 0.00221444
0.0908876 -0.395083 -0.7701 0.00888566
0.0870101 -0.379855 -0.770068 0.00536768
0.085053 -0.392857 -0.756031 0.00482651
0.0820055 -0.377996 -0.757239 0.0067796
-0.12306 -0.555516 0.152575 0.0022058
-0.141659 -0.550704 0.147274 0.00664943
-0.119433 -0.557567 0.170863 0.00211305
-0.138293 -0.55205 0.165075 0.000288135
0.0134151 0.202145 -0.83429 0.00121346
0.00122448 0.215304 -0.835156 0.0049307
0.0020853 0.186457 -0.83547 0.00473742
-0.0100936 0.198899 -0.83584 0.00133341
-0.106456 0.284238 0.344919 0.00162029
-0.100523 0.303411 0.344198 0.00276669
-0.102409 0.277872 0.365219 0.00172113
-0.0964441 0.297287 0.365137 0.000398643
0.136028 -0.320023 -0.760623 0.000114818
0.134499 -0.302881 -0.761856 0.00310257
0.139894 -0.319925 -0.747769 0.0111939
0.136376 -0.303063 -0.74836 0.00601179
-0.0652103 -0.180043 -0.818096 0.000769332
-0.0677541 -0.166093 -0.819825 0.00183595
-0.0594092 -0.178303 -0.807648 0.000745777
-0.0620676 -0.164362 -0.809457 0.00302355
-0.0755507 0.146287 0.650358 0.000394917
-0.0789292 0.156724 0.64587 0.000254065
-0.0704552 0.148506 0.665393 0.000409739
-0.0735796 0.158768 0.661074 5.65892e-05
-0.120429 -0.0336153 0.268403 0.00182334
-0.136839 -0.0257553 0.261355 0.000249072
-0.112455 -0.0252732 0.281641 0.00247178
-0.127939 -0.0182378 0.274811 0.00117488
-0.21263 0.099938 -0.531415 0.00115242
-0.216404 0.113587 -0.541617 0.000177096
-0.207117 0.0957406 -0.509712 0.000375229
-0.211519 0.110164 -0.51952 0.00186481
-0.0657439 0.315813 0.671691 0.00149879
-0.0766313 0.316605 0.657753 0.000563888
-0.0654786 0.303913 0.684514 0.00202699
-0.0761019 0.304803 0.670915 0.00268222
0.198753 0.129872 -0.268362 0.00097423
0.198255 0.147352 -0.269637 0.000535805
0.201146 0.127059 -0.252361 0.000365723
0.200911 0.150011 -0.250284 0.00144507
0.207603 0.361398 0.553492 0.00556104
0.192663 0.36649 0.555261 0.00287599
0.207062 0.369806 0.564399 0.00473833
0.191774 0.374565 0.566384 0.00838556
-0.178806 0.032376 -0.453961 0.000402285
-0.182317 0.0456834 -0.457982 0.0020473
-0.180739 0.0311625 -0.437259 0.00140961
-0.183991 0.045161 -0.440904 0.000280323
-0.0573933 0.398337 -0.711612 0.000912494
-0.0704777 0.391826 -0.719887 0.00149734
-0.0654809 0.39582 -0.695406 0.00080468
-0.0785349 0.389286 -0.704224 0.000514746
-0.0851756 -0.558459 -0.742006 0.00141759
-0.0995787 -0.559668 -0.743747 0.000291045
-0.0839429 -0.557144 -0.725135 0.00089944
-0.0991996 -0.557636 -0.727273 0.00122852
0.094002 0.285931 0.260195 0.00112458
0.0867612 0.300204 0.256707 0.00139381
0.0908517 0.286462 0.274945 4.73996e-05
0.0851892 0.298661 0.267882 0.00048877
0.0449148 -0.158751 -0.196081 0.000550803
0.0295986 -0.166553 -0.200977 0.000456276
0.0412695 -0.158478 -0.178799 0.000382697
0.024755 -0.165836 -0.182623 0.00120515
0.0996461 0.260017 0.294202 0.000767838
0.0942158 0.272558 0.287448 0.0011558
0.100088 0.257096 0.310851 0.00290231
0.0944878 0.270004 0.304692 0.000659694
-0.106351 -0.109598 -0.650555 0.00510123
-0.113877 -0.103221 -0.645916 0.00809787
-0.111536 -0.101316 -0.637144 0.00106084
-0.123718 -0.0986502 -0.635868 0.00471973
-0.204971 0.217945 -0.602563 0.00125243
-0.202404 0.235766 -0.603746 0.000585666
-0.205198 0.221323 -0.582379 0.00116804
-0.202575 0.239349 -0.583898 0.00309481
-0.107467 0.0153635 0.316581 0.00181336
-0.116444 0.025547 0.315155 0.00265511
-0.0979772 0.0198109 0.327539 0.00399189
-0.107794 0.0302158 0.324657 0.000594901
0.171947 0.0556192 0.199781 0.00151704
0.171629 0.0713951 0.188669 0.000670993
0.169379 0.0537419 0.22237 0.000958383
0.169415 0.0693692 0.210826 0.000186339
-0.171861 -0.00852371 -0.575348 7.31334e-05
-0.180004 0.0018993 -0.58116 0.00146525
-0.168641 -0.00743271 -0.55824 0.0011963
-0.177061 0.00306752 -0.564329 3.80982e-06
0.171333 0.024323 -0.511565 0.000528552
0.178092 0.0386261 -0.505963 0.00145552
0.169743 0.0246957 -0.497769 0.00271952
0.176763 0.0384996 -0.492264 0.00326948
0.00773873 0.371546 0.44572 0.000172696
-0.00234169 0.375433 0.437786 0.00246552
0.00223695 0.36875 0.463495 0.00217148
-0.00837861 0.372652 0.453087 0.0013434
-0.148314 -0.143478 -0.677208 0.00212687
-0.153987 -0.124824 -0.668531 0.00248622
-0.15125 -0.13445 -0.666743 0.00132778
-0.15696 -0.116621 -0.658467 0.00226312
0.0405087 0.33159 -0.80665 0.000941788
0.0200898 0.344298 -0.80547 0.000807466
0.0473281 0.340448 -0.795648 0.00221782
0.0249508 0.352707 -0.796716 0.000906092
-0.114452 -0.251462 0.135155 0.00475711
-0.123753 -0.2394 0.13677 0.0031422
-0.114952 -0.244335 0.143555 0.000745646
-0.12389 -0.232682 0.145498 0.000759519
-0.140636 -0.489542 0.0486295 0.000459757
-0.137376 -0.471612 0.0465471 0.00055888
-0.146482 -0.49079 0.0641896 0.000345017
-0.142731 -0.472165 0.0605802 0.000171935
0.046907 0.346227 0.603447 0.00317279
0.0397587 0.355532 0.590972 0.0013368
0.0477359 0.342276 0.618252 0.00383053
0.0410263 0.351717 0.605771 0.00112771
0.0912428 0.272856 0.336382 0.0015603
0.0856091 0.286863 0.333003 0.000235184
0.0914733 0.270347 0.349784 0.00178499
