0.107531 0.523177 0.581982 0.00600216
0.0824678 0.528499 0.57756 0.000310483
0.0887081 0.528824 0.585744 0.00655974
0.0638563 0.53089 0.583143 0.00435583
-0.25669 0.199007 0.289529 0.0037637
-0.270141 0.217252 0.281682 0.00176274
-0.245905 0.203972 0.309483 0.00103108
-0.262249 0.220335 0.300374 0.00142715
-0.183446 0.551562 -0.200379 0.00131856
-0.175822 0.57761 -0.196308 0.0004711
-0.206984 0.539469 -0.185434 0.00293999
-0.199662 0.566905 -0.180709 0.000803426
-0.350871 -0.561783 0.458839 0.000851137
-0.374693 -0.557374 0.452073 0.00262812
-0.343564 -0.554476 0.485288 0.00261279
-0.368289 -0.550862 0.475184 0.00289427
-0.702474 -0.232853 -0.0759631 0.00225689
-0.701709 -0.211043 -0.0806323 0.00279239
-0.697804 -0.241826 -0.0529087 0.00311937
-0.699693 -0.215015 -0.0540019 0.000178333
-0.0992512 0.178619 0.406817 0.00124093
-0.123102 0.196041 0.407101 0.000391409
-0.0879363 0.193371 0.424702 0.00316742
-0.114071 0.209703 0.424091 0.00138267
0.156971 -0.172732 0.681831 0.00193097
0.146716 -0.14994 0.67632 0.00133055
0.139361 -0.188173 0.691293 0.000635601
0.130651 -0.163683 0.684476 0.00490725
0.415262 -0.560928 0.231434 0.00155872
0.391602 -0.562125 0.224944 0.00432942
0.408172 -0.560919 0.253866 0.00581637
0.385436 -0.563856 0.247839 0.00116967
0.405145 -0.163532 0.474698 0.00153307
0.398556 -0.148421 0.468885 0.00171906
0.390305 -0.17013 0.492625 0.00105719
0.383537 -0.154328 0.486402 0.0013266
-0.342657 -0.376847 -0.398695 0.000853856
-0.362895 -0.377952 -0.404184 0.00300769
-0.352909 -0.379499 -0.376572 0.000693231
-0.372503 -0.380354 -0.382881 0.00230054
0.42112 -0.212982 0.488983 0.000322035
0.4163 -0.194576 0.484398 0.00179141
0.405953 -0.222096 0.508519 0.00204123
0.400545 -0.201674 0.503038 0.000816488
0.539908 -0.221095 0.322067 0.000459428
0.53322 -0.196742 0.311588 0.00118715
0.529318 -0.230199 0.345917 0.000743367
0.522839 -0.208474 0.338796 0.000480131
0.042547 -0.123989 0.688777 0.00153675
0.0289896 -0.109997 0.678574 0.004102
0.0314092 -0.142127 0.697774 0.000215358
0.0200049 -0.12834 0.689243 0.00178081
-0.0579669 0.723682 0.359659 0.0025103
-0.0774929 0.729766 0.349361 0.00163269
-0.0651311 0.704292 0.372113 0.000563904
-0.0827571 0.710887 0.361617 0.000162079
-0.277013 0.0705183 -0.0774941 0.00201357
-0.269945 0.0714376 -0.0756865 0.000631185
-0.297338 0.0655526 -0.048061 0.00390732
-0.300071 0.0630997 -0.0524915 0.00224742
0.0899731 0.175363 -0.564873 0.00181597
0.0747169 0.17821 -0.568111 0.00311518
0.0844514 0.166353 -0.549351 0.000121442
0.0671691 0.167973 -0.551763 0.00168485
-0.0609794 0.630126 -0.232365 0.00166247
-0.0550581 0.659857 -0.220879 0.00242733
-0.08738 0.644697 -0.22536 0.00510086
-0.0829952 0.670102 -0.212687 0.00141762
-0.0997328 0.231982 -0.167926 0.000864937
-0.136135 0.248333 -0.164628 0.00166583
-0.113163 0.224186 -0.156134 0.000651478
-0.148097 0.240708 -0.152653 0.00253296
-0.271124 -0.49181 0.171895 0.00165541
-0.294971 -0.490964 0.158401 6.54059e-05
-0.276024 -0.49934 0.196614 0.0019315
-0.302497 -0.499234 0.18488 0.000296164
-0.55575 -0.291657 -0.481449 0.000773432
-0.561265 -0.271778 -0.486535 0.00158718
-0.56485 -0.298219 -0.462483 0.000526552
-0.569556 -0.276669 -0.467504 0.000656112
0.266321 -0.397883 -0.571483 0.0010084
0.250379 -0.395996 -0.583761 0.00102833
0.268545 -0.39857 -0.54772 6.09545e-05
0.252579 -0.396548 -0.559888 0.000547962
-0.503263 -0.266728 -0.577118 0.000738229
-0.510483 -0.244064 -0.578404 0.0029733
-0.515179 -0.26868 -0.55381 0.00314226
-0.526117 -0.245946 -0.552356 0.00116059
0.0697531 0.431327 0.70067 0.00306876
0.0520165 0.437262 0.694608 0.00654428
0.0613032 0.424384 0.711663 0.00198981
0.0442138 0.430358 0.706656 0.00227269
0.362511 0.505731 0.119029 8.40413e-05
0.355742 0.524777 0.10792 6.54392e-05
0.36039 0.505342 0.151743 0.0010524
0.353673 0.525886 0.142057 0.000340491
0.533093 -0.0187191 -0.203301 0.000280489
0.517073 -0.0081821 -0.213429 0.00134928
0.529931 -0.020445 -0.180737 0.000937116
0.513129 -0.0105473 -0.191731 0.000217424
0.0766578 -0.533551 0.268747 0.00199875
0.0566934 -0.526515 0.256922 0.000323114
0.0674235 -0.539192 0.294437 4.90716e-05
0.0460388 -0.532857 0.282021 0.00136917
-0.327992 -0.38591 -0.569174 0.00578737
-0.344463 -0.377116 -0.586725 0.00358713
-0.322548 -0.391788 -0.548326 0.0117983
-0.343058 -0.386139 -0.563575 0.00486452
-0.416237 -0.499688 0.166561 0.00107185
-0.432743 -0.49828 0.15021 0.000420305
-0.422525 -0.505976 0.19206 0.00265834
-0.439495 -0.504727 0.176775 0.00135178
-0.136134 0.510603 -0.236593 0.000896443
-0.131304 0.533053 -0.235182 0.000354202
-0.164745 0.503174 -0.225475 0.00247547
-0.158379 0.525536 -0.224334 0.0017302
-0.41993 -0.446799 -0.0254391 0.00232103
-0.442322 -0.445991 -0.0486642 0.00076386
-0.420574 -0.452849 0.00305735 0.00367435
-0.440418 -0.451957 -0.0177317 0.00125434
-0.217769 0.145349 0.291358 0.00747724
-0.225058 0.165614 0.286309 0.00478767
-0.210973 0.147265 0.311631 0.000260706
-0.221864 0.164423 0.30501 0.000973843
-0.494072 -0.412551 -0.335842 0.0032696
-0.509296 -0.405349 -0.339493 0.00657136
-0.497573 -0.41583 -0.314999 0.00442779
-0.515216 -0.408963 -0.318678 0.00560781
-0.102438 0.862136 0.19184 3.54725e-05
-0.114705 0.866484 0.172027 0.000271411
-0.104621 0.843125 0.217217 0.00325859
-0.117885 0.847908 0.197359 0.00243124
-0.265449 -0.509903 0.619787 0.00354707
-0.291361 -0.498859 0.600883 0.00392209
-0.248636 -0.493851 0.64685 0.0087626
-0.272338 -0.481896 0.635337 0.00494489
0.0500932 0.182285 -0.567122 0.00129255
0.0365079 0.190229 -0.575377 0.00326291
0.0426872 0.170404 -0.550582 0.00103268
0.0255204 0.17702 -0.557769 0.00147563
0.31433 0.052629 0.0294854 0.000243814
0.298558 0.0634957 0.0230896 0.000553926
0.313057 0.0533274 0.0522852 0.000181974
0.298388 0.0648771 0.046148 0.000331298
0.0127758 0.0571373 -0.877501 0.00142552
0.0132443 0.0786949 -0.874684 0.00090891
-0.0124881 0.0457464 -0.881761 0.00230585
-0.0124559 0.0669572 -0.879046 0.00230207
0.480235 -0.39668 0.448947 0.00247677
0.481429 -0.373803 0.447064 0.000392573
0.46733 -0.399199 0.467031 0.00302691
0.469733 -0.376694 0.465322 0.00018095
0.171517 0.728563 0.305113 0.000499674
0.162092 0.746023 0.300106 0.00655448
0.149836 0.716052 0.326471 0.000367627
0.13939 0.734993 0.320435 0.00418686
-0.538197 0.0116358 -0.427027 0.000954839
-0.515207 0.0325558 -0.42914 0.00129573
-0.547127 0.00702261 -0.399737 0.000515266
-0.524563 0.0280287 -0.402551 0.0023895
0.230042 0.723516 -0.0934297 0.00148542
0.210786 0.740325 -0.101632 0.00411256
0.244041 0.735891 -0.0696497 0.00133821
0.225035 0.752021 -0.0784298 0.000909474
-0.0667035 0.859913 -0.0985291 0.00154811
-0.0666837 0.8739 -0.0840982 0.00162906
-0.083411 0.873635 -0.0730547 0.0014826
-0.0795149 0.88813 -0.0568396 0.000186802
0.0258984 -0.460593 0.0482793 0.00223138
-0.000446195 -0.455566 0.0369508 0.00301007
0.0184805 -0.471686 0.073818 0.00184149
-0.0055361 -0.466074 0.0603072 0.00100194
-0.183429 0.552078 0.43644 0.000577176
-0.17917 0.564217 0.426659 0.00186878
-0.176879 0.5458 0.463995 0.00370392
-0.174527 0.554427 0.45358 0.000274047
0.290798 0.180925 0.190146 0.00100403
0.300676 0.198371 0.182998 0.00425739
0.286134 0.179324 0.21465 0.000879586
0.296631 0.196958 0.209117 0.00151048
0.0491241 -0.313907 -0.816099 0.000130518
0.0359071 -0.298478 -0.826006 0.00247701
0.0286351 -0.332155 -0.804435 0.0029852
0.0187606 -0.319557 -0.81452 0.000588544
0.466084 9.25632e-05 -0.577114 0.00127255
0.454833 0.0166524 -0.579588 0.000820829
0.474006 0.0030776 -0.554303 0.00242138
0.462817 0.0194381 -0.556627 0.00297252
-0.0765621 -0.39005 -0.233891 0.000414873
-0.102144 -0.387351 -0.245844 0.00052176
-0.0844642 -0.393889 -0.204967 0.00161095
-0.107231 -0.389905 -0.217799 0.00248991
-0.218138 0.751451 -0.0384966 0.00167495
-0.204016 0.779247 -0.0281419 0.000110314
-0.230128 0.750328 -0.0128905 0.00209463
-0.215797 0.777359 -0.00516798 0.0016911
-0.393264 -0.0158704 -0.707252 0.00222815
-0.380437 0.0151614 -0.70223 0.00231167
-0.412025 -0.0241985 -0.684515 0.0018749
-0.399234 0.00792767 -0.679852 0.00428712
0.580884 -0.0966081 0.122056 0.000852215
0.570427 -0.0813872 0.110401 3.6746e-05
0.579752 -0.104931 0.143661 0.00164861
0.567913 -0.0885822 0.133983 0.00184653
0.639031 -0.361255 0.150611 0.0025366
0.644466 -0.335123 0.15919 0.00308535
0.630338 -0.361241 0.173153 0.000380845
0.634391 -0.334752 0.176075 0.000610433
0.317815 0.142842 -0.633906 0.00450111
0.302086 0.160508 -0.641154 0.0018033
0.312671 0.142728 -0.61381 0.00172194
0.299136 0.15751 -0.622668 0.000250806
-0.276843 0.267685 0.328043 0.000942159
-0.294167 0.284728 0.316063 0.00269608
-0.266598 0.281854 0.354317 0.000876007
-0.284794 0.296604 0.340798 0.00184358
-0.226614 0.530529 0.388233 0.00123759
-0.219332 0.548162 0.381586 0.000388011
-0.21709 0.522027 0.416334 6.42282e-05
-0.209338 0.537372 0.410324 0.00100811
-0.143417 0.175866 -0.551816 0.000554604
-0.169448 0.182943 -0.567411 0.0040229
-0.155633 0.160899 -0.533712 0.000925171
-0.178533 0.168555 -0.550042 0.00204041
-0.152316 0.309743 0.490503 0.00138333
-0.177262 0.316385 0.473314 0.0014672
-0.140918 0.325318 0.518616 0.000282769
-0.165081 0.332907 0.503337 0.00141745
-0.424498 0.0311328 -0.107771 0.00222557
-0.443054 0.0277212 -0.12733 0.00287345
-0.425413 0.0273641 -0.0779567 0.00138777
-0.444381 0.0236114 -0.0973651 0.00229302
-0.572672 -0.257279 -0.470854 0.00132986
-0.573908 -0.235564 -0.475622 0.00118613
-0.581393 -0.262416 -0.449338 0.000588469
-0.58167 -0.240267 -0.454529 2.59183e-05
-0.432203 0.00488185 0.117754 0.00097195
-0.44697 0.00118225 0.101086 0.00031773
-0.439343 -0.00550209 0.143578 0.00236605
-0.456114 -0.00845192 0.125421 0.00224624
0.146195 -0.347348 0.716864 0.00307298
0.126672 -0.327125 0.724809 0.000804296
0.127813 -0.353007 0.721484 0.00413493
0.108736 -0.329545 0.731962 0.00105327
0.654025 -0.298901 0.13005 0.000291988
0.656585 -0.274468 0.128873 0.000179089
0.647979 -0.304363 0.148926 0.00145214
0.649767 -0.278042 0.149311 6.47134e-05
-0.564171 -0.205108 0.34037 0.00139504
-0.562261 -0.184527 0.330321 0.000230998
-0.55106 -0.213692 0.359373 0.00203707
-0.549172 -0.193703 0.349654 0.00362281
0.298045 -0.399413 -0.626217 0.00274771
0.283018 -0.399557 -0.6375 0.000513864
0.29252 -0.401681 -0.606068 0.000803565
0.277218 -0.4005 -0.618488 0.000685391
-0.0921403 -0.0804677 0.632498 0.000764216
-0.112006 -0.0721528 0.621065 0.000529185
-0.100374 -0.100944 0.643095 0.00368231
-0.117816 -0.0924382 0.631735 0.0033117
0.303707 -0.0544214 -0.799752 0.00025278
0.301476 -0.0325933 -0.800659 0.0003694
0.323201 -0.0569814 -0.786973 0.000109452
0.321291 -0.034779 -0.787985 0.000197354
-0.013704 0.116877 -0.182897 7.8488e-05
-0.0366613 0.11903 -0.185646 0.00387382
-0.0163139 0.115147 -0.158872 0.00718836
-0.042627 0.119337 -0.167092 5.03731e-05
-0.122611 0.682407 0.358706 0.00204834
-0.134353 0.685481 0.348467 0.00140094
-0.122213 0.664924 0.372582 0.00140235
-0.138761 0.663779 0.361509 0.000955203
0.331372 -0.137497 -0.779368 0.00296597
0.319987 -0.111124 -0.786782 7.55463e-05
0.339545 -0.159858 -0.769477 0.00181309
0.328337 -0.133756 -0.77616 0.00174624
-0.180553 -0.358311 -0.495693 0.00026799
-0.204336 -0.35977 -0.510612 0.0034602
-0.184295 -0.357304 -0.466099 0.00215737
-0.208039 -0.358705 -0.481128 0.00102314
0.05193 0.946456 0.0407112 0.00408776
0.0252445 0.949895 0.0437647 0.00152471
0.0362248 0.948321 0.0712239 0.00195329
0.0116488 0.952637 0.0702929 0.00390342
-0.354988 0.418373 0.0215318 0.00117376
-0.348551 0.448208 0.0173525 0.00117679
-0.361903 0.413231 0.0528952 0.00199366
-0.356329 0.440009 0.0472199 0.00111653
0.421189 -0.381947 -0.565436 0.00331997
0.40248 -0.386181 -0.58324 0.00544164
0.419078 -0.391345 -0.543353 0.00142067
0.397574 -0.396809 -0.561925 0.000740117
-0.172674 -0.206154 0.701313 0.00295907
-0.191797 -0.201801 0.691208 0.00131728
-0.171724 -0.225844 0.709707 0.00563603
-0.192284 -0.22263 0.699499 0.000559011
0.515242 -0.505683 -0.056775 0.000973849
0.501339 -0.502166 -0.069103 0.00137987
0.509433 -0.50719 -0.0354575 0.0035441
0.494946 -0.502763 -0.0502808 0.000730027
0.108712 0.708829 0.357014 0.000197434
0.100944 0.725922 0.348975 0.00140338
0.0902422 0.695062 0.37486 0.000980002
0.0813372 0.709197 0.368838 0.00342412
-0.562877 -0.485189 0.0824343 0.00119626
-0.57839 -0.477975 0.0702156 0.00401204
-0.569274 -0.488594 0.105994 0.00538815
-0.58439 -0.480641 0.0942385 0.00995641
0.0450596 0.0764548 0.457543 0.000271704
0.0217803 0.0918342 0.446037 0.00257181
0.0320647 0.0616718 0.476373 0.00230246
0.00876659 0.0756966 0.464855 0.00100248
-0.551086 -0.187863 -0.509739 0.00210484
-0.546787 -0.162566 -0.51529 0.000546362
-0.566828 -0.190198 -0.482677 0.00118074
-0.560125 -0.165313 -0.488546 0.000146724
-0.0657943 0.290662 -0.805741 0.00629439
-0.0637051 0.30626 -0.786962 8.0762e-05
-0.0884371 0.298899 -0.785388 0.00313054
-0.0821328 0.314261 -0.767461 0.000151308
0.665353 -0.180047 -0.0242773 0.000359359
0.661179 -0.162858 -0.0335253 0.00271201
0.665541 -0.190194 -0.00306816 0.000658585
0.658865 -0.17143 -0.0112775 3.27917e-05
-0.388483 -0.242404 -0.710965 0.00301995
-0.391989 -0.220191 -0.714979 0.00223511
-0.400833 -0.251162 -0.693305 0.000166051
-0.404041 -0.228205 -0.698645 0.000152181
-0.212659 -0.453956 0.0465688 0.000682452
-0.232771 -0.449719 0.0298932 0.00079689
-0.214178 -0.462158 0.0685114 0.0012963
-0.233336 -0.457792 0.0527954 0.000809583
0.451302 -0.140674 -0.66098 0.00184151
0.444719 -0.117354 -0.66821 0.0015254
0.469463 -0.145092 -0.639262 0.000408808
0.462739 -0.121324 -0.646335 0.00108467
-0.437034 -0.182168 -0.677299 0.00108638
-0.434875 -0.155401 -0.680135 3.30056e-05
-0.453461 -0.186291 -0.654277 0.00201505
-0.450882 -0.159354 -0.657914 0.00299617
0.301018 -0.41265 -0.266426 0.000228789
0.282061 -0.407569 -0.283023 0.00146821
0.297548 -0.416422 -0.238585 0.000132287
0.281155 -0.409888 -0.253726 0.000983079
-0.218334 -0.558134 0.39151 0.000582202
-0.23503 -0.554847 0.381937 8.68182e-05
-0.230169 -0.562315 0.416355 0.00213016
-0.246949 -0.55939 0.407069 0.00214119
0.284338 0.223081 0.284459 0.00037848
0.294923 0.241986 0.288032 0.000247187
0.270437 0.219046 0.306144 0.0010848
0.28046 0.238024 0.310184 0.000474067
-0.414346 -0.551163 0.362367 9.39371e-06
-0.435377 -0.54915 0.355567 0.00421819
-0.419594 -0.557281 0.382257 0.00734418
-0.43934 -0.554489 0.376024 0.0128419
-0.320175 -0.401576 0.635918 0.00437213
-0.336923 -0.382387 0.626854 0.00335387
-0.291472 -0.401783 0.650165 0.00139883
-0.309212 -0.384704 0.641167 0.000174482
-0.652824 -0.090559 0.0192025 0.00401644
-0.637436 -0.0725898 0.0131722 0.00138083
-0.64748 -0.0950627 0.0418141 0.000231843
-0.633083 -0.075735 0.03595 0.000112388
0.529163 -0.473423 -0.181622 0.00355781
0.516625 -0.476877 -0.194688 0.00133192
0.52645 -0.483787 -0.161498 0.00122743
0.514164 -0.486373 -0.174387 0.00391225
0.50263 -0.139265 -0.585789 0.00104282
0.495095 -0.116016 -0.594108 0.000357893
0.517195 -0.140373 -0.561237 0.000517732
0.509278 -0.11855 -0.570364 0.000404141
-0.306144 0.0852937 -0.30769 0.00133096
-0.325728 0.0794844 -0.327658 0.000869096
-0.306254 0.0807261 -0.279119 0.00255829
-0.326397 0.0740605 -0.299954 0.00242929
-0.221087 0.741707 -0.044515 0.00184598
-0.207109 0.769032 -0.0342836 0.000700829
-0.233844 0.737944 -0.0196282 0.00147219
-0.219454 0.76553 -0.0107481 0.000232769
-0.655231 -0.326817 -0.214888 0.00194893
-0.661716 -0.307068 -0.225712 0.00130014
-0.660045 -0.32916 -0.192877 0.00170414
-0.666146 -0.309775 -0.203112 0.00275254
-0.0710409 0.86505 0.213385 0.000568958
-0.0833461 0.869898 0.196645 0.000139415
-0.0770829 0.846999 0.23656 0.00148388
-0.089843 0.851588 0.219702 0.00124205
0.198664 -0.0639988 -0.852299 0.00193323
0.176752 -0.0476905 -0.8589 0.000608486
0.193253 -0.0944564 -0.852215 0.00176074
0.169409 -0.0761085 -0.860156 0.000819909
-0.0677716 0.833199 -0.123713 0.0029791
-0.067209 0.847861 -0.110604 0.00270152
-0.0874613 0.844609 -0.0998235 0.000201099
-0.0785496 0.863748 -0.0820445 0.00202997
-0.294266 0.0888291 -0.353921 0.00150514
-0.312294 0.0859497 -0.372705 0.00171442
-0.29926 0.0835045 -0.328674 0.00307852
-0.318964 0.0792248 -0.349061 0.00187731
-0.601349 -0.416056 -0.152269 0.00136863
-0.61576 -0.404542 -0.163559 0.00206059
-0.604851 -0.418188 -0.129935 0.00132394
-0.619627 -0.406439 -0.142286 0.00245999
-0.688059 -0.292576 0.0836573 0.000546665
-0.696465 -0.269596 0.0734601 0.00444748
-0.682273 -0.296359 0.1047 0.00055199
-0.690131 -0.273653 0.094398 0.00217831
0.640152 -0.337901 -0.22585 0.00060091
0.649464 -0.317344 -0.228533 0.00161027
0.642958 -0.340941 -0.202598 0.00442263
0.652693 -0.318785 -0.205283 0.00242203
0.308359 0.24283 0.263294 0.000958216
0.319758 0.262019 0.26546 0.00178599
0.297012 0.238705 0.283092 0.000939993
0.307912 0.258121 0.286332 0.00037239
0.240343 -0.388715 -0.457944 0.00163595
0.213753 -0.38528 -0.465401 0.000572463
0.237183 -0.388427 -0.429023 0.00239279
0.213197 -0.385859 -0.439074 0.00129411
-0.348425 0.302649 0.105317 0.000748939
-0.355245 0.323087 0.0958551 0.00209864
-0.34813 0.30296 0.135536 0.00108842
-0.355814 0.322885 0.125114 0.000632782
0.58514 -0.0670355 -0.0249026 0.000345977
0.572525 -0.0573965 -0.0326265 0.000793594
0.580004 -0.0677318 -0.000892232 0.000135973
0.565169 -0.0579078 -0.0101513 0.00132482
-0.257828 0.0128346 -0.804495 0.00176556
-0.261644 0.0477503 -0.798106 0.00102604
-0.284173 0.0151392 -0.785566 0.00398245
-0.287227 0.0483357 -0.778986 2.46252e-05
0.563184 -0.151914 -0.478251 0.000288732
0.554772 -0.134168 -0.489003 0.000779398
0.573175 -0.152152 -0.457106 0.001713
0.565972 -0.134325 -0.466856 0.000603251
-0.557149 -0.393069 -0.342011 0.00121782
-0.574466 -0.379187 -0.342685 0.00130623
-0.559309 -0.395587 -0.323172 0.00160715
-0.579732 -0.381974 -0.322484 0.000343279
-0.0965453 -0.369416 -0.663207 0.000537209
-0.118768 -0.368447 -0.681497 0.00124387
-0.100681 -0.367914 -0.635557 0.00173012
-0.122873 -0.368367 -0.65544 0.00145767
0.310811 0.159637 -0.691182 0.00162877
0.293382 0.176765 -0.700663 0.000556441
0.312902 0.155343 -0.667861 0.0026886
0.295422 0.173401 -0.676823 0.000385409
-0.230622 0.638603 0.294596 0.00112213
-0.225826 0.653116 0.286476 0.000956584
-0.226808 0.628633 0.311225 0.00222638
-0.220733 0.644194 0.305758 0.000486975
-0.320814 -0.382105 -0.645572 4.88721e-05
-0.335707 -0.370994 -0.655853 0.00121922
-0.319011 -0.388872 -0.616891 0.01176
-0.335242 -0.379872 -0.630975 0.00100383
0.388474 -0.0373419 -0.723957 0.00218314
0.377478 -0.0144988 -0.730597 0.0028503
0.406829 -0.033836 -0.705062 0.000227637
0.395751 -0.00961989 -0.711442 0.000889457
0.243558 -0.133821 -0.825645 0.00072245
0.211674 -0.135006 -0.841786 0.000435067
0.249665 -0.162847 -0.82043 0.00168633
0.216916 -0.164438 -0.83676 0.00325774
-0.178 0.787217 0.222613 0.000444625
-0.172807 0.802481 0.209816 0.000613816
-0.163636 0.777908 0.248861 0.00311679
-0.159877 0.792105 0.236627 0.00259113
-0.327174 -0.380393 -0.341578 0.00177832
-0.346134 -0.380814 -0.349769 0.0012751
-0.335221 -0.383798 -0.319385 0.00204655
-0.353669 -0.384341 -0.328191 1.23169e-05
0.231439 -0.449117 0.6544 0.00033354
0.233368 -0.424453 0.664362 0.00267678
0.204967 -0.449447 0.66391 0.00281012
0.206343 -0.426548 0.674227 0.000293142
0.23956 -0.394152 -0.662303 8.10212e-05
0.224151 -0.389243 -0.677133 0.00258073
0.234162 -0.403289 -0.640554 0.00927612
0.218802 -0.397902 -0.655752 0.0060853
-0.153142 -0.396974 -0.189005 0.000974509
-0.186029 -0.395827 -0.200206 0.000475944
-0.156353 -0.402612 -0.164157 0.00117083
-0.191291 -0.401422 -0.174769 4.56658e-05
0.0447047 0.0288133 0.521552 0.000845473
0.0254563 0.0418095 0.508158 0.000830033
0.033111 0.00948526 0.545818 0.00272965
0.0170007 0.0224665 0.530949 0.00346121
0.355498 -0.427294 -0.256429 0.00045464
0.338907 -0.420769 -0.271314 0.000523753
0.35383 -0.43267 -0.227587 0.00109252
0.338191 -0.425119 -0.242766 0.000570688
-0.306737 -0.503625 0.596297 0.00263902
-0.335027 -0.493066 0.575765 0.000961403
-0.288431 -0.491518 0.62614 0.00999984
-0.314478 -0.480968 0.606329 0.00386649
0.335196 -0.470659 0.572841 0.00068855
0.335914 -0.447452 0.590675 0.00534869
0.317578 -0.466413 0.588031 0.0025243
0.321682 -0.445592 0.60063 0.00375175
-0.64614 -0.141744 -0.323796 0.00311353
-0.63352 -0.117735 -0.326914 0.00225529
-0.657356 -0.141427 -0.296763 0.00435088
-0.644657 -0.117017 -0.299173 0.000588049
0.347335 0.489577 0.256291 0.000564842
0.34269 0.509209 0.248806 0.00168936
0.332874 0.491014 0.281272 0.00134617
0.329811 0.511736 0.271011 0.000459183
0.205181 -0.0183405 -0.84711 0.0028916
0.183604 -0.00609716 -0.852349 0.0044296
0.203013 -0.0395536 -0.851374 0.00187936
0.181266 -0.0256983 -0.857249 4.80452e-05
-0.271722 -0.373496 -0.654058 0.000595278
-0.288495 -0.364144 -0.663082 0.0106109
-0.279647 -0.378094 -0.628053 0.00227669
-0.298135 -0.370527 -0.63792 0.00452561
0.226815 0.535144 0.463867 2.24541e-05
0.217039 0.552154 0.457909 0.000722062
0.220564 0.537949 0.484897 0.00726613
0.211588 0.555837 0.479845 0.00295341
-0.00879403 0.214735 -0.844025 0.00240557
0.00258069 0.241203 -0.8367 0.00189361
-0.0431999 0.21586 -0.842577 0.000480958
-0.0314351 0.242605 -0.8353 0.00167582
-0.589313 -0.333592 0.315769 0.00142073
-0.593121 -0.313295 0.311739 0.00130812
-0.577287 -0.332535 0.335937 0.00211058
-0.581327 -0.311408 0.331526 0.00192895
-0.159837 -0.150037 -0.849763 0.000172227
-0.163559 -0.126981 -0.851475 0.000119135
-0.18196 -0.169044 -0.843132 0.0026459
-0.187051 -0.14563 -0.844497 0.00248393
-0.00277101 0.931414 0.130836 0.000951064
-0.0207711 0.930521 0.117833 0.00204634
-0.0196187 0.917382 0.149252 0.00234648
-0.0367578 0.917832 0.136163 0.0033474
0.200689 -0.0864806 -0.851342 0.0024595
0.178216 -0.0699666 -0.85876 0.00145812
0.195839 -0.117715 -0.849336 0.00163612
0.170939 -0.0992421 -0.857576 0.000653828
-0.0993051 -0.402706 -0.159863 0.00288322
-0.116756 -0.402225 -0.17657 0.000717815
-0.0972206 -0.409806 -0.138926 0.000487205
-0.114725 -0.410879 -0.157927 0.00492449
-0.0548583 -0.603533 0.587423 0.00328962
-0.0790657 -0.603651 0.587748 0.000151696
-0.0594167 -0.594375 0.60626 0.00191545
-0.0836986 -0.593897 0.606345 0.00198231
-0.091426 -0.123448 -0.867518 0.00122144
-0.0948745 -0.0996841 -0.869263 0.000726074
-0.118638 -0.148803 -0.862203 0.000706342
-0.121644 -0.126464 -0.864935 0.00234368
-0.588769 -0.455525 0.165538 0.00060096
-0.603728 -0.444789 0.153111 0.00299975
-0.582873 -0.454022 0.190601 0.00150527
-0.598323 -0.442498 0.178166 0.00192475
0.104578 0.134103 0.393484 0.00407773
0.100251 0.151671 0.390105 0.00909017
0.0984776 0.118452 0.412677 0.00547261
0.0850057 0.13593 0.401944 0.00382768
-0.37167 0.0530848 -0.186827 0.000375025
-0.390698 0.051177 -0.202625 0.00343463
-0.379282 0.0486178 -0.166215 0.000498878
-0.398031 0.0462738 -0.182813 0.0024913
0.180549 -0.413788 -0.171812 0.000388622
0.164248 -0.408522 -0.185444 0.000288561
0.181615 -0.419812 -0.144837 0.000168739
0.166002 -0.41414 -0.157662 0.00148648
-0.0578022 0.117643 -0.229989 0.00103741
-0.0747961 0.119546 -0.232824 0.00121382
-0.0697892 0.115637 -0.205833 0.00045941
-0.0879826 0.117742 -0.208917 0.00340756
-0.394128 -0.431376 0.56171 0.000268994
-0.411458 -0.410574 0.553294 3.0993e-05
-0.375545 -0.430137 0.581552 0.00196772
-0.392548 -0.409295 0.572931 0.000353019
-0.226319 0.254929 0.38471 0.00323935
-0.250318 0.266486 0.370861 0.00562342
-0.205334 0.266042 0.410869 0.000829939
-0.231137 0.277931 0.394789 0.00109317
-0.422445 0.0127983 0.0631536 0.00152205
-0.438019 0.00904483 0.0499035 1.80967e-05
-0.431812 0.00759391 0.0868341 0.0001727
-0.446346 0.00432893 0.0726222 0.000226316
-0.184161 -0.40725 -0.145586 0.000919958
-0.219792 -0.405137 -0.156983 0.000500251
-0.191294 -0.413135 -0.119679 0.00105238
-0.225645 -0.410635 -0.132911 0.000619144
0.43462 -0.522263 0.0691566 0.00112774
0.410388 -0.51872 0.063315 0.00109897
0.430437 -0.523838 0.0934714 0.00559624
0.408288 -0.521087 0.08271 0.00163909
-0.161218 0.555161 0.58498 0.00130006
-0.179443 0.573351 0.574204 0.0116728
-0.147689 0.560058 0.602254 0.00986215
-0.169377 0.575189 0.591385 0.0013663
-0.39943 -0.544218 0.330468 0.000144856
-0.420979 -0.544303 0.324626 0.000873638
-0.408094 -0.553236 0.354847 0.000396802
-0.42947 -0.551538 0.347656 0.00477273
-0.460908 0.0246167 -0.145854 0.00119064
-0.480825 0.0216369 -0.16825 0.00543955
-0.468123 0.0221937 -0.121723 0.00111727
-0.489031 0.0187011 -0.143041 0.00433336
-0.436688 -0.536127 0.284888 0.000713824
-0.458646 -0.534469 0.278852 0.000442186
-0.451345 -0.542921 0.308556 0.00418021
-0.471673 -0.540496 0.300477 0.00792414
-0.0467531 -0.143169 0.69669 0.000550278
-0.0638483 -0.133332 0.68841 0.000381574
-0.0482865 -0.158153 0.704861 0.00164663
-0.0675241 -0.150014 0.696495 0.00223186
0.443195 -0.561266 0.316954 0.000951223
0.419344 -0.578025 0.309613 0.000904582
0.433061 -0.563242 0.335736 0.000650059
0.409648 -0.579649 0.329334 0.000475604
0.252538 0.198661 -0.646938 0.000864286
0.239076 0.211982 -0.652467 0.00200629
0.235277 0.189792 -0.623633 0.00109115
0.222306 0.20319 -0.629752 0.000245793
-0.198262 -0.0182787 0.539689 0.00338986
-0.236697 -0.0382794 0.522896 0.00552145
-0.203008 -0.0420631 0.55872 2.43016e-05
-0.241779 -0.062259 0.543154 0.00802946
-0.0912772 0.127542 0.397587 0.00819697
-0.112075 0.138797 0.389321 0.00576211
-0.0958303 0.117666 0.408225 0.0013459
-0.117093 0.127771 0.397466 0.00100005
-0.10196 0.118538 -0.244677 6.52743e-05
-0.115431 0.120199 -0.257185 0.00092289
-0.107211 0.113339 -0.222642 0.00148459
-0.120862 0.115639 -0.234054 0.000248664
0.250713 0.417778 0.496847 0.000684102
0.257578 0.439957 0.491828 0.00383757
0.243812 0.41589 0.520572 0.00403873
0.251548 0.437931 0.516325 0.00108447
-0.675799 -0.317638 -0.15245 0.00164441
-0.679883 -0.299504 -0.16249 0.00205306
-0.680589 -0.320411 -0.125297 0.00113303
-0.684226 -0.302071 -0.135528 0.000299728
0.520105 -0.25628 -0.546198 0.0018829
0.518895 -0.232048 -0.55478 0.00169029
0.535358 -0.261333 -0.52179 0.000650167
0.534203 -0.239037 -0.531028 0.000401378
0.269398 0.0901418 0.189774 0.00688551
0.271587 0.109134 0.180956 0.000449529
0.269014 0.0895243 0.218526 0.00412736
0.26984 0.107656 0.209732 0.00371352
0.243334 0.348415 -0.182903 0.000359968
0.259183 0.384261 -0.175166 0.000218171
0.255597 0.336473 -0.167858 0.000556164
0.272649 0.374556 -0.159247 0.000694904
-0.275618 -0.338422 0.661522 0.00180693
-0.283402 -0.313665 0.654756 0.00133774
-0.262804 -0.355191 0.674849 0.00514606
-0.272405 -0.33059 0.667678 0.00290153
-0.561736 -0.485695 0.0828016 0.00155287
-0.57757 -0.47846 0.0704716 0.00382747
-0.568175 -0.489114 0.106389 0.00501154
-0.583291 -0.48116 0.0946343 0.00957981
0.542503 -0.514283 0.0851437 0.00073964
0.521676 -0.528391 0.0667994 0.00147071
0.537063 -0.521274 0.113417 0.000971921
0.519613 -0.533471 0.0955527 0.000218958
-0.138253 -0.166088 -0.851767 0.00133805
-0.141545 -0.143197 -0.85395 0.00179236
-0.161592 -0.187931 -0.84654 0.00356348
-0.16542 -0.164635 -0.848656 0.00278571
0.648197 -0.147004 0.013533 0.0020229
0.635161 -0.130563 0.00803164 0.000766039
0.646613 -0.150692 0.0369075 0.00168959
0.632945 -0.132484 0.0325889 0.000129177
0.30047 0.253427 -0.0601302 0.000683028
0.311915 0.271778 -0.0656378 0.00274353
0.302584 0.242776 -0.042435 0.00020318
0.314611 0.260874 -0.0467086 0.00102194
0.38201 0.312532 0.100034 0.00268977
0.383481 0.334113 0.0913089 0.00149578
0.382439 0.306471 0.122313 0.00440788
0.383642 0.330716 0.118187 0.00148245
-0.179567 0.263075 -0.686228 0.00353773
-0.159107 0.284247 -0.686191 0.00347998
-0.184732 0.257442 -0.660199 0.000682092
-0.165293 0.278106 -0.661784 0.00990473
0.153389 0.391728 -0.249857 0.00337236
0.133505 0.39814 -0.256657 0.00149012
0.1492 0.373969 -0.247273 0.00240274
0.128412 0.379407 -0.253369 0.000901578
-0.252541 0.0852001 0.0334072 0.000341168
-0.239725 0.101765 0.0307272 0.000319897
-0.263341 0.0821184 0.0573506 0.000175636
-0.251746 0.0946074 0.0522244 0.000163835
-0.223922 -0.0893496 -0.831012 0.000151496
-0.229028 -0.065453 -0.828666 0.000413377
-0.242939 -0.0965832 -0.823621 0.00187665
-0.248033 -0.0718808 -0.82105 0.0015107
0.451006 -0.0460185 0.188217 0.00141615
0.436535 -0.0360548 0.178308 0.000225189
0.446968 -0.0503598 0.214139 0.000586253
0.432316 -0.037962 0.199193 0.000234576
-0.00432585 -0.0967393 0.654459 0.000887107
-0.023032 -0.0846136 0.642246 0.000646162
-0.0106165 -0.113375 0.66881 0.00796092
-0.0275093 -0.101033 0.657645 0.00219385
0.443222 -0.501419 0.423108 0.00533504
0.451888 -0.494107 0.429697 0.000103549
0.425727 -0.504539 0.437403 0.00851561
0.434913 -0.495205 0.4484 0.00238794
0.182889 -0.48409 0.661651 0.0010268
0.181987 -0.466709 0.672856 0.00179017
0.15406 -0.481937 0.669901 0.00344694
0.15311 -0.466801 0.680718 0.000564977
-0.290096 0.581495 -0.031042 0.00138009
-0.282651 0.603889 -0.02674 0.000845412
-0.295639 0.574979 -0.00851243 0.00064816
-0.288442 0.598356 -0.00197179 0.000886468
0.184012 -0.387627 -0.329633 0.000667576
0.165791 -0.384521 -0.335536 0.000224659
0.177555 -0.389262 -0.306828 0.000281908
0.159406 -0.386117 -0.313603 9.99089e-05
0.652743 -0.375576 -0.0123277 0.00319809
0.662816 -0.349603 -0.000972502 0.0029141
0.652359 -0.378512 0.0151959 0.00355164
0.665164 -0.348117 0.031967 0.000675902
-0.0760266 -0.109832 0.665388 0.00248223
-0.0908135 -0.101873 0.656063 0.00233831
-0.0848664 -0.129527 0.675106 0.00110213
-0.100024 -0.122265 0.6665 0.00626078
-0.697498 -0.288174 -0.0646625 0.00117219
-0.701524 -0.260142 -0.0676933 0.00212333
-0.694168 -0.299831 -0.0428685 0.000253023
-0.697589 -0.270936 -0.0429053 0.0011025
-0.416822 -0.393232 -0.416112 0.000560741
-0.434731 -0.393673 -0.422295 0.00144903
-0.423021 -0.393626 -0.391054 0.000515973
-0.442696 -0.393758 -0.396688 0.00297884
-0.159025 0.115554 -0.250007 0.00201001
-0.173096 0.115871 -0.265599 0.002676
-0.161673 0.108296 -0.229527 0.00120835
-0.176615 0.108333 -0.245592 0.00203698
0.3904 -0.420898 -0.394939 0.0031815
0.367701 -0.416497 -0.41168 0.000776843
0.3896 -0.424482 -0.373935 0.000151144
0.365959 -0.419864 -0.389352 0.00332341
-0.0584588 0.714554 0.365399 0.00256537
-0.0769665 0.721134 0.354882 0.00190572
-0.0627679 0.695265 0.378936 0.000569367
-0.0800116 0.702054 0.367858 0.000631327
0.107619 -0.363997 -0.779271 0.000308571
0.0935192 -0.352908 -0.795325 0.00326001
0.0961671 -0.379926 -0.760878 0.000477903
0.0815383 -0.370873 -0.776607 0.00122257
-0.163862 0.223769 0.408106 0.000588116
-0.183009 0.235382 0.403377 0.000303396
-0.151167 0.238349 0.429682 0.00208519
-0.169591 0.250375 0.42505 0.00101255
-0.0290649 0.297965 -0.652804 0.000540283
-0.0435679 0.31071 -0.666702 0.0012034
-0.0407096 0.277771 -0.638492 0.00176286
-0.0553203 0.290027 -0.652332 0.00240386
0.024466 0.522157 0.575534 0.0036967
0.00143291 0.526702 0.57653 0.00251498
0.00198825 0.528063 0.576066 0.00132204
-0.0191149 0.537653 0.578959 0.00138553
0.145106 0.196063 -0.600531 0.0038529
0.126461 0.207446 -0.607756 0.00490841
0.138399 0.184958 -0.584639 0.00169241
0.121757 0.192598 -0.590328 0.00314708
-0.241782 -0.46747 0.091652 0.000668096
-0.258033 -0.463911 0.0726982 0.000420587
-0.241033 -0.474091 0.113433 0.000288121
-0.257035 -0.471113 0.0939224 0.0017276
0.495842 -0.0232041 -0.0474987 0.000266744
0.479341 -0.0155935 -0.0637037 0.00131233
0.494378 -0.0242613 -0.0233453 0.00139606
0.477852 -0.0173757 -0.0378536 0.00317457
0.113805 0.420585 0.692293 0.00165775
0.098342 0.428362 0.684773 0.0143642
0.104167 0.410145 0.706284 0.0136755
0.0888521 0.418649 0.699481 0.00194865
0.198673 0.129803 0.323127 0.00486685
0.203629 0.15491 0.322363 0.00362207
0.18452 0.124502 0.341181 0.00674013
0.190157 0.150908 0.342174 0.000604213
0.670757 -0.325673 -0.116937 0.00109099
0.673364 -0.301067 -0.125677 0.00275995
0.671545 -0.33101 -0.0947322 0.00145063
0.675053 -0.309384 -0.100721 0.00111483
-0.378484 -0.514475 0.517161 0.000150171
-0.404056 -0.504919 0.503709 0.00375368
-0.36017 -0.506603 0.541468 0.00199498
-0.384901 -0.492964 0.526999 0.00323126
0.112005 -0.535675 0.656978 0.00201701
0.110215 -0.518306 0.669492 0.00200362
0.0957209 -0.522646 0.664701 0.00187052
0.0964427 -0.503365 0.676899 0.00134978
-0.689684 -0.310364 -0.0922676 0.000830916
-0.69402 -0.289046 -0.101322 0.000278555
-0.688125 -0.320879 -0.0727651 0.00319585
-0.694777 -0.297469 -0.0787443 6.10985e-05
-0.504663 -0.4927 0.0961947 0.000154708
-0.523532 -0.489897 0.0798281 0.00201364
-0.504925 -0.497669 0.120578 0.00126659
-0.523775 -0.49453 0.105599 0.00378498
0.519421 -0.494143 0.297585 0.00058341
0.532809 -0.477771 0.295495 0.00199309
0.504657 -0.498725 0.319032 0.00124674
0.516827 -0.483141 0.317186 0.0012153
-0.0915525 0.914719 0.000727212 0.000746708
-0.0948533 0.913258 -0.00192483 0.000188062
-0.101944 0.914604 0.0259211 0.00178786
-0.107309 0.910357 0.0190239 0.00323087
0.363471 0.355833 0.266173 0.00257481
0.363285 0.37965 0.262047 0.00210083
0.357309 0.358613 0.287532 0.00453015
0.358868 0.382197 0.284425 0.00170361
-0.109246 0.15123 0.381245 0.011184
-0.13002 0.168766 0.381547 0.00505555
-0.0977878 0.165601 0.399656 0.00141591
-0.120262 0.183038 0.400233 0.00113473
-0.21471 0.396295 -0.193581 0.00146877
-0.215201 0.415909 -0.193443 0.000979674
-0.227802 0.387935 -0.180951 0.000316943
-0.228215 0.408538 -0.181271 0.000291592
-0.59297 -0.366773 0.289897 0.000280556
-0.601782 -0.348338 0.280342 0.00151509
-0.581256 -0.366821 0.313599 0.00209635
-0.588695 -0.347485 0.306087 0.000849033
-0.585506 -0.0977436 0.20204 0.00372741
-0.595496 -0.0927976 0.181626 0.00014355
-0.580251 -0.113733 0.227532 0.008165
-0.588562 -0.108403 0.207898 0.00666311
-0.173609 -0.13166 0.665674 0.00141911
-0.192905 -0.129796 0.654742 0.00189624
-0.174244 -0.15169 0.679154 0.000637463
-0.193305 -0.149587 0.667635 0.000807793
0.206081 0.604887 -0.183125 0.000165546
0.186796 0.637142 -0.182962 0.00374902
0.224675 0.614194 -0.162303 0.00136537
0.207226 0.645286 -0.162872 0.0025174
0.13682 0.677033 0.359796 0.000859474
0.129266 0.694885 0.352773 0.000321186
0.124354 0.663911 0.37915 0.00110945
0.118797 0.680916 0.371344 0.00157381
-0.257148 -0.497484 0.189651 0.000645106
-0.283615 -0.497461 0.17758 0.00138444
-0.262067 -0.5059 0.212973 0.000331004
-0.289626 -0.506091 0.203427 0.00178856
0.278411 0.66364 -0.0536568 0.000801478
0.26179 0.680706 -0.0636268 0.00553284
0.286126 0.672876 -0.028499 0.0010263
0.271883 0.689821 -0.0395436 0.00274021
-0.484605 -0.25127 0.480867 0.00136608
-0.481368 -0.229666 0.477541 0.00229983
-0.467622 -0.260058 0.500841 0.00106602
-0.465256 -0.237861 0.497432 0.000159911
-0.670723 -0.318723 0.133074 0.000513787
-0.677947 -0.296958 0.124244 0.000215837
-0.665423 -0.316132 0.152358 1.01672e-05
-0.672603 -0.29616 0.142908 0.000146231
0.206887 0.607403 0.570477 0.00156341
0.193981 0.626529 0.565674 0.00558942
0.195156 0.606478 0.589608 0.00616009
0.179321 0.62325 0.586307 0.0128864
-0.235968 0.0029265 -0.820875 0.00053053
-0.239726 0.0366788 -0.81476 0.00186046
-0.259614 0.00190316 -0.802865 0.00392537
-0.263737 0.0365767 -0.796451 0.001432
0.0402494 0.672552 0.4542 0.0073033
0.0106583 0.668941 0.444041 0.00521343
0.030818 0.666755 0.479032 0.00720549
0.000938445 0.661735 0.467464 0.00952381
0.0978921 -0.358524 0.722259 0.0111266
0.0783913 -0.331574 0.733605 0.00427786
0.0806539 -0.365988 0.725722 0.00607689
0.0623731 -0.337998 0.738074 0.00794368
-0.100838 0.673353 0.571436 0.00198691
-0.0763816 0.694043 0.588469 0.00293507
-0.110343 0.672355 0.593037 0.0025916
-0.0923094 0.69384 0.607526 0.00268671
0.270457 0.282771 0.359993 0.00249322
0.28033 0.307291 0.369266 5.22463e-05
0.252087 0.275948 0.377271 0.000211355
0.261761 0.300976 0.387308 0.000320293
-0.220165 0.249969 -0.0988796 0.00261694
-0.235487 0.266366 -0.0980552 0.00345304
-0.241711 0.242259 -0.0755547 0.00244539
-0.256801 0.260147 -0.0746858 0.0021618
0.0190182 0.276825 0.507361 0.0014574
-0.0110388 0.282861 0.513858 0.0027012
0.0132412 0.291708 0.5293 0.000575086
-0.0163743 0.297897 0.536837 0.000978419
-0.136724 0.444443 -0.243641 0.00162848
-0.138279 0.466685 -0.241012 0.00181719
-0.152147 0.437599 -0.234628 0.000678215
-0.153544 0.459195 -0.231846 0.00210515
0.366031 0.431887 0.250911 0.00121696
0.365412 0.453977 0.236502 0.00116008
0.355058 0.423995 0.277834 0.0028861
0.355025 0.446921 0.264983 0.00175976
-0.552089 -0.328652 -0.458904 0.000285608
-0.559017 -0.310849 -0.46411 0.000499109
-0.561537 -0.334118 -0.437608 0.000775244
-0.56828 -0.313404 -0.443092 0.000444346
-0.315147 0.538426 0.0322721 0.000641187
-0.309193 0.561562 0.037512 0.00105316
-0.313779 0.543438 0.0646747 0.00198092
-0.307108 0.566656 0.068761 0.000494976
0.0873134 0.450937 0.652536 0.00404187
0.0691944 0.457763 0.64592 0.00356346
0.0775055 0.441221 0.663012 0.00868857
0.0607389 0.447062 0.657221 0.00109677
-0.533773 -0.228762 0.398332 2.52578e-05
-0.534175 -0.206587 0.388898 0.000491472
-0.520262 -0.243245 0.418907 0.00454553
-0.520769 -0.220752 0.410095 0.00334985
0.380414 0.0282457 -0.183203 0.00276094
0.358753 0.0333235 -0.196527 0.00212021
0.378539 0.0246344 -0.156554 0.000407077
0.356667 0.0310795 -0.16788 0.00319688
-0.162244 0.657832 0.351578 0.000965478
-0.180777 0.653347 0.340939 0.00129574
-0.15897 0.642158 0.365804 0.000206788
-0.180244 0.634927 0.354288 0.005718
-0.236551 -0.020593 0.515676 0.00285672
-0.272699 -0.0390119 0.497865 0.0042152
-0.232832 -0.0402355 0.534333 0.00166914
-0.273071 -0.0618295 0.517666 0.0100547
0.17403 0.589855 0.422987 0.00060966
0.164824 0.60524 0.414041 0.00440255
0.169807 0.586294 0.446785 0.00673688
0.158993 0.602743 0.437582 0.000550485
0.309265 -0.407577 -0.31029 0.00112807
0.287234 -0.403601 -0.327463 0.000708984
0.30609 -0.410653 -0.280988 0.000634521
0.286448 -0.405859 -0.297524 0.00105775
-0.0477597 0.283624 0.514466 0.00172388
-0.0779219 0.292561 0.512449 0.00191381
-0.0441771 0.296616 0.534417 0.00225497
-0.0726512 0.304151 0.533524 0.000594242
-0.125633 0.675652 -0.194292 0.00400943
-0.119443 0.70023 -0.179778 0.000940298
-0.151658 0.67595 -0.179723 0.0051105
-0.143775 0.699679 -0.167859 0.000143277
0.33778 0.330663 0.302432 0.00176669
0.343832 0.352722 0.300071 0.000203129
0.324667 0.330954 0.321153 0.000966364
0.333763 0.352213 0.320384 0.000585213
-0.528443 -0.293399 -0.521161 0.00228933
-0.536159 -0.274735 -0.525297 0.000494296
-0.539342 -0.299083 -0.501569 0.00133984
-0.546053 -0.280697 -0.507374 0.000370161
-0.15703 0.718659 0.307788 0.00259583
-0.178002 0.714133 0.295075 0.000610798
-0.153829 0.699025 0.324127 0.00453049
-0.172451 0.696111 0.311999 0.000430038
0.119684 0.646431 -0.218294 0.00172295
0.0916977 0.662955 -0.220909 0.0013151
0.124056 0.669561 -0.210851 0.00207663
0.0971714 0.68211 -0.214419 0.00151296
-0.128613 -0.112919 0.669159 0.00393278
-0.141941 -0.10409 0.658587 0.00717966
-0.134267 -0.131248 0.677367 0.0013059
-0.146606 -0.123243 0.667236 0.00363632
-0.522812 -0.432352 -0.204508 0.00360044
-0.544363 -0.427765 -0.219013 0.00329751
-0.521182 -0.435739 -0.179008 0.00323294
-0.542263 -0.431389 -0.193855 0.0032799
-0.183825 0.216855 -0.603901 6.7057e-05
-0.202747 0.221284 -0.620476 0.00349303
-0.188891 0.197825 -0.586035 0.001808
-0.214621 0.20183 -0.602222 0.00426069
-0.534722 -0.163036 -0.536203 0.00152316
-0.527947 -0.136538 -0.538889 0.00123055
-0.552963 -0.171772 -0.509118 0.00156791
-0.546427 -0.144623 -0.513375 0.00166409
-0.166489 -0.372807 -0.308475 0.00170769
-0.191499 -0.371672 -0.325636 0.000541096
-0.16669 -0.379146 -0.277614 0.000736352
-0.191417 -0.378028 -0.293997 0.000722789
-0.616594 -0.30707 -0.343898 0.000282654
-0.622698 -0.288111 -0.351489 0.00217276
-0.621499 -0.313878 -0.318836 0.00263945
-0.629269 -0.295349 -0.326439 0.000143411
-0.387046 -0.0653371 0.420254 0.00273964
-0.400733 -0.0649363 0.405906 0.00134466
-0.391742 -0.0810261 0.439678 0.00317933
-0.408722 -0.0847192 0.426177 0.00270377
0.21206 0.197744 -0.622691 0.0022813
0.199393 0.210789 -0.629059 0.00125472
0.198916 0.185057 -0.599145 0.00148893
0.186131 0.197403 -0.605461 0.000205773
-0.232834 0.760079 0.140236 0.000989356
-0.220002 0.78398 0.135471 0.000129451
-0.227024 0.754388 0.170251 0.000863431
-0.214796 0.777752 0.164779 0.000269974
-0.226234 0.397543 0.498993 0.00105194
-0.233431 0.423517 0.495817 0.000717694
-0.216073 0.393586 0.514772 0.00133931
-0.2243 0.418737 0.511764 0.00366389
0.533844 -0.349885 0.366547 0.00087418
0.537754 -0.328575 0.360628 0.000881606
0.5236 -0.358949 0.386776 0.000876753
0.527565 -0.337692 0.382215 0.000994817
-0.0211287 -0.438213 -0.00506821 0.000888805
-0.0357498 -0.436417 -0.0115116 8.35526e-05
-0.0314571 -0.449875 0.0105701 0.00501811
-0.0441572 -0.446913 0.00368098 0.00339832
-0.391183 0.0339593 -0.020924 0.00124219
-0.409179 0.025144 -0.0355972 0.00216603
-0.394872 0.0314546 0.00190024 0.00195693
-0.413101 0.0235965 -0.0120837 0.000417002
-0.291175 0.500315 0.314275 0.00105904
-0.284389 0.517345 0.311688 1.06903e-05
-0.281338 0.495777 0.3351 0.00184023
-0.274748 0.511904 0.331003 0.00158381
-0.357569 -0.043975 0.418254 0.00391397
-0.371746 -0.0418841 0.40235 0.00231906
-0.370139 -0.066739 0.440289 0.00418032
-0.383782 -0.0641137 0.424917 0.00161439
0.222087 -0.385559 -0.496337 0.00115109
0.194652 -0.381667 -0.503267 3.979e-05
0.21417 -0.383976 -0.469837 7.07747e-05
0.186185 -0.380101 -0.47628 0.0010994
0.678508 -0.296543 -0.0760574 0.00117625
0.679594 -0.273618 -0.0826083 0.00316997
0.679376 -0.301657 -0.0512447 8.71584e-05
0.680581 -0.27903 -0.0551651 0.00164542
0.132463 -0.270611 -0.826558 0.00132016
0.114585 -0.250797 -0.839117 0.00175069
0.125316 -0.293043 -0.815929 0.00140317
0.107364 -0.278013 -0.827351 0.0020877
-0.00170505 0.167923 -0.156713 0.00697481
-0.0257015 0.17598 -0.16885 0.0173484
0.00605321 0.168635 -0.137885 0.0109799
-0.0179362 0.176537 -0.149624 0.000885319
0.153577 -0.60248 0.495063 0.000141432
0.124542 -0.603896 0.489222 0.00455861
0.147402 -0.597434 0.52332 0.0144543
0.118747 -0.6006 0.519516 0.00595287
-0.298482 0.482844 -0.0929349 0.00343577
-0.288971 0.507695 -0.0937786 0.000846242
-0.312758 0.484553 -0.0629442 0.00291616
-0.302471 0.507916 -0.0675694 0.00132574
-0.0617218 -0.391447 -0.226597 1.89757e-05
-0.086575 -0.388778 -0.237594 5.08728e-05
-0.0686532 -0.395109 -0.196687 0.00254433
-0.0884044 -0.391357 -0.210183 0.00285705
-0.104799 0.114723 -0.135293 0.00270586
-0.10048 0.134343 -0.132769 0.00958983
-0.123872 0.102763 -0.122708 0.010844
-0.118296 0.123893 -0.117339 0.00196037
-0.355713 -0.378959 -0.368338 0.00134152
-0.375176 -0.379932 -0.374946 0.00296389
-0.365319 -0.382453 -0.344782 0.00235188
-0.385545 -0.383448 -0.353701 0.000871744
0.652144 -0.290272 -0.242207 0.000432541
0.651182 -0.269728 -0.251501 0.00451109
0.654884 -0.296807 -0.218233 0.00482538
0.654393 -0.275404 -0.227963 0.00356436
-0.342709 -0.158757 0.561182 0.000977654
-0.368921 -0.160678 0.543334 0.00014183
-0.334173 -0.186539 0.58208 0.00243989
-0.358524 -0.186138 0.565569 0.00126247
0.27189 -0.583745 0.385858 7.76969e-05
0.258027 -0.578546 0.370577 0.000279332
0.264008 -0.591467 0.417204 0.000128196
0.25059 -0.586326 0.401283 0.000458979
0.270136 0.156199 0.214919 0.000318818
0.277297 0.17411 0.207122 0.00494074
0.263445 0.151996 0.239183 0.00399067
0.271127 0.169474 0.232468 0.00112373
-0.633126 -0.0700442 -0.271671 0.00205391
-0.618625 -0.050785 -0.277306 0.000678483
-0.637277 -0.0692846 -0.241436 0.000449036
-0.621884 -0.0505122 -0.246667 0.00139194
0.0333407 -0.0208475 -0.881803 0.00138154
0.024137 0.00442512 -0.879526 0.00390306
0.00816213 -0.0430168 -0.88669 0.00359661
0.000656978 -0.0149216 -0.884901 0.00154516
-0.428974 -0.269846 0.541874 7.25968e-05
-0.432205 -0.249572 0.535878 0.00163624
-0.41433 -0.284689 0.557597 0.000405733
-0.418419 -0.264707 0.550994 0.00074632
-0.479215 -0.0472078 -0.598453 0.00263562
-0.46973 -0.0212888 -0.590828 0.00136818
-0.493351 -0.0548375 -0.573986 0.00221842
-0.484707 -0.0291308 -0.562946 0.000201536
-0.511358 0.0117794 -0.0695052 6.08407e-05
-0.531362 0.00765786 -0.0930824 0.00172672
-0.513011 0.00795744 -0.0429615 0.0020847
-0.532456 0.0039598 -0.067086 0.00247716
0.136807 0.376191 -0.253472 0.00271931
0.115171 0.382057 -0.259925 0.00112661
0.129005 0.356226 -0.250023 0.00260657
0.107447 0.362335 -0.255882 0.000316161
0.225083 0.153284 -0.0368255 0.00103101
0.206995 0.153785 -0.0493657 0.00569222
0.232246 0.142914 -0.0172201 0.00172027
0.21769 0.149716 -0.0282095 0.00741187
0.384036 -0.438225 0.53632 0.00376513
0.376602 -0.409278 0.559496 0.000971477
0.364257 -0.440141 0.555351 0.00377008
0.356343 -0.409931 0.57952 0.00250788
-0.506703 -0.411668 -0.377711 0.00371271
-0.517706 -0.401742 -0.385602 0.00130705
-0.513959 -0.414322 -0.360064 0.00437957
-0.526492 -0.405718 -0.364568 0.000281293
0.385147 0.0358772 -0.327268 0.00065422
0.366451 0.0426699 -0.333053 0.000971909
0.376368 0.0330037 -0.304844 0.00280691
0.357102 0.0400109 -0.311582 0.00321182
-0.594721 -0.0860642 -0.40688 0.00140816
-0.584121 -0.0640654 -0.414468 0.00212843
-0.60549 -0.0879877 -0.381125 0.000270403
-0.594561 -0.0649049 -0.38841 0.00214048
-0.0709098 0.47405 0.58619 0.000762386
-0.0874244 0.480346 0.574628 0.000750039
-0.0770621 0.459886 0.602861 0.0067886
-0.0928538 0.466847 0.590387 0.00436213
-0.255028 -0.482786 0.144153 0.00131652
-0.274747 -0.481089 0.127416 0.00077865
-0.251329 -0.487834 0.165942 0.00267781
-0.274896 -0.486935 0.151277 0.000539292
0.0750495 -0.578127 0.623981 0.00189472
0.0472941 -0.581823 0.62463 0.0007388
0.0566193 -0.564734 0.637012 0.00373262
0.0368442 -0.562604 0.640825 0.00407971
0.0285011 0.241289 0.465828 0.000468958
-0.00196495 0.244712 0.46704 0.00254134
0.0260512 0.255474 0.483017 0.00221386
-0.00364496 0.259411 0.486831 2.87734e-06
-0.562633 -0.286678 0.36997 0.000335386
-0.565392 -0.260576 0.363105 0.00176704
-0.54965 -0.297913 0.390159 0.00259094
-0.553389 -0.270211 0.381418 0.00142513
-0.0549903 0.562094 -0.256057 0.00109974
-0.0527413 0.587022 -0.247873 0.00217222
-0.0832857 0.563695 -0.247691 8.95614e-05
-0.0824224 0.58612 -0.240667 0.000317925
0.00277232 0.87586 -0.100518 0.00137871
-0.0178531 0.871986 -0.102588 0.00185481
0.00144314 0.897185 -0.0791902 0.00160244
-0.0205617 0.891332 -0.081765 0.000890432
-0.101684 0.20924 -0.824954 0.00193444
-0.0889228 0.234043 -0.816581 0.00296701
-0.129637 0.210282 -0.817646 0.00309318
-0.114532 0.232729 -0.810194 5.86762e-05
-0.258927 0.51557 -0.140875 0.00391187
-0.253911 0.546699 -0.128798 0.000758355
-0.27261 0.517207 -0.115951 0.000385336
-0.266515 0.547058 -0.106153 0.00161578
0.208314 0.291662 -0.182713 0.000650432
0.193148 0.299232 -0.19641 0.00172895
0.205862 0.26621 -0.165603 0.00101346
0.187381 0.267465 -0.179601 0.00207687
-0.318693 0.248285 0.173749 0.00113641
-0.328566 0.265645 0.164929 0.000441851
-0.313996 0.250553 0.200647 0.00226423
-0.324762 0.267849 0.192284 0.00342709
-0.0700217 0.791575 -0.153827 0.00280814
-0.0616974 0.814588 -0.137446 0.000262968
-0.0941736 0.792247 -0.139455 0.00122249
-0.0824888 0.814874 -0.127545 0.000424605
0.305917 0.662794 0.140779 0.00180145
0.297365 0.685189 0.126271 0.00140926
0.303753 0.65609 0.169393 0.00349141
0.296287 0.678825 0.155901 0.00123141
0.480218 -0.0709626 0.216104 0.000221837
0.466998 -0.0579571 0.202163 0.000716487
0.4784 -0.0791463 0.245789 0.00300958
0.463724 -0.0648068 0.229241 0.00253764
0.220277 -0.605867 0.535682 0.00126404
0.192247 -0.609978 0.533186 0.0030848
0.205211 -0.605357 0.560083 0.00680039
0.185121 -0.605559 0.562493 0.00192857
0.498591 -0.529535 0.240905 0.00239108
0.517316 -0.516286 0.243825 0.00119036
0.491569 -0.528593 0.261192 0.00393035
0.510519 -0.515955 0.264644 0.000596271
0.469038 -0.497753 -0.047551 0.000524786
0.455028 -0.490517 -0.0619094 0.000917521
0.465807 -0.502644 -0.0241787 0.00116302
0.45158 -0.494989 -0.038364 0.0015617
0.167376 -0.296416 -0.804976 0.00225389
0.14778 -0.284594 -0.815949 0.000993258
0.161876 -0.317869 -0.79261 1.35186e-05
0.141508 -0.308994 -0.803145 0.000649051
0.41587 0.0397607 -0.396406 0.00524341
0.397022 0.0437835 -0.399097 0.000139604
0.40622 0.0359634 -0.370131 0.000892387
0.387741 0.0409769 -0.373646 0.00112571
0.146615 -0.384365 -0.655471 0.000270505
0.128697 -0.383293 -0.671863 4.35605e-05
0.14226 -0.381365 -0.62688 0.00233255
0.125122 -0.380438 -0.643671 0.00181097
0.236994 -0.332923 -0.752784 8.33347e-05
