0.321075 0.471456 -0.152917 0.00252579
0.316924 0.487485 -0.156225 0.00298372
0.269867 0.045402 -0.4352 0.000642958
0.270114 0.06594 -0.439855 0.00128373
0.258702 0.0430827 -0.418434 0.00252259
0.258692 0.0610378 -0.423867 0.00018804
0.539752 -0.369864 -0.0104437 0.00335757
0.528003 -0.376033 -0.0254955 0.00221593
0.530661 -0.376506 0.0097039 0.00133166
0.535962 -0.372084 0.00268274 0.000169278
-0.0385261 -0.315014 -0.147545 0.00162793
-0.0420229 -0.289006 -0.136826 0.00235844
-0.0577093 -0.323985 -0.146629 0.00100236
-0.0635016 -0.298082 -0.137424 0.00126388
-0.253094 -0.148306 -0.325944 0.000356254
-0.243558 -0.131507 -0.331372 7.16767e-05
-0.25015 -0.153196 -0.305409 0.000820988
-0.245695 -0.139821 -0.311037 0.00127541
0.432419 -0.0273954 -0.621438 0.00655359
0.432452 -0.00332306 -0.618038 0.000296346
0.435156 -0.0345287 -0.611713 0.00328546
0.434568 -0.00991276 -0.608351 0.00917751
-0.111278 -0.325912 0.401677 0.00253453
-0.126865 -0.318243 0.394129 0.00251231
-0.119544 -0.332728 0.42276 0.00358925
-0.136618 -0.324416 0.412931 0.0021379
0.434278 -0.0852802 0.155251 0.000282288
0.424502 -0.0763924 0.147143 0.000110258
0.428295 -0.0939818 0.166155 0.000134622
0.419062 -0.0848551 0.159321 0.000429694
0.130697 0.0463868 -0.129534 0.00463231
0.117762 0.0554327 -0.135366 0.000617223
0.128667 0.037105 -0.117384 0.00237858
0.113131 0.044296 -0.125483 0.00112962
-0.0014412 -0.0233854 -0.0731877 0.00364904
-0.00330644 -0.0132206 -0.0752126 0.00537537
-0.00820442 -0.0222804 -0.0556701 0.00802803
-0.0124649 -0.0145488 -0.0580358 0.000941811
-0.326051 -0.34791 0.172675 0.000732238
-0.311346 -0.332624 0.169479 0.000700248
-0.333548 -0.35214 0.193796 0.000521869
-0.321319 -0.338463 0.192903 0.000575014
0.380689 0.807125 -0.0644283 0.00642185
0.375411 0.828634 -0.0612628 0.00321343
0.399249 0.806866 -0.0463833 0.0040409
0.393063 0.827463 -0.0470289 0.00297904
-0.00667865 0.277916 0.0662779 0.00604947
-0.0216799 0.273694 0.053728 0.00120699
-0.0200806 0.277827 0.0838296 0.0044243
-0.0333867 0.275601 0.0789813 0.00140108
0.186747 -0.194159 -0.063099 0.00644571
0.188537 -0.176063 -0.0681608 0.000715933
0.171941 -0.204685 -0.0461138 0.00468372
0.179328 -0.185678 -0.0520351 0.00127031
-0.420066 -0.151227 0.534833 0.000297977
-0.436726 -0.142879 0.526798 0.00047512
-0.409163 -0.141201 0.551543 0.00118399
-0.425967 -0.132627 0.543688 4.10436e-05
-0.363234 0.144973 0.376223 0.00554092
-0.366938 0.155869 0.369584 0.00711556
-0.370747 0.137529 0.387224 0.00420059
-0.373633 0.148848 0.380838 0.00192203
0.266396 0.0162103 -0.258086 0.00319372
0.268524 0.0286695 -0.251413 0.00170194
0.258868 0.0144922 -0.238055 0.0030547
0.26215 0.0264509 -0.235718 0.00154413
0.178189 0.66201 -0.266887 0.00933795
0.170199 0.678129 -0.272055 0.0085105
0.19059 0.664247 -0.255726 0.00989102
0.180462 0.679419 -0.261228 0.0102615
-0.139952 0.261582 0.213388 0.00113691
-0.149221 0.254877 0.204261 0.00072144
-0.151434 0.254639 0.231991 0.00445198
-0.155392 0.254088 0.226541 0.00663483
0.161611 -0.145035 0.414954 0.00238713
0.154678 -0.126903 0.404214 0.000456951
0.170199 -0.141241 0.433338 0.00121132
0.164614 -0.123399 0.421899 0.000523207
0.104619 -0.187771 -0.00658768 0.000104453
0.106778 -0.169419 -0.0086396 0.00143489
0.0914157 -0.192084 0.00968172 7.71063e-05
0.0930123 -0.173852 0.00756516 0.000823256
0.301356 0.606897 -0.165092 0.0134215
0.292996 0.6266 -0.16882 0.0131941
0.318598 0.595776 -0.149431 0.0107615
0.312301 0.618729 -0.152538 0.0116676
-0.282452 -0.298014 -0.399966 0.00216896
-0.281748 -0.280324 -0.409204 0.000133861
-0.282221 -0.29896 -0.375596 0.00220987
-0.284083 -0.281411 -0.385158 0.00124105
0.263879 0.0126798 -0.425592 0.000536713
0.262859 0.0306389 -0.430313 0.00228336
0.255056 0.0138546 -0.408815 0.00274438
0.249603 0.0280334 -0.412655 0.00439305
0.0180726 -0.441536 -0.302704 0.00306512
-0.00947639 -0.458561 -0.306042 0.00095312
0.00387739 -0.443873 -0.284232 0.00277241
-0.0229417 -0.458751 -0.285107 0.00211065
0.337902 -0.341331 -0.160892 0.000455843
0.327472 -0.328413 -0.163981 0.000788057
0.330614 -0.354967 -0.15601 0.00526705
0.322148 -0.343498 -0.160564 0.00458157
-0.134858 0.590983 -0.538213 0.00140318
-0.14238 0.614392 -0.536259 0.00582299
-0.122405 0.584419 -0.524626 0.00537611
-0.130029 0.607941 -0.523362 0.00866975
-0.13285 -0.162241 0.0692064 0.0007051
-0.133167 -0.143362 0.0682792 0.000495936
-0.150011 -0.162229 0.0871843 0.000965238
-0.149754 -0.143433 0.0876781 0.0003185
0.557276 -0.273687 0.117965 0.00246089
0.558574 -0.253586 0.123053 0.000517285
0.549374 -0.277486 0.136118 0.000533935
0.550789 -0.258153 0.140093 0.00498868
-0.478586 -0.370144 0.0156039 0.00115239
-0.490038 -0.361124 0.000668806 0.00201144
-0.48704 -0.381549 0.0346828 0.0030401
-0.50045 -0.373101 0.0184605 0.00017225
0.350804 0.0598862 -0.534715 0.000853143
0.35215 0.0755193 -0.538502 0.000131354
0.337764 0.0549411 -0.518859 0.000601534
0.338728 0.0705414 -0.522199 0.000134563
0.331625 0.324798 -0.527227 0.0011094
0.330169 0.342023 -0.523805 0.00272244
0.315796 0.327374 -0.51151 0.000773671
0.317968 0.343988 -0.512831 0.000535948
-0.0159758 0.717791 -0.399884 0.00933048
-0.0229916 0.732827 -0.405312 0.0106791
0.00063199 0.71644 -0.386396 0.00912626
-0.0041496 0.733275 -0.388535 0.00942441
0.298837 -0.0559235 -0.0585327 0.00214878
0.281121 -0.0664832 -0.0607344 0.000739894
0.289649 -0.0527547 -0.0380634 0.00164338
0.273693 -0.0623518 -0.0409152 0.00080201
0.200235 0.0188096 -0.325263 0.00657123
0.190712 0.0331819 -0.321722 0.000370999
0.188829 0.0174857 -0.313804 0.00240695
0.179877 0.032667 -0.310019 0.00452573
0.256166 -0.286219 -0.188583 0.00443112
0.248706 -0.28948 -0.203205 0.00648333
0.258244 -0.288379 -0.169816 0.00957355
0.245602 -0.295322 -0.185002 0.0011008
-0.303976 0.066861 0.427589 0.0144166
-0.317303 0.0811813 0.433928 0.000176899
-0.316425 0.0727635 0.437149 0.000941999
-0.328122 0.0872042 0.443274 0.0129306
0.352353 0.469633 -0.36667 0.00208585
0.342095 0.487347 -0.363924 0.000600888
0.340432 0.467421 -0.3457 0.00354568
0.33292 0.486769 -0.345256 0.000860387
0.26571 -0.408874 0.09339 0.00183149
0.248513 -0.39445 0.0945643 0.000428351
0.271546 -0.402258 0.116427 0.00320553
0.254026 -0.388608 0.115596 0.001544
0.127659 0.071653 -0.266784 0.00117773
0.131343 0.0888442 -0.271109 0.000456274
0.117414 0.067887 -0.255295 0.00185572
0.123232 0.0863029 -0.259599 0.000565483
-0.645645 -0.185411 0.00743791 0.0042067
-0.638559 -0.164536 0.00601553 0.000824302
-0.659855 -0.186632 0.0300481 0.00100368
-0.652861 -0.165755 0.0269561 0.00340634
-0.0171985 0.389943 -0.10387 0.00142512
-0.0201016 0.406064 -0.1038 0.000305168
-0.0308778 0.391986 -0.0877925 0.000934673
-0.0332262 0.408027 -0.0887348 0.00100224
0.2461 -0.215282 0.182646 0.00181201
0.241876 -0.198037 0.177805 9.41022e-05
0.257609 -0.224695 0.19494 0.00109935
0.250227 -0.209347 0.189441 0.00257087
-0.14717 0.426797 0.234813 0.00340392
-0.154636 0.437867 0.228685 0.000881377
-0.153079 0.4209 0.250485 0.00235212
-0.159979 0.432897 0.244484 0.00194623
0.422165 0.204393 -0.433376 5.1924e-05
0.422604 0.21909 -0.436219 0.000654047
0.412664 0.200109 -0.423055 0.00104279
0.412874 0.213666 -0.423822 0.000678579
-0.322687 -0.278792 0.432851 0.00238608
-0.339745 -0.267182 0.440834 0.0010157
-0.32786 -0.262812 0.453253 0.00263427
-0.344657 -0.251285 0.461591 0.00521039
-0.143681 -0.178024 0.0833387 0.000405574
-0.14667 -0.15921 0.0836159 0.000469522
-0.155018 -0.177656 0.0978429 0.00091262
-0.157436 -0.159146 0.0995679 0.00137445
-0.15362 -0.227082 0.102328 0.00167973
-0.157464 -0.209427 0.100436 0.00134629
-0.165718 -0.22804 0.119415 0.00314168
-0.167791 -0.210645 0.115889 0.000507199
-0.160258 0.355571 0.274808 0.00171996
-0.156763 0.380392 0.271886 0.000110055
-0.180936 0.349118 0.293346 0.00631319
-0.176836 0.373986 0.290988 0.00365742
0.361871 0.579465 -0.129124 0.0101716
0.358763 0.602029 -0.130652 0.00839745
0.377843 0.564247 -0.117039 0.0111672
0.376937 0.587321 -0.117662 0.00874508
-0.438788 -0.00491927 0.43049 0.00375484
-0.434707 0.025061 0.432245 0.00134759
-0.447087 -0.0130074 0.447481 0.000154668
-0.443626 0.021801 0.451246 0.00619944
-0.0965006 0.703289 -0.485075 0.00704839
-0.103743 0.724332 -0.487321 0.00743774
-0.0822818 0.705538 -0.471517 0.0083152
-0.0902191 0.72637 -0.474019 0.00912433
-0.0575501 0.331036 0.143096 0.00408626
-0.0528343 0.347019 0.143703 0.000488995
-0.0717504 0.327635 0.161371 0.00498411
-0.0645314 0.342777 0.161373 0.00206771
-0.498173 -0.342866 -0.0162972 0.00113624
-0.507998 -0.330807 -0.0241854 0.000353699
-0.511212 -0.359227 -0.000555434 0.00140617
-0.521359 -0.348054 -0.00991826 0.00275508
0.0954592 0.78523 -0.294074 0.00378755
0.0931543 0.801531 -0.296157 0.00569035
0.113601 0.779365 -0.277989 0.00294331
0.111065 0.797179 -0.281258 0.0058037
-0.344564 -0.0686622 0.532821 3.22924e-05
-0.348386 -0.0500066 0.535083 0.000464246
-0.360848 -0.0716956 0.54598 0.00440921
-0.364906 -0.0515361 0.549034 0.00452702
0.0574658 -0.00574628 -0.059375 0.0005468
0.0455653 -0.00615606 -0.072908 0.00292373
0.0507261 -0.0101387 -0.0457112 0.00612073
0.0382115 -0.00516674 -0.0543615 8.35239e-05
-0.23168 -0.275888 -0.485165 1.47538e-05
-0.230361 -0.258542 -0.490312 0.001721
-0.242206 -0.27946 -0.468219 0.00260202
-0.23998 -0.261101 -0.474166 0.000944144
0.269108 -0.221825 -0.212401 0.000198022
0.269598 -0.201109 -0.21487 0.000509228
0.270133 -0.225556 -0.196924 0.00776424
0.270296 -0.205669 -0.199071 0.0070891
0.289693 -0.306878 0.199662 0.0018468
0.262668 -0.300109 0.191798 0.00171032
0.301757 -0.30979 0.205587 0.000726792
0.274928 -0.302333 0.197327 0.000792238
-0.00561499 0.00410722 0.0417993 1.22665e-05
-0.0145657 0.00706284 0.0325814 0.00172868
-0.00956773 -0.00571828 0.056038 0.00168335
-0.0177869 -0.00238451 0.0467168 0.000270927
0.319123 0.583047 -0.149824 0.0100965
0.312805 0.604661 -0.153281 0.0110926
0.334125 0.570054 -0.13915 0.00976887
0.32875 0.591331 -0.141317 0.0102886
-0.287868 -0.280567 -0.380904 0.00171166
-0.28399 -0.258086 -0.388952 0.00239272
-0.28819 -0.288188 -0.354172 0.00234968
-0.287477 -0.26527 -0.363239 0.00228354
0.341202 0.112698 -0.526592 0.000696007
0.342267 0.130957 -0.528747 0.000891007
0.324986 0.107755 -0.507392 0.000103738
0.327459 0.126742 -0.510699 0.000687681
0.0637201 -0.143729 -0.177607 0.000853983
0.060462 -0.128792 -0.182052 0.00625635
0.0571794 -0.153905 -0.161832 0.00423976
0.0518504 -0.139587 -0.166769 0.00286584
0.227609 -0.141353 0.130022 0.000295943
0.227285 -0.130305 0.117353 0.000712581
0.241305 -0.14759 0.149637 0.00125845
0.238089 -0.138172 0.136212 0.00284123
-0.26628 0.293924 0.4115 0.00114149
-0.264982 0.316012 0.407858 0.00153145
-0.277514 0.291879 0.428636 0.000852083
-0.275347 0.314105 0.424048 0.000424919
-0.648068 -0.0817808 0.186637 0.000216909
-0.634144 -0.0657179 0.182436 0.000295699
-0.647845 -0.0905892 0.206842 0.00119588
-0.634663 -0.0744674 0.20219 0.000882753
0.474113 0.107768 -0.597932 0.00131482
0.458786 0.123905 -0.602263 0.00371629
0.494138 0.113929 -0.584184 0.00256209
0.479029 0.130953 -0.589057 0.000261479
0.0862806 -0.153981 -0.422766 0.00212363
0.073016 -0.142178 -0.434915 0.00208006
0.0971621 -0.155086 -0.399598 0.00145946
0.0841086 -0.142247 -0.411543 0.00179675
-0.547722 -0.0392725 0.25086 0.00107904
-0.559759 -0.0373295 0.23711 0.00179631
-0.553896 -0.0517817 0.265768 0.000314743
-0.565207 -0.0501172 0.252331 0.0015223
0.443349 0.794454 -0.0361863 0.0068415
0.440407 0.813779 -0.035205 0.00724252
0.459079 0.79606 -0.02538 0.00513744
0.454418 0.814891 -0.0248381 0.00633232
-0.574401 -0.0456068 0.0334199 0.000275694
-0.562775 -0.031095 0.0471953 0.00122431
-0.581467 -0.0360893 0.060549 0.0014259
-0.571749 -0.0294333 0.0672605 0.00335949
-0.31062 0.161858 0.472553 0.00109723
-0.306598 0.177882 0.471747 0.00236827
-0.323183 0.15583 0.490606 6.85689e-05
-0.321283 0.175053 0.488912 0.00142361
0.431346 0.773342 -0.0472599 0.00820849
0.42893 0.792217 -0.0464613 0.00820569
0.447191 0.771511 -0.0365424 0.0067707
0.444363 0.790277 -0.0348655 0.00769975
0.0638578 0.295943 -0.201075 0.000203269
0.061637 0.313133 -0.207326 0.0052491
0.0543899 0.295843 -0.18041 0.00131157
0.0500411 0.313012 -0.184559 9.70983e-05
0.304571 0.241861 -0.492054 0.000195603
0.305577 0.259296 -0.494776 0.000392222
0.292894 0.234846 -0.477389 0.000215212
0.295405 0.253252 -0.48224 0.000558376
-0.06032 -0.0697866 -0.0275457 0.00214008
-0.0558768 -0.052949 -0.030704 0.000357032
-0.0763725 -0.0675168 -0.00884311 0.00241881
-0.0729841 -0.051859 -0.0129825 0.00143357
-0.406037 -0.254749 -0.0480359 0.000378752
-0.42708 -0.254864 -0.0572243 0.00157052
-0.409112 -0.273976 -0.0445702 0.00155466
-0.430057 -0.273707 -0.0534696 0.00235021
0.0988899 0.49206 -0.0581385 0.00235183
0.0926444 0.507415 -0.0587893 0.000566693
0.0906611 0.484752 -0.0445079 0.00104225
0.0857963 0.499161 -0.0464269 0.00102208
-0.293045 -0.301576 0.0937682 0.00231755
-0.287243 -0.284273 0.0883033 0.000968539
-0.29234 -0.302974 0.113933 0.000757446
-0.285623 -0.286379 0.109205 0.00167534
-0.436104 -0.329563 0.30821 0.00150457
-0.454874 -0.327785 0.312395 0.00196022
-0.444469 -0.314909 0.324075 0.00145255
-0.468248 -0.317606 0.323753 0.000432552
-0.419631 -0.00411353 0.101916 0.000100322
-0.438534 -0.00279083 0.0988911 0.000666263
-0.418847 -0.000587599 0.12469 6.19077e-05
-0.435617 0.00145156 0.120596 0.000103734
0.200807 -0.146377 -0.0542142 0.00158056
0.204974 -0.132503 -0.0584331 0.00451971
0.193712 -0.151003 -0.0339955 0.00347565
0.205103 -0.13557 -0.0396375 0.00293532
0.0781414 -0.0324583 0.38854 0.00169067
0.0568158 -0.0185431 0.390316 0.00275875
0.0867194 -0.0192892 0.41061 0.000413083
0.0645405 -0.00306214 0.413393 0.00171469
0.0442182 -0.0388705 -0.155559 0.000185408
0.0481038 -0.0237511 -0.162868 0.00129987
0.0381062 -0.0445089 -0.140201 0.00451827
0.0412485 -0.0317457 -0.150039 0.00117029
-0.291681 -0.123435 0.263788 0.00518685
-0.305233 -0.11327 0.261787 0.00832341
-0.290212 -0.124994 0.277651 0.0156832
-0.304382 -0.11708 0.274325 0.00136171
-0.0194164 -0.415092 -0.214214 0.000777933
-0.0370538 -0.409546 -0.201483 0.000675744
-0.0374609 -0.40258 -0.198448 0.00389826
-0.0578162 -0.394788 -0.185753 0.0018117
0.266239 0.613259 -0.211873 0.00210603
0.252942 0.629498 -0.222604 0.000287983
0.282028 0.608621 -0.190331 0.00942435
0.269796 0.625274 -0.1995 0.00810145
-0.318486 -0.116736 0.263596 0.0032732
-0.331357 -0.106259 0.260926 0.00157987
-0.323713 -0.116815 0.278042 0.00724619
-0.336063 -0.109276 0.274752 0.00160694
0.114521 -0.318343 -0.274297 0.000740229
0.126289 -0.29424 -0.269158 0.000579396
0.112015 -0.326559 -0.256932 0.00441477
0.124288 -0.303123 -0.251683 0.00061193
-0.0367989 -0.311644 0.650254 0.000661413
-0.057141 -0.311499 0.649637 0.00146966
-0.0472919 -0.294347 0.66453 0.000180486
-0.0697401 -0.2946 0.664674 0.00339779
0.0751859 -0.330261 -0.170401 0.000359256
0.0654763 -0.316302 -0.176269 0.00461061
0.0772242 -0.334561 -0.149686 0.0103021
0.064065 -0.323725 -0.154517 0.00346898
0.353134 -0.113453 0.186404 0.0018345
0.339175 -0.102852 0.175965 0.00117883
0.346353 -0.127887 0.197527 0.000635437
0.33335 -0.116706 0.185001 0.00122851
0.329076 0.385434 -0.510678 0.00328493
0.327888 0.404615 -0.502573 0.00227649
0.310116 0.394276 -0.500845 0.00017874
0.311973 0.412615 -0.493006 0.00251414
-0.0525854 -0.222791 0.702003 0.000453691
-0.0800566 -0.220003 0.695523 0.000957175
-0.0463339 -0.211361 0.709725 0.00455016
-0.0726257 -0.205966 0.70313 0.00100388
0.0196316 0.324391 -0.106648 0.00665635
0.00885274 0.333809 -0.109116 0.00894959
0.0138911 0.318721 -0.0924133 0.00127317
0.00274684 0.326567 -0.0957068 0.00214708
-0.319863 -0.252464 0.0102089 0.00156556
-0.322132 -0.233869 0.004243 0.000600775
-0.310123 -0.256176 0.0273515 0.00155641
-0.310552 -0.239109 0.0197726 0.000450551
0.402235 0.0778988 -0.618584 0.0128509
0.392696 0.0966768 -0.617105 0.0174176
0.413195 0.0797563 -0.60677 0.00323109
0.401552 0.0980972 -0.605437 0.00310433
0.156081 0.281785 -0.313954 0.000665648
0.159629 0.303591 -0.318831 0.000220201
0.142355 0.27416 -0.296622 0.000529747
0.144975 0.29512 -0.30075 0.000315796
-0.550195 -0.35092 0.281451 0.000365707
-0.567183 -0.339946 0.281693 0.00109124
-0.545859 -0.332518 0.299613 3.54893e-06
-0.562872 -0.321921 0.299644 0.00024511
0.419122 0.813806 -0.0487513 0.0101277
0.412136 0.833455 -0.0505883 0.0103913
0.435731 0.81474 -0.0342718 0.0107817
0.427793 0.83241 -0.0377305 0.0107477
-0.0066061 -0.455954 -0.376437 0.00157609
-0.0288077 -0.466195 -0.383277 0.00378818
-0.0111893 -0.457873 -0.354741 0.00340727
-0.0335881 -0.467227 -0.359912 0.00088893
0.185677 -0.205678 0.118653 0.0010789
0.190645 -0.185373 0.115727 0.00263025
0.1941 -0.214451 0.134317 0.000116057
0.196623 -0.194691 0.131256 0.000776682
0.0710835 -0.119666 0.0236485 0.00205963
0.0722385 -0.0909729 0.0220714 0.000219459
0.0610365 -0.126797 0.0385808 0.000923738
0.0637566 -0.0976671 0.0359078 0.00146475
-0.176454 0.806463 -0.537047 0.00400265
-0.179978 0.830493 -0.533943 0.00623189
-0.170332 0.810204 -0.519952 0.0140217
-0.175944 0.83382 -0.518265 0.00313649
0.578786 -0.27483 0.0754653 0.0028829
0.579257 -0.254029 0.0791374 0.000802253
0.570801 -0.274631 0.094719 0.00101324
0.571051 -0.253655 0.0991999 7.10228e-05
-0.405722 -0.400388 0.134216 0.000740291
-0.419998 -0.404873 0.125339 0.000328098
-0.414864 -0.404204 0.153728 0.000878877
-0.430067 -0.408319 0.145471 0.000929616
-0.277419 0.411487 0.354445 0.000563365
-0.295031 0.41631 0.33943 0.00522859
-0.285913 0.401475 0.374468 0.00493431
-0.301963 0.406542 0.361755 5.37854e-05
0.132153 0.467499 -0.301786 0.00404601
0.132093 0.487866 -0.301548 0.00257385
0.121567 0.463497 -0.290364 0.00532837
0.122146 0.483732 -0.290777 0.0045903
0.0985497 -0.149472 0.337861 0.00194851
0.0992568 -0.126823 0.338499 0.0035219
0.110648 -0.154738 0.349657 0.00386923
0.106012 -0.13545 0.343766 0.0022637
0.197535 0.533227 -0.175854 0.00144816
0.187723 0.545216 -0.179973 0.00501781
0.191334 0.522661 -0.164381 0.00328386
0.181608 0.534998 -0.168231 0.00496418
0.128765 -0.287843 0.432896 0.00148337
0.123218 -0.28642 0.422914 0.00037777
0.125279 -0.297561 0.449033 0.000494745
0.122222 -0.2951 0.439725 0.000752457
0.224405 -0.319165 -0.241071 0.000232403
0.228092 -0.311621 -0.253966 0.00322404
0.228161 -0.321299 -0.21937 0.00457009
0.228772 -0.318632 -0.235208 0.000522906
-0.0476565 -0.272304 0.168856 0.00407558
-0.0420364 -0.256843 0.178055 0.000893902
-0.0530834 -0.272698 0.182975 3.8785e-05
-0.0471907 -0.257893 0.193039 0.00587721
0.0415285 0.436636 0.0250317 0.00267583
0.0385225 0.452551 0.0212334 0.00154129
0.0306652 0.428197 0.0385136 0.00244219
0.0256275 0.446599 0.0381655 0.00110538
-0.157742 -0.0682503 -0.370187 0.00109687
-0.16489 -0.0726801 -0.380681 0.000755644
-0.162799 -0.0695646 -0.342925 0.000922913
-0.171539 -0.0750787 -0.355409 0.00192042
-0.0104968 -0.176372 -0.165604 5.01538e-05
-0.0186013 -0.15688 -0.174681 0.000638772
-0.0173805 -0.19008 -0.155528 0.00115153
-0.0243568 -0.172148 -0.163816 0.000811408
-0.137795 0.39733 0.249109 0.00111269
-0.140853 0.412631 0.243583 0.00186451
-0.151197 0.390016 0.264125 9.46158e-05
-0.153519 0.408384 0.25963 0.0021979
-0.262211 -0.271549 -0.446576 0.000881138
-0.258405 -0.251854 -0.454506 0.000774376
-0.268738 -0.278443 -0.428463 0.00522521
-0.264253 -0.258187 -0.436634 0.0057113
-0.331184 0.279415 0.497701 0.00189017
-0.336583 0.292216 0.490619 0.00633177
-0.341846 0.261546 0.510788 0.00130052
-0.346979 0.275422 0.503472 0.00682651
0.0886184 -0.289609 0.378814 0.00133413
0.071687 -0.287481 0.361996 0.00338129
0.0887064 -0.306282 0.397593 0.0029447
0.0716837 -0.303127 0.379207 0.00105898
-0.486589 -0.0383169 0.00571704 0.00225677
-0.510646 -0.0436545 0.00679133 0.00235464
-0.486751 -0.0221075 0.0295467 0.000123781
-0.510567 -0.0278779 0.0303458 0.00261614
-0.00970965 0.391563 -0.111894 0.00226433
-0.0134104 0.408277 -0.11057 0.000717599
-0.0228541 0.393395 -0.0968952 0.00150629
-0.0255134 0.40967 -0.0967826 3.35366e-06
0.464786 -0.426879 0.0128965 0.000633338
0.444255 -0.438044 0.00555627 0.00291829
0.455352 -0.427878 0.0357881 0.00382789
0.433724 -0.439033 0.0313053 4.68633e-05
0.259067 0.238021 -0.435047 0.000730891
0.261925 0.257243 -0.440187 0.000503016
0.245124 0.231676 -0.420975 0.00166948
0.247903 0.25065 -0.425271 0.00136845
-0.106355 0.594956 -0.511927 0.0039576
-0.113291 0.613547 -0.51246 0.00595317
-0.0894372 0.591124 -0.4946 0.00729177
-0.094788 0.607031 -0.493942 0.009343
0.07873 -0.100331 0.674807 0.000981048
0.0593821 -0.0861485 0.674484 0.00424272
0.0718184 -0.11095 0.684506 0.000414203
0.0500326 -0.0966893 0.685894 0.00117293
-0.190501 -0.212519 -0.186495 0.00222309
-0.205826 -0.205232 -0.198995 0.000497644
-0.187158 -0.23368 -0.175678 5.6332e-06
-0.201018 -0.223198 -0.187617 0.000460773
0.0818316 -0.31087 0.0107571 0.000395107
0.0633428 -0.311914 0.0172906 0.00326472
0.064318 -0.304923 0.0331593 0.00175297
0.0478795 -0.30251 0.0412662 0.00294779
-0.0583736 -0.0563123 -0.29883 0.000460894
-0.0739104 -0.0520033 -0.30787 0.000846418
-0.0620652 -0.0627692 -0.281375 0.0019416
-0.0776257 -0.0583262 -0.290165 0.000112401
-0.256705 -0.168337 0.153935 0.0106075
-0.259991 -0.155116 0.149898 0.00929673
-0.267404 -0.17545 0.169733 0.00173653
-0.270851 -0.161654 0.16671 0.000322735
-0.084316 0.464942 -0.0197607 0.00154986
-0.0705812 0.48107 -0.0155483 0.00137934
-0.0933732 0.459653 -0.005439 0.000712907
-0.0787267 0.47293 -0.000706205 0.00358494
0.12029 -0.0670586 -0.247086 0.000293832
0.122198 -0.0481944 -0.244902 0.00330272
0.106161 -0.0684176 -0.23416 0.00263427
0.10844 -0.0490018 -0.232163 0.00115698
-0.0812936 -0.154562 0.228177 0.00503423
-0.0817413 -0.135692 0.226243 0.00493973
-0.0971945 -0.16172 0.244109 0.0015187
-0.097862 -0.143223 0.242282 0.00141947
0.297445 -0.430429 0.0624517 0.000889936
0.280788 -0.422052 0.0601733 0.0028841
0.297468 -0.428088 0.0812441 0.00237848
0.281742 -0.420524 0.0782458 1.10988e-05
-0.110317 -0.217599 0.0505155 0.00262441
-0.115012 -0.200133 0.0486601 0.000988566
-0.127884 -0.220634 0.0691087 0.000673708
-0.131764 -0.203093 0.0680585 0.00179569
0.031562 0.00120768 -0.00091447 0.000279348
0.0150605 0.00416146 -0.0111399 0.000970559
0.0276874 -0.00127357 0.0185228 0.00475393
0.0122393 0.00153016 0.00738886 0.00691565
0.122888 -0.231143 0.369484 0.00100724
0.127275 -0.213444 0.367429 0.00082306
0.134316 -0.237282 0.38739 0.000120743
0.138934 -0.220204 0.384038 6.27606e-05
0.0437712 -0.369169 -0.218389 0.00610233
0.0533525 -0.355209 -0.207269 0.000390116
0.035285 -0.373133 -0.204937 0.000527961
0.0410282 -0.357572 -0.190661 0.00602719
-0.195372 -0.255401 0.394996 0.00225292
-0.212397 -0.246581 0.395085 0.00240679
-0.195271 -0.260144 0.414209 0.00109449
-0.215903 -0.249653 0.416073 0.00857924
-0.265025 -0.0480966 0.434941 0.00320933
-0.273968 -0.040796 0.431112 0.00366231
-0.273351 -0.0446777 0.448103 0.00189015
-0.277063 -0.0315449 0.446571 6.52353e-05
-0.145161 -0.0933149 0.652807 0.00210023
-0.156201 -0.082628 0.64129 0.000384075
-0.142066 -0.11524 0.665071 0.00153181
-0.152644 -0.102262 0.653785 0.000680685
-0.250212 -0.206087 0.144186 0.0134663
-0.252743 -0.190584 0.140635 0.0125235
-0.260117 -0.208421 0.158571 0.00444216
-0.26393 -0.193245 0.156904 0.00175766
0.369487 -0.105243 -0.142114 0.000856085
0.346917 -0.109839 -0.141404 0.0020032
0.363904 -0.0914289 -0.131128 0.00127679
0.341065 -0.095844 -0.128462 0.000864285
-0.0939048 -0.345813 0.583364 0.0010051
-0.111349 -0.34363 0.57597 0.00299905
-0.0897647 -0.33081 0.6056 0.003526
-0.106912 -0.329228 0.600588 0.000214258
-0.388406 -0.210723 0.50007 2.894e-05
-0.403734 -0.200577 0.496101 0.00301744
-0.383392 -0.202581 0.513725 0.000324687
-0.39852 -0.194345 0.512887 0.00018158
-0.116711 -0.199472 0.303932 0.0085166
-0.126211 -0.180823 0.307799 0.0016436
-0.129569 -0.201477 0.3168 0.00699277
-0.139195 -0.18298 0.320833 0.0134725
-0.288588 -0.232898 -0.360527 0.00163154
-0.281256 -0.205027 -0.367343 0.000136455
-0.284638 -0.243627 -0.336215 0.00331982
-0.282269 -0.212562 -0.343585 0.000380127
-0.608391 -0.302991 -5.86964e-05 0.000719522
-0.612321 -0.286419 -0.00540473 0.00122781
-0.619084 -0.307073 0.0164424 0.00166706
-0.622898 -0.293374 0.010568 0.00180411
0.00419301 -0.0739538 -0.102437 0.00100596
0.0148088 -0.0478927 -0.110677 0.00479762
-0.00951445 -0.0892809 -0.0876343 0.000645919
0.000827805 -0.0645585 -0.0950679 0.00337983
0.122035 -0.137658 -0.250215 0.00258696
0.121824 -0.122951 -0.24575 0.000227152
0.109519 -0.138883 -0.237617 0.00423542
0.110364 -0.123004 -0.233888 0.00106441
-0.156642 -0.331221 0.491807 0.000640347
-0.170051 -0.32075 0.485921 0.00086826
-0.15691 -0.329705 0.517452 0.00161701
-0.170737 -0.319286 0.509414 0.00150669
0.276986 -0.0226974 -0.402014 0.00130826
0.267951 -0.00834442 -0.404024 0.000486728
0.269559 -0.0153669 -0.38611 0.0053752
0.256244 -0.00520572 -0.38496 0.0109388
0.283272 0.32289 -0.271038 0.00035682
0.286243 0.339737 -0.277293 0.000583862
0.26885 0.318233 -0.256833 0.00216114
0.273945 0.336168 -0.264388 0.00221837
0.161302 -0.2358 0.0547115 0.00072572
0.164523 -0.204171 0.0581895 0.00194574
0.163897 -0.24302 0.070718 0.000992397
0.167256 -0.212883 0.0708068 0.000106728
-0.209883 -0.333078 -0.205154 0.00181805
-0.220351 -0.308267 -0.209013 0.00129942
-0.187665 -0.338785 -0.189277 0.00160594
-0.199254 -0.311719 -0.190928 0.00109936
-0.11353 -0.466542 -0.356154 0.00171226
-0.133061 -0.463936 -0.356877 0.00122267
-0.116883 -0.466582 -0.338011 0.00108849
-0.137171 -0.464657 -0.341465 0.000505126
0.385251 -0.0485751 -0.0678331 0.000632169
0.361755 -0.0510084 -0.0669489 0.00223476
0.38603 -0.0396876 -0.0441089 0.00040159
0.364679 -0.0421301 -0.045515 0.0018746
0.0174249 -0.36272 0.449751 0.0027373
0.000654107 -0.36604 0.434297 0.00747149
0.0126276 -0.364439 0.472661 0.00238084
-0.00526855 -0.368541 0.456779 0.00262936
0.243262 -0.0753094 0.030621 0.000107801
0.24642 -0.0716645 0.014751 0.000889636
0.238951 -0.0809034 0.0579306 0.00177084
0.238901 -0.0783565 0.0408764 0.000643938
-0.137763 0.677944 -0.519437 0.00905427
-0.146078 0.701235 -0.522783 0.00872498
-0.124338 0.678798 -0.506667 0.010497
-0.133656 0.702802 -0.510026 0.0109029
0.400486 -0.441552 0.068505 0.00114152
0.382938 -0.446631 0.0664845 0.00319643
0.395989 -0.432863 0.0856296 0.00528344
0.376551 -0.437884 0.0856677 0.00153708
0.252182 -0.0521197 -0.244191 0.00421237
0.246473 -0.0400132 -0.246189 0.00302739
0.24971 -0.0540797 -0.226023 0.000794527
0.245884 -0.0399129 -0.228377 0.00274511
-0.0181946 -0.0939558 0.308482 0.00161144
-0.042415 -0.0893628 0.309146 0.00121258
-0.034245 -0.0818591 0.314165 0.000529706
-0.0598334 -0.0791776 0.315252 0.000708862
0.0306383 -0.185717 0.300108 0.00263163
0.0149147 -0.171386 0.295646 0.00145297
0.0169843 -0.204345 0.300495 0.00115139
-0.00188804 -0.190166 0.295424 0.00278328
0.379988 0.561561 -0.098756 0.00590811
0.379843 0.584543 -0.0995864 0.00880467
0.392477 0.553473 -0.0904656 0.00637648
0.393028 0.575507 -0.0903212 0.00884978
0.243043 -0.036763 -0.254411 0.00598558
0.238074 -0.0232641 -0.25396 0.000958257
0.236909 -0.0368073 -0.244528 0.0046255
0.232846 -0.0229096 -0.243998 0.0112461
0.189155 -0.00801091 -0.129778 0.000522284
0.191245 0.0152524 -0.134385 0.00048992
0.174341 -0.0111661 -0.11349 0.00141116
0.175372 0.0113175 -0.117469 0.00175238
0.381974 -0.222423 -0.189283 0.000899237
0.365344 -0.211284 -0.188231 0.000460939
0.361275 -0.225652 -0.192316 0.0030318
0.350534 -0.210223 -0.190398 0.00306107
-0.286433 0.206069 0.408049 0.00117078
-0.277813 0.21998 0.410305 0.00157529
-0.289137 0.202878 0.42275 0.00157779
-0.281419 0.216511 0.425157 0.000850704
0.073182 0.0248951 -0.163387 0.000979095
0.0845712 0.0417133 -0.166814 0.000463869
0.0735257 0.0212202 -0.144203 0.00160346
0.0802814 0.0344674 -0.150855 0.00160759
0.123932 -0.176095 -0.334029 0.0050516
0.118797 -0.164444 -0.340563 0.00404673
0.118067 -0.181994 -0.322226 0.00247394
0.113852 -0.169916 -0.327366 0.00191156
0.467618 -0.412051 -0.0412844 0.00156647
0.451677 -0.418042 -0.0576402 0.0027881
0.461808 -0.420829 -0.0212726 0.00159343
0.445549 -0.427162 -0.0366963 0.00226262
-0.472184 -0.102921 0.513199 0.00108262
-0.481254 -0.0825411 0.513253 0.00423392
-0.464385 -0.0894032 0.528507 0.00568478
-0.474848 -0.0698124 0.528976 0.00267847
-0.289651 -0.26493 0.0603315 0.00149882
-0.289571 -0.246952 0.0519015 0.000790926
-0.282558 -0.270304 0.0828619 0.00225997
-0.281963 -0.251895 0.0745291 5.1086e-05
0.0283902 -0.387663 -0.221145 0.00511509
0.0346921 -0.37587 -0.206034 0.00108486
0.0171593 -0.387703 -0.207057 0.00137012
0.0192207 -0.376406 -0.191093 0.00319973
-0.191419 0.277562 0.132536 0.00315025
-0.195053 0.292652 0.126526 0.00189471
-0.204469 0.268443 0.149846 0.00152955
-0.208615 0.282634 0.144294 0.00179328
0.557271 -0.314924 -0.0439424 0.000142471
0.567575 -0.288772 -0.0446457 0.00180366
0.560515 -0.321147 -0.0273586 2.29743e-05
0.569217 -0.297061 -0.0288839 0.000997261
-0.274684 -0.228286 0.0849554 0.000144793
-0.278113 -0.207248 0.0767315 0.00282041
-0.265353 -0.231321 0.107169 0.00424532
-0.267558 -0.211836 0.100598 0.0022009
-0.0772061 -0.178326 -0.156891 0.00184008
-0.0876649 -0.162837 -0.166231 0.00268605
-0.0832472 -0.197289 -0.149534 0.00197794
-0.0945048 -0.181569 -0.158687 0.00424978
0.341322 0.550085 -0.153398 0.00728419
0.33542 0.570438 -0.15558 0.00715622
0.360119 0.5433 -0.136714 0.00917862
0.356352 0.562246 -0.137814 0.0087022
-0.357013 -0.0998152 0.281596 0.000937883
-0.366352 -0.0902069 0.283487 0.000188333
-0.367017 -0.103798 0.30159 0.00405447
-0.374763 -0.0920009 0.303979 0.00873499
-0.0710891 0.366652 -0.0366737 0.000835266
-0.0710077 0.383854 -0.0403291 0.000833613
-0.0832306 0.361198 -0.0203116 0.00143951
-0.082625 0.37965 -0.0235066 0.000517958
-0.168802 0.344453 0.0796771 0.00289839
-0.1667 0.366861 0.0783786 0.00134947
-0.176309 0.342262 0.0947612 0.000809349
-0.173275 0.365433 0.0941121 0.00351577
0.500037 -0.110725 -0.0864138 0.000136647
0.47966 -0.10368 -0.0935095 0.000995637
0.507221 -0.10425 -0.0686883 0.00137942
0.486715 -0.0960332 -0.0752752 0.0020247
-0.265674 -0.194263 -0.285191 0.00111663
-0.26265 -0.176084 -0.29006 0.00204015
-0.260054 -0.203938 -0.266993 0.000403968
-0.260379 -0.190617 -0.272265 0.00150498
-0.0936481 -0.0526287 -0.3867 0.000391962
-0.114394 -0.0613537 -0.39742 0.00242254
-0.097962 -0.0496664 -0.355343 0.00201542
-0.11856 -0.0576317 -0.367359 0.00333378
-0.102067 0.771924 -0.488266 9.8222e-05
-0.113941 0.79173 -0.489787 0.00413983
-0.0931201 0.772033 -0.472827 0.00651782
-0.104834 0.790911 -0.473553 0.0108826
-0.0951666 0.375683 -0.00932261 0.000519667
-0.0930717 0.395165 -0.012578 0.000284129
-0.107689 0.373682 0.00716319 3.87292e-05
-0.10575 0.394236 0.00478281 0.000658188
-0.138608 -0.325134 0.580932 0.000658402
-0.154234 -0.316793 0.572199 2.19436e-05
-0.132748 -0.313516 0.606701 0.00124714
-0.148968 -0.306086 0.598595 0.000422066
0.106809 0.347018 -0.0438267 0.00733322
0.0915716 0.346364 -0.0452223 0.00429516
0.0992614 0.347995 -0.0327773 0.00937303
0.078474 0.341656 -0.0358468 0.00764794
0.0375107 -0.350446 -0.498896 0.000136394
0.0182767 -0.351591 -0.515381 0.00162997
0.0396187 -0.369415 -0.482008 0.00180945
0.0200202 -0.370513 -0.501143 0.000639074
-0.0624661 0.70296 -0.459138 0.00571659
-0.070688 0.721974 -0.462251 0.00643291
-0.044323 0.701372 -0.442709 0.00743843
-0.0532262 0.719604 -0.446717 0.00780162
-0.00380945 0.302637 -0.0169656 0.000331337
-0.0160615 0.298211 -0.0330579 0.00787579
-0.0112693 0.296646 0.00183134 0.000128233
-0.02344 0.293669 -0.0157679 0.00400089
0.0196404 0.348478 -0.143033 0.00405561
0.0169336 0.36653 -0.143917 0.00196284
0.0110071 0.345656 -0.133313 0.00232985
0.00689125 0.362195 -0.134178 0.000250172
-0.245653 0.242309 0.318611 0.00260822
-0.250379 0.250259 0.321217 0.00636351
-0.257096 0.240046 0.32699 0.000202469
-0.257765 0.249666 0.330559 0.00971879
-0.0824903 -0.212514 0.695924 0.00172425
-0.110752 -0.209668 0.688316 0.000143913
-0.0688332 -0.200508 0.705018 0.00112351
-0.0960637 -0.196838 0.697859 0.000879542
0.50489 -0.0795194 -0.559047 0.00197489
0.508765 -0.0641667 -0.555659 0.00018767
0.508764 -0.0790231 -0.537807 2.38496e-06
0.512833 -0.0632085 -0.533937 0.0015652
-0.0635457 0.415113 0.156076 0.00180418
-0.0637257 0.442152 0.142899 0.00192415
-0.0737852 0.402258 0.174073 0.00446563
-0.0741541 0.429749 0.160716 0.00204276
-0.687375 -0.200742 0.0761945 0.00112669
-0.685405 -0.177889 0.0705267 0.00386203
-0.686999 -0.20664 0.100041 0.00469407
-0.685887 -0.183993 0.0963308 0.00354136
0.211312 0.432854 -0.389576 0.000760911
0.218099 0.463576 -0.393814 0.00255166
0.197407 0.421576 -0.372385 0.000935567
0.20428 0.451906 -0.376389 0.00274796
0.370531 0.626296 -0.119518 0.00693304
0.360409 0.640409 -0.123737 0.00840569
0.387584 0.625363 -0.104008 0.00838276
0.378024 0.63706 -0.107746 0.0101478
0.206679 0.00133922 -0.151491 0.000691766
0.210691 0.0226626 -0.156627 0.000605032
0.194878 -0.00667041 -0.137314 0.00100711
0.197794 0.0161096 -0.142184 0.000549694
0.00422855 0.315132 -0.066138 5.86151e-05
-0.0100055 0.322502 -0.068466 0.00154764
-0.0035313 0.30946 -0.0513873 0.00218386
-0.0189993 0.317138 -0.0531555 0.00075412
0.109667 -0.35725 -0.368002 0.00168301
0.120848 -0.33659 -0.370672 0.00124964
0.106655 -0.362947 -0.347979 0.002989
0.118766 -0.3439 -0.35087 0.000513095
0.38354 -0.0788481 0.155915 0.00101961
0.36527 -0.0720424 0.14732 0.000639135
0.377808 -0.0906968 0.168356 0.00133569
0.360574 -0.0830182 0.159989 0.000316338
-0.405136 -0.397526 0.116458 0.000579805
-0.418884 -0.401157 0.107324 0.000145741
-0.414067 -0.401437 0.136725 0.00273084
-0.429051 -0.404936 0.127573 0.00262903
0.580217 -0.271179 0.0721328 0.00266335
0.580333 -0.250691 0.0750396 0.00102013
0.57196 -0.271544 0.0922109 0.000778825
0.57221 -0.250568 0.0966918 0.000198852
0.0799114 0.54976 -0.201789 0.00311039
0.0835754 0.564273 -0.197546 0.00645061
0.0728866 0.542568 -0.183468 0.00651852
0.0773088 0.558349 -0.179436 0.00376204
-0.2385 -0.13651 -0.410189 0.00122807
-0.225719 -0.122693 -0.411416 0.000373147
-0.252206 -0.143678 -0.390532 0.0019828
-0.240019 -0.128901 -0.392931 0.0024628
0.00397932 0.413309 0.0671267 0.000778415
-0.00478758 0.431852 0.0727425 0.00346971
-0.00829271 0.415121 0.0814229 0.00126849
-0.0165083 0.433582 0.0871473 0.00346581
-0.472986 -0.176453 0.3533 0.000119518
-0.495768 -0.159786 0.34579 0.00437607
-0.484897 -0.195861 0.355851 0.000664799
-0.510258 -0.180114 0.349897 0.0026254
-0.240464 -0.382413 -0.416061 0.000184255
-0.248416 -0.367484 -0.422978 0.000686855
-0.243462 -0.384351 -0.396569 0.00121799
-0.251745 -0.369782 -0.403369 0.00173211
0.151958 0.250907 -0.13629 0.000399154
0.144312 0.271223 -0.128129 0.00477021
0.141373 0.256444 -0.127485 0.00541074
0.133325 0.277092 -0.119199 7.99373e-05
0.106269 -0.101558 -0.230075 0.00115601
0.10812 -0.0828187 -0.228197 0.00216998
0.09212 -0.0995033 -0.216846 0.00320276
0.094625 -0.0820985 -0.215413 0.000313092
-0.524749 -0.325066 0.312708 0.000537359
-0.542544 -0.317508 0.310275 0.0015562
-0.526576 -0.306412 0.327119 0.00241356
-0.548565 -0.301093 0.324414 0.00266248
-0.0879154 -0.448217 -0.448912 0.000282386
-0.107272 -0.442092 -0.460513 0.00133052
-0.0941494 -0.454617 -0.433177 0.000505371
-0.113075 -0.449052 -0.442477 0.000533001
-0.200531 -0.38369 -0.481552 0.00324731
-0.205264 -0.368674 -0.488514 0.00284392
-0.211162 -0.389191 -0.460916 0.00133321
-0.216506 -0.374403 -0.468496 0.000198437
0.0818681 -0.121875 -0.304832 0.00182868
0.07195 -0.108273 -0.311262 0.000962225
0.0794483 -0.125998 -0.283872 0.000727953
0.0715481 -0.112544 -0.289864 0.00470514
0.225021 -0.00312549 -0.176736 0.00148397
0.227821 0.0165489 -0.18068 0.000529089
0.213511 -0.00809331 -0.161144 0.00156811
0.217324 0.0129256 -0.16651 0.00058564
0.288417 -0.17056 0.197073 0.00085619
0.273456 -0.160227 0.18453 0.000575714
0.294205 -0.1865 0.20505 0.00150245
0.278924 -0.175907 0.194754 0.000661887
0.233144 -0.279655 -0.284649 0.00353231
0.233553 -0.266346 -0.290419 0.000706529
0.230793 -0.294396 -0.271215 0.0024701
0.236316 -0.278681 -0.276221 0.00138072
0.0419398 0.508525 -0.0329387 0.000525895
0.0332331 0.512628 -0.0438013 0.000706147
0.0366561 0.497239 -0.0171759 0.00378089
0.0277987 0.501399 -0.0286868 0.00531952
0.467435 -0.138623 -0.521771 0.00253172
0.45041 -0.14846 -0.536258 0.0048479
0.468744 -0.134471 -0.497032 0.0046464
0.448799 -0.147224 -0.511884 0.00304821
0.0350202 -0.325231 0.625097 3.80067e-05
0.0115474 -0.328377 0.631069 0.00196279
0.0162466 -0.313949 0.640024 0.00313021
-0.00839761 -0.316702 0.645393 0.000790598
-0.329703 -0.0929083 0.0384721 0.000815709
-0.341706 -0.0798756 0.0340589 0.00222804
-0.321878 -0.0872772 0.0643945 0.00177581
-0.333997 -0.0741346 0.0579163 0.0016416
-0.451835 -0.408136 0.106468 0.000861747
-0.468729 -0.409332 0.0962737 4.58384e-05
-0.459405 -0.411933 0.126801 0.000955219
-0.477509 -0.41415 0.117732 0.00103595
0.0262852 -0.425217 -0.267366 0.00213064
0.00144347 -0.437965 -0.26581 0.00265623
0.0143939 -0.426614 -0.251429 0.000405528
-0.00429414 -0.432496 -0.244943 0.000493887
0.0920431 0.33182 -0.0456839 0.000769739
0.0719811 0.32665 -0.0481465 0.00464914
0.0830844 0.329163 -0.0339435 0.0038636
0.0617082 0.3223 -0.0371728 0.000203246
0.192529 -0.117462 -0.113391 0.00548048
0.192045 -0.0977354 -0.11777 0.00363982
0.179025 -0.13256 -0.0963629 0.00492419
0.178938 -0.11313 -0.102088 0.00249479
0.527847 -0.0997713 0.0641846 0.00077497
0.517209 -0.0856527 0.0573338 0.00171063
0.527115 -0.109288 0.0833583 0.000737615
0.516006 -0.0949923 0.0766719 0.0011382
0.0745389 0.600099 -0.343234 0.00938022
0.0669856 0.616588 -0.345649 0.00832834
0.086661 0.5998 -0.333727 0.009499
0.0797438 0.615488 -0.335959 0.00864613
-0.134989 -0.20265 -0.156867 0.000150121
-0.152774 -0.194794 -0.167812 0.00209864
-0.139697 -0.22943 -0.152155 0.000417643
-0.156858 -0.218295 -0.162545 0.00193573
-0.333453 -0.249506 0.296509 0.00715452
-0.332386 -0.232445 0.296582 0.0171976
-0.344915 -0.258203 0.309596 0.00585789
-0.344081 -0.241979 0.309273 0.00131489
0.187378 0.388699 -0.362078 0.00305444
0.194826 0.418819 -0.367151 0.000476471
0.172932 0.38156 -0.344458 0.00323041
0.1792 0.406969 -0.350049 0.000965379
0.0792749 -0.179533 0.317234 0.00164564
0.0808305 -0.156089 0.319172 0.000198423
0.0885033 -0.187626 0.322907 0.00080349
0.0905872 -0.165063 0.32376 0.00103708
-0.287177 0.210425 0.375876 0.00443326
-0.279531 0.222493 0.374449 0.00126344
-0.290875 0.204157 0.390979 0.00197223
-0.283348 0.217313 0.390918 0.00203985
-0.419391 0.279945 0.50991 0.00324253
-0.431426 0.283227 0.497243 0.0014934
-0.4185 0.265229 0.526417 0.00123137
-0.431975 0.268195 0.511975 0.00205428
-0.111144 -0.21457 0.276715 0.00818552
-0.120013 -0.196465 0.27935 0.00293645
-0.128022 -0.217534 0.287611 0.000776356
-0.136955 -0.199925 0.291067 0.00692922
0.572945 -0.198451 -0.0357652 0.0016641
0.56551 -0.181844 -0.0410338 0.00042756
0.576278 -0.194954 -0.0161072 8.50485e-06
0.569973 -0.179771 -0.0232629 0.000631663
0.212558 -0.291916 0.151975 0.000553941
0.201665 -0.279091 0.145263 0.00244216
0.230347 -0.29146 0.16555 0.00203639
0.216515 -0.279826 0.158265 0.000559457
-0.314765 -0.228992 0.491245 0.00294471
-0.310928 -0.21187 0.499029 0.000269704
-0.337921 -0.220384 0.501597 0.00480332
-0.334051 -0.203756 0.508091 0.0066925
0.122309 0.143257 -0.181128 0.00139725
0.118309 0.160928 -0.182264 0.000773495
0.130372 0.137521 -0.171842 0.00085514
0.124133 0.153277 -0.173713 0.00203202
-0.144124 0.271154 0.124668 0.00614829
-0.143494 0.284909 0.121242 0.00589847
-0.152888 0.266975 0.140054 0.00492975
-0.157241 0.27748 0.134225 0.00360776
0.25039 0.301235 -0.226124 0.00201096
0.256835 0.322711 -0.23512 0.00225719
0.23875 0.287386 -0.213069 0.000563063
0.244969 0.309145 -0.222408 0.000437874
-0.0153076 -0.209657 0.304632 0.00906742
-0.0359294 -0.1956 0.298314 0.00332527
-0.0339758 -0.229104 0.304487 0.00125188
-0.0533148 -0.216038 0.298428 0.00316276
0.0367941 0.587948 -0.388546 0.0114281
0.0274531 0.603052 -0.390888 0.0137598
0.0552544 0.587243 -0.372559 0.0123568
0.0460872 0.602914 -0.374701 0.014672
0.122635 0.565937 -0.272463 0.00477242
0.112984 0.576743 -0.274145 0.0092533
0.119636 0.565019 -0.263955 0.00387089
0.113475 0.579264 -0.2637 0.00750225
-0.322638 0.395347 0.391038 0.00221726
-0.33873 0.393357 0.381493 0.0020045
-0.33205 0.385569 0.409895 0.00498016
-0.347832 0.384993 0.400492 0.00320692
-0.403556 -0.0797437 0.306502 0.0052491
-0.411809 -0.0699892 0.306726 0.00746776
-0.413854 -0.0913607 0.318374 0.005845
-0.423742 -0.0804076 0.314761 0.00652043
0.101077 0.416028 -0.252024 0.00101353
0.0987928 0.434271 -0.25248 0.000484272
0.0846149 0.415957 -0.231125 0.00114042
0.079386 0.435606 -0.22825 0.00054309
0.0655365 -0.414511 -0.342038 0.00281843
0.0806611 -0.40462 -0.347457 7.28525e-07
0.0650022 -0.413207 -0.31701 0.00118319
0.0795462 -0.402782 -0.318986 0.000723109
0.493858 0.142023 -0.52142 0.00135626
0.491191 0.160002 -0.523295 0.00274912
0.489308 0.137249 -0.506551 0.00272394
0.486738 0.154785 -0.508423 0.00094846
-0.0702413 -0.284136 -0.561986 0.000161833
-0.0789279 -0.262368 -0.56128 0.00251578
-0.0900343 -0.304992 -0.562518 0.00403221
-0.0976697 -0.28265 -0.56177 0.000528121
4.06029e-05 -0.289663 -0.0826278 0.00147818
-0.0168604 -0.277793 -0.085671 0.012932
-0.00559863 -0.288559 -0.0644285 0.00744702
-0.022598 -0.276498 -0.0671432 0.00678834
0.106987 0.374727 -0.053273 0.00210086
0.108366 0.388156 -0.0551321 0.00250046
0.0916911 0.371163 -0.0380344 0.000845646
0.0914699 0.385865 -0.0383329 0.000601451
0.357918 -0.424388 0.120488 0.000498408
0.339498 -0.423504 0.116536 0.000603129
0.363429 -0.415121 0.141675 0.00227702
0.344917 -0.414082 0.138043 0.000454895
-0.263345 -0.161032 -0.374787 0.00122414
-0.253369 -0.144543 -0.380138 0.0012503
-0.262535 -0.163963 -0.348049 0.00368096
-0.253537 -0.146813 -0.353659 0.00128923
0.0382433 0.524227 -0.0889392 0.000539866
0.0327232 0.526181 -0.0962445 0.00111789
0.0362061 0.519574 -0.0713746 0.000881692
0.0278628 0.52072 -0.0815714 2.40572e-05
-0.275369 -0.274196 0.128259 0.000856636
-0.266045 -0.256853 0.124444 0.00506178
-0.275827 -0.275318 0.150578 0.000425636
-0.26659 -0.258181 0.146162 0.00381473
0.289228 -0.044863 0.00755937 0.0012368
0.277282 -0.0531853 -0.00263346 0.00033742
0.287151 -0.0465625 0.030573 0.00130947
0.27506 -0.0549126 0.0171159 0.00169852
-0.268693 0.382383 0.192703 0.00814014
-0.254415 0.399753 0.195179 0.00323054
-0.281189 0.379548 0.217335 0.00290153
-0.267913 0.397846 0.219612 0.00633017
0.190828 0.218296 -0.154909 0.00182712
0.18866 0.235067 -0.151532 0.00172029
0.178648 0.220289 -0.147048 0.000551637
0.172724 0.237239 -0.14233 0.000938012
0.0160605 -0.126912 0.307489 0.000566287
0.00426351 -0.108255 0.30694 0.00144828
-0.00366341 -0.127321 0.306018 0.00251137
-0.0165786 -0.111313 0.306422 0.000673175
0.121229 0.565692 -0.197804 0.0048346
0.117943 0.576496 -0.196906 0.0063318
0.119621 0.557274 -0.178556 0.00795287
0.116757 0.567813 -0.17742 0.00293018
0.211861 0.0501674 -0.354576 0.000734904
0.206402 0.0659722 -0.356467 0.00165407
0.19759 0.0497138 -0.340553 0.00135736
0.191698 0.0647245 -0.341742 0.000176816
0.576615 -0.183047 0.0305884 0.000639351
0.572125 -0.169416 0.0230245 0.000678844
0.577153 -0.184793 0.0516398 0.00104445
0.57269 -0.170765 0.0449953 9.86811e-05
0.176651 0.0720329 -0.321439 0.00175777
0.173663 0.0873936 -0.322764 0.000661311
0.161856 0.0696011 -0.30465 0.000928486
0.160495 0.0854326 -0.30602 0.000292183
-0.142197 0.271631 0.250269 0.00338356
-0.129491 0.287574 0.254534 0.00706404
-0.152211 0.265457 0.264713 0.00427975
-0.140652 0.282614 0.269738 0.007716
0.166471 0.781603 -0.242987 0.0083413
0.161544 0.799009 -0.243113 0.0073919
0.178627 0.779509 -0.231599 0.00673521
0.171854 0.794478 -0.231818 0.00438953
0.4003 -0.114847 -0.575065 0.000368069
0.392814 -0.0941041 -0.576361 0.0017842
0.385281 -0.121914 -0.555846 0.00175797
0.37629 -0.101562 -0.557258 0.0026631
-0.511744 -0.196068 0.351394 0.00153359
-0.537549 -0.180652 0.346052 0.000346062
-0.517136 -0.215361 0.352456 6.954e-05
-0.542763 -0.199666 0.346424 0.000492482
0.410739 0.860904 -0.0554204 0.00405916
0.393363 0.875012 -0.0597184 0.00141965
0.426838 0.863678 -0.0328453 0.0111897
0.405917 0.875546 -0.0399185 0.0069524
-0.176383 -0.286165 0.418512 0.00161814
-0.193065 -0.276112 0.41843 0.00393921
-0.18355 -0.285942 0.440127 0.00535071
-0.202303 -0.274259 0.442139 0.0027468
-0.0123018 -0.102425 0.121625 0.00285644
-0.00911198 -0.0797308 0.119763 0.000206374
-0.0211405 -0.113585 0.141366 0.0023625
-0.0183598 -0.0917254 0.140179 0.00507576
-0.218508 -0.244558 0.548847 9.2974e-05
-0.229731 -0.222943 0.541639 0.0017076
-0.212022 -0.242308 0.568955 0.000506906
-0.223252 -0.22256 0.559915 0.00112329
0.319829 -0.045727 -0.0431939 0.000423894
0.307206 -0.0480761 -0.04322 0.00165768
0.309636 -0.0421191 -0.0223996 0.000308483
0.29706 -0.0447486 -0.0229521 0.00161725
0.0415559 0.552102 -0.393919 0.00829684
0.033944 0.571756 -0.397926 0.00775543
0.0578116 0.550105 -0.377465 0.0111062
0.0492316 0.568295 -0.380677 0.0119472
0.132806 0.495832 -0.0933134 0.00158512
0.126467 0.512445 -0.0980507 0.00357695
0.122236 0.489594 -0.0787287 0.00227859
0.115231 0.506437 -0.0813771 0.00173757
0.158223 0.195804 -0.157822 0.00311905
0.142115 0.202889 -0.161261 0.00282703
0.160096 0.20255 -0.149764 0.00339365
0.145893 0.212205 -0.150399 0.00434822
-0.369308 -0.271066 -0.02229 0.000663975
-0.385487 -0.268893 -0.0358858 0.00213555
-0.35916 -0.28169 -0.00961372 0.000342276
-0.375912 -0.28043 -0.0237568 0.00165231
0.145433 -0.0569394 0.455676 0.00177433
0.133219 -0.0423701 0.452959 0.00162912
0.147989 -0.0514685 0.474664 2.34816e-05
0.13572 -0.0374689 0.471563 0.000321179
0.457793 0.600569 -0.0321183 0.00626913
0.450163 0.614962 -0.0353907 0.00555084
0.474284 0.609158 -0.0190243 0.00554463
0.465543 0.623918 -0.0227231 0.00615661
0.265114 -0.11934 -0.250564 0.00138642
0.25685 -0.10215 -0.259082 0.000783794
0.27009 -0.118654 -0.234726 0.00210895
0.262325 -0.101565 -0.24344 0.000211329
-0.363628 -0.173313 0.345688 0.0026114
-0.369007 -0.156127 0.344617 0.00643166
-0.382378 -0.172514 0.357921 0.0101702
-0.385763 -0.155504 0.356195 0.012749
-0.481869 -0.380209 0.029878 0.00136261
-0.495051 -0.371477 0.013524 0.00134981
-0.491149 -0.391287 0.0501115 0.00200612
-0.505059 -0.38305 0.0343164 0.000114398
-0.365405 -0.312101 0.00510659 0.000393382
-0.380499 -0.310757 -0.0106317 0.00120909
-0.358199 -0.328739 0.0253988 0.000866671
-0.371685 -0.326629 0.0085204 0.0025336
0.196244 0.672767 -0.245616 0.0131049
0.186691 0.686626 -0.252424 0.0123016
0.210488 0.677345 -0.234255 0.0123158
0.200097 0.690262 -0.240724 0.0124156
-0.244476 -0.340067 -0.459956 0.000164371
-0.247991 -0.319288 -0.464906 0.000841203
-0.252075 -0.344541 -0.443271 0.00015501
-0.255601 -0.324339 -0.448547 0.00211552
0.228031 0.347422 -0.406294 0.00127533
0.237003 0.369056 -0.413112 0.00149845
0.217638 0.33692 -0.393966 0.00184446
0.22489 0.358013 -0.399727 0.00064673
0.104485 -0.0555406 -0.23063 0.00109573
0.107212 -0.0361062 -0.229062 0.00275654
0.0894455 -0.0555974 -0.214298 0.00184002
0.0926841 -0.0364563 -0.213254 0.00204618
0.0708318 -0.323426 -0.00433805 0.00252968
0.0506111 -0.323383 0.00227807 0.00119135
0.0577468 -0.315869 0.0168013 0.00157082
0.0392464 -0.315851 0.0233032 0.00128085
0.45266 0.260388 -0.475459 6.34415e-05
0.450996 0.27631 -0.478862 0.00192382
0.442451 0.255129 -0.46296 0.000260226
0.44204 0.271798 -0.466813 0.00216108
0.310365 0.471698 -0.315755 0.000994322
0.308698 0.496165 -0.318937 0.00321358
0.300248 0.470214 -0.298347 0.00193281
0.300062 0.495889 -0.30292 9.86063e-05
-0.00657288 -0.0806562 -0.427488 0.00266428
-0.0234342 -0.0739094 -0.431595 0.000301465
-0.00551156 -0.0720026 -0.403576 0.00235799
-0.0217483 -0.0647682 -0.411267 0.00179373
-0.277147 -0.0489131 0.366743 0.000810772
-0.296784 -0.0468856 0.358909 0.000775746
-0.268204 -0.0442464 0.382676 0.00416912
-0.287184 -0.0416405 0.372936 0.000377514
-0.634456 -0.296329 0.264015 0.0032001
-0.646684 -0.281664 0.257091 0.00230564
-0.619721 -0.287158 0.280314 0.00147993
-0.634843 -0.273245 0.273287 0.00053419
-0.0796635 -0.299327 0.126393 0.00217162
