-0.605533 0.0611744 -0.387807 0.00147283
0.243045 -0.394077 0.139125 0.00113738
0.224786 -0.398543 0.128462 0.00116336
0.241661 -0.393962 0.154084 0.000919471
0.223506 -0.398931 0.144241 0.00185942
-0.111864 0.0796878 -0.27796 0.00138463
-0.134149 0.0792813 -0.285969 0.00197881
-0.11811 0.0808642 -0.257334 1.02952e-05
-0.140479 0.0805453 -0.266811 0.000849695
0.0212505 -0.233923 -0.421992 0.0010837
0.00867717 -0.230915 -0.424063 0.00260057
0.0129697 -0.240138 -0.415774 0.00396091
0.00109808 -0.235792 -0.417593 0.00292342
-0.378147 -0.226819 -0.190182 0.000544206
-0.388892 -0.214557 -0.196878 0.000424547
-0.376757 -0.226331 -0.16859 0.000468495
-0.386921 -0.214427 -0.176783 0.000127081
-0.309219 -0.387541 -0.396537 0.00269111
-0.30921 -0.369571 -0.399764 0.00274844
-0.323404 -0.393557 -0.388412 0.00426562
-0.326306 -0.374966 -0.390413 0.00552404
0.145802 -0.416035 0.221112 0.0111949
0.131822 -0.408426 0.226028 0.00185304
0.13117 -0.417859 0.226389 0.0111217
0.117334 -0.408521 0.231527 4.98668e-05
-0.361936 -0.274282 -0.425187 0.0112394
-0.371995 -0.260684 -0.432537 0.0161163
-0.365679 -0.274816 -0.406139 0.00216177
-0.375627 -0.262046 -0.413161 0.000818948
-0.653893 -0.0971187 0.165886 0.00756029
-0.664431 -0.0864081 0.167212 0.00314096
-0.650361 -0.0954624 0.181819 0.00617669
-0.662256 -0.0836494 0.183807 0.00561749
-0.637384 -0.120468 -0.261378 0.00113911
-0.656686 -0.117608 -0.271779 0.00533535
-0.631584 -0.11933 -0.236944 0.000825872
-0.650417 -0.116404 -0.248079 0.00347613
-0.623808 -0.141719 -0.390527 0.00105333
-0.63789 -0.135895 -0.399036 0.00606957
-0.625423 -0.142283 -0.374362 0.00422591
-0.641319 -0.138549 -0.38103 0.00054143
0.494795 0.390052 0.245624 0.000209782
0.484311 0.411055 0.248212 0.00279796
0.483149 0.377229 0.2417 0.00371439
0.473098 0.397948 0.244452 0.000961658
-0.120009 0.0850307 -0.234803 0.00141321
-0.142166 0.0841741 -0.246191 0.00191011
-0.124685 0.0868865 -0.214705 0.000960407
-0.146645 0.0861953 -0.226967 0.0016797
-0.262187 -0.369983 -0.394524 0.00234093
-0.262927 -0.35351 -0.398415 0.00136904
-0.274383 -0.38564 -0.394808 0.000658145
-0.273408 -0.367964 -0.398024 0.000755693
-0.676258 0.102332 0.0501315 0.00484728
-0.672653 0.112946 0.0404963 0.00615158
-0.676389 0.100673 0.0686977 0.00731204
-0.678941 0.105868 0.0567763 0.00158739
-0.0922879 0.1146 -0.0776215 0.000517161
-0.112596 0.114384 -0.0816236 0.00199936
-0.091967 0.120483 -0.0629447 0.00105378
-0.110981 0.11947 -0.0627322 0.00199627
0.163246 -0.346239 0.244738 0.000675824
0.145192 -0.327046 0.247605 0.00219147
0.148672 -0.350506 0.241534 0.0038802
0.13053 -0.33142 0.244674 0.000739958
-0.115059 -0.0830369 -0.446735 0.000750716
-0.128278 -0.0713873 -0.450995 0.00142191
-0.122211 -0.0985862 -0.443664 0.00107507
-0.135702 -0.0877841 -0.447557 0.000883331
-0.685866 0.0976763 -0.0260627 0.00136536
-0.685291 0.104581 -0.0358707 0.00264722
-0.687289 0.0939301 -0.00456545 0.00278842
-0.682179 0.105011 -0.0130108 0.00139651
-0.0264195 -0.475348 -0.287937 0.00445565
-0.0122676 -0.464107 -0.291292 0.00464564
-0.0282615 -0.475536 -0.2713 0.00671975
-0.0153056 -0.465692 -0.275187 0.00116862
-0.171388 0.0841416 -0.224652 0.000627644
-0.195381 0.0836506 -0.240095 0.000666741
-0.17121 0.0864746 -0.202192 0.000806758
-0.19696 0.0865436 -0.218216 0.00102814
0.214174 -0.208216 -0.224073 0.000354791
0.210421 -0.202996 -0.232735 0.000184431
0.217238 -0.207742 -0.201098 0.00358985
0.206961 -0.207081 -0.213604 0.00640951
0.00311218 -0.353019 0.244605 0.000808802
1.63636e-05 -0.331941 0.247203 0.00178934
-0.0165529 -0.361015 0.245119 0.000295471
-0.0191751 -0.337487 0.247502 0.0020884
0.501719 0.158226 0.139344 0.00159045
0.481206 0.150721 0.127439 0.00373325
0.503554 0.165483 0.158045 0.00549183
0.482732 0.158498 0.146717 0.000580106
-0.331011 -0.356213 -0.216523 0.000662332
-0.335554 -0.338 -0.227868 0.00148671
-0.328981 -0.356905 -0.195654 0.00178136
-0.333751 -0.338529 -0.20769 0.000174973
0.203224 -0.0713552 0.247409 0.00199461
0.189472 -0.0460656 0.243451 0.00196339
0.186965 -0.0840957 0.246954 0.00153985
0.172078 -0.059611 0.243189 0.00222475
-0.593519 -0.0986135 -0.011829 0.0012617
-0.607586 -0.0974638 -0.0227226 0.000487017
-0.587259 -0.0948415 0.00861937 0.00120954
-0.600992 -0.0928424 -0.00159637 0.00368372
0.607293 0.686939 0.240361 0.00171959
0.605432 0.706989 0.237321 0.000141384
0.597725 0.678296 0.255811 0.0103973
0.596003 0.697766 0.252982 0.00756826
0.447769 0.3262 0.156244 0.00105414
0.434851 0.336695 0.149398 0.00056119
0.440057 0.30361 0.155946 0.00123357
0.426945 0.313298 0.149432 0.00232305
-0.0361455 -0.471384 0.179323 0.000409038
-0.0330435 -0.45691 0.169788 0.00269214
-0.0380856 -0.472728 0.197335 0.00233086
-0.036024 -0.458618 0.190587 0.00028732
0.418596 -0.330911 0.137957 0.00236499
0.394318 -0.329579 0.129825 0.00110843
0.414991 -0.351696 0.146313 0.00321215
0.392845 -0.351853 0.139528 0.00471108
0.148323 0.633209 0.250686 0.00527223
0.133057 0.626631 0.23882 0.00171515
0.140269 0.623095 0.262993 0.0175786
0.125518 0.617274 0.250116 0.00470193
-0.0833622 0.0785525 -0.280413 0.000543636
-0.105138 0.0774386 -0.289042 0.000549425
-0.0869803 0.0803106 -0.2577 0.000534196
-0.108766 0.0795754 -0.267319 3.45254e-05
-0.341297 -0.329968 -0.388945 0.000656501
-0.349067 -0.309108 -0.394953 0.00083667
-0.351366 -0.336986 -0.375865 0.0115957
-0.35912 -0.316169 -0.381891 0.0119519
0.0889283 -0.432824 -0.139715 0.000170925
0.0927461 -0.427172 -0.147261 0.00328193
0.0873263 -0.434107 -0.119704 0.00288201
0.0840966 -0.432995 -0.131021 0.0001568
0.37749 -0.114328 0.246276 0.000862021
0.367365 -0.101682 0.247262 0.00184805
0.360909 -0.125042 0.243567 0.00184694
0.349588 -0.110917 0.244063 0.00135102
-0.397541 0.179683 0.19682 0.00283026
-0.406413 0.17577 0.185628 0.00299027
-0.401655 0.170946 0.203515 0.00345009
-0.41097 0.168368 0.192896 0.00183495
0.163768 -0.36911 -0.034295 0.000569405
0.165685 -0.347911 -0.0378714 0.000511749
0.171171 -0.378641 -0.0235494 0.000635856
0.172274 -0.357682 -0.0273769 0.000260687
0.60779 -0.00107148 0.0157707 0.00221664
0.594749 0.0110929 0.0089189 0.0108238
0.614435 -0.00216302 0.0361768 0.00886166
0.599769 0.0100699 0.0286239 0.00580412
-0.333125 0.0825677 0.246668 0.00125406
-0.350464 0.0967967 0.247998 0.00258416
-0.351721 0.0711325 0.242682 0.00273208
-0.368297 0.0862611 0.243794 0.00161972
-0.278472 0.241134 0.0418525 0.00264293
-0.276544 0.245899 0.0375724 8.14072e-05
-0.278319 0.242692 0.0606225 0.00221799
-0.27744 0.245805 0.0540121 7.97489e-05
-0.0368491 -0.471839 -0.380962 0.00198829
-0.043596 -0.460539 -0.383544 0.0025688
-0.0420577 -0.486358 -0.375723 0.000650726
-0.0535259 -0.47633 -0.378489 0.000332625
0.337137 0.0453911 0.00458921 0.0032969
0.32135 0.0487261 0.00357717 0.000165195
0.34299 0.0552775 0.0170876 0.0042759
0.327078 0.0593826 0.0173964 0.00826203
-0.358741 0.0245562 0.247118 0.00170392
-0.370015 0.0427613 0.246188 0.000774
-0.376298 0.0114751 0.245042 0.000371661
-0.385993 0.0306444 0.243759 0.00165504
0.351912 0.716049 0.110925 0.000478631
0.339865 0.717485 0.110918 0.000986967
0.335856 0.71453 0.115211 0.000781471
0.324807 0.720709 0.115307 0.00828806
-0.55692 -0.0938152 0.0992435 0.000718525
-0.572637 -0.0917916 0.0914744 0.00167137
-0.555072 -0.0936613 0.117249 0.00108015
-0.571399 -0.091396 0.109948 0.000992238
0.17654 -0.189731 -0.337741 7.89513e-05
0.178278 -0.17743 -0.34274 0.00228235
0.177518 -0.189653 -0.319878 0.0027295
0.178718 -0.176033 -0.325565 0.000840164
-0.106967 -0.37367 0.246225 0.000811268
-0.11715 -0.356825 0.24581 0.000396196
-0.12564 -0.385949 0.245156 0.000258144
-0.13558 -0.366574 0.243576 0.00183819
-0.211996 0.149555 -0.0296634 0.000599817
-0.228954 0.147697 -0.0281316 0.00170392
-0.215387 0.16385 -0.0188747 0.00303874
-0.231182 0.161455 -0.0177372 0.000920218
0.55937 -0.144773 0.00634109 8.68068e-05
0.547114 -0.137352 0.00186966 0.00142931
0.55341 -0.159296 0.0106823 0.00254389
0.540287 -0.152242 0.00623098 0.00114101
-0.0504173 -0.25479 -0.417582 0.000364156
-0.0629404 -0.242534 -0.421038 0.00163984
-0.0615631 -0.274104 -0.414166 0.000353593
-0.076086 -0.261463 -0.417162 0.00110965
0.138651 -0.180312 -0.429188 0.00113963
0.120595 -0.171927 -0.433424 0.00157584
0.126845 -0.193338 -0.426946 0.00108472
0.108729 -0.18806 -0.430775 0.00176824
0.194539 0.29073 0.0385395 0.00136541
0.181775 0.302515 0.0376114 8.80827e-05
0.175748 0.282545 0.0350559 0.00103272
0.164102 0.295319 0.0348095 0.00142144
0.155659 -0.411418 -0.0184935 0.00169234
0.14836 -0.412081 -0.0302025 0.00281667
0.158336 -0.412955 0.00230472 0.00164858
0.147913 -0.416008 -0.0104735 0.00238984
0.121538 -0.285446 0.244778 0.000635829
0.101695 -0.270187 0.24554 0.000125919
0.106609 -0.294795 0.244525 0.000889417
0.0878561 -0.280537 0.245463 4.87454e-05
0.216603 0.623853 0.0907324 0.0033973
0.213744 0.635958 0.0968726 0.000547935
0.196454 0.63137 0.0936892 0.00179099
0.194197 0.643421 0.101083 0.00339838
-0.0433608 0.144012 0.246011 0.000597496
-0.0522156 0.164047 0.247217 0.00180339
-0.0628913 0.127884 0.244573 0.000840899
-0.0746143 0.148423 0.245653 0.000239287
0.335246 0.176015 0.246254 0.000840444
0.332146 0.192656 0.246254 0.000840444
0.318895 0.159719 0.244542 0.000872131
0.315766 0.175699 0.244026 0.00138794
-0.0397637 0.217935 0.245464 4.97289e-05
-0.0381751 0.242701 0.245852 0.00043783
-0.0563434 0.198528 0.244851 0.000562843
-0.0550447 0.222884 0.245685 0.000270624
0.374257 0.0208694 0.247213 0.00179901
0.371659 0.0390674 0.246558 0.00114434
0.359443 0.00615681 0.244258 0.0011558
0.355287 0.0237057 0.243601 0.00181265
0.475426 0.537786 0.24581 0.000395719
0.470257 0.559777 0.246017 0.000603173
0.461836 0.523794 0.244929 0.000485402
0.454608 0.543676 0.245249 0.00016525
0.265767 -0.391505 0.0843242 0.00348052
0.253661 -0.39245 0.0744541 0.00412929
0.259897 -0.397219 0.0994839 0.00228384
0.24722 -0.399008 0.0890231 0.00241854
-0.332232 -0.49682 0.221722 0.00272221
-0.336673 -0.479566 0.224478 0.00716287
-0.326098 -0.496605 0.233178 0.00341162
-0.3311 -0.479481 0.235852 0.00158966
-0.256912 -0.281728 0.246851 0.00143724
-0.26749 -0.265189 0.242507 0.00290675
-0.271151 -0.290417 0.248877 0.00346317
-0.281941 -0.274036 0.244704 0.000709768
-0.211943 0.0770115 -0.292233 0.000549407
-0.227977 0.0753073 -0.303267 0.00030106
-0.208956 0.0798901 -0.26757 0.000235735
-0.222743 0.078121 -0.279504 1.90661e-05
-0.0355442 0.500187 0.212971 0.00157558
-0.032804 0.508636 0.204843 0.00273626
-0.0383581 0.489514 0.226405 0.00737776
-0.0371948 0.49846 0.21858 0.00169048
-0.19094 0.072749 -0.325015 0.000746442
-0.214292 0.071415 -0.332814 0.000496571
-0.194069 0.0756383 -0.302108 0.000472807
-0.213049 0.0733824 -0.311851 0.000430226
-0.329814 -0.422131 0.0423434 0.000303659
-0.330912 -0.399318 0.0400473 0.0014022
-0.326941 -0.423909 0.0710159 0.00256917
-0.327552 -0.400037 0.0700962 0.00195756
-0.0488859 -0.570637 0.20203 0.00474609
-0.0465676 -0.562082 0.201527 0.00263782
-0.0573511 -0.573655 0.215114 1.49827e-05
-0.0564369 -0.56516 0.218466 0.005687
-0.0964793 0.0051685 -0.46355 0.000491646
-0.107343 0.0197599 -0.46539 0.00023074
-0.109689 -0.00815373 -0.460289 0.000406079
-0.119388 0.0104091 -0.463952 2.27349e-05
-0.0345425 -0.457481 0.152624 0.0011923
-0.0310221 -0.443528 0.143198 0.00471251
-0.0375483 -0.45713 0.172302 0.00181259
-0.0337248 -0.443251 0.163315 0.00201018
-0.179816 -0.608678 -0.103665 0.00163405
-0.201604 -0.610328 -0.113317 0.000998072
-0.183124 -0.607201 -0.0838323 0.00112032
-0.205285 -0.608995 -0.0945878 0.000372141
0.274284 0.0840662 -0.0131027 0.00450803
0.258688 0.0928101 -0.015684 0.00399749
0.285247 0.0891206 0.00368034 0.00353598
0.269167 0.0978062 0.000564559 0.0112587
-0.132378 -0.428389 0.246056 0.000642303
-0.143798 -0.412172 0.244752 0.0006621
-0.151675 -0.437822 0.246676 0.00126163
-0.163115 -0.422185 0.243754 0.00165951
0.596823 0.398833 0.154704 0.00619705
0.598162 0.421308 0.150434 0.00649617
0.603014 0.391518 0.168063 0.00255913
0.604406 0.413522 0.164264 0.00116712
0.0378878 0.0678579 -0.358822 0.000680215
0.027858 0.085349 -0.363664 0.0187365
0.038757 0.0684594 -0.34153 0.00123657
0.0309983 0.0850929 -0.346752 0.0159797
-0.427938 -0.148227 0.207747 0.000649964
-0.443282 -0.139345 0.207011 0.0013393
-0.436594 -0.146688 0.208639 0.00327394
-0.45413 -0.137294 0.20982 0.00586683
-0.478768 -0.0610553 0.245859 0.000444833
-0.494017 -0.0556063 0.244084 0.00132966
-0.487522 -0.0582447 0.248757 0.00334256
-0.502771 -0.0527957 0.246982 0.00156807
0.60326 -0.163769 0.0509451 0.00231316
0.610469 -0.152135 0.0488582 0.00489645
0.591159 -0.172699 0.0645033 0.00802702
0.600495 -0.159852 0.061544 0.00507724
-0.0303646 0.506198 0.11978 0.000480632
-0.014005 0.519519 0.12645 0.000729855
-0.0296095 0.508861 0.142603 0.00158116
-0.0131579 0.52319 0.147999 0.00113068
0.605303 -0.0391704 0.163624 0.000270428
0.603809 -0.0188653 0.15694 0.00176406
0.605126 -0.0405741 0.181578 0.000447156
0.604464 -0.0234688 0.17915 0.00110889
0.349706 -0.271835 0.246041 0.000627298
0.340496 -0.257254 0.245871 0.000457037
0.333105 -0.284251 0.243161 0.00225253
0.32598 -0.270657 0.243729 0.00168453
0.0145722 0.405327 0.245044 0.000369575
0.00413491 0.427532 0.246319 0.000904743
-0.00317826 0.386077 0.240743 0.00467084
-0.0131712 0.40928 0.243003 0.00241105
-0.322159 -0.557755 0.148634 0.00102056
-0.328833 -0.54449 0.146663 0.00273129
-0.318365 -0.555962 0.17105 0.00288319
-0.325926 -0.54262 0.170209 0.000371052
-0.269359 0.249368 0.050913 0.00209304
-0.261923 0.25731 0.0488688 0.000376761
-0.269419 0.252417 0.071626 0.000303157
-0.266421 0.25647 0.0655027 0.00125658
-0.202053 -0.64287 -0.350383 0.00157288
-0.217906 -0.635593 -0.355194 0.00504736
-0.209525 -0.651802 -0.337945 0.00909839
-0.225056 -0.645715 -0.343786 0.00210743
0.521527 0.45711 0.146562 0.000896053
0.509133 0.472497 0.142142 0.000918442
0.518549 0.432928 0.146514 0.00281858
0.504185 0.447491 0.140668 0.00404999
-0.536219 -0.13812 -0.333344 0.00130055
-0.556992 -0.138882 -0.334306 0.00358951
-0.542929 -0.133611 -0.307224 0.000288024
-0.561873 -0.131403 -0.308471 0.000312987
0.0690131 0.281883 0.033532 0.00034456
0.0617576 0.296091 0.037532 0.00112719
0.0487465 0.279019 0.0316015 0.00174835
0.0427246 0.292626 0.0361158 0.000334047
0.208481 -0.153975 -0.244869 0.000497694
0.209833 -0.131018 -0.250535 0.00139745
0.211462 -0.15422 -0.230257 0.00414812
0.212705 -0.136398 -0.234726 0.00243953
-0.387801 -0.205622 -0.104727 6.02612e-05
-0.396357 -0.19532 -0.114193 0.000809707
-0.384406 -0.209586 -0.087225 0.000221398
-0.392427 -0.199685 -0.0960432 0.000306644
0.607643 0.623731 0.176414 0.00206977
0.607355 0.642509 0.170187 0.0017823
0.60405 0.623987 0.193378 0.00152272
0.604624 0.642842 0.186868 0.000948848
0.588041 0.131081 0.0884866 0.00345295
0.571632 0.142444 0.0862677 0.00294342
0.592432 0.141389 0.101774 0.00845652
0.575992 0.152913 0.0997349 0.00323999
-0.497023 -0.110045 0.149674 0.000603086
-0.516226 -0.103578 0.152806 0.00108116
-0.494777 -0.108182 0.167006 0.00200133
-0.513072 -0.102638 0.172523 0.000643242
-0.154971 0.0519256 -0.460338 0.00108516
-0.172324 0.0536498 -0.458013 0.00238049
-0.171751 0.0538791 -0.453164 0.00179079
-0.188704 0.0560488 -0.450766 0.00351332
0.158385 -0.195976 -0.126585 0.00223741
0.146246 -0.203265 -0.137716 0.00300842
0.160911 -0.195505 -0.109146 0.000323382
0.150639 -0.200847 -0.120655 0.0035877
0.272214 0.124636 5.49252e-05 0.00729568
0.254521 0.131147 -0.00375044 0.000221571
0.279064 0.129271 0.0160171 0.00550249
0.260212 0.13555 0.0111795 0.00151718
-0.279747 -0.614202 -0.170728 0.000183503
-0.296157 -0.606198 -0.175049 0.00148158
-0.28423 -0.614244 -0.147011 0.00346036
-0.300182 -0.606356 -0.15272 0.00310321
-0.241635 0.219839 0.0140102 0.00444779
-0.256584 0.218675 0.0159492 0.00243285
-0.256149 0.225237 0.0219392 0.000944163
-0.268987 0.224507 0.0234586 0.00284298
0.462104 0.743465 0.230671 0.00211708
0.449029 0.746455 0.224086 0.00280378
0.453513 0.73762 0.242218 0.003196
0.441055 0.741872 0.235521 0.000228464
-0.32901 -0.403435 -0.229918 0.000500467
-0.330219 -0.386805 -0.239743 0.000627374
-0.327895 -0.406533 -0.211854 0.00161501
-0.329549 -0.390844 -0.222511 3.8806e-05
-0.075705 0.461667 0.149401 0.000231591
-0.0596032 0.477632 0.150849 0.000359322
-0.0792631 0.457167 0.170417 0.000534158
-0.0635998 0.473307 0.170876 0.000747185
-0.684128 -0.0712728 -0.0840802 0.000372775
-0.688926 -0.0526671 -0.0907221 0.00442486
-0.682421 -0.0752762 -0.0641971 0.00207955
-0.686896 -0.056839 -0.0699557 0.00239461
0.316184 0.216474 0.126885 0.000432103
0.300295 0.223606 0.11979 0.000861317
0.325547 0.202318 0.132471 0.00204595
0.310166 0.209194 0.12644 0.000706319
0.601163 -0.143161 0.0898734 0.00440961
0.610684 -0.129077 0.0848043 0.00511179
0.601905 -0.152079 0.105934 0.0036676
0.610477 -0.138258 0.100086 0.00490506
-0.333147 -0.344245 -0.211574 0.000294543
-0.337677 -0.325716 -0.22238 0.00113124
-0.330935 -0.350524 -0.188855 0.00058267
-0.335738 -0.331753 -0.201068 0.00039516
-0.0542284 0.311771 0.0387026 0.000443244
-0.0644576 0.33465 0.0448557 0.00164336
-0.0730828 0.308143 0.0375894 0.000909788
-0.0817499 0.330228 0.0429 0.000485284
0.584149 -0.275639 0.159305 0.00300168
0.582568 -0.254807 0.159169 0.000260189
0.584937 -0.289962 0.165993 0.000827103
0.583016 -0.270209 0.165356 0.00399377
0.522423 0.557511 0.245779 0.000364739
0.518729 0.582588 0.244936 0.000477757
0.506466 0.541489 0.245701 0.000286732
0.502512 0.567703 0.244581 0.000833239
0.0608968 0.0919784 -0.140313 0.00220037
0.0438649 0.0937697 -0.140409 0.000439718
0.0547259 0.0962212 -0.12364 0.000903939
0.038276 0.0982954 -0.124196 0.00114106
0.537076 0.49642 0.13497 0.00506993
0.533559 0.519894 0.135597 0.0001771
0.541826 0.479817 0.142964 0.000522778
0.535991 0.501465 0.142295 0.00300765
-0.0537499 -0.575259 0.0429319 0.000681114
-0.047112 -0.562895 0.0345338 0.00240833
-0.0543895 -0.580479 0.0592522 0.00258273
-0.0473696 -0.567216 0.0510546 0.000389088
-0.391142 -0.19973 -0.0739684 0.000563446
-0.398978 -0.189788 -0.0824036 0.000656337
-0.391085 -0.200304 -0.0597993 0.00173128
-0.398626 -0.190447 -0.0678934 0.000690251
0.326876 -0.233203 0.246113 0.00069933
0.31392 -0.214468 0.244649 0.000765499
0.310686 -0.243895 0.245788 0.000373591
0.299443 -0.226062 0.244563 0.000851359
-0.414929 -0.177063 -0.142572 0.00209403
-0.425176 -0.169133 -0.149885 0.00196908
-0.41704 -0.176286 -0.120381 0.000201832
-0.425593 -0.168829 -0.128912 0.000133557
0.364209 0.664884 0.246837 0.00142263
0.349218 0.678786 0.243294 0.00211928
0.346681 0.649237 0.246422 0.00100792
0.332651 0.663936 0.242755 0.00265915
0.055751 0.135605 -0.0438538 0.000353349
0.0393266 0.139766 -0.0401867 0.00116693
0.0561728 0.15093 -0.0226951 0.00278556
0.0391643 0.15442 -0.0193434 0.00268874
0.166411 0.0905385 -0.122205 0.00687287
0.150863 0.0988655 -0.121231 0.00115316
0.172261 0.0961314 -0.107568 0.00165258
0.156044 0.102841 -0.10583 0.000915365
-0.538249 -0.0755002 0.241987 0.00342689
-0.553575 -0.0689484 0.242706 0.00270806
-0.543422 -0.0653737 0.253973 0.00855868
-0.558674 -0.0594187 0.254702 0.00928788
0.0597483 -0.292902 -0.249113 0.00139782
0.0601314 -0.279149 -0.255018 0.000644107
0.0657372 -0.295114 -0.230161 0.000735548
0.066063 -0.281299 -0.235714 0.000669796
-0.391851 0.065316 -0.376134 0.000761462
-0.412095 0.0637151 -0.377825 0.000565216
-0.399253 0.0697861 -0.355036 0.00209304
-0.42056 0.0680441 -0.357535 0.000723017
-0.0735467 0.129396 -0.0509775 0.000561004
-0.0935145 0.127816 -0.0503214 0.00189027
-0.0739162 0.142191 -0.0379248 0.00137344
-0.0932163 0.1393 -0.0368347 0.00143036
-0.123863 0.170312 -0.0100702 0.000736068
-0.145122 0.169298 -0.00821626 0.00111978
-0.138001 0.182971 -0.00373516 0.00284829
-0.156949 0.183836 -0.000586482 0.00076188
0.0962418 0.523566 0.0776175 0.00110274
0.0994576 0.540075 0.0831561 0.00369038
0.0735037 0.521954 0.0739483 0.00223127
0.0783538 0.538407 0.080549 0.00141222
-0.168198 0.094005 0.247504 0.0020904
-0.184654 0.108673 0.246404 0.0009895
-0.185138 0.0823849 0.246062 0.000648115
-0.200993 0.0959329 0.245855 0.000441242
-0.685868 0.0183799 -0.302052 0.00136679
-0.682549 0.0326801 -0.307294 0.00195248
-0.686267 0.0141739 -0.282616 0.0017662
-0.683671 0.0289565 -0.286754 0.000830181
-0.682548 -0.125691 -0.368273 0.00195283
-0.693126 -0.115323 -0.37705 0.00862502
-0.68179 -0.121843 -0.347091 0.00271107
-0.695245 -0.112795 -0.354217 0.0107444
0.488128 0.72788 0.248095 0.0026809
0.476609 0.733721 0.242158 0.00325608
0.4779 0.7224 0.258457 0.0130432
0.465992 0.728147 0.252169 0.0067548
-0.3105 -0.584975 -0.0501624 0.000101285
-0.31963 -0.575539 -0.0557353 0.00119045
-0.307661 -0.5849 -0.031817 0.00054718
-0.315834 -0.575413 -0.0379702 0.00165934
-0.102109 -0.11037 -0.441551 0.00110982
-0.115662 -0.099303 -0.4457 0.0010542
-0.10994 -0.126614 -0.438133 0.0016552
-0.123753 -0.114437 -0.442223 0.000258666
0.279052 -0.248585 0.0512938 0.00129365
0.270972 -0.238659 0.0468157 0.00096109
0.290146 -0.262125 0.0622241 0.00101196
0.28149 -0.252012 0.0575823 0.00186019
0.605707 0.333693 0.171565 0.001115
0.603816 0.351954 0.166501 0.00288699
0.606055 0.324807 0.184248 0.00048226
0.604677 0.344521 0.179716 0.000895502
-0.261474 0.114107 -0.0745446 0.000632707
-0.282269 0.111267 -0.0782287 0.00180607
-0.262126 0.124435 -0.0602374 0.000258136
-0.283203 0.122778 -0.0619727 0.000228563
0.416689 -0.226106 0.247088 0.00167425
0.40585 -0.210291 0.246988 0.001574
0.395838 -0.237711 0.244803 0.000610571
0.385532 -0.221977 0.244247 0.00116661
-0.685533 -0.00814069 0.163273 0.00103205
-0.685114 0.00876209 0.152179 0.000612609
-0.683679 -0.0132233 0.18164 0.000822015
-0.684715 0.00283573 0.173177 0.000214092
-0.682258 -0.0741415 -0.134089 0.00224305
-0.684389 -0.0563683 -0.143716 0.000111766
-0.681368 -0.070621 -0.11642 0.00313325
-0.684882 -0.05252 -0.123319 0.000380806
0.244902 -0.327616 0.24583 0.000416297
0.237816 -0.314644 0.247004 0.00158984
0.230373 -0.338144 0.243577 0.0018367
0.222882 -0.325609 0.243975 0.00143893
-0.159192 0.359793 0.0785851 0.00208112
-0.146299 0.37658 0.0830009 0.00105702
-0.165015 0.359481 0.0992366 0.00168536
-0.152721 0.375204 0.103459 0.00245193
0.263172 -0.392523 0.204343 0.000570693
0.245605 -0.396008 0.201841 0.00232456
0.254176 -0.389195 0.219443 0.00344176
0.235269 -0.391325 0.219158 0.0031698
-0.00637164 0.250699 0.246237 0.000823472
-0.00671443 0.274157 0.245722 0.000308026
-0.0190419 0.234947 0.244551 0.000863146
-0.0188709 0.259512 0.244911 0.000503238
-0.685744 0.0951606 0.0229241 0.00124269
-0.68094 0.10831 0.0147382 0.00301519
-0.685568 0.0906318 0.0433465 0.00106668
-0.681324 0.103788 0.0349489 0.00254905
0.441692 0.300937 0.159658 0.0014597
0.42858 0.310625 0.153143 0.000351768
0.436465 0.280999 0.159232 0.000952033
0.422524 0.28978 0.153177 0.00151285
0.552706 0.218668 0.244551 0.000863206
0.542268 0.236654 0.244796 0.000618394
0.534744 0.211354 0.24508 0.000334423
0.523078 0.227046 0.245075 0.00033864
0.159336 -0.0441524 -0.45201 0.00210335
0.147936 -0.0382908 -0.451006 0.00250897
0.157973 -0.038069 -0.442232 0.00375169
0.146013 -0.0322985 -0.441168 0.00238693
-0.683316 -0.0549622 -0.199233 0.00118495
-0.683837 -0.0360139 -0.208148 0.000664003
-0.682213 -0.0620251 -0.179979 0.00228781
-0.683042 -0.0423065 -0.1906 0.00145931
0.0954547 -0.424701 -0.0859047 0.00206799
0.0809248 -0.429303 -0.10171 0.00101531
0.0883882 -0.42815 -0.0678767 0.00198575
0.0739242 -0.4329 -0.082497 0.00327272
-0.0459153 -0.560792 0.0451988 0.00220965
-0.0393111 -0.546764 0.0365635 0.000570898
-0.045109 -0.566104 0.0627507 0.0020897
-0.0393088 -0.55172 0.0545146 0.000642621
0.524336 -0.14552 0.246281 0.00086673
0.514894 -0.124452 0.245528 0.000114057
0.509102 -0.159012 0.245689 0.000275437
0.500263 -0.138252 0.245066 0.00034843
-0.683474 -0.0772407 -0.0119739 0.00102652
-0.688039 -0.0585618 -0.0195459 0.00353753
-0.681545 -0.0803975 0.0078179 0.00295586
-0.68513 -0.0615212 0.000629639 0.000628941
-0.131097 -0.0244153 -0.457539 0.000290852
-0.140258 -0.00497004 -0.462426 0.00114489
-0.141032 -0.0422077 -0.455575 0.000865053
-0.150691 -0.0227324 -0.461181 0.00300392
0.606614 0.686429 0.161317 0.00104111
0.60552 0.704822 0.156509 5.30496e-05
0.60585 0.687038 0.179152 0.000277041
0.606349 0.707021 0.17436 0.000775634
-0.465229 -0.129134 0.229981 0.00438171
-0.483067 -0.12423 0.230055 0.00920188
-0.471586 -0.116544 0.238388 0.00335085
-0.488646 -0.112189 0.238677 0.000887197
0.210169 -0.222251 -0.0134556 0.00293457
0.194722 -0.222474 -0.0267314 0.00119373
0.217014 -0.228193 0.00360453 0.00377051
0.203218 -0.224956 -0.0094845 0.00437574
0.0785432 0.421357 0.246017 0.000603262
0.0598473 0.437463 0.248071 0.00265694
0.0572396 0.404671 0.243105 0.0023093
0.0404117 0.422975 0.244965 0.000449251
0.420584 0.431159 0.243949 0.00146517
0.400613 0.440655 0.244513 0.00090095
0.407038 0.421069 0.245004 0.000409525
0.388624 0.430945 0.245017 0.00039671
0.341333 0.118279 0.0181893 0.00898818
0.322237 0.122906 0.0156445 0.00103705
0.348133 0.131181 0.0327559 0.00264851
0.326779 0.135951 0.0291212 0.00120485
0.271479 0.114517 0.245603 0.000189085
0.263885 0.131164 0.247416 0.00200242
0.258092 0.0978867 0.242212 0.00320209
0.248349 0.115737 0.244848 0.000565898
-0.349783 0.193097 0.00881173 0.00170334
-0.363824 0.185145 -0.00245424 0.00330507
-0.349139 0.196165 0.0308867 0.000469025
-0.362604 0.18753 0.0192377 0.000682259
0.0874633 -0.430989 -0.114456 0.000361516
0.0819971 -0.430965 -0.126691 0.00171556
0.0864243 -0.431651 -0.0925339 0.00290936
0.0737631 -0.435953 -0.107349 0.00395709
0.155102 0.325719 0.247039 0.00162536
0.139618 0.345216 0.245991 0.000577006
0.143719 0.309892 0.245188 0.000226375
0.128774 0.328658 0.244961 0.000452708
-0.667785 -0.0981509 0.147599 0.00817026
-0.675165 -0.0852013 0.143712 0.00488065
-0.665321 -0.0980021 0.161949 0.00836154
-0.674944 -0.08598 0.162815 0.00365731
0.603901 0.232107 0.241378 0.00167221
0.602694 0.253141 0.239443 0.00287914
0.596581 0.22301 0.248709 0.00329522
0.591947 0.245008 0.246976 0.00156241
0.00234228 0.531765 0.0960919 0.0015064
0.0185641 0.543476 0.107224 0.00328972
-0.000135512 0.536469 0.119559 0.00311268
0.0168373 0.549858 0.129288 0.00224644
-0.301132 -0.581321 0.146423 0.0011852
-0.310685 -0.572718 0.138705 0.000411331
-0.297617 -0.582272 0.164721 0.000410413
-0.307551 -0.573716 0.158005 0.00154584
0.481389 0.627283 0.244285 0.00112877
0.467234 0.646373 0.24423 0.00118374
0.46776 0.613622 0.24388 0.0015338
0.453701 0.633468 0.243599 0.00181479
0.0973882 -0.135763 -0.437848 0.000348618
0.0806279 -0.123487 -0.441545 0.00116113
0.0865006 -0.147472 -0.435708 0.000422758
0.0689455 -0.134778 -0.439188 0.000800551
0.269234 0.528387 0.0779413 0.000583452
0.261259 0.540787 0.0796357 9.97813e-05
0.256585 0.524185 0.0755964 0.000996238
0.248834 0.536737 0.0774969 0.00130312
-0.650087 -0.110525 -0.157094 0.00107835
-0.665201 -0.103679 -0.155188 0.0055489
-0.649141 -0.10963 -0.140116 0.00186759
-0.664795 -0.102782 -0.137803 0.00471113
-0.0948083 -0.34809 -0.39928 0.00145935
-0.10365 -0.326907 -0.402816 0.00165526
-0.105993 -0.362201 -0.400605 0.00229605
-0.113927 -0.341962 -0.403932 0.00205838
-0.329965 -0.468868 -0.0827455 0.000454757
-0.329867 -0.448798 -0.0891333 0.000357333
-0.329239 -0.471218 -0.0638421 0.00027084
-0.329272 -0.451204 -0.0683491 0.000238236
0.339812 0.438305 0.247274 0.00186029
0.334201 0.455863 0.245316 9.83588e-05
0.323706 0.423025 0.246429 0.00101523
0.318358 0.441371 0.245572 0.000158016
0.401412 -0.371643 0.135962 0.004985
0.380165 -0.372952 0.129131 0.00328145
0.396625 -0.383161 0.147449 0.000351571
0.37513 -0.38491 0.140453 0.000577917
-0.685734 0.0305514 -0.197912 0.00123274
-0.682479 0.0478647 -0.203029 0.00202156
-0.685161 0.0287044 -0.17777 0.000659935
-0.681774 0.0464959 -0.185015 0.0027271
-0.567711 0.0705185 -0.337054 0.000180692
-0.587132 0.0700912 -0.340922 0.000365826
-0.567582 0.074449 -0.31366 0.000854619
-0.588168 0.074808 -0.316495 0.00158878
0.161739 0.551106 0.0808315 0.000515022
0.160927 0.564143 0.0856781 0.001994
0.142379 0.547922 0.0785876 0.00217192
0.142704 0.562226 0.0837624 0.000440003
-0.22039 0.136527 0.245201 0.000212755
-0.235425 0.149675 0.243592 0.00182208
-0.233187 0.128835 0.24574 0.00032619
-0.250807 0.140788 0.244835 0.000578757
-0.018865 0.269582 0.0296044 0.00219012
-0.0156682 0.290768 0.0381237 0.002632
-0.0378508 0.271361 0.0283201 0.00335593
-0.035505 0.292971 0.0372617 0.00140088
0.120282 0.0495596 0.24644 0.00102599
0.115123 0.0702792 0.245116 0.000297781
0.108006 0.0362161 0.245129 0.000285279
0.101419 0.0564519 0.243679 0.00173513
-0.438491 -0.188909 -0.355097 0.000796473
-0.451574 -0.180148 -0.35902 0.000792762
-0.435725 -0.1861 -0.332787 0.00036039
-0.449317 -0.177455 -0.336877 0.00033727
0.174054 -0.214815 -0.356058 0.00181297
0.17241 -0.210907 -0.364788 0.00154117
0.174245 -0.216918 -0.338846 0.00076628
0.176237 -0.208541 -0.346204 0.00219881
0.18757 -0.353882 -0.0103501 0.000343696
0.185737 -0.334554 -0.0144709 0.000311421
0.199731 -0.360427 0.00394978 0.000377198
0.198025 -0.34197 -0.000127204 0.000311462
-0.330086 -0.442157 -0.182217 0.00057641
-0.330467 -0.423953 -0.191641 0.000956568
-0.328882 -0.450373 -0.164889 0.000628468
-0.329108 -0.431616 -0.171922 0.000401613
0.567176 0.55979 0.24513 0.000284266
0.559812 0.580415 0.245782 0.000367973
0.556785 0.552856 0.246914 0.00149955
0.54914 0.574454 0.247964 0.00254962
-0.212944 -0.037614 -0.455258 0.000245541
-0.22508 -0.0286226 -0.458408 0.00129511
-0.225819 -0.0525388 -0.454463 0.00156321
-0.236632 -0.0426703 -0.458227 0.00355625
-0.279834 0.0892899 -0.177554 0.000598897
-0.300048 0.0900274 -0.178838 0.000297904
-0.292103 0.0954546 -0.157172 0.00340481
-0.312734 0.0962702 -0.158227 0.00438574
-0.394498 -0.0485138 -0.453607 2.00893e-05
-0.404994 -0.0281087 -0.459146 0.00193154
-0.407661 -0.0712656 -0.450418 0.000830749
-0.417758 -0.0500371 -0.455779 0.00242296
0.171722 0.405306 0.246034 0.000619922
0.164805 0.429055 0.244305 0.00110896
0.160905 0.39246 0.245873 0.000459138
0.147904 0.412674 0.242794 0.00262023
0.00837503 -0.365398 -0.406154 0.00831615
0.010496 -0.348738 -0.406648 0.00590901
0.014862 -0.375966 -0.395849 1.5264e-06
0.018549 -0.35812 -0.396496 0.00245929
0.350047 -0.202805 0.0868553 0.00139939
0.33071 -0.197309 0.0741426 0.00240836
0.35552 -0.223281 0.0958192 0.000888971
0.335832 -0.217697 0.0824149 0.000719773
0.292161 0.0466655 0.00107162 0.00142115
0.275949 0.053885 9.51996e-05 0.000758314
0.297406 0.0519983 0.0155238 0.00104126
0.281944 0.0592705 0.0148463 0.0102038
0.269057 -0.177945 -0.150209 0.00289032
0.260871 -0.172548 -0.159564 0.00188371
0.272361 -0.183137 -0.132346 0.00505931
0.268412 -0.172384 -0.138993 0.00515858
-0.120283 0.0792405 -0.280522 0.001259
-0.142207 0.0788749 -0.287957 0.00182376
-0.126205 0.0802901 -0.259922 0.000245633
-0.148663 0.0800869 -0.269553 0.000736858
-0.471944 0.052716 -0.470329 0.00355714
-0.48758 0.0567395 -0.469122 0.00731484
-0.489931 0.0501524 -0.464228 8.89942e-06
-0.505098 0.0540614 -0.464618 0.00390961
0.355757 0.0499671 0.0310846 0.00339013
0.339751 0.0546243 0.0320351 0.0010353
0.355381 0.0633988 0.0461293 0.000741928
0.33914 0.0692297 0.0478118 0.0102742
-0.179925 -0.36403 0.246509 0.00109461
-0.19729 -0.347875 0.246468 0.00105419
-0.197727 -0.37535 0.245602 0.000187818
-0.211441 -0.358486 0.243783 0.00163053
0.468912 0.0575665 0.0707393 0.00279086
0.45252 0.0630877 0.0767223 0.00161153
0.46469 0.0700735 0.0864525 0.00133282
0.447423 0.0753917 0.0918354 0.0118638
-0.331548 -0.438334 -0.0410036 0.00203762
-0.332049 -0.419737 -0.044315 0.00253913
-0.330824 -0.437182 -0.0187662 0.00131393
-0.331277 -0.417978 -0.0209661 0.00176695
0.322863 -0.168776 0.0217636 0.00325834
0.303333 -0.172364 0.0146198 0.00096512
0.321645 -0.171504 0.0418762 0.00291628
0.302518 -0.17466 0.031726 0.00426594
0.375683 0.614832 0.246013 0.000599135
0.363205 0.632882 0.245976 0.000562359
0.358078 0.598768 0.243867 0.00154721
0.346595 0.617729 0.244715 0.000699338
-0.590086 0.0890067 -0.183849 0.000245524
-0.604663 0.0904327 -0.191721 0.00201184
-0.5976 0.0922513 -0.159046 0.000466721
-0.611798 0.0938712 -0.167422 0.00291673
0.184029 0.509934 0.0744529 0.000353425
0.173542 0.51941 0.0766399 0.000861733
0.167709 0.504766 0.0723185 0.000850972
0.159099 0.514842 0.0750053 4.50717e-05
-0.68488 0.0777111 0.100967 0.000379257
-0.692403 0.0779934 0.0837585 0.00790196
-0.687904 0.0754837 0.120862 0.00340258
-0.69326 0.0790448 0.104504 0.00875884
0.350447 -0.200051 0.246362 0.000947822
0.335914 -0.181166 0.24538 3.4418e-05
0.336831 -0.208528 0.246059 0.000645194
0.323979 -0.18893 0.244406 0.00100763
-0.276809 0.063286 -0.386874 0.000381584
-0.295781 0.0609593 -0.389041 0.00156516
-0.278557 0.06908 -0.366901 0.00307819
-0.298029 0.0665608 -0.370505 0.00112071
-0.536925 -0.112884 -0.120733 9.60848e-05
-0.553921 -0.109485 -0.12365 0.000436632
-0.537397 -0.109618 -0.0986568 0.00117201
-0.555128 -0.106055 -0.101347 0.00160678
-0.0223512 0.275976 0.24588 0.000466038
-0.0207035 0.300661 0.245304 0.000109684
-0.0375502 0.262157 0.245124 0.000289883
-0.0359265 0.28814 0.245302 0.000111755
-0.327644 -0.517661 0.160263 0.00186592
-0.330802 -0.501198 0.160791 0.00129235
-0.328087 -0.515535 0.178277 0.00142264
-0.330566 -0.498646 0.179965 0.00105599
0.0380442 -0.430039 -0.072803 0.00410297
0.0201845 -0.441312 -0.0845145 0.00310684
0.0314195 -0.430101 -0.0503185 0.00319549
0.0147094 -0.440057 -0.0612406 0.00306307
0.451735 -0.0471914 0.245002 0.000412416
0.44 -0.0344993 0.246702 0.00128787
0.437929 -0.0618343 0.244784 0.00062963
0.425215 -0.0479755 0.246411 0.000996623
0.392355 0.206272 0.159091 0.00118284
0.37291 0.211323 0.153195 0.000474537
0.38977 0.192556 0.161824 0.000134322
0.370113 0.196964 0.15605 0.00170379
0.607935 0.700341 0.240479 0.00236171
0.606074 0.72039 0.237438 0.000500737
0.596883 0.689406 0.257025 0.0116106
0.595293 0.70889 0.253905 0.00849061
-0.329465 -0.512896 0.0469474 4.5028e-05
-0.332868 -0.495634 0.037569 0.0033578
-0.326436 -0.51923 0.0667366 0.00307417
-0.330556 -0.501552 0.0567066 0.00104589
-0.130829 -0.561456 -0.361327 0.00178628
-0.149555 -0.545899 -0.36752 0.00161106
-0.145065 -0.575463 -0.360086 0.000576171
-0.163176 -0.561362 -0.366268 0.00306322
0.0894545 0.0739228 0.247744 0.00233037
0.0848338 0.09816 0.246828 0.00141408
0.0744921 0.0614624 0.245729 0.000315074
0.0697819 0.0842001 0.245197 0.000217211
-0.47778 0.144762 0.159931 0.000939503
-0.494029 0.138255 0.142354 5.74952e-05
-0.479623 0.144404 0.185427 0.000517916
-0.496146 0.137979 0.168833 0.000155162
0.293149 0.127104 0.246214 0.000800136
0.288154 0.143316 0.24768 0.00226596
0.278577 0.112831 0.243507 0.00190702
0.272326 0.129571 0.245348 6.62021e-05
-0.0398004 -0.0218741 -0.458368 8.43795e-05
-0.0485521 -0.00951191 -0.459242 0.0012017
-0.0516515 -0.0387119 -0.456776 0.0014407
-0.0618274 -0.0240627 -0.458544 0.000638147
0.25549 0.524232 0.0762869 0.00032431
0.247739 0.536784 0.0781874 0.000631196
0.245606 0.516573 0.0745925 0.000663163
0.238125 0.530495 0.0766449 0.00105853
-0.686038 -0.0671436 -0.356279 0.00153743
-0.685638 -0.0447044 -0.352201 0.00113743
-0.684645 -0.0709556 -0.340157 0.000143759
-0.684278 -0.0493994 -0.335905 0.000222869
0.521332 0.675977 0.245051 0.00036272
0.510323 0.694332 0.244376 0.00103816
0.505864 0.66477 0.242653 0.00276135
0.494492 0.682122 0.242428 0.00298607
0.565434 -0.0638167 0.246022 0.000608105
0.555068 -0.044657 0.244633 0.000781011
0.546093 -0.0728828 0.246229 0.00081471
0.534344 -0.0546937 0.244424 0.000990149
-0.432632 -0.0668593 0.245251 0.000163149
-0.444531 -0.0562061 0.246226 0.000812192
-0.44693 -0.074797 0.244141 0.00127327
-0.458831 -0.063658 0.244956 0.000457909
0.602287 0.669544 0.11616 0.0027207
0.590188 0.680548 0.110077 0.0011258
0.599563 0.658997 0.119367 0.00409384
0.58857 0.670721 0.113842 0.000896504
-0.101265 0.0454945 -0.464774 0.00449718
-0.120568 0.0466317 -0.467088 0.00298178
-0.110053 0.0493824 -0.454707 0.00235625
-0.12946 0.0497448 -0.457203 0.00157764
0.557868 0.0482495 0.0234408 0.00374455
0.537929 0.052929 0.0203336 0.00139691
0.555023 0.0494359 0.0371495 0.00495935
0.536009 0.0538333 0.0336204 1.74888e-05
-0.439322 0.0646175 -0.372626 0.000441792
-0.460338 0.0632441 -0.374942 0.0014442
-0.438819 0.070701 -0.348968 0.00208665
-0.459605 0.0688569 -0.352271 0.000729504
0.622353 0.0480785 0.106751 0.0167797
0.607889 0.0615698 0.102925 0.00231636
0.620456 0.0500024 0.124296 0.0148827
0.606928 0.0649139 0.120289 0.00135451
-0.199207 0.0701232 -0.347799 0.00136057
-0.223547 0.0681866 -0.354312 0.000452285
-0.203847 0.0728381 -0.327676 0.00122915
-0.22687 0.0712237 -0.33514 0.00065294
-0.071936 -0.245995 -0.417861 0.000888058
-0.0854912 -0.234068 -0.420937 6.91723e-05
-0.0844198 -0.264289 -0.415288 0.000245371
-0.097926 -0.252206 -0.418753 0.00106889
0.203922 0.327621 0.246434 0.00101951
0.192465 0.347161 0.244226 0.00118762
0.185286 0.311947 0.245492 7.80411e-05
0.173569 0.33084 0.243248 0.00216588
0.574306 -0.0950631 0.246301 0.000887338
0.565818 -0.0785958 0.245174 0.000239696
0.558193 -0.104863 0.245831 0.000416923
0.549079 -0.0883229 0.244739 0.000674795
0.197134 0.119542 -0.0603102 0.00184313
0.17713 0.120989 -0.0605536 0.00037169
0.191631 0.125992 -0.0403365 0.00104745
0.171061 0.126778 -0.0411314 0.00196472
0.136248 -0.399723 -0.065509 0.000973627
0.141751 -0.386537 -0.0690704 0.00429905
0.141893 -0.401346 -0.0507675 0.00457607
0.147156 -0.390036 -0.0550018 0.000946913
-0.291573 0.0957704 -0.130306 9.80756e-06
-0.311706 0.0945621 -0.133485 0.00083808
-0.29042 0.104068 -0.107638 0.00217203
-0.309421 0.101738 -0.112867 0.00176074
0.608595 -0.261173 0.174476 0.00302154
0.604535 -0.242558 0.172773 0.00103825
0.611056 -0.26885 0.184244 0.00548291
0.6071 -0.25006 0.182398 0.00152671
-0.0683465 -0.60162 -0.107223 0.00152134
-0.0814356 -0.606785 -0.117739 0.000828273
-0.0673397 -0.599451 -0.0893548 0.0017621
-0.0826485 -0.606503 -0.0983087 0.000650623
0.398449 0.676831 0.246684 0.00126996
0.383171 0.68676 0.242386 0.00302824
0.386635 0.660344 0.248067 0.00265274
0.371136 0.673919 0.245532 0.000117723
0.13476 -0.407791 0.11219 0.000858689
0.11577 -0.410255 0.10071 0.00138649
0.135129 -0.408992 0.1314 0.00108651
0.11492 -0.412686 0.122235 0.00179984
0.464926 0.148962 0.110924 0.00259411
0.446142 0.147849 0.1074 0.0030784
0.458775 0.159043 0.125275 0.00483984
0.43947 0.156278 0.11998 0.00303547
0.469464 0.74581 0.218352 0.00113098
0.455701 0.746566 0.212977 0.00175784
0.463419 0.740502 0.230233 0.00522998
0.450344 0.743492 0.223649 0.000344639
-0.21192 -0.633691 -0.287065 0.000525054
-0.228454 -0.62642 -0.293218 0.00868624
-0.214643 -0.634824 -0.269297 0.00333918
-0.23225 -0.628737 -0.275064 0.0035572
0.446329 -0.257286 0.137692 0.0010322
0.422722 -0.250374 0.126274 0.00119193
0.43785 -0.279812 0.13805 5.77261e-05
0.413885 -0.276776 0.128043 0.00108004
0.361976 0.635337 0.0958457 0.000356258
0.353587 0.650354 0.0987823 7.17074e-05
0.337674 0.627626 0.093797 0.00103255
0.330074 0.642417 0.0966436 0.000797889
0.200019 -0.147467 -0.261889 0.00182169
0.200978 -0.122513 -0.269025 8.61605e-05
0.206252 -0.15236 -0.243064 0.00338675
0.207604 -0.129403 -0.248731 0.00149162
0.317639 -0.186897 -0.0807511 0.00321658
0.298863 -0.190781 -0.0897707 0.000961359
0.316186 -0.186477 -0.0617134 0.000323722
0.294989 -0.190616 -0.0684748 0.00257543
0.0530522 -0.334737 0.245152 0.00026175
0.0444265 -0.321612 0.24637 0.000956047
0.0332984 -0.34427 0.243597 0.00181716
0.0278682 -0.32875 0.244804 0.000609647
-0.260095 0.111254 -0.0849995 0.000985882
-0.281362 0.10877 -0.0888165 0.000183961
-0.259463 0.116873 -0.0692551 0.00108341
-0.28045 0.114476 -0.0715513 0.00177926
0.15909 0.386633 0.0542207 0.00183722
0.149868 0.397924 0.0562562 0.00188307
0.137748 0.380492 0.0509954 0.000270912
0.129999 0.393653 0.0528466 0.000733101
-0.0603995 -0.441614 -0.384341 6.73564e-05
-0.0688222 -0.422342 -0.388171 0.000493401
-0.0690525 -0.459091 -0.381777 0.000577234
-0.0809695 -0.4394 -0.385598 0.000921244
-0.47925 -0.0789042 0.243134 0.00227975
-0.495114 -0.0736385 0.241222 0.00419204
-0.483226 -0.0698621 0.250415 0.00500109
-0.498905 -0.0648768 0.24875 0.00333588
0.439078 0.503234 0.121091 0.000663787
0.421349 0.511182 0.115817 0.000220956
0.432304 0.484118 0.123106 0.000127169
0.41514 0.492449 0.116731 0.000408022
-0.312208 0.12137 -0.0605456 0.0014556
-0.330068 0.123249 -0.0586802 0.000489017
-0.314429 0.135441 -0.0460116 0.00134232
-0.333741 0.137635 -0.0436478 0.00188618
-0.43253 0.161713 0.213359 0.000677389
-0.443828 0.159896 0.202096 0.00338261
-0.436851 0.151551 0.222163 0.00709117
-0.449247 0.150817 0.211792 0.00309221
0.557038 0.352217 0.169081 0.00147487
0.547438 0.364454 0.163865 0.000798406
0.549695 0.333141 0.170452 0.00022418
0.541336 0.34563 0.165068 0.00218143
0.212483 0.0970942 0.241974 0.00344021
0.200595 0.1172 0.245142 0.00027154
0.197539 0.0868794 0.244367 0.00104732
0.186804 0.105819 0.247036 0.00162247
-0.608556 0.10013 -0.101756 0.00114937
-0.627922 0.0993889 -0.118319 0.00127853
-0.613075 0.100274 -0.0795562 0.00287003
-0.633361 0.0993217 -0.0975162 0.000130346
-0.336284 -0.304649 0.0117985 2.30825e-05
-0.34124 -0.287336 0.00940375 0.000241188
-0.336829 -0.301775 0.0323417 0.000101953
-0.341039 -0.2837 0.0329773 0.000304942
0.0776325 0.00707568 -0.247989 8.33613e-05
0.063117 0.0107639 -0.25678 0.0108423
0.0814263 0.00751861 -0.231476 0.00310709
0.0675838 0.0124239 -0.238665 0.0133067
-0.181998 0.175741 0.245046 0.000367846
-0.191604 0.196965 0.243793 0.00162117
-0.194742 0.16223 0.247571 0.00215736
-0.205101 0.182089 0.245886 0.000471849
0.0130208 -0.0649819 0.245469 5.49145e-05
0.000447439 -0.0433851 0.244664 0.000749838
0.00100555 -0.0776583 0.246262 0.000848491
-0.0106071 -0.0548553 0.245443 2.93888e-05
0.566137 0.568762 0.243825 0.00158895
0.559202 0.589553 0.244434 0.000979628
0.550128 0.56378 0.245947 0.000533123
0.542519 0.585415 0.246773 0.00135906
0.492264 -0.146411 0.247019 0.00160517
0.483483 -0.126568 0.246098 0.000684146
0.478271 -0.159607 0.244583 0.000831079
0.468445 -0.140411 0.242989 0.00242501
-0.0832037 0.0964542 -0.123612 0.000402074
-0.104081 0.0956939 -0.130861 7.5415e-06
-0.0838522 0.100772 -0.101549 0.00239024
-0.104987 0.100151 -0.107748 0.00133367
0.356808 0.444237 0.106109 0.000623893
0.339027 0.449819 0.0946957 0.00225045
0.356156 0.422173 0.110979 0.0016705
0.337164 0.426033 0.100027 0.000490627
0.358778 0.396468 0.247235 0.00182137
0.35109 0.409856 0.244067 0.00134734
0.342996 0.387724 0.247899 0.002485
0.335167 0.401119 0.244927 0.000487071
0.44592 0.422148 0.243439 0.001975
0.425509 0.432611 0.243643 0.00177089
0.432729 0.411855 0.244896 0.000518288
0.412704 0.421529 0.245416 2.35811e-06
-0.0639362 0.0563287 -0.418986 0.00146232
-0.0853978 0.0563414 -0.4179 0.00158555
-0.0725287 0.0627717 -0.400757 0.00201249
-0.0943263 0.0620802 -0.400197 0.00125215
-0.550931 0.0714388 -0.327327 0.000263775
-0.572727 0.0720458 -0.329995 0.000701385
-0.556675 0.075046 -0.306137 0.000454038
-0.578129 0.0756295 -0.308562 0.00135742
-0.453315 -0.15824 -0.213047 0.000108704
-0.469685 -0.149772 -0.215111 0.00118756
-0.451837 -0.156493 -0.194001 0.000577224
-0.468778 -0.148333 -0.197147 0.000840528
-0.0623337 -0.581921 0.206982 0.00340186
-0.0718558 -0.580541 0.207883 0.00301095
-0.0733693 -0.58269 0.221264 0.00153298
-0.0874054 -0.581589 0.224671 0.00778017
-0.497981 -0.122255 -0.101175 0.00105116
-0.5198 -0.116247 -0.104621 0.000395415
-0.492666 -0.123822 -0.0814345 0.00010483
-0.516855 -0.116722 -0.0824029 0.00176195
0.282067 -0.128653 -0.137781 0.000647226
0.28256 -0.111808 -0.14061 0.000384685
0.296041 -0.132877 -0.121472 0.00140243
0.295001 -0.117865 -0.124857 0.00143349
-0.0180494 0.0480958 -0.468835 0.00124886
-0.030728 0.0588754 -0.470679 0.00968342
-0.0355785 0.0388881 -0.46592 0.00303038
-0.0470057 0.0495986 -0.46729 4.02859e-05
0.29533 0.528161 0.0781818 0.000858607
0.288122 0.538401 0.0790239 8.93634e-05
0.280611 0.523747 0.076961 0.000423014
0.272673 0.534682 0.078251 0.000204579
0.541547 -0.116851 -0.00132689 0.000189707
0.531663 -0.108398 -0.00625782 0.00209703
0.534631 -0.131137 0.00101936 0.000605124
0.52297 -0.124233 -0.00325628 0.000316689
-0.0366271 -0.506473 0.17388 0.000875753
-0.0345311 -0.492742 0.16511 0.00120513
-0.0375457 -0.50765 0.192561 0.00178589
-0.0353064 -0.493043 0.185861 0.000451192
0.119643 0.373292 0.0505903 0.000580369
0.112155 0.386165 0.0523361 6.44256e-05
0.0969109 0.368598 0.0488179 0.000349946
0.0898791 0.381648 0.0506163 0.00084489
-0.0602424 -0.584247 0.0207039 0.000521615
-0.0723724 -0.590199 0.0124778 0.00164617
-0.0706649 -0.58757 0.0394755 0.00150679
-0.0826284 -0.593144 0.0311703 0.00206931
-0.152415 -0.638925 -0.322651 0.00101376
-0.170963 -0.636438 -0.328135 0.00437691
-0.158027 -0.64468 -0.310032 0.00673335
-0.177722 -0.644635 -0.313919 0.00605672
-0.570908 -0.0948811 0.203463 0.00450218
-0.590391 -0.0914226 0.206601 0.00230012
-0.574322 -0.0874912 0.216543 0.00243008
-0.593674 -0.0835141 0.219992 0.00543877
-0.202873 0.315028 0.226986 0.00114416
-0.201387 0.328065 0.218271 0.00670297
-0.207394 0.300227 0.237396 0.00801751
-0.208462 0.310977 0.226934 0.000104271
0.318851 0.0714122 0.245829 0.000415165
0.314634 0.0928293 0.24411 0.00130425
0.303575 0.0585951 0.246416 0.00100182
0.298159 0.0784519 0.244169 0.00124484
-0.0658465 -0.579648 0.13742 0.00166478
-0.0739622 -0.582556 0.130724 0.00371009
-0.0605731 -0.578783 0.156091 0.000975756
-0.0761005 -0.586735 0.14931 0.00113654
-0.682573 -0.0741318 -0.15805 0.00192786
-0.683579 -0.0548069 -0.168358 0.00092233
-0.682368 -0.0759618 -0.141502 0.00213302
-0.684195 -0.0576445 -0.151687 0.000306256
0.429301 0.422576 0.245129 0.000285145
0.409414 0.432002 0.245778 0.000363622
0.416312 0.412143 0.245179 0.000235405
0.397173 0.421807 0.245738 0.000324089
-0.2289 -0.00688066 0.244648 0.000766229
-0.245541 0.00758335 0.246032 0.000618432
-0.243631 -0.0217003 0.243857 0.00155703
-0.26179 -0.00664502 0.245334 7.98367e-05
-0.497612 -0.118735 -0.0340144 0.000680677
-0.520932 -0.11121 -0.0353721 0.000955288
-0.500081 -0.115105 -0.0132493 0.000524676
-0.520371 -0.108819 -0.017133 0.000705776
-0.325255 -0.59274 -0.328272 0.000418973
-0.332039 -0.57914 -0.332634 0.00349313
-0.326208 -0.595252 -0.311147 0.00232805
-0.333754 -0.581149 -0.315819 0.00631462
-0.291644 0.168352 0.248273 0.00285912
-0.304717 0.173149 0.241248 0.0041656
-0.300009 0.156861 0.249123 0.00370916
-0.314797 0.163298 0.243793 0.00162139
0.283157 -0.289132 0.0603089 0.00213197
0.260046 -0.2902 0.0492873 0.00217217
0.297674 -0.295668 0.0727552 0.00135191
0.271091 -0.299536 0.0601492 0.00307318
0.0941745 -0.35515 -0.14668 0.00122779
0.0914551 -0.33705 -0.157267 0.000166314
0.104601 -0.359217 -0.128019 0.000131395
0.101945 -0.341331 -0.137754 0.000676152
-0.346779 -0.272754 -0.0224501 0.00022384
-0.354118 -0.255898 -0.0343449 0.000342553
-0.345574 -0.272907 -0.00323794 0.000343307
-0.352616 -0.255593 -0.013367 0.000507739
0.0390813 -0.469695 -0.294969 0.00877114
0.0481565 -0.450837 -0.29852 0.00418932
0.0401812 -0.474113 -0.274064 0.0163941
0.0478153 -0.454677 -0.278561 0.000856352
-0.148358 -0.538709 0.244712 0.000701647
-0.16489 -0.52866 0.243828 0.00158625
-0.167252 -0.54391 0.246665 0.00125084
-0.183024 -0.533414 0.245285 0.000128563
0.59038 0.153286 0.147546 0.00469253
0.574296 0.159708 0.146423 0.00182469
0.586275 0.159158 0.164729 0.00189585
0.569051 0.161854 0.163693 0.000936831
-0.684071 -0.0246728 -0.425333 0.000430353
-0.682846 -0.00744977 -0.432987 0.00165499
-0.685871 -0.0336142 -0.409133 0.00137001
-0.685161 -0.0159529 -0.416357 0.000659756
-0.231283 0.138623 -0.0406779 9.98656e-05
-0.249377 0.136544 -0.0402905 0.00113391
-0.233368 0.153072 -0.0279166 0.00209085
-0.25023 0.15032 -0.0282451 0.000510744
-0.482942 -0.141608 -0.223639 0.00111508
-0.501836 -0.134018 -0.222794 0.00113856
-0.488101 -0.138014 -0.202769 4.31491e-05
-0.50813 -0.130347 -0.202181 0.000253296
-0.246486 -0.610721 -0.0984979 0.000938433
-0.260869 -0.606143 -0.104467 0.00423581
-0.249012 -0.608754 -0.0771037 0.00107354
-0.263369 -0.606202 -0.0834395 0.00147125
0.559945 0.376339 0.165757 0.00221833
0.549525 0.389635 0.159825 0.000511769
