0.461545 0.147546 -0.392987 0.000795209
0.472138 0.116536 -0.393627 0.000381088
0.44388 0.138562 -0.394218 0.000396679
0.744981 -0.0145043 -0.305839 0.0016581
0.724117 0.00394544 -0.317304 0.00207358
0.755874 -0.00360591 -0.286215 0.00242162
0.738824 0.0133427 -0.294743 0.000711623
-0.521265 -0.180719 0.307895 0.00306776
-0.536684 -0.157177 0.296847 0.000562348
-0.502439 -0.178109 0.325947 0.00395873
-0.518132 -0.154024 0.315277 0.00166648
0.625748 0.132644 -0.0851678 4.42956e-05
0.615219 0.154643 -0.0898281 8.66717e-05
0.610458 0.118946 -0.0716643 0.00148815
0.596331 0.139982 -0.0750195 0.00181095
0.542718 0.141409 -0.376909 0.000222485
0.514887 0.158819 -0.380632 0.000799764
0.540497 0.146046 -0.3746 0.00166909
0.512845 0.163151 -0.378055 0.00307638
-0.489095 -0.189389 0.126753 0.00174834
-0.500276 -0.178106 0.119122 0.000577763
-0.483228 -0.186704 0.147201 0.002556
-0.494044 -0.175721 0.139672 0.00164077
-0.281125 -0.439221 -0.0577254 0.000986101
-0.286607 -0.421509 -0.061772 0.00145651
-0.302712 -0.447711 -0.041205 0.00323204
-0.30853 -0.429897 -0.0435675 0.00138285
0.710997 -0.506037 -0.310268 0.000359947
0.701189 -0.498632 -0.326889 0.00379167
0.697999 -0.524344 -0.29188 0.000323744
0.687663 -0.517703 -0.309334 0.00178443
0.200638 -0.418034 -0.394211 0.00114284
0.189771 -0.401196 -0.394651 0.000345718
0.189177 -0.436738 -0.391976 0.00139943
0.175711 -0.419254 -0.395291 0.00231821
-0.33955 -0.0298382 0.461976 0.0081719
-0.352193 -0.00655715 0.461614 0.00205361
-0.320598 -0.027928 0.473424 0.0103651
-0.334739 -0.00487089 0.473079 0.000325957
-0.766207 -0.164963 -0.329457 0.000462522
-0.753834 -0.142849 -0.327699 0.00118589
-0.784656 -0.171718 -0.314861 0.000181232
-0.772129 -0.148289 -0.311898 0.00196069
0.045564 -0.402775 -0.151587 0.000518365
0.0120941 -0.395421 -0.161631 0.000585942
0.0395479 -0.42206 -0.137039 0.00267983
0.00406918 -0.413967 -0.147766 0.00322016
-0.167525 0.254599 -0.33835 0.000744506
-0.188535 0.24405 -0.36128 0.00374736
-0.168487 0.249888 -0.315734 0.0046347
-0.188201 0.239067 -0.339235 0.000914554
-0.32806 0.112924 -0.227802 0.00101289
-0.315913 0.135341 -0.22792 0.00209407
-0.349245 0.107389 -0.211168 0.00193724
-0.337699 0.129769 -0.210568 0.000136918
0.327594 -0.155684 0.451281 0.00094452
0.330459 -0.137459 0.460894 0.00324738
0.301789 -0.160812 0.461924 0.00344333
0.302791 -0.142625 0.474446 0.00112274
0.484984 -0.328921 0.242352 0.00167844
0.498939 -0.304983 0.254912 0.00207742
0.456808 -0.331144 0.258765 0.00158315
0.471657 -0.307213 0.271916 0.00196858
-0.412276 0.102317 -0.15332 0.000727964
-0.405826 0.123402 -0.149914 0.00049756
-0.431473 0.0926045 -0.139447 0.000883119
-0.424849 0.11402 -0.137575 0.000397704
-0.706689 0.0356549 -0.195725 0.000510915
-0.696147 0.0561003 -0.197958 0.00324666
-0.713714 0.0283639 -0.173242 0.00201206
-0.702815 0.0497969 -0.17501 0.00493173
0.415483 -0.174609 -0.137834 0.000390521
0.428096 -0.150288 -0.139402 0.000412219
0.424441 -0.184953 -0.113715 0.000657458
0.438213 -0.159542 -0.115335 0.000110794
0.183786 0.456783 0.264673 0.00686085
0.176835 0.473688 0.254365 0.00288284
0.175282 0.443365 0.282571 0.000948436
0.168722 0.458214 0.275832 2.25056e-05
-0.395748 -0.360766 0.0653307 0.00093849
-0.405052 -0.343174 0.0552203 0.000532737
-0.39525 -0.358342 0.0860056 0.000650373
-0.405024 -0.342045 0.0763858 0.00129258
-0.426303 0.409194 -0.270718 0.00089935
-0.4163 0.426385 -0.26785 0.000980141
-0.439099 0.405751 -0.249319 0.000186538
-0.428501 0.423068 -0.247336 0.000390035
0.793683 -0.0488161 -0.222772 0.000853124
0.783908 -0.0347428 -0.230944 0.0022156
0.797679 -0.046447 -0.198644 0.00405257
0.788011 -0.0326649 -0.206815 0.00190987
0.156456 -0.00541505 0.441478 0.000264973
0.160116 0.0173875 0.445149 0.00292151
0.136965 -0.014746 0.444865 0.00147515
0.140475 0.00896591 0.448378 0.00138922
0.353768 -0.297063 0.346152 0.00164973
0.362915 -0.280362 0.358051 0.000930013
0.330538 -0.298062 0.359808 0.00011745
0.338579 -0.282209 0.370859 0.0014813
-0.330185 -0.0444686 0.387661 0.001835
-0.346436 -0.0288315 0.386585 0.00247509
-0.311258 -0.0241749 0.40265 3.67419e-05
-0.328836 -0.00941926 0.400489 0.000444068
-0.369236 -0.598818 -0.156199 0.00151
-0.39265 -0.598043 -0.160404 0.00200023
-0.375923 -0.590194 -0.134254 0.00242331
-0.398614 -0.589363 -0.136944 0.00209583
-0.580647 -0.568766 -0.237877 0.00408659
-0.600214 -0.566068 -0.241451 0.00229899
-0.586758 -0.574862 -0.224969 0.000913055
-0.608545 -0.571869 -0.227333 0.00258491
-0.407566 0.441072 -0.103933 0.000641949
-0.399237 0.461378 -0.108528 0.00306871
-0.395521 0.433618 -0.0845443 0.00224652
-0.390992 0.45312 -0.0893425 0.00108662
-0.305586 0.528494 -0.0442966 0.000714685
-0.292838 0.555178 -0.0420797 0.00174357
-0.291013 0.524841 -0.0288945 0.0025055
-0.28602 0.547251 -0.0271202 0.00217739
-0.713501 -0.292809 0.0974648 0.00163951
-0.726818 -0.274688 0.0899245 0.00212031
-0.697516 -0.29028 0.114535 0.00227746
-0.711903 -0.272128 0.106706 0.00248114
-0.491813 0.269345 -0.317699 0.00194225
-0.481932 0.288299 -0.309365 0.000908214
-0.503001 0.271659 -0.297846 0.000353526
-0.492748 0.290655 -0.28972 0.00235627
-0.298182 -0.235052 -0.358739 0.0011994
-0.318218 -0.216797 -0.357831 8.31751e-06
-0.30117 -0.219522 -0.352053 0.00165722
-0.321123 -0.201268 -0.350553 0.00054005
0.188503 0.434637 0.272507 0.0101495
0.181878 0.451452 0.263797 0.00371603
0.178783 0.420926 0.288942 9.62702e-05
0.171375 0.436362 0.283254 0.00474619
0.123669 -0.606314 -0.220234 0.000495887
0.102801 -0.607228 -0.229057 0.00152789
0.122744 -0.607378 -0.195604 0.00134643
0.0999829 -0.608057 -0.204294 0.000581659
-0.386966 -0.0403287 0.356388 0.000103874
-0.405396 -0.0302798 0.352661 0.000377762
-0.381712 -0.03067 0.369938 0.00444197
-0.397064 -0.0162345 0.368865 0.00341832
0.745992 -0.100198 -0.0212102 0.000146581
0.738328 -0.080164 -0.027518 0.00184787
0.735015 -0.101621 -0.00794108 0.00192942
0.728786 -0.083774 -0.0141639 1.71699e-05
-0.61236 -0.315853 -0.393243 0.00447206
-0.621619 -0.294295 -0.390579 0.001716
-0.631937 -0.327493 -0.387691 0.00145441
-0.640785 -0.30605 -0.385083 0.00119705
0.417764 0.517332 -0.222495 0.000448703
0.39879 0.536374 -0.24044 0.00350536
0.423015 0.514819 -0.194288 0.00329246
0.404133 0.534455 -0.212709 0.00119243
0.0673896 0.326054 0.333108 0.000709771
0.0422724 0.333122 0.325049 0.00285179
0.0623157 0.310924 0.344333 0.00122011
0.0364559 0.317084 0.337409 0.00384365
-0.646373 -0.102853 0.157381 0.00139869
-0.667054 -0.113461 0.141279 0.00117044
-0.640509 -0.114801 0.176103 0.00261534
-0.659838 -0.123563 0.159842 0.000744295
0.633327 -0.325419 0.139165 0.000588056
0.639228 -0.303722 0.145581 0.000443771
0.60731 -0.330599 0.156169 0.000554711
0.613801 -0.309727 0.164232 8.92672e-05
-0.348114 -0.383958 0.184724 0.00151657
-0.346632 -0.366115 0.185362 0.00579476
-0.343853 -0.383497 0.204851 0.00244988
-0.341629 -0.364948 0.205582 0.00117109
-0.457456 -0.141444 0.230559 0.00213973
-0.478584 -0.126148 0.218333 0.000943946
-0.445132 -0.133946 0.251745 0.00341508
-0.46675 -0.117402 0.240092 0.00116229
0.685049 -0.492524 -0.0562448 0.00187032
0.676384 -0.48531 -0.0394569 0.00182827
0.671458 -0.485475 -0.0340211 0.000782979
0.655895 -0.483707 -0.0213772 0.00147561
0.346136 0.554177 -0.330973 0.00240224
0.327696 0.565171 -0.33799 0.00165792
0.346049 0.563687 -0.310443 0.00537261
0.331203 0.575959 -0.318601 0.00423241
0.1907 -0.0250545 0.560199 0.000621815
0.188855 0.00168215 0.559949 0.000502627
0.174817 -0.0439621 0.5673 0.000938387
0.169981 -0.0162308 0.569142 0.000322179
-0.547756 -0.00462153 -0.38373 0.00181779
-0.564283 0.0166264 -0.37833 0.000404988
-0.574062 -0.00949256 -0.382619 0.00272334
-0.587565 0.0112933 -0.377354 0.00581788
-0.425251 0.135267 -0.132223 0.00105374
-0.415156 0.161177 -0.131452 0.00116107
-0.446189 0.119054 -0.119573 0.000638978
-0.43734 0.143891 -0.119097 1.12173e-06
-0.588978 -0.571684 -0.194502 0.00262402
-0.614237 -0.567649 -0.194224 0.00126039
-0.594872 -0.570641 -0.175351 0.000452389
-0.621441 -0.565983 -0.174599 0.000709402
-0.50254 -0.0545462 -0.0711977 0.00254189
-0.513139 -0.0288763 -0.0724867 0.00162881
-0.519442 -0.0558418 -0.0527164 0.00271231
-0.529683 -0.0313878 -0.05454 0.000116956
-0.00133866 -0.00373269 0.612241 0.000299208
-0.02199 0.0208832 0.613412 0.0018494
-0.0164526 -0.0174499 0.609561 0.00230743
-0.0413355 0.00694836 0.610249 0.000424425
0.457605 -0.109858 -0.124595 0.000452239
0.461313 -0.0868898 -0.129328 0.000174697
0.46876 -0.121548 -0.104175 0.00150596
0.475222 -0.0988393 -0.108192 0.00109656
-0.281186 0.134088 -0.366794 0.00263818
-0.274103 0.159578 -0.367896 0.00188724
-0.277912 0.123531 -0.354942 0.00144916
-0.270108 0.145999 -0.356177 0.00176827
0.691946 0.0290627 -0.0713929 0.00108584
0.681065 0.0472992 -0.07425 0.00085518
0.680406 0.0148715 -0.054976 0.00119678
0.669135 0.0329374 -0.0578379 0.00116297
-0.279676 -0.478796 -0.0414452 0.0025619
-0.285622 -0.459946 -0.0398916 0.00166942
-0.303587 -0.483885 -0.030608 0.00750543
-0.310915 -0.464325 -0.0262003 0.00198244
0.308984 0.225983 -0.188174 0.000686611
0.288728 0.2473 -0.189247 0.00117791
0.320328 0.232383 -0.172337 0.00234013
0.298838 0.2537 -0.173317 0.00325113
0.0609306 -0.105546 0.454006 0.000515905
0.0582429 -0.0812735 0.459155 0.00113277
0.039508 -0.119858 0.454468 0.00191657
0.0353469 -0.0962144 0.459931 0.00026457
0.0683362 0.347514 0.315005 0.000700902
0.0454759 0.354784 0.306144 0.0024126
0.0610663 0.331392 0.327788 0.00178881
0.0371143 0.338304 0.319716 0.00334714
0.620995 -0.35403 -0.387613 6.49219e-05
0.609074 -0.331004 -0.391687 0.000934165
0.606173 -0.377262 -0.387443 0.00127548
0.592389 -0.356593 -0.391551 0.0018067
-0.39478 -0.222871 -0.115573 0.00119114
-0.400049 -0.203811 -0.123172 0.00119809
-0.400462 -0.232134 -0.0960942 0.00175958
-0.405482 -0.213053 -0.104563 0.00188999
-0.265055 0.131378 -0.325687 0.00182388
-0.25603 0.149524 -0.328568 0.000479137
-0.273953 0.128336 -0.309347 0.00198609
-0.264664 0.144728 -0.312824 0.00302285
-0.00155422 -0.588356 -0.288317 0.00206039
-0.0255361 -0.583081 -0.296489 0.00135745
-0.00767877 -0.598566 -0.262288 0.00116905
-0.030527 -0.593033 -0.272452 0.000314044
-0.56304 -0.5543 -0.295255 0.00107399
-0.575555 -0.549335 -0.301728 1.83008e-05
-0.568824 -0.560442 -0.279696 0.00150404
-0.586554 -0.556651 -0.284718 7.61443e-05
0.0886426 -0.276139 0.44633 0.00270422
0.0643784 -0.267807 0.44767 0.00911346
0.0647202 -0.275772 0.456284 0.0024049
0.0417604 -0.266574 0.457781 0.00446507
-0.770265 -0.444894 -0.330014 0.00167243
-0.777978 -0.421059 -0.339254 0.00137397
-0.784846 -0.457002 -0.313784 0.00323016
-0.793515 -0.432582 -0.323581 0.00167219
-0.0362603 0.207358 0.538447 0.00201316
-0.0506826 0.22276 0.527148 0.00146042
-0.0417806 0.187416 0.551003 0.00130195
-0.0587434 0.200674 0.540233 0.00114702
-0.659849 -0.534721 -0.104602 0.00110834
-0.681849 -0.528843 -0.111518 0.00220378
-0.656574 -0.52731 -0.083179 6.75851e-05
-0.680678 -0.520691 -0.089393 0.000360491
0.164265 -0.0444239 0.433478 0.00135549
0.169133 -0.0248149 0.437126 0.00104381
0.144307 -0.0544051 0.438367 0.00193693
0.149967 -0.0348539 0.442212 0.00104242
0.0914008 -0.574346 -0.30376 0.00221832
0.0716118 -0.568323 -0.314364 0.0012316
0.0836262 -0.59039 -0.287754 0.00393622
0.0643654 -0.586286 -0.298061 0.00504318
0.863784 -0.416395 -0.284218 0.0038672
0.866713 -0.39515 -0.289818 0.00206534
0.865289 -0.425348 -0.262115 0.000188789
0.868331 -0.405011 -0.26788 0.00433162
0.00583302 0.375773 0.414065 0.000262812
-0.00829965 0.390591 0.40014 0.000601195
-0.00661401 0.356929 0.42976 0.0010822
-0.0211474 0.371497 0.415223 0.00157813
0.0717123 0.486466 -0.02724 0.000407312
0.0508821 0.485699 -0.0283554 1.61212e-05
0.0780043 0.496793 -0.00237957 0.000670576
0.0550428 0.496863 -0.00293931 0.00206758
-0.269338 0.482393 -0.012138 0.0017098
-0.293726 0.482022 -0.0176304 3.94507e-06
-0.268656 0.49859 -0.00110393 0.00142364
-0.290138 0.499701 -0.00626215 0.00872079
0.304734 -0.399561 0.189972 0.0015199
0.298187 -0.387173 0.19117 0.00493953
0.300057 -0.397941 0.208505 0.00149181
0.293206 -0.385231 0.209495 0.00234797
0.0222676 0.497412 0.0136418 0.000514634
-0.00128719 0.495506 0.0121201 0.000203451
0.0145973 0.501089 0.0369519 0.00133056
-0.00840459 0.499336 0.0346967 0.000771463
0.511963 -0.144273 0.125089 0.000167557
0.516279 -0.138993 0.130613 0.000748593
0.504831 -0.138027 0.143094 0.00322373
0.505706 -0.133855 0.153042 0.00226452
0.522854 -0.518816 -0.00654277 0.00165051
0.504703 -0.524175 -0.00647763 1.68945e-05
0.517796 -0.506146 0.0194579 0.00158252
0.499459 -0.511177 0.0204264 0.000185836
-0.222906 0.601357 -0.356306 0.00209461
-0.215056 0.617784 -0.355381 0.00341929
-0.242577 0.597973 -0.343294 0.000114176
-0.234707 0.614703 -0.342065 0.00121123
0.49409 0.394016 -0.27562 0.00101191
0.473732 0.410072 -0.286373 0.00430099
0.503684 0.400025 -0.252732 0.00415104
0.488236 0.416002 -0.264625 0.00313461
-0.0418109 -0.103861 0.459831 0.00226204
-0.0581844 -0.0821242 0.465287 0.00128742
-0.0590045 -0.114022 0.459062 0.000256461
-0.0779751 -0.0932065 0.463623 0.00249426
-0.380681 -0.0689178 0.440545 7.1183e-06
-0.381965 -0.042334 0.441889 0.00262987
-0.359901 -0.0765919 0.455474 0.000447909
-0.364958 -0.0513995 0.457149 0.00345657
0.48325 0.198104 -0.0895672 0.00184181
0.462211 0.215674 -0.0914917 0.000880636
0.491562 0.201331 -0.0846012 0.0007505
0.470335 0.219032 -0.0866872 0.00190585
-0.109846 -0.0998062 0.453701 0.000223653
-0.137162 -0.0812894 0.451592 0.000182206
-0.125712 -0.0935133 0.452908 0.0010478
-0.153603 -0.0769532 0.449614 0.00147142
-0.751801 -0.111814 -0.315393 5.73775e-05
-0.739818 -0.0939662 -0.317342 0.000630536
-0.767212 -0.115666 -0.297553 0.000793024
-0.755185 -0.095311 -0.296335 0.0010299
0.675871 0.05903 -0.336116 0.000696362
0.653794 0.0734236 -0.3458 0.000721548
0.691152 0.0683045 -0.313909 0.000105245
0.669964 0.0839431 -0.323111 0.00186983
-0.661769 0.102036 -0.188932 0.00061423
-0.64794 0.121337 -0.191449 0.000312639
-0.66221 0.0977645 -0.16783 0.00152194
-0.649041 0.115901 -0.171067 0.00221775
-0.647102 -0.106978 -0.37589 0.000943652
-0.648592 -0.0815463 -0.369562 0.000198653
-0.673259 -0.107557 -0.368341 0.00239928
-0.671953 -0.0833435 -0.362399 0.00213735
0.138021 0.0375091 0.579837 0.000632679
0.12944 0.0634716 0.578251 0.00153171
0.117634 0.0255205 0.588043 0.000127641
0.108454 0.0513446 0.587552 1.36662e-05
-0.201852 0.536169 -0.379416 0.000944753
-0.198951 0.55829 -0.375242 0.00120409
-0.229344 0.534136 -0.375077 0.00233035
-0.222824 0.556887 -0.369825 0.000687736
0.549151 0.0580726 -0.0753026 0.00544413
0.524669 0.0721935 -0.0818953 0.00161953
0.549689 0.0386921 -0.0729019 0.00382178
0.525238 0.0523479 -0.0800257 0.00393301
0.163797 0.262656 0.370778 0.00525105
0.158916 0.281763 0.36366 0.00216623
0.161313 0.249515 0.384324 2.70313e-05
0.155212 0.269275 0.376506 0.00315365
0.0490821 0.421763 -0.142364 0.000354583
0.0299802 0.424972 -0.138354 0.000334528
0.0421193 0.43502 -0.124548 0.00128012
0.0229369 0.438916 -0.119538 0.00144567
-0.287922 0.637988 -0.228478 0.000230374
-0.273281 0.65953 -0.234284 0.000944651
-0.298861 0.63225 -0.204483 0.00353335
-0.284058 0.653643 -0.20981 0.00384657
-0.298054 0.388081 -0.0744333 0.000769101
-0.297428 0.40339 -0.0615808 0.000538212
-0.308789 0.39202 -0.063929 0.0015792
-0.309506 0.410193 -0.0539663 6.59096e-05
0.654545 -0.0892288 -0.38419 0.0020829
0.637708 -0.0697113 -0.385995 0.00186521
0.63271 -0.104436 -0.38798 4.33217e-05
0.615891 -0.0850214 -0.390026 0.000426581
0.276195 -0.383018 0.280125 0.00418365
0.265987 -0.369134 0.287534 0.00217036
0.266103 -0.378477 0.298594 0.00891955
0.257057 -0.361338 0.30757 0.00176464
0.17344 0.398662 -0.388895 0.00113846
0.159091 0.421795 -0.393351 0.00193229
0.16201 0.37992 -0.383287 0.0028413
0.147227 0.402501 -0.388845 0.00107814
0.189796 0.429372 -0.39393 0.000248435
0.176679 0.452777 -0.395946 0.00208621
0.179051 0.412146 -0.391499 0.000503439
0.165122 0.436173 -0.394926 0.00225162
0.888784 -0.295278 -0.228076 0.00105075
0.884365 -0.274208 -0.240258 0.000592681
0.894177 -0.296471 -0.201929 0.00466413
0.890082 -0.276332 -0.21452 0.00302674
0.828807 -0.250278 -0.0626899 0.00175841
0.828582 -0.223218 -0.0634847 0.00225426
0.817925 -0.25622 -0.0385463 0.00073526
0.818861 -0.230484 -0.0418758 0.00299121
0.394997 -0.308868 0.0460094 0.00124747
0.408636 -0.292133 0.0419857 0.00286894
0.388449 -0.31356 0.0687002 0.000474566
0.401917 -0.297126 0.0637795 0.000540187
0.311722 -0.422722 0.019171 0.00316135
0.330737 -0.400023 0.0145327 0.00288574
0.311459 -0.432487 0.0415919 0.00639049
0.329847 -0.409702 0.0366796 0.00165587
0.155575 -0.291991 0.425478 0.000911046
0.133811 -0.293489 0.424648 6.66612e-05
0.144391 -0.278449 0.438966 0.00195566
0.124509 -0.278626 0.440049 0.00302554
-0.519556 -0.178514 0.310304 0.00331175
-0.534975 -0.154971 0.299255 0.000933571
-0.500846 -0.175858 0.32833 0.00424815
-0.516539 -0.151773 0.317659 0.00206132
-0.696744 -0.51241 -0.311034 0.000224351
-0.708619 -0.499277 -0.318879 0.000664631
-0.695856 -0.520075 -0.294192 0.00435725
-0.709325 -0.510072 -0.302629 0.00384195
-0.180875 0.22211 0.480917 0.00115367
-0.194044 0.226599 0.467447 0.00312991
-0.179391 0.207044 0.494481 0.00124587
-0.191873 0.21192 0.481471 0.00134955
0.711548 -0.483995 -0.0663938 0.00217341
0.711933 -0.472045 -0.0467801 0.000389771
0.693346 -0.48096 -0.047963 0.00264436
0.687416 -0.47191 -0.0295385 0.00223235
0.748249 -0.396316 -0.359173 0.00262932
0.735057 -0.377974 -0.369083 0.00429871
0.739368 -0.421457 -0.351291 0.00114277
0.725602 -0.402669 -0.36153 0.000279063
-0.319648 -0.150663 -0.268584 0.00153872
-0.324743 -0.137485 -0.270943 0.00105644
-0.327754 -0.15242 -0.253357 0.00084739
-0.333005 -0.137489 -0.256369 0.000179531
0.268951 -0.167383 0.345485 0.000857252
0.267759 -0.145827 0.359396 0.00233617
0.246168 -0.169888 0.358692 0.00252908
0.246241 -0.148272 0.370924 0.00118228
0.0574111 -0.282866 0.433048 9.92827e-05
0.0344525 -0.273214 0.434814 0.00393448
0.0377477 -0.289484 0.4458 0.012157
0.0186566 -0.277537 0.446708 0.00312778
-0.0144717 0.787531 -0.348064 0.000512023
-0.0156708 0.805751 -0.334114 0.00263808
-0.0423907 0.799778 -0.340598 0.00343437
-0.0419502 0.81794 -0.325693 0.000282901
-0.178229 0.21892 0.485137 0.000543751
-0.191266 0.223603 0.471732 0.00315557
-0.178559 0.203679 0.497968 0.00193274
-0.191238 0.208453 0.48513 0.000501488
0.461487 0.447189 -0.258647 0.00178277
0.447935 0.46534 -0.265564 0.000647719
0.465899 0.450545 -0.229247 0.000415574
0.453993 0.468064 -0.237026 0.000753607
-0.384501 -0.573812 -0.0776326 0.000807658
-0.403596 -0.572183 -0.0772559 0.00036174
-0.385062 -0.562216 -0.0539895 0.000745325
-0.404359 -0.560875 -0.0530413 0.000458002
-0.423808 -0.22402 -0.0784929 0.00201599
-0.42849 -0.205627 -0.0888608 0.00319713
-0.429243 -0.234873 -0.0568871 5.14472e-05
-0.433559 -0.216841 -0.0670005 0.000207812
0.229308 0.217093 0.42623 0.0120652
0.216991 0.242416 0.419375 0.00847701
0.212019 0.206929 0.44179 0.00332616
0.200065 0.229146 0.436789 0.00490132
0.0297123 0.479966 -0.0414341 0.00040554
0.00830042 0.47743 -0.0448635 4.42867e-05
0.0328522 0.490779 -0.0213946 0.00276662
0.0102953 0.488177 -0.0241502 0.0021937
-0.646007 -0.451307 -0.362175 0.000308249
-0.659121 -0.433465 -0.364949 0.00108687
-0.657949 -0.464997 -0.355306 0.00104283
-0.669634 -0.447494 -0.357905 0.0011238
0.410864 -0.207254 0.196665 6.70891e-05
0.423866 -0.18878 0.197624 0.0006272
0.387088 -0.213881 0.214834 0.00139768
0.399707 -0.195486 0.216455 0.00163017
-0.456221 -0.137194 0.236095 0.00230756
-0.477114 -0.121953 0.2239 0.000873015
-0.4441 -0.129496 0.257043 0.00374327
-0.465242 -0.112488 0.246419 0.00145212
-0.0552163 0.337513 -0.280068 0.00275263
-0.0751056 0.328025 -0.288636 0.00407368
-0.0617604 0.340014 -0.260014 0.00289725
-0.0800326 0.331799 -0.265852 0.00145615
-0.815468 -0.150065 -0.115133 0.00175044
-0.806434 -0.130206 -0.126254 0.0005343
-0.810703 -0.15984 -0.0848492 0.000461315
-0.801751 -0.138776 -0.0970767 0.000544512
0.180708 0.5545 0.159792 0.000892799
0.170213 0.573335 0.154784 0.000839452
0.173129 0.547457 0.178564 0.000888146
0.163064 0.565568 0.174255 0.00117431
-0.812963 -0.415838 -0.321678 0.00060591
-0.816328 -0.39611 -0.32834 0.00258568
-0.826376 -0.422543 -0.307429 0.00237039
-0.828708 -0.404103 -0.314204 0.000721378
-0.334196 -0.259148 0.398154 0.00197824
-0.354818 -0.254773 0.390583 0.00245999
-0.321628 -0.240611 0.416323 0.0003981
-0.342024 -0.234641 0.409185 0.000330853
0.281265 0.306959 -0.153402 0.000536309
0.256023 0.326643 -0.149818 0.0025895
0.292863 0.324319 -0.13523 0.00206385
0.266811 0.343783 -0.131338 0.00146053
0.884194 -0.398711 -0.234653 0.00204406
0.884956 -0.377218 -0.239825 0.0023351
0.885834 -0.403086 -0.207496 0.00554167
0.889257 -0.382109 -0.210482 0.00244811
-0.330051 0.000483193 -0.354774 0.00197719
-0.329942 0.0182239 -0.357731 0.00028119
-0.321156 -0.00920632 -0.341403 0.00155173
-0.321221 0.00860301 -0.344783 0.000498014
0.0107833 0.541348 -0.397718 0.00342646
-0.00460748 0.556113 -0.398018 0.00365419
-0.00681249 0.529603 -0.39442 0.000357568
-0.021485 0.544413 -0.394574 0.000203436
0.564153 -0.55904 -0.121182 0.00239142
0.540993 -0.564746 -0.122069 0.00122983
0.554924 -0.555288 -0.0937022 0.00111608
0.532057 -0.560698 -0.0938796 0.00227124
0.294158 0.610047 -0.334726 0.00049833
0.269331 0.628989 -0.34171 0.000946373
0.301836 0.620673 -0.318556 0.000262486
0.277655 0.640454 -0.325609 0.00106074
0.289961 -0.202705 0.449322 0.00134792
0.289478 -0.184209 0.46316 0.000928547
0.261455 -0.20141 0.463359 0.00261381
0.260707 -0.183135 0.477422 0.000438123
0.362676 -0.228576 0.232112 6.62916e-05
0.373126 -0.211017 0.235565 0.00068838
0.340412 -0.230248 0.249768 0.0022835
0.350479 -0.213047 0.254204 0.00088943
0.409481 -0.219731 -0.101273 0.00156015
0.425111 -0.194133 -0.103109 0.00105803
0.41936 -0.225299 -0.0728181 0.0007127
0.43523 -0.200972 -0.0750248 0.000271588
0.639045 0.18825 -0.262068 0.00161228
0.626051 0.20657 -0.266526 0.00103696
0.644878 0.192145 -0.241001 0.0010684
0.63213 0.210252 -0.2453 0.00118005
0.66222 -0.535197 -0.123849 0.00188074
0.641023 -0.542072 -0.122323 0.00117335
0.653253 -0.531562 -0.101774 0.000176781
0.63124 -0.538112 -0.095983 0.00131533
-0.0949564 0.31266 -0.306525 0.00431123
-0.114899 0.303308 -0.316264 0.00761626
-0.101538 0.313383 -0.282496 0.00137855
-0.121751 0.301947 -0.289993 5.74043e-05
0.802063 -0.296638 -0.0182033 0.000845475
0.804435 -0.274869 -0.0165256 0.000975575
0.792222 -0.300959 -0.00189082 0.00180364
0.795652 -0.279178 -0.000517528 0.00299253
-0.342336 0.264261 -0.387955 0.00280707
-0.34267 0.290318 -0.384898 0.00270885
-0.373768 0.261936 -0.383479 0.00159751
-0.373809 0.28654 -0.37944 0.00111157
-0.0791569 0.485006 0.300104 0.00158281
-0.091426 0.491677 0.290739 0.00146232
-0.0845007 0.469006 0.314077 0.00179276
-0.098555 0.475851 0.303591 0.00176849
-0.429761 0.0808891 -0.143027 3.42366e-05
-0.423652 0.102595 -0.14185 0.000323862
-0.446567 0.0742066 -0.129553 2.82068e-05
-0.44023 0.0956934 -0.129157 0.000461212
0.0456585 0.436364 -0.118459 0.000601337
0.0264762 0.440261 -0.113449 0.000540479
0.047523 0.448069 -0.0990847 0.000621976
0.0279422 0.450378 -0.0960533 0.000864623
0.754866 -0.512422 -0.273401 0.000699315
0.73845 -0.514403 -0.290372 0.00376116
0.745583 -0.523427 -0.253597 0.00113518
0.729748 -0.525515 -0.271046 0.00244399
-0.377041 -0.385485 0.112164 0.000326184
-0.382195 -0.372088 0.107501 0.00131443
-0.37374 -0.379786 0.135662 0.00103563
-0.378143 -0.366251 0.131834 0.000909685
0.303255 0.377599 -0.0955197 0.00270024
0.276588 0.391699 -0.0889461 0.00365045
0.29943 0.402071 -0.0825108 0.00307234
0.27372 0.415586 -0.0753193 0.00142124
0.64357 -0.22754 0.172445 0.0016523
0.651761 -0.206858 0.170458 0.00367014
0.620975 -0.235815 0.18739 0.00100884
0.629424 -0.215405 0.185376 0.000692791
-0.824279 -0.151817 -0.178225 0.000147112
-0.813846 -0.130103 -0.177887 0.00198384
-0.822006 -0.1547 -0.151341 0.000604894
-0.811903 -0.134782 -0.158013 0.00127431
0.499393 -0.0805675 0.239497 0.000678206
0.490391 -0.0743527 0.252854 0.000421257
0.483621 -0.0808292 0.25917 0.00549223
0.47478 -0.0746604 0.271153 0.00550153
0.0879474 -0.0322754 0.600327 0.00211254
0.0808598 -0.00783143 0.603863 0.00225164
0.0656846 -0.0415337 0.60112 0.00138175
0.0582198 -0.017433 0.604681 0.000848528
0.653965 -0.141673 -0.386484 0.000159908
0.630871 -0.124199 -0.389796 0.000256657
0.634497 -0.155669 -0.391881 0.0014051
0.61324 -0.136884 -0.394837 0.00251799
-0.382201 0.388003 -0.345348 0.0014344
-0.370336 0.410176 -0.341241 0.00012966
-0.398752 0.384197 -0.331632 4.53834e-07
-0.387979 0.404755 -0.329483 0.000177475
-0.164583 0.22073 0.491494 0.000233491
-0.176926 0.226022 0.478553 0.00262551
-0.16565 0.205039 0.503919 0.00201924
-0.178492 0.209793 0.490816 0.0005794
-0.0408627 -0.318092 -0.244967 0.00111307
-0.0693043 -0.307647 -0.258118 0.000474119
-0.0492724 -0.334432 -0.226416 0.0010154
-0.075949 -0.323075 -0.239969 0.00341417
0.309828 -0.427002 -0.00346362 0.00647501
0.284075 -0.432002 -0.0174204 0.00144775
0.312521 -0.445748 0.0131067 0.00899551
0.286791 -0.449441 -0.000625512 0.00293965
-0.326931 0.0418172 -0.364552 0.00112961
-0.326963 0.0566816 -0.367595 9.00321e-05
-0.318906 0.0318816 -0.351134 0.000151395
-0.318119 0.0461483 -0.354208 0.00166914
-0.358429 0.486947 -0.31022 0.0042483
-0.346909 0.51294 -0.296166 0.000888614
-0.36571 0.489567 -0.284167 0.00189912
-0.353912 0.515572 -0.270185 0.00311812
-0.535096 -0.0681782 0.275991 0.00828041
-0.555736 -0.0641044 0.26451 0.00388216
-0.525107 -0.0648967 0.300036 0.0018721
-0.540892 -0.0592315 0.290162 0.00670774
-0.183168 0.451336 0.281324 0.000824277
-0.193919 0.463943 0.26791 0.00920217
-0.179076 0.438998 0.298468 0.000385194
-0.188365 0.452013 0.28619 0.00725746
-0.714079 0.0231194 -0.201409 9.44661e-05
-0.703653 0.0436468 -0.20378 0.00310002
-0.721185 0.0167163 -0.180144 0.0017527
-0.710561 0.0381628 -0.182176 0.00491792
0.328523 -0.251314 0.396765 0.000513319
0.331563 -0.237431 0.405752 3.82635e-05
0.303797 -0.253498 0.408257 0.000715297
0.306917 -0.237789 0.417697 0.00100309
-0.262301 -0.423653 -0.0794263 0.00140337
-0.268936 -0.404345 -0.0866923 0.000716208
-0.270477 -0.439434 -0.0630212 0.000542221
-0.27639 -0.420923 -0.0686866 0.00151134
0.603369 0.0063997 -0.381085 0.00154507
0.583532 0.0225811 -0.384446 0.000857516
0.611094 0.0117352 -0.377827 0.00219602
0.589403 0.0265473 -0.382769 0.00059413
0.282704 -0.210063 0.449575 0.000679847
0.282398 -0.191288 0.463391 0.00133904
0.256709 -0.212262 0.460187 0.00157937
0.255445 -0.194804 0.474548 0.000609554
-0.322419 -0.317095 -0.385635 0.00206447
-0.355428 -0.305156 -0.385244 0.00204857
-0.342701 -0.318516 -0.388197 0.000717578
-0.375828 -0.306819 -0.387421 0.00126459
0.47264 -0.406015 0.184772 0.000882035
0.444951 -0.408551 0.188325 0.00427218
0.45498 -0.401583 0.202052 0.0027726
0.427091 -0.403497 0.206022 0.00239616
0.620243 0.116166 -0.347145 0.00157381
0.599714 0.134421 -0.350461 0.00297037
0.635288 0.124401 -0.334947 0.00044088
0.614316 0.143306 -0.338024 0.00213902
-0.0861718 0.701873 0.0754379 0.000422342
-0.10903 0.70337 0.0588631 0.00127123
-0.091287 0.683889 0.0905675 0.00148825
-0.113627 0.685899 0.0748555 0.00259524
0.406528 0.0575382 -0.185501 0.00141095
0.390218 0.0794112 -0.193603 0.00236706
0.421725 0.0586382 -0.168671 0.00259675
0.404883 0.0780242 -0.177139 0.00378927
0.571889 -0.0960263 0.132257 0.00304395
0.550047 -0.104858 0.121696 0.00378991
0.566362 -0.0956276 0.15335 0.0037713
0.545038 -0.104547 0.144437 0.00191163
0.423373 -0.0242661 0.341233 0.00319524
0.406811 -0.015347 0.345566 0.000287785
0.418203 -0.0122558 0.358079 0.000521042
0.40191 -0.00515405 0.36132 0.00179751
0.499906 -0.0994307 -0.393844 0.000250786
0.490089 -0.0747648 -0.393579 0.000298513
0.479397 -0.111786 -0.392211 0.000412774
0.469164 -0.0869144 -0.391754 0.000802546
0.0677522 0.390104 -0.372528 0.000186663
0.0605609 0.403288 -0.374883 0.00111681
0.0554453 0.375106 -0.366145 0.000819303
0.0480709 0.386498 -0.367167 0.00206276
0.821238 -0.470588 -0.170025 0.00121492
0.813287 -0.4751 -0.171289 0.00122834
0.800922 -0.480266 -0.159834 0.00170318
0.808293 -0.471963 -0.152922 0.00108614
0.0578985 0.769904 -0.353129 5.90141e-05
0.0384345 0.782027 -0.350305 0.000172152
0.0584229 0.78726 -0.34622 0.00109872
0.0383238 0.796281 -0.343617 9.30657e-05
0.242211 -0.248793 -0.2923 0.000791159
0.228338 -0.251486 -0.310043 0.000162831
0.237497 -0.262 -0.269029 3.87254e-05
0.222461 -0.264811 -0.288047 0.00361616
-0.0454905 -0.0312933 0.469174 6.19037e-05
-0.0590223 -0.00969211 0.469144 0.000919095
-0.0669418 -0.0479237 0.468516 0.00155016
-0.0812653 -0.0251462 0.468419 0.000777143
0.347807 -0.0107031 -0.299212 0.00430086
0.342201 0.0178507 -0.301891 0.00209824
0.357062 -0.00617287 -0.277569 0.00239788
0.35212 0.0224836 -0.280671 0.000986356
0.348532 -0.346629 -0.0251886 0.000989553
0.361035 -0.328233 -0.0293003 0.0013031
0.351222 -0.352786 -0.00339792 0.00013667
0.364451 -0.33514 -0.00748671 0.000857971
0.685761 -0.479126 -0.34015 0.000391405
0.674215 -0.469895 -0.352392 0.00415349
0.67973 -0.497829 -0.325188 0.0023425
0.667529 -0.49087 -0.338041 0.00121867
-0.631199 -0.405356 -0.376998 0.00070366
-0.64599 -0.386387 -0.381045 0.00260656
-0.648443 -0.421429 -0.371844 0.00049715
-0.663197 -0.402609 -0.374385 0.00156297
0.108461 -0.609517 -0.200742 0.000724832
0.0851561 -0.608562 -0.210204 0.000236724
0.102006 -0.608612 -0.17401 0.000296684
0.077378 -0.607842 -0.182523 0.0018183
-0.0433727 -0.596825 -0.261869 0.000727984
-0.0684839 -0.590254 -0.271373 0.00314843
-0.0427711 -0.607992 -0.237796 0.00344329
-0.0677295 -0.601425 -0.24856 0.000178403
0.80923 -0.458617 -0.130745 5.44203e-05
0.821005 -0.443044 -0.121208 0.00253266
0.789698 -0.4619 -0.110429 0.000172737
0.799951 -0.446059 -0.10113 0.000697819
0.190681 0.218477 0.392989 0.00567123
0.181366 0.240477 0.384371 0.0038666
0.185457 0.205712 0.406342 0.00233009
0.174099 0.227398 0.398625 0.00345541
-0.548804 0.0749616 -0.0517635 0.00408811
-0.558922 0.0876616 -0.0575887 0.00295096
-0.555039 0.0600567 -0.0456406 0.00542754
-0.565555 0.0726626 -0.0516858 0.00217672
0.189249 0.495476 0.175504 0.0133617
0.181657 0.513335 0.171502 0.00164377
0.177448 0.491467 0.191188 0.00316473
0.171142 0.506514 0.1802 0.00827893
0.188947 0.794281 -0.197897 0.00438275
0.165788 0.809325 -0.205609 0.000521947
0.185956 0.790215 -0.177865 0.00236796
0.162793 0.805098 -0.184893 0.00268151
-0.312592 -0.130008 0.355093 0.000361869
-0.338611 -0.108639 0.350732 0.00131072
-0.298119 -0.123148 0.368863 0.000742763
-0.321178 -0.104498 0.365567 0.00229788
-0.412217 -0.168939 0.255114 0.00265425
-0.426974 -0.155912 0.248661 0.00156078
-0.397414 -0.15821 0.277211 0.00279454
-0.412891 -0.141385 0.272356 0.00113304
-0.14421 0.736539 -0.336872 0.00288435
-0.132391 0.75558 -0.332937 0.00394054
-0.167805 0.736825 -0.31573 5.07495e-05
-0.155308 0.755602 -0.312803 0.00139529
0.315209 -0.146713 0.319226 0.00253492
0.316594 -0.126826 0.33269 0.000974483
0.301209 -0.142583 0.330747 0.00297875
0.301325 -0.121815 0.344954 0.00127075
-0.0629994 0.318592 0.454903 0.00181402
-0.085893 0.328779 0.441564 0.00124246
-0.0679378 0.296641 0.469007 0.00343911
-0.0892108 0.306005 0.456254 0.0037864
-0.764447 -0.339058 0.0232032 0.00159498
-0.781937 -0.318547 0.0180538 0.00266047
-0.749813 -0.335919 0.0414553 0.000113007
-0.766782 -0.315617 0.0349212 0.00202102
-0.489477 0.00785682 -0.0941652 0.00213702
-0.491495 0.0318382 -0.0961438 6.49761e-06
-0.501789 -0.000439897 -0.0828509 0.00217785
-0.506819 0.0244938 -0.0841023 0.00049796
0.178116 0.601594 0.116072 8.42804e-05
0.169919 0.619468 0.107984 0.00141224
0.168423 0.596308 0.134696 0.000508192
0.15905 0.614851 0.127366 0.00268754
-0.000629425 0.72139 -0.373695 0.000965464
-0.00424092 0.738426 -0.365032 0.00262789
-0.0250705 0.729062 -0.373906 0.00483485
-0.0222277 0.747634 -0.363897 0.000190469
0.604784 0.249265 -0.189182 0.00101458
0.594969 0.265354 -0.197022 0.000974204
0.60411 0.249034 -0.165236 0.00244024
0.594943 0.265343 -0.172274 0.00257261
0.330907 -0.585682 -0.128042 0.0040978
0.306905 -0.591871 -0.125496 0.00129707
0.328032 -0.582385 -0.111033 0.0015775
0.304904 -0.587474 -0.106715 0.00345678
-0.793405 -0.237079 0.0112277 0.00264713
-0.785971 -0.209219 0.00961794 0.000118912
-0.781969 -0.246004 0.0294161 0.00279284
-0.777605 -0.219684 0.0259675 6.97078e-05
-0.585765 0.0532128 -0.0363982 0.00111214
-0.596833 0.0663946 -0.0426651 0.0032396
-0.591119 0.036099 -0.0309189 0.000494733
-0.600897 0.0505246 -0.0376565 0.003831
0.300384 -0.417373 -0.0196499 0.00326891
0.27633 -0.422676 -0.0331588 0.00163635
0.306987 -0.431142 -0.003887 0.00690597
0.281361 -0.43635 -0.0177242 0.00132143
0.404531 -0.104028 -0.199254 0.00104169
0.406681 -0.0831865 -0.203748 0.000257971
0.415361 -0.111089 -0.180671 0.000456652
0.418441 -0.0906015 -0.184829 0.000152356
-0.274324 0.425225 -0.0506764 0.00199481
-0.294316 0.426179 -0.0486142 0.00208674
-0.280653 0.439043 -0.0396557 0.000688741
-0.307612 0.43665 -0.0427335 0.00429886
0.830312 -0.462712 -0.171277 0.00174962
0.836788 -0.453938 -0.165644 0.00214551
0.813269 -0.468203 -0.157332 0.0019507
0.824679 -0.456536 -0.148291 0.000763447
-0.520123 -0.406165 -0.386165 0.000579
-0.539638 -0.38057 -0.388956 2.4044e-05
-0.530055 -0.419813 -0.384678 0.000931321
-0.549989 -0.394382 -0.388637 0.00174043
-0.425695 0.361602 -0.320773 0.000711749
-0.415853 0.380507 -0.320278 0.00194991
-0.438156 0.36056 -0.302838 0.00135498
-0.428754 0.379705 -0.302935 0.000816058
-0.355954 -0.417076 -0.00588382 0.00534785
-0.359155 -0.396856 -0.00515753 0.000408571
-0.36554 -0.415213 0.0147241 0.00342368
-0.36588 -0.394827 0.0177413 0.00466032
0.469648 -0.163636 -0.0567873 0.00074329
0.483941 -0.138772 -0.0587498 0.00197462
0.474676 -0.174856 -0.0281774 0.00173113
0.491076 -0.150891 -0.0303426 0.00191197
0.81363 -0.41372 -0.326254 0.000862235
0.798594 -0.407762 -0.338047 0.00319681
0.815486 -0.432974 -0.314608 8.37912e-05
0.799473 -0.429017 -0.326935 0.000866737
0.303489 -0.599155 -0.1753 0.0017116
0.276033 -0.603047 -0.184194 0.000312162
0.304589 -0.595202 -0.151281 0.00197779
0.277584 -0.599926 -0.161271 0.00029964
-0.130425 -0.272185 0.408061 0.00121302
-0.139814 -0.246725 0.404256 0.00213735
-0.113489 -0.280602 0.417023 0.00128149
-0.123458 -0.25564 0.412113 0.00101606
-0.190846 -0.590211 -0.280562 0.00159294
-0.213292 -0.584222 -0.286482 0.000889346
-0.193985 -0.598733 -0.260709 0.00234576
-0.216301 -0.593252 -0.266224 0.000620325
0.187036 -0.456395 -0.386595 0.00024731
0.170737 -0.440002 -0.393004 0.00295365
0.178549 -0.472164 -0.379705 0.0018253
0.160691 -0.457132 -0.387711 0.00143869
-0.0812955 0.23435 0.514944 0.000602425
-0.0996019 0.243809 0.501547 0.00166943
-0.0859959 0.213917 0.529357 0.00146114
-0.104162 0.223278 0.516449 0.000743303
0.330094 0.0190477 -0.322755 0.0100772
0.323381 0.0450213 -0.326886 0.00924249
0.342631 0.0211937 -0.299005 0.00196487
0.335377 0.0477838 -0.303263 0.00154131
0.133107 0.13656 0.431932 0.00274029
0.11865 0.160056 0.424174 0.00421431
0.124913 0.119134 0.441849 0.00172367
0.111476 0.141489 0.436191 4.52664e-05
-0.208522 0.716425 -0.0945895 0.00134604
-0.202743 0.729025 -0.105427 0.000964623
-0.209776 0.70734 -0.0725364 0.00124742
-0.206009 0.718322 -0.085034 0.0010927
-0.183166 0.502795 0.044684 0.000772335
-0.195606 0.516332 0.0345794 0.0127565
-0.186966 0.497752 0.0677308 0.0059454
-0.198398 0.513253 0.0572154 0.00777205
0.686246 -0.139523 -0.380547 0.0013011
0.664113 -0.12293 -0.383742 0.000508154
0.670711 -0.154242 -0.38423 0.000118915
0.647049 -0.138924 -0.387746 7.37202e-05
0.750451 -0.0653245 -0.063247 4.36094e-05
0.739911 -0.0409173 -0.0684818 0.00173182
0.737426 -0.0755766 -0.0421141 0.00363
0.728117 -0.0527914 -0.0472916 0.00129883
-0.349458 -0.161135 0.444307 0.000165546
-0.361308 -0.136017 0.445442 0.00102169
-0.327682 -0.16019 0.458856 0.000718935
-0.341771 -0.133411 0.459999 0.000867191
-0.222177 0.675687 -0.0515573 0.000195514
-0.21622 0.690135 -0.0622562 0.000873761
-0.209191 0.666985 -0.0255747 0.00458488
-0.20274 0.682686 -0.0363064 0.00534354
-0.62257 -0.311377 -0.392489 0.00452403
-0.63191 -0.289768 -0.390184 0.00212889
-0.641775 -0.321244 -0.386658 0.00112037
-0.650701 -0.300206 -0.384728 0.000489177
0.194575 0.290253 0.357354 0.0132349
0.188264 0.312627 0.349498 0.00733546
0.190092 0.279747 0.374003 0.000846741
0.183477 0.301865 0.366642 0.00391378
0.196136 0.479093 -0.0417659 0.00197555
0.175248 0.48259 -0.0335006 0.00124988
0.182931 0.494693 -0.0231927 0.00288094
0.160757 0.497997 -0.0130741 0.00101275
-0.440143 -0.223058 -0.385086 0.00104025
-0.463674 -0.209157 -0.385263 0.00215191
-0.459238 -0.239118 -0.38836 0.000412925
-0.482759 -0.224194 -0.387782 0.00149842
-0.224504 0.20465 -0.311834 0.00314582
-0.213571 0.217944 -0.312577 0.00329867
-0.233068 0.20097 -0.29054 0.00120929
-0.216478 0.218498 -0.285824 0.00495961
-0.0672873 -0.467669 -0.382475 0.000986752
-0.0752906 -0.452472 -0.38679 0.000728779
-0.0769814 -0.485273 -0.378726 0.00113174
-0.0841595 -0.470635 -0.384827 0.00227002
-0.0309857 -0.162364 0.559973 0.000452147
-0.0609437 -0.171289 0.552844 0.000755745
-0.0366921 -0.143396 0.568905 0.0016092
-0.0650139 -0.153473 0.562433 0.000240309
-0.431842 -0.0212438 -0.146301 0.00419544
-0.436587 0.00352413 -0.153493 0.00443636
-0.450055 -0.03109 -0.12931 0.00261741
-0.454558 -0.00601252 -0.13646 0.00475261
0.14112 -0.0895845 0.571541 0.000578784
0.140194 -0.0670628 0.580276 0.00338741
0.112851 -0.0959962 0.574303 0.00240802
0.111101 -0.0735753 0.583477 0.000925544
0.882037 -0.393014 -0.264783 0.00348978
0.883297 -0.371693 -0.27148 0.00262659
0.886054 -0.397488 -0.237957 0.00374332
0.886822 -0.37582 -0.243075 0.00057145
0.390268 0.0208751 -0.375814 0.00243053
0.383083 0.0409782 -0.380963 0.00159246
0.37194 0.0117822 -0.367791 2.01535e-05
0.365787 0.0324044 -0.372893 0.0039912
-0.872275 -0.429904 -0.242743 0.00377768
-0.876589 -0.412464 -0.249058 0.00209878
-0.873093 -0.431042 -0.224314 0.00364957
-0.878689 -0.413028 -0.23001 0.00212942
-0.414855 -0.478533 -0.373277 0.000315688
-0.433694 -0.461734 -0.380199 0.00145847
-0.424305 -0.497544 -0.362823 0.00175747
-0.444608 -0.481914 -0.371369 0.000605813
0.601844 0.255567 -0.216285 0.00127019
0.59112 0.270686 -0.224385 0.00153472
0.603457 0.253463 -0.191451 1.10158e-05
0.593642 0.269553 -0.199291 8.4462e-05
0.404673 0.0188906 -0.200046 0.0012872
0.391393 0.0460684 -0.206031 0.00230072
0.416246 0.0171595 -0.185114 0.00189517
0.402497 0.0444661 -0.191724 0.0033104
0.209909 -0.336943 -0.173436 0.00077719
0.192841 -0.337335 -0.188801 0.00305592
0.204043 -0.356178 -0.155031 0.000397551
0.189833 -0.35345 -0.169972 0.0028804
-0.106479 -0.216897 0.512696 0.000648414
-0.127868 -0.210632 0.514415 0.0012469
-0.102919 -0.193356 0.526857 0.0028367
-0.124174 -0.186869 0.529302 0.00127131
-0.386504 -0.374413 -0.391738 0.00138941
-0.399004 -0.35563 -0.391753 0.00123221
-0.410894 -0.39229 -0.394314 0.00217269
-0.421932 -0.372917 -0.394664 0.00184273
0.666421 0.120938 -0.120334 0.000135232
0.657489 0.142817 -0.12546 0.00195293
0.654159 0.112254 -0.103624 0.00427827
0.646054 0.133481 -0.108029 0.00212606
0.125401 -0.364526 -0.393051 0.000589756
0.120393 -0.345721 -0.383914 0.00464649
0.100303 -0.359403 -0.395849 0.00455905
0.0956085 -0.341241 -0.385672 0.00124279
-0.342754 0.551433 -0.251728 0.00107374
-0.329765 0.571471 -0.249413 0.000835571
-0.34503 0.553526 -0.224702 0.00129465
-0.33209 0.573646 -0.222589 0.000959842
-0.211825 0.382848 -0.39456 0.000542875
-0.224674 0.405386 -0.395674 0.00275457
-0.229322 0.368109 -0.393918 0.000144522
-0.240752 0.39365 -0.394325 0.00219113
0.0490695 0.558434 0.233526 0.000267367
0.0297536 0.569604 0.22462 0.000155305
0.042673 0.540175 0.251248 0.00080384
0.0200097 0.549253 0.243486 0.0020185
-0.727868 -0.0469213 -0.294009 7.46558e-05
-0.719229 -0.0301254 -0.291338 0.000455181
-0.740403 -0.0496649 -0.273829 0.00105763
-0.731989 -0.0325256 -0.270596 7.76316e-05
-0.370444 0.215914 -0.38907 0.00214606
-0.375613 0.24177 -0.385496 0.00206296
-0.397967 0.202598 -0.389048 0.00066375
-0.400869 0.227784 -0.385564 0.00147204
-0.419765 -0.0396041 0.406189 0.000456345
-0.420333 -0.0136007 0.40737 0.00610955
-0.402353 -0.0390477 0.421018 0.000263741
-0.403024 -0.0125609 0.421932 0.00484979
-0.569123 -0.221888 -0.393384 0.000547268
-0.584285 -0.199745 -0.392319 0.000210169
-0.589636 -0.231464 -0.392576 0.000466491
-0.603526 -0.209358 -0.391435 0.000443712
-0.365181 -0.0278279 -0.22816 0.00048067
-0.359434 -0.00606348 -0.230711 0.00124875
-0.378179 -0.0354177 -0.211479 0.000729688
-0.372547 -0.0130703 -0.214149 0.0023063
0.151414 0.237205 0.47383 0.0035986
0.143169 0.2551 0.471637 0.000623887
0.132846 0.222387 0.489257 0.00770409
0.123943 0.240771 0.485953 0.00419142
-0.447271 -0.530369 -0.34013 0.00151522
-0.466909 -0.516972 -0.349249 0.00100202
-0.457738 -0.543981 -0.326968 0.00125653
-0.476505 -0.534752 -0.33865 0.00228162
-0.134552 0.111916 0.561751 0.00204388
-0.164792 0.106233 0.551525 0.00111574
-0.140138 0.0833211 0.571412 0.000255841
-0.169364 0.0820198 0.559845 0.000238573
-0.212961 -0.319858 -0.189582 0.000718455
-0.226836 -0.307259 -0.1979 0.00140062
-0.225664 -0.329661 -0.172039 0.00231641
-0.237188 -0.317825 -0.180355 0.000502314
-0.349866 -0.110639 -0.348932 0.00157537
-0.35418 -0.0948935 -0.354034 0.000452842
-0.343777 -0.11991 -0.337189 0.00821531
-0.345886 -0.103323 -0.341838 0.00572385
0.246678 0.0487913 0.415889 0.00134566
0.246679 0.0683665 0.4208 0.00160957
0.231131 0.0467953 0.422777 0.000732327
0.228853 0.0655812 0.427109 0.00295011
-0.0808071 0.399975 -0.171708 0.00282445
-0.102686 0.394956 -0.170663 0.00219502
-0.090471 0.409235 -0.151165 0.000426856
-0.112963 0.404054 -0.150739 0.000200485
-0.15396 -0.432998 -0.388471 0.00218659
-0.168555 -0.410581 -0.390782 0.00218077
-0.177388 -0.454049 -0.388802 0.0021762
-0.193518 -0.430834 -0.392827 0.00214036
-0.0816706 0.189775 0.541642 0.000894326
-0.0985672 0.200439 0.53041 0.00152148
-0.0928561 0.170605 0.550945 0.000612289
-0.110502 0.179998 0.540023 0.000232011
0.209818 0.447203 -0.394339 0.000391697
0.201065 0.470396 -0.393415 0.00020694
0.193702 0.434102 -0.395626 0.00190108
0.181602 0.457402 -0.39716 0.00325659
0.148184 -0.355101 -0.180111 0.000804662
0.124972 -0.354998 -0.192982 0.0029638
0.140381 -0.373972 -0.164724 0.00230714
0.117274 -0.372331 -0.178629 0.00536775
-0.636071 -0.518417 -0.323557 0.000777783
-0.649661 -0.506445 -0.329331 0.00127979
-0.6384 -0.52482 -0.313941 0.00222238
-0.660291 -0.516414 -0.317737 0.0013871
0.451904 -0.0381104 0.330278 0.00466717
0.434337 -0.0285378 0.33551 0.00312186
0.442817 -0.0256558 0.3461 0.00162636
0.426061 -0.0154414 0.351218 0.0014985
0.481222 0.134573 -0.102259 4.28688e-05
0.469652 0.153441 -0.100599 0.00358966
0.491307 0.129153 -0.0974912 0.000281232
0.480257 0.148215 -0.0958061 0.00361193
-0.265023 -0.284996 -0.193473 0.000132715
-0.271477 -0.272179 -0.202569 0.000828127
-0.273519 -0.298276 -0.174707 0.000244596
-0.278982 -0.283828 -0.184957 0.000494273
-0.692466 -0.15311 0.131989 0.00272806
-0.688705 -0.136159 0.122325 0.000983106
-0.680387 -0.162489 0.152571 0.00388384
-0.682438 -0.148521 0.141767 0.00148026
-0.30604 -0.436804 -0.389021 0.000544439
-0.313661 -0.411163 -0.39592 0.00424019
-0.316467 -0.455392 -0.382434 0.00198414
-0.32574 -0.43113 -0.389771 0.000644749
0.0316033 -0.168897 0.448238 6.75891e-05
0.0245962 -0.149518 0.454826 0.00195074
0.0143825 -0.174335 0.447727 0.00152905
0.00643695 -0.15439 0.454084 5.31682e-05
-0.322357 0.03868 0.421062 0.00152858
-0.350661 0.0543839 0.411224 0.00694715
-0.308159 0.042394 0.442261 0.0155813
-0.336997 0.0569902 0.431729 0.0084238
-0.604882 -0.473526 -0.359375 0.00034533
-0.612559 -0.453604 -0.36778 0.00127747
-0.616423 -0.489009 -0.348697 0.000796827
-0.622375 -0.471941 -0.356913 0.000442017
0.369829 -0.267807 0.18817 2.25118e-05
0.382323 -0.250371 0.189671 8.38394e-05
0.352445 -0.269763 0.205628 0.00163832
0.362259 -0.251762 0.209813 0.00168911
0.383771 -0.0884207 0.425396 0.000163237
0.386801 -0.0694282 0.428815 0.0042503
0.363957 -0.0974613 0.436812 0.00333488
0.368798 -0.077737 0.440509 0.00177799
-0.465258 0.188995 -0.370216 0.0011014
-0.463123 0.212639 -0.366841 0.00175601
-0.488493 0.181552 -0.362399 0.000413369
-0.482957 0.20445 -0.359704 0.00189406
-0.227557 -0.506385 -0.0580624 0.00351938
-0.238025 -0.488992 -0.0541465 0.00022304
-0.250894 -0.511485 -0.0523678 0.00777866
-0.258737 -0.491904 -0.0439091 0.000565958
-0.381676 -0.396907 -0.39144 0.000802335
-0.391572 -0.376751 -0.392378 0.000618101
-0.400009 -0.417168 -0.390935 0.0012432
-0.410926 -0.397575 -0.392939 0.00129984
-0.0412254 0.590154 -0.393107 0.000985048
-0.0480961 0.608081 -0.390822 0.000369606
-0.0574359 0.578205 -0.39172 0.000754133
-0.0643463 0.595956 -0.390208 0.000579126
-0.41034 -0.110254 -0.159506 0.000953978
-0.417139 -0.0792764 -0.159437 0.00222049
-0.420345 -0.116733 -0.142607 0.00240408
-0.42788 -0.0854747 -0.142315 0.0035967
0.138229 0.288138 0.352769 0.00702066
0.13278 0.301689 0.345434 0.00578603
0.131916 0.280566 0.367581 0.00107534
0.12522 0.293847 0.361759 0.00367795
0.405865 -0.136418 0.400503 0.000248454
0.40483 -0.113556 0.406939 0.00094416
0.387866 -0.139218 0.415992 0.00136712
0.388666 -0.118191 0.42147 0.00251719
0.701338 -0.438477 -0.00156348 0.00176758
0.699036 -0.423453 0.0164575 0.000803226
0.679711 -0.435124 0.0137705 0.00508539
0.676568 -0.421363 0.0325002 0.00350447
-0.666166 -0.135162 -0.373808 0.000347133
-0.663416 -0.110766 -0.368391 0.00163015
-0.693552 -0.138821 -0.366991 0.00254453
-0.68789 -0.115404 -0.363154 0.00178003
-0.307403 0.613374 -0.222325 0.00100125
-0.293376 0.634024 -0.226479 0.001725
-0.317007 0.608721 -0.199969 0.00482378
-0.302992 0.629788 -0.203308 0.005466
-0.216026 -0.278697 0.433088 0.0025629
-0.243625 -0.265612 0.432882 0.000377523
-0.210402 -0.268433 0.446096 0.00383454
-0.239307 -0.255326 0.445531 0.00202594
-0.396312 0.427212 -0.0839214 0.00385295
-0.394401 0.445795 -0.0889317 0.000377344
-0.389022 0.422002 -0.0697824 0.000522957
-0.387489 0.441659 -0.0748374 0.00198509
0.139226 -0.288164 -0.363613 0.00367213
0.120995 -0.284968 -0.363452 0.00868406
0.125894 -0.289572 -0.35103 0.00309158
0.1087 -0.283978 -0.352549 0.00462771
0.891175 -0.324191 -0.241238 0.000270812
0.886587 -0.302212 -0.252307 0.000454324
0.896385 -0.327212 -0.216189 0.00356215
0.892058 -0.306091 -0.227889 0.000713597
-0.0761408 -0.366988 -0.181954 0.00264893
-0.0947847 -0.354 -0.194075 0.000737172
-0.0828809 -0.384061 -0.16939 0.000750075
-0.095773 -0.367728 -0.182155 0.000392443
-0.327739 0.306898 -0.388043 0.000392143
-0.327865 0.334366 -0.385097 0.000665602
-0.360969 0.301266 -0.381395 1.73021e-05
-0.358875 0.327558 -0.378767 0.00200972
0.445764 -0.235596 0.090732 0.00189512
0.462153 -0.217517 0.0886024 0.00336469
0.438878 -0.232643 0.114836 1.55796e-06
0.453817 -0.215369 0.113344 0.000461216
0.0553038 0.35204 0.312213 0.000258374
0.0324622 0.359295 0.304066 0.00105213
0.0475497 0.334701 0.326301 0.000866609
0.0238564 0.341489 0.318632 0.00244831
-0.568777 -0.511348 -0.343529 0.00063765
-0.573879 -0.494711 -0.353012 0.000206744
-0.58037 -0.528674 -0.331079 0.00348197
-0.584984 -0.513932 -0.340053 0.00135946
-0.787728 -0.12556 -0.27679 0.000680172
-0.77576 -0.0992859 -0.268307 0.000554236
-0.799221 -0.133872 -0.259069 0.000314651
-0.787467 -0.105128 -0.247752 0.000667872
0.103735 0.622461 0.151656 0.000542673
0.091109 0.636777 0.140507 0.0001847
0.0891377 0.601551 0.177511 0.00132233
0.077468 0.618056 0.163018 0.00193079
-0.525142 -0.157335 0.0814503 0.000588998
-0.536924 -0.146326 0.0691022 0.000736752
-0.521854 -0.155167 0.104724 0.000704022
-0.534777 -0.145117 0.0916786 4.86205e-05
-0.471133 -0.358591 -0.392157 0.000595804
-0.488366 -0.337776 -0.392525 0.000465609
-0.492437 -0.375815 -0.392744 0.00128155
-0.510421 -0.350925 -0.394803 0.00234536
0.0193061 0.124301 0.584999 0.00063653
0.00878673 0.147904 0.575804 0.00103738
0.000902995 0.100543 0.592906 0.000713964
-0.00856884 0.123329 0.584909 0.000442967
0.408393 -0.0797495 0.297895 0.000295673
