0.635405 0.512864 0.229272 0.000667898
0.629623 0.474896 0.273483 0.000933588
0.623518 0.499575 0.256454 0.0018253
-0.77967 0.186022 -0.35148 6.74872e-05
-0.76609 0.207933 -0.353405 0.00480318
-0.787833 0.185494 -0.326414 0.00750487
-0.775652 0.207581 -0.330864 0.00400394
0.0884767 0.582123 -0.687759 0.00544399
0.0584402 0.589944 -0.683569 0.000366031
0.0970494 0.599729 -0.658991 0.000733938
0.0657643 0.607537 -0.654257 0.00633956
-0.663394 -0.486699 0.0854819 0.00126756
-0.672965 -0.463403 0.0781255 0.000640169
-0.662086 -0.483402 0.118453 0.00366554
-0.672072 -0.460517 0.111921 0.00250488
-0.387749 0.349505 0.636226 0.00167644
-0.398803 0.357834 0.616517 0.0018651
-0.383472 0.323463 0.66328 0.00356244
-0.396903 0.330458 0.643083 0.00342964
-0.183656 -0.793076 0.143649 0.00252993
-0.21568 -0.796678 0.137904 0.00121588
-0.186415 -0.784519 0.172393 0.000264996
-0.218369 -0.788077 0.165514 0.000604439
0.202729 0.797484 -0.142014 0.00100438
0.176401 0.799314 -0.141695 0.0025994
0.19145 0.804636 -0.121796 0.000471215
0.165969 0.803332 -0.124955 0.000379711
0.850293 -0.026519 -0.319727 0.00912769
0.849385 -0.000879655 -0.332588 0.000868211
0.851978 -0.0261502 -0.28548 0.0105697
0.851673 -0.00156383 -0.298476 0.00151368
-0.384985 0.492543 -0.500157 0.000751259
-0.372007 0.514094 -0.4894 0.00050948
-0.413925 0.487009 -0.477518 0.00119422
-0.401749 0.50747 -0.467657 0.000284078
-0.745417 -0.274921 0.000882469 0.000211848
-0.754249 -0.254082 -0.00918708 0.000602132
-0.742652 -0.27707 0.0291604 0.00202794
-0.752432 -0.254455 0.0206492 0.000962275
-0.497177 -0.734193 -0.150644 0.00325093
-0.507335 -0.708558 -0.160135 0.000205492
-0.503242 -0.743571 -0.128208 0.00078587
-0.511949 -0.717294 -0.139268 0.0045445
0.585445 0.702755 0.0317548 0.00300868
0.57224 0.726902 0.0273272 0.000710664
0.57969 0.693256 0.0714478 0.00575621
0.567096 0.720432 0.0686943 0.00782508
-0.575491 0.450304 0.346641 0.00228051
-0.599856 0.445193 0.326119 0.00301228
-0.571929 0.424792 0.378148 0.000874209
-0.600571 0.417053 0.355444 0.00191555
0.153517 -0.657931 -0.489097 0.00551501
0.131394 -0.654269 -0.516332 0.000782929
0.153855 -0.672976 -0.462615 0.000911324
0.13081 -0.668863 -0.491292 0.00547988
-0.764827 0.140274 -0.473492 0.00127608
-0.747643 0.163193 -0.473709 0.00471145
-0.781145 0.136129 -0.448848 0.00592487
-0.766021 0.157955 -0.449537 0.00165769
0.331741 0.509016 -0.537832 0.00127238
0.298981 0.540081 -0.537492 9.73355e-05
0.341828 0.521612 -0.512238 0.000408837
0.310592 0.550624 -0.512562 0.00150557
0.641305 0.563194 0.158991 0.00539188
0.630028 0.587172 0.147263 0.00341249
0.633064 0.551879 0.190759 0.000394318
0.621969 0.576422 0.178981 0.00056849
0.777075 0.195647 -0.0390048 0.00107617
0.764898 0.22039 -0.0549792 0.00147224
0.781202 0.191871 -0.00412843 0.00358544
0.770056 0.21605 -0.019607 0.00179827
-0.026771 0.620035 0.609956 0.00220456
-0.0494084 0.62448 0.590464 0.000596673
-0.0335367 0.605402 0.642613 0.000190764
-0.0550288 0.610374 0.622901 0.00220058
0.349453 0.262751 0.714776 0.00224028
0.355128 0.294973 0.713487 0.00141848
0.331569 0.246234 0.724233 0.000213063
0.332848 0.277916 0.724805 0.00120393
-0.681253 0.278111 0.416823 0.000113774
-0.70511 0.273129 0.396874 0.000735493
-0.678868 0.25308 0.444325 6.53381e-05
-0.698555 0.252225 0.425012 0.000343374
0.659521 0.501914 -0.0245653 0.00054307
0.64912 0.524873 -0.0387806 0.000979119
0.659898 0.500076 0.0111913 0.000239559
0.650354 0.524215 -0.00138108 6.12463e-05
-0.291918 -0.810982 -0.103236 0.00022123
-0.321413 -0.807837 -0.113715 0.000578323
-0.298532 -0.8233 -0.070531 0.000383417
-0.32877 -0.821325 -0.0794978 0.000971887
0.762799 -0.226604 -0.279655 0.0012166
0.773975 -0.197049 -0.287374 0.00131921
0.762201 -0.235322 -0.25436 0.00133511
0.773706 -0.206278 -0.261692 0.00172188
-0.698285 0.408071 -0.249894 0.00327108
-0.68187 0.434125 -0.250881 0.00276843
-0.70575 0.399061 -0.224654 0.00703018
-0.689997 0.426716 -0.224844 0.00218017
-0.771008 0.206182 -0.0309655 0.000832752
-0.761666 0.233907 -0.0338813 0.000331195
-0.770836 0.198712 -0.00779556 0.0036585
-0.762755 0.226917 -0.00637765 0.00114607
-0.00749385 -0.0300547 0.847817 2.67667e-05
-0.0247991 -0.000909263 0.843724 0.00237711
-0.0302937 -0.0464907 0.851379 0.0114884
-0.0488479 -0.0182869 0.84785 0.0148119
0.424577 0.181308 -0.689699 0.0011385
0.405983 0.200559 -0.697572 0.00185998
0.443437 0.176762 -0.677347 0.00367191
0.422306 0.197475 -0.686203 0.00293746
0.109279 -0.650216 0.53009 0.00190684
0.0848696 -0.646196 0.543537 0.0029494
0.0997805 -0.632737 0.566782 0.00133229
0.0730683 -0.627318 0.581303 0.00121304
0.200909 0.48213 -0.695191 0.00106435
0.169802 0.498315 -0.704718 0.00205063
0.213174 0.492038 -0.670514 0.000380623
0.182899 0.508976 -0.680744 0.00217519
0.611751 -0.425378 -0.338813 0.00025636
0.593779 -0.428773 -0.357204 0.00194687
0.607004 -0.454277 -0.318547 0.00198798
0.604216 -0.442728 -0.334284 0.00279639
0.677555 -0.180459 -0.520308 0.00111675
0.642724 -0.189603 -0.544659 0.000344953
0.680865 -0.205978 -0.490782 0.000715264
0.653131 -0.212539 -0.513952 0.00186842
0.0835313 -0.644748 0.542402 0.00119098
0.0546678 -0.641769 0.551874 0.00178722
0.0680699 -0.625334 0.576331 0.00484108
0.0387816 -0.62113 0.588 0.00460532
-0.0595124 -0.548509 0.760658 0.00444746
-0.0876734 -0.54455 0.753317 0.00528677
-0.0520466 -0.530661 0.78487 0.0050849
-0.0802286 -0.525144 0.777879 0.00396586
-0.829191 0.0687661 0.411489 0.0044894
-0.812629 0.100671 0.408023 0.00040246
-0.829608 0.0542708 0.441789 0.00029508
-0.812417 0.0851064 0.436641 0.0053487
-0.631209 0.578497 0.0791605 0.00142016
-0.623782 0.599369 0.0694434 0.00192791
-0.631046 0.572191 0.109023 0.000981448
-0.622904 0.593777 0.0993826 0.000886576
0.499473 -0.627038 -0.251376 0.00086771
0.467178 -0.643584 -0.273257 0.0044083
0.500858 -0.653373 -0.221371 0.000452565
0.475712 -0.661241 -0.244326 0.00282448
0.521152 0.0583825 0.651935 0.00032266
0.517908 0.0818828 0.652787 3.97981e-05
0.503783 0.0449815 0.65506 0.00295723
0.500521 0.0692513 0.65603 0.0032156
-0.0675936 0.449044 0.817203 0.00712718
-0.0880016 0.462878 0.799023 0.0152889
-0.0841343 0.414974 0.818596 7.68919e-05
-0.103618 0.431759 0.802806 0.00772313
0.496248 0.6452 0.236943 0.00115704
0.486428 0.663263 0.217718 0.00518234
0.481333 0.636168 0.268949 0.00581158
0.471203 0.657152 0.250734 0.00156031
0.606389 -0.339658 0.430115 0.000128645
0.609085 -0.318524 0.449167 0.000226926
0.58585 -0.337871 0.452962 0.000172044
0.587965 -0.316915 0.472382 0.000507634
0.0933245 -0.421344 -0.817744 0.00255983
0.0619895 -0.418178 -0.829334 0.0022043
0.0856341 -0.446371 -0.81647 0.00137449
0.0538463 -0.443683 -0.828795 0.00120644
-0.755881 -0.242681 -0.294495 0.00194247
-0.768204 -0.217481 -0.306434 0.000578456
-0.75377 -0.248445 -0.271202 0.00185703
-0.766863 -0.221445 -0.283711 0.000739726
0.261613 -0.463113 -0.655587 0.00226824
0.233266 -0.472738 -0.673926 0.00204619
0.257796 -0.487838 -0.629854 0.000517578
0.230043 -0.497668 -0.648482 0.000111719
-0.187276 0.816764 -0.0888545 4.89021e-05
-0.20966 0.810801 -0.102986 0.00047927
-0.189747 0.824958 -0.0639903 0.00116922
-0.212021 0.819363 -0.0782098 0.00132085
-0.271632 0.787685 -0.1643 0.000194794
-0.299012 0.780866 -0.17065 0.00429931
-0.266434 0.803084 -0.133166 0.00307723
-0.292478 0.796657 -0.140699 0.000237817
-0.744324 0.285907 0.21141 0.00268692
-0.734985 0.3105 0.208538 0.00273919
-0.744343 0.279006 0.239342 0.000241952
-0.733172 0.305665 0.239299 0.000680315
-0.683547 0.439291 0.0885349 0.000641049
-0.675957 0.461583 0.0827495 0.0015056
-0.683688 0.435136 0.110759 0.000709635
-0.676848 0.456767 0.10493 0.000618545
0.0322045 0.838738 -0.0253421 0.00208681
0.01273 0.835996 -0.0348187 0.00126788
0.0368578 0.84753 0.00698007 0.000424641
0.0176125 0.84472 -0.00413227 0.00406545
0.243599 -0.638288 -0.501697 0.00415556
0.22825 -0.63409 -0.521322 0.00420164
0.238715 -0.65142 -0.477664 0.00495726
0.223269 -0.646896 -0.498917 0.00421662
0.166157 0.416395 0.786831 0.000329725
0.163079 0.449167 0.781295 0.00990642
0.143188 0.400578 0.801531 0.00520341
0.141161 0.43324 0.795772 0.000899643
0.591695 -0.340406 0.443902 0.000220255
0.594335 -0.319973 0.462806 0.00042136
0.570254 -0.338831 0.467249 2.91197e-05
0.573938 -0.31853 0.484566 0.000375511
0.498814 0.528116 -0.348514 0.000544451
0.472804 0.541839 -0.359074 0.001542
0.515148 0.540171 -0.32197 0.000521845
0.490082 0.553815 -0.331986 0.000289997
-0.663281 0.255098 0.453169 0.00279241
-0.683241 0.254243 0.433437 0.00315551
-0.66506 0.235141 0.478684 0.00144293
-0.684368 0.234537 0.458606 0.000650407
0.709024 -0.376725 -0.00362746 0.00212003
0.713488 -0.348856 -0.0114209 0.00365651
0.708305 -0.381374 0.0277982 0.00310737
0.713606 -0.354004 0.0195793 0.00170921
-0.0101808 0.850542 0.00498067 0.00167578
-0.0300343 0.84927 -0.00824146 0.00165147
-0.00945907 0.848706 0.0341172 0.0103562
-0.0317 0.84984 0.017408 0.00545372
0.117965 -0.626324 0.594363 0.00251704
0.102528 -0.616411 0.614482 0.000433825
0.0930808 -0.612739 0.626665 0.00135204
0.0811053 -0.603286 0.644457 0.00112894
0.478901 -0.318539 -0.583523 0.0026438
0.45175 -0.326952 -0.602653 0.00287009
0.479806 -0.340346 -0.560264 0.00232788
0.456613 -0.349051 -0.578599 0.00454725
-0.660065 0.243818 -0.479946 0.00429684
-0.636571 0.273179 -0.473028 0.00369184
-0.680121 0.234277 -0.458659 0.00192122
-0.656591 0.26423 -0.450978 0.0026473
-0.497287 -0.752403 -0.133008 0.00364674
-0.506564 -0.727266 -0.144742 0.00126344
-0.506815 -0.761221 -0.106645 0.000984546
-0.516412 -0.738049 -0.117525 0.00253879
-0.0232818 -0.805613 0.113468 0.00158693
-0.0526268 -0.806316 0.11856 0.000886551
-0.033701 -0.793903 0.140933 0.00272684
-0.0636937 -0.7941 0.144544 0.00125342
0.776212 -0.19437 0.239157 0.000185222
0.787745 -0.165339 0.237925 0.000231751
0.775394 -0.194107 0.269437 0.00104315
0.786042 -0.168299 0.264809 0.000303301
-0.782588 0.181692 0.0168199 0.00124836
-0.774553 0.209765 0.0234968 0.00375702
-0.782207 0.176701 0.0402686 0.000887689
-0.774376 0.205139 0.0491045 0.0019414
-0.707298 -0.363655 -0.232206 0.00415621
-0.724383 -0.33537 -0.241772 0.00170968
-0.708013 -0.367098 -0.198468 0.0022598
-0.724898 -0.339709 -0.209923 0.00373896
0.52767 -0.585629 0.264397 0.000755987
0.539636 -0.565823 0.272477 0.000895617
0.497397 -0.595023 0.283404 0.000323668
0.509825 -0.573713 0.291803 0.000601152
-0.627936 -0.394896 -0.362721 0.00529266
-0.646251 -0.369799 -0.368692 0.00482635
-0.635877 -0.399506 -0.333108 0.00455821
-0.656848 -0.372289 -0.338004 0.00533606
-0.666266 0.174647 0.534917 0.000322258
-0.698725 0.167294 0.511466 0.000634889
-0.656379 0.153457 0.558556 0.00461657
-0.689139 0.146337 0.536478 0.00255914
0.444392 -0.632901 0.294485 0.00265965
0.458548 -0.604969 0.311029 0.00106028
0.41842 -0.636946 0.316593 0.00255536
0.432951 -0.607162 0.334096 0.00125621
-0.0149527 -0.0855805 0.84094 0.00373645
-0.0338367 -0.0610494 0.838406 0.000633612
-0.0326466 -0.116608 0.836359 0.00170305
-0.0528394 -0.0934461 0.833615 0.00293735
-0.666242 -0.475396 -0.0146548 0.00263934
-0.677481 -0.450436 -0.0348199 0.0010495
-0.662837 -0.482071 0.0253305 0.00343933
-0.673551 -0.458706 0.00704533 0.0017696
0.350834 0.133975 -0.717965 0.00123212
0.316631 0.143393 -0.729512 0.000185502
0.356866 0.115713 -0.712594 0.00163248
0.321942 0.124722 -0.724619 0.0028612
0.795485 0.140569 0.268498 0.00137903
0.787938 0.160212 0.258297 0.00141728
0.797209 0.139113 0.295441 0.000287732
0.790406 0.158952 0.287813 0.000439013
-0.392114 -0.771844 -0.210245 0.00139723
-0.40295 -0.755007 -0.22492 0.00374605
-0.400367 -0.780635 -0.187076 0.00134412
-0.411611 -0.763982 -0.201904 0.000641897
-0.703496 -0.342975 0.334895 0.00287523
-0.717579 -0.321578 0.335063 0.00125035
-0.692888 -0.32753 0.367589 0.00671028
-0.709472 -0.3045 0.367278 0.00280927
0.161791 0.712899 0.358416 0.000794441
0.127867 0.721822 0.342696 0.00193055
0.156814 0.699744 0.390802 0.00152685
0.123163 0.708001 0.376126 0.000950913
-0.11209 0.470091 -0.789994 0.00243123
-0.116598 0.498881 -0.768161 0.00418799
-0.138209 0.475052 -0.770788 0.00442569
-0.141219 0.5018 -0.751343 0.0103803
0.153245 0.66987 -0.470148 0.00112435
0.12626 0.670094 -0.473397 0.000245115
0.150916 0.684613 -0.439919 0.00186071
0.123774 0.684573 -0.443473 0.00309136
-0.727244 0.333593 0.251312 0.00374829
-0.715192 0.362471 0.253686 0.00279527
-0.721845 0.324828 0.286742 0.00442272
-0.709542 0.358053 0.290199 0.00405972
-0.562384 -0.46359 0.354616 0.00242794
-0.583225 -0.449405 0.343933 0.00010253
-0.555362 -0.443711 0.379078 0.00101809
-0.573369 -0.432385 0.371554 0.000533197
-0.271065 -0.74105 -0.288759 0.000645487
-0.30085 -0.734845 -0.300585 0.000930506
-0.265612 -0.752172 -0.261498 0.00130865
-0.296045 -0.745545 -0.271698 0.00124256
-0.531347 -0.624231 -0.220932 6.87712e-05
-0.542421 -0.603455 -0.232278 0.00102143
-0.538416 -0.637289 -0.195226 0.00315006
-0.549969 -0.615581 -0.207861 0.0017194
0.444574 -0.760953 -0.177986 0.00411539
0.425487 -0.759446 -0.199321 0.00454209
0.434594 -0.778708 -0.157537 0.00320093
0.416472 -0.774638 -0.178316 0.00401723
0.206583 0.549241 0.622245 0.000970329
0.19123 0.568606 0.616557 3.8663e-06
0.195831 0.539447 0.641976 0.000500225
0.179359 0.559541 0.635999 0.000860232
0.154031 0.818795 -0.086114 0.00096859
0.128814 0.818099 -0.0894983 0.00152618
0.141046 0.829782 -0.052279 0.000843345
0.11561 0.829055 -0.0563489 7.00877e-05
0.354089 0.210536 -0.718022 0.00244644
0.341367 0.241159 -0.719537 0.000677555
0.373301 0.199588 -0.709415 0.00126353
0.36049 0.227336 -0.710661 0.0021445
-0.574036 -0.222917 -0.582512 0.00177714
-0.584158 -0.201334 -0.590033 0.000499671
-0.594649 -0.229245 -0.560385 0.00455635
-0.604535 -0.208009 -0.568912 0.00292516
0.512871 0.83968 -0.0225959 0.000714361
0.488801 0.851746 -0.0346103 0.0133717
0.51105 0.838347 0.0160574 0.00576431
0.48689 0.851076 0.00410506 0.00186242
-0.114597 0.523845 0.729196 0.00504841
-0.13528 0.523467 0.711678 0.00344014
-0.1183 0.491073 0.750817 0.00935018
-0.139818 0.490783 0.732074 0.00791443
-0.784614 -0.168705 0.0840967 0.00149244
-0.798184 -0.14644 0.0688005 0.00323812
-0.779481 -0.172832 0.120006 0.00481567
-0.7961 -0.147677 0.102613 0.00173255
-0.131816 -0.777311 -0.191862 5.32872e-05
-0.158342 -0.776178 -0.197529 0.000910051
-0.14539 -0.786427 -0.171179 0.00108389
-0.169038 -0.784751 -0.178132 0.00199844
0.586193 -0.488053 -0.305344 0.00185114
0.57633 -0.482164 -0.323995 0.00352487
0.589534 -0.516947 -0.273862 0.00228664
0.579061 -0.509525 -0.294638 0.0039492
-0.293851 -0.665136 -0.420688 0.0018986
-0.303353 -0.649601 -0.431013 0.00437576
-0.305778 -0.678138 -0.395547 0.00177685
-0.314108 -0.66389 -0.40585 0.00430781
0.734619 -0.139375 -0.507775 0.00310975
0.753089 -0.106973 -0.519084 0.00159433
0.731251 -0.163532 -0.476757 0.00279736
0.757388 -0.128858 -0.484312 0.00336341
-0.365715 0.0459373 0.710472 0.000456155
-0.405491 0.0631213 0.695586 0.000170852
-0.3609 0.0141036 0.712362 0.000408973
-0.400574 0.0306896 0.697745 9.14863e-05
-0.495872 -0.736144 -0.150234 0.00338688
-0.50603 -0.710509 -0.159724 6.95809e-05
-0.501602 -0.745707 -0.127801 0.000735068
-0.510309 -0.71943 -0.13886 0.00449354
0.853902 -0.00302909 0.390466 0.00411817
0.851351 0.0250495 0.374801 0.00959187
0.847248 -0.000771906 0.417711 0.0029031
0.845111 0.0274598 0.401886 0.0046226
0.807288 -0.108998 0.0913056 0.00161734
0.815706 -0.0888283 0.0745083 0.000948555
0.805648 -0.117266 0.128238 0.000199457
0.813595 -0.0973202 0.111856 0.000109209
-0.376314 0.816149 0.103719 0.00477853
-0.39154 0.820287 0.0771897 0.000821721
-0.379607 0.802549 0.128471 0.0009025
-0.394873 0.806803 0.100573 0.0050757
-0.662596 0.479086 -0.234175 0.000304671
-0.645524 0.501736 -0.233105 0.00229695
-0.68055 0.473971 -0.210191 0.010217
-0.663688 0.497605 -0.209461 0.00289799
-0.575821 -0.0633972 0.629345 0.0012755
-0.600469 -0.0433529 0.621458 0.00014962
-0.563172 -0.086301 0.632424 0.00291227
-0.594659 -0.0768393 0.620293 0.00301123
0.577413 -0.459273 0.337671 0.00117094
0.58906 -0.441026 0.345961 0.000194828
0.553146 -0.462311 0.358642 0.00131873
0.56534 -0.443889 0.365812 0.000775816
-0.681209 -0.0342064 0.587661 0.00260918
-0.702948 -0.00562756 0.581006 0.00106928
-0.666181 -0.0501524 0.593835 0.00220616
-0.68697 -0.0186399 0.587032 0.00114078
0.720219 -0.336224 0.0870368 0.00187609
0.729312 -0.305461 0.0772449 0.00435878
0.718365 -0.342549 0.115175 0.00135139
0.728473 -0.31341 0.105006 0.00230581
0.226189 0.337916 -0.773647 0.0087699
0.194548 0.355327 -0.782195 0.00546762
0.25256 0.353349 -0.752198 0.00185751
0.219787 0.370059 -0.761716 0.00466021
0.419788 0.481433 -0.472982 0.00125972
0.378723 0.500021 -0.493717 0.00226497
0.43435 0.49402 -0.444301 0.00214426
0.397336 0.512251 -0.461908 0.00282263
0.716747 -0.332125 -0.334036 0.00376491
0.732294 -0.308164 -0.340724 0.00276837
0.719943 -0.336666 -0.302865 0.0019763
0.736113 -0.311291 -0.308521 0.0040748
0.222618 0.500285 0.652583 0.000519628
0.207173 0.520613 0.646499 0.00121247
0.207534 0.493566 0.672589 0.00155698
0.192613 0.513669 0.668179 0.00111206
0.525554 0.154942 0.649334 0.000535565
0.51448 0.176171 0.646244 0.00737476
0.506575 0.140216 0.660615 0.00322811
0.49997 0.16525 0.658437 0.00116343
-0.6253 0.230438 0.518907 0.00100635
-0.646794 0.233069 0.498435 0.00110329
-0.624214 0.201856 0.545506 0.00277904
-0.644618 0.204665 0.524978 0.00122683
-0.456683 -0.123456 -0.676774 0.000519173
-0.468364 -0.0905044 -0.67294 0.00110689
-0.48129 -0.134198 -0.66667 0.000136831
-0.494511 -0.102437 -0.662951 0.00110642
0.745868 0.029092 0.563653 0.00196264
0.743365 0.0609799 0.563224 0.00325657
0.718904 0.0179536 0.577164 0.00103355
0.71778 0.0474879 0.578493 0.0018747
-0.717382 -0.347457 0.103873 0.00051777
-0.726982 -0.323994 0.0943687 7.86692e-05
-0.716556 -0.345765 0.140554 0.00189369
-0.725896 -0.323423 0.129149 0.00113937
0.439616 0.28628 -0.646308 0.00241419
0.406706 0.302871 -0.658709 0.00467696
0.458547 0.296623 -0.623679 0.001423
0.425798 0.312999 -0.636018 0.000908126
0.324088 0.406759 0.650969 0.00313609
0.315864 0.43396 0.634646 0.00466766
0.300908 0.393189 0.677572 0.00272208
0.29316 0.419908 0.662711 0.000349059
-0.580916 -0.275638 0.520629 0.000460972
-0.613421 -0.267107 0.502157 0.00363731
-0.56557 -0.262632 0.545029 0.00182222
-0.59434 -0.251272 0.532253 0.000854041
0.558273 0.204291 0.610795 0.0017479
0.543186 0.225767 0.605175 0.00130335
0.546482 0.196133 0.627477 0.00363323
0.53143 0.218071 0.622337 0.00262515
-0.663859 -0.203593 0.512473 0.00204315
-0.69453 -0.19146 0.494735 0.00250476
-0.647213 -0.186792 0.542796 0.000238771
-0.678685 -0.175307 0.523791 0.000805371
0.349206 -0.736542 0.276458 0.00795498
0.318679 -0.743313 0.285459 0.0015823
0.31937 -0.727867 0.302909 0.00661913
0.287873 -0.735072 0.313691 0.00395969
0.321052 -0.0175763 -0.729262 0.00115862
0.29665 -0.00574085 -0.737988 0.000601366
0.32527 -0.0474908 -0.727775 0.00127479
0.304713 -0.0306338 -0.734379 0.000107188
-0.0896261 0.587627 -0.695046 0.00229711
-0.0822874 0.608135 -0.682448 0.0169587
-0.105991 0.587142 -0.67393 0.00538233
-0.0985866 0.608281 -0.660261 0.00917708
0.64187 -0.547084 0.113631 0.000172525
0.655071 -0.520898 0.104229 0.00316134
0.638622 -0.545359 0.150867 0.00347663
0.651444 -0.521433 0.140674 3.61728e-05
0.195947 0.787541 0.170959 0.00204601
0.171307 0.792567 0.154399 0.000832734
0.185062 0.773213 0.199141 0.00128456
0.161393 0.777757 0.183395 0.00265739
0.156091 -0.587805 0.62849 0.00231193
0.160835 -0.572589 0.645469 0.0014438
0.125987 -0.588087 0.651184 0.00642672
0.131504 -0.571422 0.664536 0.0051527
-0.44084 -0.38847 -0.544943 0.00123135
-0.459259 -0.366382 -0.551983 0.000715962
-0.45016 -0.402565 -0.51394 0.00561175
-0.469659 -0.379449 -0.522039 0.00302359
-0.20329 -0.0121651 -0.771215 0.00167118
-0.207694 0.0170535 -0.769896 0.00133299
-0.234254 -0.0256447 -0.762252 0.00100213
-0.23835 0.00302149 -0.7609 0.00120076
0.123896 -0.764382 0.225559 0.000110121
0.0954571 -0.764987 0.224099 6.56881e-05
0.123541 -0.7558 0.251143 0.00100188
0.0942395 -0.756356 0.250403 0.00125712
0.497125 -0.518838 -0.365173 0.0027424
0.470333 -0.529053 -0.380518 0.00203113
0.501922 -0.537529 -0.341913 0.00287382
0.472686 -0.551035 -0.357994 0.00307601
0.135286 -0.659383 -0.484841 0.00567754
0.112258 -0.655307 -0.513357 0.000689954
0.132863 -0.674009 -0.458807 0.00130559
0.110722 -0.670569 -0.486132 0.00523316
-0.332653 0.84862 -0.00981213 0.00160384
-0.352223 0.851735 -0.020208 0.00822271
-0.34277 0.848613 0.0198314 0.00517249
-0.358206 0.852225 0.00601994 0.00361902
-0.499823 -0.245108 0.638992 0.00435188
-0.535128 -0.215384 0.636308 0.00602522
-0.478351 -0.241362 0.655287 0.000800137
-0.508725 -0.208947 0.653359 0.00278263
0.0180096 0.186111 -0.843714 5.47455e-05
-0.0166045 0.194307 -0.855415 0.0103756
0.0162638 0.166837 -0.843591 0.000791773
-0.0191808 0.17401 -0.856289 0.0121106
0.464964 0.194287 -0.674681 0.00152006
0.44139 0.215866 -0.684238 0.00203554
0.481787 0.194797 -0.660288 0.00592136
0.456889 0.215449 -0.670251 0.00550071
-0.356437 -0.397235 -0.618602 0.0023727
-0.381188 -0.375415 -0.620325 0.000313587
-0.378879 -0.399158 -0.59788 0.000270538
-0.402621 -0.377048 -0.600614 0.00224953
-0.786508 -0.16356 -0.0232389 0.00155872
-0.795818 -0.141579 -0.0378368 0.000707104
-0.784263 -0.169146 0.00107793 0.00166297
-0.793501 -0.14692 -0.0146354 0.000965363
-0.802618 0.132858 -0.0592902 0.00253163
-0.792913 0.155624 -0.0674868 0.00159261
-0.802688 0.127079 -0.031632 0.000535505
-0.793995 0.151758 -0.0384139 0.00122374
-0.542988 0.131986 0.644512 0.00117959
-0.579197 0.14559 0.630988 0.00146345
-0.533395 0.115423 0.647889 0.000912147
-0.570231 0.126159 0.633634 0.000736254
-0.283108 -0.24276 -0.740973 0.00144266
-0.287866 -0.215394 -0.74294 0.00209227
-0.303701 -0.248345 -0.729912 0.00442635
-0.3074 -0.218479 -0.73442 0.00110472
-0.279366 0.804223 0.125225 0.00130827
-0.296467 0.808684 0.108789 0.000386869
-0.286902 0.793115 0.149177 0.000520335
-0.304526 0.797137 0.132999 0.00253784
-0.139252 -0.7304 -0.313847 0.00034964
-0.163995 -0.726236 -0.326698 0.000346225
-0.140188 -0.740137 -0.29252 0.00113388
-0.167252 -0.736385 -0.304014 0.00173178
-0.203039 -0.651566 0.518436 0.00099167
-0.22828 -0.644815 0.509521 0.00359685
-0.194496 -0.643823 0.545486 0.00428436
-0.219837 -0.635635 0.534764 0.0079974
-0.576845 -0.442044 -0.357671 0.000101609
-0.58723 -0.421856 -0.373737 0.00371744
-0.582114 -0.456502 -0.326884 0.00628472
-0.591727 -0.436615 -0.343139 0.0028316
-0.179095 0.158322 -0.78002 0.00207751
-0.188146 0.188152 -0.778904 0.000108838
-0.202698 0.149574 -0.771672 0.00145514
-0.213423 0.180064 -0.770988 0.00173098
-0.667093 0.48863 -0.158606 0.00287684
-0.652305 0.511688 -0.163132 0.00271013
-0.677142 0.48516 -0.13509 0.0110266
-0.663953 0.509643 -0.142479 0.00744138
-0.432518 0.335184 -0.608357 0.000188215
-0.424844 0.356016 -0.596272 0.000431667
-0.45094 0.333344 -0.589242 0.00165078
-0.442661 0.352953 -0.578654 0.00122286
0.0335264 -0.320508 -0.843903 0.00565783
0.00546211 -0.302616 -0.845643 0.00272888
0.0107415 -0.335051 -0.848954 0.00224733
-0.015683 -0.315707 -0.849665 0.00467465
-0.653424 -0.199719 0.527279 0.00233014
-0.683712 -0.187508 0.509326 0.00240117
-0.634594 -0.183412 0.556941 0.000832549
-0.665721 -0.170893 0.538913 0.000497028
0.640728 -0.540423 -0.0659641 0.00327009
0.64956 -0.519797 -0.0695946 0.0023797
0.640481 -0.546532 -0.04043 0.00132172
0.65033 -0.523767 -0.0446636 0.000243792
0.676422 0.325112 0.368312 0.00377483
0.665035 0.352534 0.359862 0.000606384
0.664328 0.314115 0.392296 0.00325973
0.653805 0.338474 0.383614 0.00028254
0.676901 0.468385 0.131911 0.00481508
0.662782 0.494806 0.117426 0.0010534
0.673973 0.460395 0.160709 0.000772002
0.662616 0.486122 0.145438 0.00219943
0.255583 -0.377857 0.743992 0.000603805
0.25545 -0.352786 0.758601 0.0051558
0.219612 -0.385431 0.756366 0.00864828
0.22012 -0.360857 0.768837 0.00211102
0.703015 -0.393179 0.279903 0.00237679
0.718385 -0.372523 0.276604 0.00936494
0.680489 -0.398573 0.301347 0.00232252
0.695972 -0.378837 0.302595 0.000589264
-0.618386 -0.488471 0.273635 0.00237068
-0.642797 -0.470179 0.258965 0.00256607
-0.601563 -0.480879 0.303406 0.00546308
-0.627402 -0.463182 0.288736 0.00169461
0.171221 0.700759 0.392272 5.39725e-05
0.137554 0.708481 0.377687 0.00195589
0.158635 0.689246 0.42455 0.000706033
0.126536 0.695614 0.411951 0.00216019
0.618433 0.178341 0.574213 0.00311784
0.602933 0.199796 0.577617 0.00228405
0.5998 0.170791 0.594998 0.0062358
0.58213 0.191041 0.600969 0.00129946
-0.674515 0.468455 0.211502 0.00261091
-0.670006 0.486839 0.2034 0.0049591
-0.671806 0.45629 0.236489 0.00426149
-0.66669 0.47525 0.228132 0.00227348
-0.573454 0.728913 0.0749665 0.00114085
-0.56305 0.754053 0.0633205 0.002333
-0.565705 0.722872 0.107727 0.0115009
-0.55511 0.74781 0.0949254 0.0123908
0.652642 0.187347 -0.536115 0.000163602
0.627055 0.205523 -0.543921 6.4033e-05
0.669948 0.196118 -0.510699 0.000218655
0.644777 0.211682 -0.521099 0.000676493
-0.0766017 -0.646454 -0.531609 0.00106542
-0.0998037 -0.639302 -0.552654 0.000239245
-0.0770204 -0.658702 -0.501353 0.000422246
-0.101945 -0.652381 -0.522121 0.00108457
0.789893 0.164417 -0.0855768 0.00190965
0.776852 0.189035 -0.101573 0.00149025
0.79172 0.168915 -0.0515295 0.0052208
0.78023 0.193217 -0.0669752 0.00315644
-0.817435 0.0874475 -0.175027 0.000173721
-0.810698 0.110045 -0.178943 0.00194246
-0.816905 0.0880111 -0.15017 0.000120163
-0.81071 0.111692 -0.155204 0.00254089
0.380352 -0.321613 0.674647 0.000131036
0.387184 -0.297211 0.687469 0.00260988
0.354095 -0.327963 0.690532 0.00218919
0.36036 -0.303791 0.704323 0.00456599
0.0233111 -0.559922 0.795705 0.0123314
0.0159071 -0.53319 0.823235 0.00234053
-0.00246361 -0.550454 0.81443 0.0101671
-0.011422 -0.525744 0.837342 0.0010828
0.338312 -0.727027 0.293819 0.00994732
0.307042 -0.733723 0.305441 0.000244986
0.312398 -0.716052 0.324481 0.00995808
0.280803 -0.723412 0.335597 0.000883601
-0.511205 -0.445103 0.422622 0.00146958
-0.529242 -0.43234 0.416722 0.00110753
-0.499746 -0.434873 0.445744 0.00229616
-0.518442 -0.422246 0.440418 0.0027253
-0.82651 0.0644952 -0.216832 0.000460731
-0.820359 0.086421 -0.220538 0.00253962
-0.823628 0.0654866 -0.191987 0.00187776
-0.817141 0.0880702 -0.195719 0.000122001
0.442858 0.0970039 -0.681523 2.31179e-05
0.410825 0.103143 -0.693344 0.000362339
0.450466 0.0688074 -0.678104 0.000457295
0.41818 0.0803683 -0.690376 0.00051095
-0.609438 -0.617561 0.152048 0.00153294
-0.633184 -0.600124 0.135686 0.0109805
-0.596744 -0.612715 0.179646 0.007342
-0.620263 -0.59717 0.162414 0.00199627
0.852242 -0.00161203 0.414866 0.00206269
0.850106 0.0266197 0.399041 0.00898893
0.850175 -0.00619164 0.449168 0.00176543
0.849315 0.0222697 0.435315 0.00669794
0.815989 0.0936996 -0.237456 0.00105348
0.803281 0.13066 -0.253196 0.00236773
0.817077 0.0832594 -0.203007 0.00165419
0.804811 0.124038 -0.219815 0.0014345
0.308589 -0.621435 0.444498 0.00107517
0.317908 -0.600896 0.460671 0.00178362
0.283799 -0.622228 0.464789 0.00321502
0.290434 -0.602121 0.482872 0.000553179
0.00154302 -0.487388 -0.849304 0.000707229
-0.01388 -0.466953 -0.85283 0.00698851
-0.0177034 -0.505173 -0.835839 0.00752023
-0.0310701 -0.485093 -0.841328 0.00237613
-0.68752 0.330212 -0.361926 0.00188984
-0.67582 0.352952 -0.355636 0.00463408
-0.711876 0.324467 -0.334939 0.00294656
-0.699767 0.347057 -0.329303 0.000148513
0.523715 -0.624182 0.22788 0.000352559
0.536232 -0.605271 0.236266 0.000799357
0.498982 -0.629791 0.246107 0.000868553
0.510887 -0.609399 0.256272 0.000100242
-0.275239 -0.496991 -0.605035 0.000507397
-0.283312 -0.473239 -0.61858 0.000723844
-0.280754 -0.513504 -0.581929 0.000112664
-0.292904 -0.490246 -0.590007 0.00186213
0.427462 0.60803 -0.342816 0.00111009
0.397428 0.617798 -0.359265 0.0010933
0.442924 0.61595 -0.318676 0.000673862
0.412698 0.625615 -0.335069 0.00173317
0.349801 -0.842642 0.0122394 0.0031143
0.324412 -0.844152 0.000409663 0.00592427
0.347019 -0.840935 0.0372927 0.00422938
0.322602 -0.842792 0.0264919 0.00211078
-0.0633483 -0.289235 -0.825887 0.000530697
-0.068519 -0.253943 -0.822886 0.00148891
-0.0980304 -0.311599 -0.813054 0.000142966
-0.100949 -0.277594 -0.812108 1.4921e-05
0.276324 -0.767396 -0.215414 0.00091431
0.260892 -0.761599 -0.233624 0.000166594
0.274735 -0.778519 -0.191664 0.0010043
0.258175 -0.773727 -0.208481 0.0025271
-0.644135 0.34655 0.384653 0.000602869
-0.680256 0.331299 0.358444 0.00368684
-0.634027 0.332603 0.41074 0.000569328
-0.669786 0.318001 0.38516 0.00198485
-0.41183 0.722748 0.23619 0.00324427
-0.431407 0.723826 0.216455 0.00271327
-0.415929 0.704995 0.256457 0.000574225
-0.434707 0.703446 0.237993 0.000138232
0.585469 -0.690705 -0.033437 0.00126763
0.598345 -0.663878 -0.0447793 0.0011853
0.589881 -0.688167 0.00567213 0.00194772
0.601463 -0.663029 -0.00487991 0.00379494
-0.0263506 -0.567782 0.746233 0.00202505
-0.0557628 -0.568127 0.738322 0.000477113
-0.0210579 -0.554965 0.772971 0.000409295
-0.0468388 -0.550588 0.768932 0.00578683
0.138845 -0.221149 0.798595 0.000910868
0.140289 -0.191896 0.798895 0.00170694
0.113113 -0.238291 0.805732 0.00160227
0.111604 -0.20943 0.806565 0.0013624
-0.0840655 0.752411 -0.259438 0.000796497
-0.111389 0.751288 -0.2584 0.000622407
-0.0864039 0.766805 -0.224044 0.00161296
-0.112661 0.766604 -0.22193 0.000670283
-0.730837 -0.311151 -0.0546169 0.000903687
-0.739568 -0.289537 -0.0666504 0.00046194
-0.730653 -0.309572 -0.0233805 0.00163917
-0.739639 -0.287248 -0.0323849 0.00121223
-0.23126 -0.8491 -0.00274607 0.000468398
-0.268011 -0.84668 -0.0096494 0.000266546
-0.237947 -0.84353 0.0260221 0.00263227
-0.272747 -0.843257 0.0180145 0.000479465
-0.807101 0.113474 0.233483 0.000194875
-0.800733 0.13615 0.223262 0.00194649
-0.804943 0.110192 0.264313 0.00338147
-0.797877 0.13233 0.255478 0.00208508
-0.309302 0.409117 -0.660655 0.00155303
-0.296753 0.430814 -0.649197 0.000219541
-0.326505 0.410628 -0.642473 0.00185991
-0.31242 0.428538 -0.633524 0.00109814
0.155168 -0.185467 -0.790849 0.000498427
0.123356 -0.163283 -0.802469 0.000997294
0.159293 -0.214726 -0.792386 0.00240983
0.129682 -0.189767 -0.802111 0.000925443
-0.309265 0.842898 0.014663 0.0020102
-0.324335 0.846726 0.00340672 0.00244987
-0.32236 0.838386 0.0430277 0.00389397
-0.33609 0.842681 0.0293664 0.00303274
-0.750188 0.0373013 -0.566959 0.00266658
-0.747372 0.0613652 -0.561684 0.00326537
-0.774698 0.0356077 -0.548034 0.00626836
-0.773604 0.0615762 -0.546475 0.00304387
-0.83187 0.0464854 -0.093134 0.000960082
-0.827021 0.0733143 -0.101432 0.0040856
-0.833978 0.0397592 -0.0621694 0.00139004
-0.827943 0.0643083 -0.0701915 0.00173219
0.182112 0.722894 0.328852 0.00200658
0.148479 0.73272 0.312172 0.00122025
0.17853 0.709499 0.36208 0.00266271
0.144379 0.718441 0.346296 5.6973e-05
-0.21726 -0.639438 -0.513919 0.00333001
-0.237408 -0.62655 -0.523765 0.00654699
-0.219017 -0.654486 -0.488805 0.00812787
-0.240001 -0.642731 -0.50235 0.00501987
-0.422568 0.383264 0.567976 0.00148734
-0.4457 0.377351 0.550635 0.00155825
-0.423852 0.358801 0.59192 0.00104571
-0.440128 0.362997 0.570256 0.00173519
0.302922 0.459685 -0.616541 0.00159627
0.276777 0.47969 -0.623458 0.00204375
0.314166 0.471444 -0.592936 0.00124838
0.287844 0.491271 -0.600436 0.00182891
-0.365901 0.680058 0.325673 0.00274334
-0.382477 0.677408 0.309939 0.00378809
-0.370033 0.660468 0.346764 0.000510216
-0.38625 0.658519 0.331469 8.40795e-05
0.793228 -0.146555 0.402117 0.00134998
0.804187 -0.116154 0.389549 0.00196131
0.783519 -0.156706 0.434449 0.000985978
0.794475 -0.126531 0.423659 0.00733209
-0.769306 0.213089 -0.25939 4.04823e-05
-0.758858 0.2413 -0.257482 0.000345258
-0.772701 0.206511 -0.228815 0.000865912
-0.761955 0.234425 -0.227362 0.000785941
0.709054 -0.36488 -0.195867 0.0020791
0.719527 -0.340671 -0.198938 0.000935885
0.710712 -0.366572 -0.164184 7.41198e-05
0.721495 -0.342852 -0.169403 0.001681
0.604387 0.0276652 0.62147 0.00155806
0.600964 0.0480563 0.620309 0.000747438
0.575995 0.0146448 0.629976 0.000624353
0.573029 0.0350342 0.629119 0.00248245
-0.0912005 -0.554451 0.723848 0.00397487
-0.118965 -0.549769 0.714549 0.00398399
-0.0832646 -0.541793 0.750027 0.000750021
-0.11093 -0.535675 0.740671 0.00628892
0.830263 -0.0611149 -0.0605037 0.00275935
0.835433 -0.0327099 -0.0692028 0.00254616
0.82612 -0.0710568 -0.0272153 0.00243816
0.834273 -0.0398512 -0.036105 0.0010814
-0.425265 -0.218687 -0.689795 0.00147395
-0.428261 -0.18751 -0.691373 0.00401657
-0.446987 -0.232053 -0.67375 0.00576519
-0.452258 -0.205756 -0.674105 0.00355287
0.662342 0.509512 0.161837 0.00588962
0.649546 0.536073 0.149425 0.00341563
0.657192 0.497581 0.188548 0.00317907
0.644939 0.524284 0.175579 0.00509476
-0.188839 -0.363343 0.772814 0.00533271
-0.226042 -0.338968 0.763323 0.000927044
-0.161114 -0.364752 0.790226 0.00104163
-0.199085 -0.341041 0.780526 0.00552676
-0.533146 -0.191325 0.638772 0.00758674
-0.570488 -0.179614 0.629612 0.00192064
-0.510758 -0.188899 0.652828 0.00255357
-0.547597 -0.175544 0.643645 0.00201423
-0.516667 0.120726 -0.654943 0.00153145
-0.518872 0.138766 -0.653 0.000503969
-0.540048 0.113223 -0.647145 0.00259096
-0.541829 0.131658 -0.645066 0.00128396
-0.683827 0.437576 0.072266 0.000290812
-0.675847 0.46014 0.0659727 0.000887558
-0.685973 0.434136 0.0954798 0.00106882
-0.678164 0.456058 0.0895527 0.00159449
-0.627034 0.584506 0.124403 0.00033577
-0.619059 0.606854 0.115158 0.000185813
-0.621744 0.580809 0.151803 0.00659693
-0.613045 0.603478 0.141649 0.00663664
0.619797 -0.109369 0.61033 0.00334893
0.625868 -0.0855676 0.61814 0.00611327
0.588875 -0.115876 0.624658 0.000996942
0.593613 -0.0943347 0.630103 0.00577937
-0.106235 -0.322952 0.809447 0.000585644
-0.136676 -0.300584 0.802732 0.00400111
-0.100179 -0.336007 0.811018 0.00127878
-0.13062 -0.313638 0.804303 0.00330761
-0.0559078 -0.698316 -0.398254 0.000202439
-0.0927339 -0.695326 -0.419929 0.00473683
-0.0572957 -0.707898 -0.369354 0.00156192
-0.0904538 -0.704793 -0.389871 0.00285727
-0.421727 -0.392205 -0.562879 0.000246136
-0.442266 -0.370358 -0.568942 0.00299045
-0.436478 -0.401111 -0.529427 0.00540996
-0.454078 -0.378884 -0.538143 0.00304778
-0.536004 -0.277558 -0.561408 0.000816684
-0.542705 -0.254315 -0.573301 0.00350058
-0.554091 -0.288273 -0.537413 0.00196029
-0.561768 -0.263411 -0.551133 4.36896e-05
-0.335866 0.767614 0.216825 0.000207004
-0.354951 0.773716 0.195667 0.00205449
-0.343493 0.748548 0.245183 0.0078992
-0.36211 0.753906 0.226967 0.00939418
0.168287 -0.523643 0.682281 0.0012566
0.181138 -0.501085 0.694486 0.000186097
0.144882 -0.530584 0.699037 0.00108682
0.158758 -0.507324 0.71054 0.000136823
0.156494 0.588043 0.633196 0.000774981
0.13984 0.605597 0.63091 2.46699e-05
0.133489 0.586401 0.653049 0.00199154
0.116196 0.602768 0.650603 0.000580734
0.848898 -0.0126744 0.0276185 0.00288514
0.853332 0.0202226 0.0204353 0.0097199
0.845885 -0.0176243 0.0485733 0.0018367
0.851722 0.0136889 0.040689 0.00588543
-0.720924 0.343476 -0.0667814 0.00137016
-0.713143 0.365634 -0.0760487 0.00201018
-0.722786 0.337178 -0.0358407 0.000862571
-0.71486 0.358964 -0.0459723 0.00123296
-0.108234 -0.0578751 0.809886 0.000537828
-0.131304 -0.0264747 0.803081 0.00241004
-0.109373 -0.0965896 0.808074 0.00074911
-0.13224 -0.0650229 0.799799 0.000322302
-0.0501595 -0.523869 0.797049 0.0030641
-0.0737325 -0.513885 0.795818 0.00407222
-0.046198 -0.506924 0.816165 0.00409848
-0.0691325 -0.496419 0.816131 0.00305973
-0.0658535 0.657692 0.509652 0.00159618
-0.0925985 0.659241 0.498442 0.000956861
-0.0774618 0.649312 0.535985 0.00316573
-0.105293 0.649777 0.524431 0.000523424
0.517582 0.514866 0.344515 0.000332604
0.510587 0.533317 0.335091 0.00150606
0.504861 0.501286 0.368567 0.000964387
0.49566 0.520904 0.361459 0.000944643
-0.73412 -0.294278 -0.240976 0.00385867
-0.74802 -0.269844 -0.251105 0.000408208
-0.733857 -0.292934 -0.212437 0.0045839
-0.747568 -0.269089 -0.222543 0.000282812
0.185225 0.743901 -0.282326 0.00101408
0.160038 0.742834 -0.286112 0.00136761
0.183766 0.751017 -0.255038 0.00207568
0.158563 0.754833 -0.255357 0.00160247
0.169472 0.614126 -0.597571 0.00275981
0.136643 0.624889 -0.595181 0.00146829
0.170125 0.629891 -0.573807 0.00148062
0.140607 0.639016 -0.571705 0.00629073
0.51004 0.633065 0.235302 0.00116619
0.500533 0.650905 0.215916 0.00521419
0.496059 0.621339 0.268866 0.00570433
0.485091 0.640749 0.250202 0.00019853
0.0095537 -0.569744 -0.738213 0.000994613
-0.00127058 -0.55735 -0.756945 0.00389858
-0.00150473 -0.585286 -0.709591 0.00529869
-0.0105496 -0.572195 -0.728654 0.000127231
-0.509016 -0.811939 -0.0572371 0.00104377
-0.523333 -0.796899 -0.0697925 0.00787596
-0.513389 -0.816391 -0.0266117 0.0115434
-0.528431 -0.802331 -0.037942 0.00443513
0.336521 0.743525 -0.279731 0.000263559
0.300636 0.752433 -0.285805 0.0102254
0.350303 0.753805 -0.251661 0.000676206
0.313601 0.761796 -0.256248 0.00842498
0.481977 -0.661955 -0.238153 0.00328986
0.454895 -0.671457 -0.259445 0.0054335
0.469384 -0.691853 -0.213187 0.00113339
0.447243 -0.695154 -0.235198 0.000698675
-0.570962 -0.222001 0.586825 0.00196341
-0.600841 -0.207225 0.574069 0.00331716
-0.557017 -0.211964 0.600283 0.00411186
-0.589266 -0.188631 0.59647 0.00116818
0.838136 0.0284787 0.332416 0.0015299
0.83162 0.0546576 0.319139 0.00172235
0.835505 0.0192615 0.361619 0.00727631
0.828938 0.0466162 0.348319 0.00365232
0.0840545 -0.253321 0.823862 0.00496801
0.0725442 -0.229422 0.824337 0.00130369
0.0632339 -0.266758 0.827835 0.00124812
0.0485242 -0.24307 0.827711 0.00411745
0.508596 0.830712 -0.0453179 0.00475756
0.48471 0.843319 -0.0574834 0.0136599
0.508394 0.829252 -0.00683756 0.0175505
0.484156 0.840957 -0.0193768 0.00214192
-0.309212 -0.519069 0.544936 0.00182902
-0.332499 -0.499256 0.543739 0.000515072
-0.294006 -0.507568 0.571727 0.00177848
-0.315959 -0.488817 0.571229 0.000218083
-0.781442 -0.17191 0.122043 0.00331186
-0.797411 -0.146624 0.10472 0.00258209
-0.776272 -0.181149 0.155511 0.00484546
-0.792295 -0.153985 0.138408 0.000429777
0.246513 -0.614154 0.509083 0.00382931
0.248585 -0.59436 0.536282 0.00164028
0.222203 -0.6128 0.528495 0.00744044
0.223427 -0.594239 0.558228 0.000284845
-0.20136 -0.451414 -0.724389 0.000448077
-0.207196 -0.432686 -0.736605 5.77562e-05
-0.216307 -0.462538 -0.697422 6.91309e-05
-0.223829 -0.446766 -0.707106 0.000758823
-0.313373 -0.259733 -0.7298 0.00107904
-0.315599 -0.230187 -0.734944 0.00452035
-0.333266 -0.275753 -0.718096 0.00491435
-0.335586 -0.246041 -0.723059 0.000549923
0.781634 -0.172695 0.0383563 0.00285276
0.791907 -0.147298 0.0265389 0.00231946
0.777929 -0.185573 0.0695004 0.0017192
0.788058 -0.161246 0.0548126 0.000935672
0.350703 -0.422398 -0.605557 0.00131183
0.328866 -0.427586 -0.622306 0.00137055
0.350865 -0.448137 -0.579643 0.00130482
0.328389 -0.451885 -0.597678 0.000905361
-0.565592 -0.348662 0.461491 0.000370002
-0.593893 -0.329416 0.453775 0.000404406
-0.55769 -0.332519 0.488324 0.00124081
-0.583654 -0.314787 0.481085 0.00181449
-0.273744 0.466134 -0.643804 0.00421358
-0.261106 0.493077 -0.629687 0.00432189
-0.294635 0.462018 -0.623635 0.00225371
-0.28237 0.490771 -0.608466 0.0030153
0.556004 0.459698 -0.360074 0.000350834
0.529666 0.472263 -0.370746 0.00214129
0.574241 0.469467 -0.334084 0.000812244
0.548548 0.482902 -0.344092 0.000485743
-0.557825 -0.618381 -0.200482 0.000173119
-0.570111 -0.596955 -0.211749 0.0014011
-0.566563 -0.630548 -0.174053 0.00301671
-0.58039 -0.609011 -0.184914 0.00119709
0.606285 -0.00578893 -0.617362 0.00160218
0.568397 0.00257101 -0.632389 0.00108054
0.626841 -0.0214786 -0.61068 0.000508419
0.586429 -0.016121 -0.626799 0.000130422
0.151352 0.085867 -0.793693 0.000795778
0.114008 0.102032 -0.806511 0.000555593
0.143723 0.0517597 -0.799206 0.00322249
0.117001 0.0714994 -0.808149 0.00204249
-0.153975 0.763881 -0.230548 0.00120115
-0.18533 0.763488 -0.228952 0.0002652
-0.162351 0.776957 -0.198733 0.00206704
-0.192281 0.776216 -0.197495 0.000932764
-0.0974477 0.726984 -0.324643 0.000312469
-0.127932 0.724 -0.328483 0.00110564
-0.0924608 0.739577 -0.295908 0.00182048
-0.121624 0.736935 -0.297949 8.06602e-05
-0.501249 -0.52823 0.348944 0.00117527
-0.526891 -0.515534 0.335138 0.000679679
-0.490057 -0.516219 0.371538 0.000825229
-0.51425 -0.504925 0.359478 0.00130969
-0.759649 0.243679 0.201985 0.001934
-0.751539 0.264147 0.193827 0.00166305
-0.761615 0.236981 0.223989 0.00138013
-0.752901 0.258291 0.21919 0.00084481
-0.587301 -0.499716 0.295175 0.00335428
-0.612929 -0.482491 0.280133 0.00048092
-0.572527 -0.489482 0.322263 0.00455435
-0.597249 -0.4735 0.308469 0.00163506
-0.538793 -0.13797 -0.644748 9.67774e-05
-0.550051 -0.110733 -0.64376 0.00299621
-0.560765 -0.145013 -0.632475 0.0037233
-0.570401 -0.119418 -0.633894 0.00104051
-0.45167 0.367661 -0.558423 0.000790218
-0.441355 0.392502 -0.544786 0.00130293
-0.469843 0.362465 -0.540821 0.00187925
-0.455509 0.387992 -0.528732 0.00239632
-0.288937 0.267652 -0.746819 0.00609852
-0.288626 0.293738 -0.741041 0.000589493
-0.310531 0.262873 -0.733677 0.00152814
-0.307232 0.287803 -0.727964 0.00498613
0.568653 -0.314269 -0.494474 0.000584722
0.549512 -0.314019 -0.511509 0.000776396
0.570423 -0.33537 -0.470939 0.000201328
0.553514 -0.334428 -0.486901 0.000890295
0.212106 0.526383 -0.636953 0.000546329
0.187198 0.537561 -0.646882 0.00274057
0.226101 0.536874 -0.614408 0.000574099
0.202405 0.547541 -0.623339 0.00179128
0.185888 -0.10006 -0.78002 0.000346305
0.147014 -0.0940397 -0.793798 0.000653733
0.200901 -0.126963 -0.77491 0.000928412
0.163896 -0.117688 -0.788323 0.000257096
0.332296 0.491901 0.551717 0.000272444
0.323812 0.514944 0.538186 0.000321511
0.318694 0.480609 0.576951 7.47783e-05
0.309475 0.502743 0.56344 0.000418529
-0.713725 -0.350554 -0.114386 0.00282915
-0.723593 -0.327601 -0.128752 0.00180022
-0.71135 -0.355068 -0.085361 0.00343635
-0.720629 -0.33256 -0.0998551 0.00280053
0.330507 0.496416 -0.554076 0.00266395
0.296843 0.527532 -0.554258 0.00129902
0.340306 0.506675 -0.530091 0.000396055
0.307382 0.537558 -0.529834 0.000930253
-0.528618 0.14624 -0.65011 0.00128222
-0.530751 0.164048 -0.646637 0.00120033
-0.552848 0.141237 -0.641009 0.00142474
-0.55433 0.159906 -0.638291 0.000585941
-0.792014 0.0475064 -0.542725 0.00338295
-0.790437 0.073183 -0.540707 0.016133
-0.809296 0.0410085 -0.522425 0.00211172
-0.804744 0.0681098 -0.523843 0.0117276
-0.290688 -0.824621 0.0686239 0.000169368
-0.319441 -0.826106 0.0615541 0.000966826
-0.284917 -0.812907 0.0988686 1.86535e-05
-0.312911 -0.814887 0.0921413 0.00053124
-0.641877 -0.340006 -0.395402 0.000520383
-0.654515 -0.318462 -0.40525 0.0010639
-0.655998 -0.346223 -0.3704 0.00217115
-0.669689 -0.324715 -0.37905 0.00169174
-0.228234 -0.306321 0.76149 0.00185782
-0.265258 -0.291223 0.749466 0.00012302
-0.200747 -0.307982 0.778397 0.00413055
-0.240705 -0.293234 0.766313 0.00709711
-0.464923 -0.174827 -0.670587 0.00231938
-0.46958 -0.150497 -0.67152 0.000214704
-0.483315 -0.190067 -0.660266 0.00539736
-0.488596 -0.167846 -0.662779 0.00116517
0.312239 0.224643 0.729873 0.00141533
0.305828 0.255215 0.732355 0.00138503
0.293643 0.209943 0.737304 0.00111152
0.280586 0.241592 0.742665 0.000761595
-0.18117 -0.400515 -0.786334 0.00456112
-0.187935 -0.369243 -0.796346 0.0163287
-0.192625 -0.413238 -0.760533 0.00576759
-0.200953 -0.38538 -0.774477 0.000542025
0.252351 0.707108 -0.367079 0.00311142
0.224919 0.710024 -0.368809 0.000229964
0.25799 0.717617 -0.345004 0.00117411
0.23001 0.717113 -0.347915 0.000606255
-0.0336674 -0.816339 0.0842755 0.00198166
-0.0625356 -0.81686 0.0878102 0.000233741
-0.038765 -0.808193 0.109132 0.000723708
-0.0680437 -0.80869 0.11424 0.00156319
0.589453 -0.386183 -0.406348 0.00323104
0.564711 -0.394499 -0.42384 0.00384686
0.593196 -0.401993 -0.384791 0.00207411
0.566009 -0.412667 -0.402953 0.00302819
0.25549 -0.758871 -0.23532 0.00177623
0.23858 -0.753926 -0.250615 0.000936804
0.252144 -0.770464 -0.210612 0.000238875
0.234297 -0.766021 -0.225759 0.00149232
-0.324568 -0.144902 0.728054 0.00128496
-0.352535 -0.12607 0.719834 0.00358498
-0.313592 -0.165398 0.731867 0.000930304
-0.342086 -0.146494 0.723046 0.00285653
-0.400873 0.63855 0.334573 0.00137838
-0.416625 0.637184 0.320924 0.000953585
-0.401429 0.615847 0.357202 0.00110061
-0.416245 0.615237 0.34159 0.00191276
-0.442074 0.501426 0.423291 0.00553986
-0.45335 0.518312 0.410782 0.00349823
-0.442132 0.484067 0.442696 0.00432406
-0.453208 0.499601 0.430077 0.00375263
-0.303815 0.5786 0.492056 0.00110366
-0.32216 0.574032 0.478289 0.00109832
-0.305705 0.56212 0.508937 0.000217678
-0.323358 0.557417 0.495242 0.000212108
-0.857189 -0.00572579 0.461737 0.00815098
-0.855301 0.0214422 0.46425 0.0119946
-0.847359 -0.0143276 0.484192 0.00203676
-0.847069 0.010562 0.485519 0.000423257
0.319202 -0.444438 0.612521 0.000128143
0.327292 -0.425213 0.624579 0.000404124
0.291723 -0.448059 0.632808 0.00219077
0.299447 -0.43036 0.643247 0.00192326
-0.784988 -0.167757 0.0544314 0.00148166
-0.795476 -0.147768 0.0399024 0.00118281
-0.780325 -0.171548 0.088771 0.00448534
-0.794065 -0.149424 0.0730612 0.000455889
-0.07744 0.663376 0.493323 0.00107929
-0.103303 0.665416 0.482336 0.00093547
-0.0863826 0.653067 0.52111 0.00136468
-0.114714 0.653891 0.510326 0.0017145
0.596065 0.399803 0.380965 0.000256984
0.574633 0.421775 0.379636 0.000196811
0.576242 0.396716 0.403109 0.00018488
0.553186 0.417529 0.403239 0.00140336
0.789756 0.162761 0.375758 0.0011912
0.78122 0.182565 0.364411 0.000281758
0.784788 0.161719 0.404982 0.00382168
0.775329 0.181809 0.393607 0.00549156
-0.488066 0.752595 -0.138054 0.00134646
-0.478951 0.767469 -0.122657 0.00421985
-0.509335 0.75198 -0.114773 0.000171089
-0.49584 0.770056 -0.106474 0.00231818
0.337538 -0.658635 -0.391374 0.00644447
0.306356 -0.672645 -0.405259 0.00454645
0.330612 -0.67525 -0.37245 0.00111324
0.29988 -0.687352 -0.386315 0.00163763
0.467065 -0.585109 -0.323868 0.000197218
0.434317 -0.603123 -0.342006 0.00176783
0.477406 -0.609237 -0.295261 0.00318659
0.443641 -0.627131 -0.31514 0.00550088
-0.448842 -0.82199 -0.0987415 0.00845915
-0.463802 -0.808346 -0.10932 0.00293502
-0.451587 -0.828101 -0.0736984 0.00523137
-0.46719 -0.814501 -0.0842658 0.00370196
0.768702 -0.206945 0.0109843 0.00271549
0.780146 -0.179276 0.00362827 0.00189517
0.76787 -0.212737 0.0395455 0.00142643
0.778568 -0.186658 0.0304057 0.000735327
-0.634721 0.136797 -0.600358 0.00260496
-0.627533 0.16135 -0.59052 0.00173957
-0.66077 0.132178 -0.582528 0.000526587
-0.651728 0.159973 -0.568525 0.00221464
0.38289 -0.512684 -0.488704 0.00455837
0.364873 -0.509052 -0.509812 0.00424497
0.381487 -0.533995 -0.464013 0.00179689
0.364004 -0.529582 -0.485264 0.00142326
-0.237565 -0.190977 -0.759401 0.000479823
-0.244481 -0.16726 -0.758414 0.00106565
-0.263495 -0.202237 -0.749126 0.000823602
-0.273326 -0.179495 -0.747804 0.00144906
0.845111 -0.0326353 -0.401619 0.00646882
0.847907 -0.000787056 -0.415851 0.00228154
0.84417 -0.0408382 -0.365112 0.00851591
0.846459 -0.00928956 -0.380045 0.00060103
0.558826 0.773239 0.0343819 0.00329339
0.543899 0.796705 0.0270079 0.00228
0.554179 0.767783 0.0659237 0.00664128
0.539133 0.793634 0.056798 0.00760993
0.532722 -0.361866 0.479019 0.00160529
0.541119 -0.344168 0.488876 0.00128459
0.51103 -0.366497 0.498319 0.00031111
0.520059 -0.34811 0.508126 5.3108e-05
-0.166789 -0.170585 -0.786821 0.000113642
-0.168233 -0.143196 -0.785066 0.0012387
-0.187074 -0.187019 -0.778774 0.000394056
-0.189613 -0.16042 -0.777386 0.000786024
-0.353451 -0.847136 -0.00583969 0.00119956
-0.384241 -0.847531 -0.0150519 0.00245611
-0.365036 -0.843842 0.0245212 0.00238826
-0.394342 -0.845135 0.0141116 0.000117596
0.0515873 -0.637518 0.558438 0.000156951
0.0221691 -0.634188 0.568134 0.000505975
0.0486916 -0.620365 0.595505 0.00264228
0.0177717 -0.617496 0.604061 0.00227033
-0.699916 0.397873 -0.184974 0.00115625
-0.686786 0.427118 -0.184878 0.000675886
-0.697996 0.395737 -0.152619 0.00139888
-0.685601 0.424761 -0.15373 0.00262372
0.400158 0.416451 0.559972 0.000112963
0.390295 0.437866 0.550069 0.00106506
0.381654 0.402948 0.588965 0.00162753
0.371656 0.425706 0.577138 0.00108916
0.658328 -0.503649 0.14697 4.78003e-05
0.671221 -0.478443 0.133704 0.00309914
0.649699 -0.509969 0.178899 0.00575735
