-0.233246 0.340022 0.322273 0.00509109
0.44321 0.859853 -0.00626304 0.00274094
0.422884 0.850583 -0.0111721 0.00115824
0.439481 0.863584 0.0155183 0.000817793
0.42137 0.854585 0.00962235 0.00176512
-0.0628464 -0.791381 -0.178437 0.00291144
-0.0780927 -0.795101 -0.186584 0.000419392
-0.0694248 -0.793257 -0.160698 0.000192316
-0.0861287 -0.795456 -0.170512 0.00163276
-0.0670774 0.694797 0.0583886 0.00024489
-0.0837025 0.684962 0.0414907 0.00205563
-0.0751718 0.692661 0.0811194 0.00164377
-0.0897931 0.685773 0.063345 0.000974624
0.171965 -0.389907 0.33506 0.00168479
0.168998 -0.370517 0.341932 0.000348951
0.153511 -0.398101 0.338745 0.000564613
0.150625 -0.37791 0.346182 0.00161257
-0.00475437 -0.0672043 0.347482 5.01314e-05
-0.0264025 -0.0618374 0.345533 0.000103511
-0.000650619 -0.0582612 0.366121 0.000163477
-0.0203048 -0.0536944 0.363727 0.00048342
0.10092 -0.231387 -0.0522455 0.00210317
0.0823711 -0.232353 -0.0526308 0.00256975
0.0938703 -0.219745 -0.038255 0.00813817
0.0752594 -0.219357 -0.0395045 0.00184187
-0.0205941 -0.739706 0.313252 0.00239737
-0.0361645 -0.727691 0.3081 0.00265276
-0.0201089 -0.756688 0.319868 0.00693158
-0.0366867 -0.745568 0.314277 0.0028482
0.348062 -0.0469809 0.148152 0.000619215
0.361266 -0.0343894 0.148266 2.55985e-05
0.340761 -0.0487957 0.167078 0.000130473
0.354394 -0.0363839 0.168277 0.000113792
-0.434046 -0.346777 -0.0309356 0.000693584
-0.418068 -0.322241 -0.0228289 0.000603478
-0.423113 -0.355761 -0.0136062 0.00828184
-0.406968 -0.330152 -0.00231501 0.00446477
-0.339141 -0.195518 -0.285452 0.000762997
-0.350469 -0.184994 -0.287673 0.00740274
-0.341853 -0.195339 -0.268478 0.00446236
-0.352168 -0.183594 -0.271152 0.00233571
-0.375615 0.20584 -0.0384585 0.0019082
-0.392434 0.227002 -0.0467322 0.000812316
-0.37926 0.206918 -0.0224296 0.00164298
-0.395555 0.227376 -0.0307779 0.000852786
-0.319571 0.615918 -0.056152 0.000723615
-0.340013 0.612435 -0.0623346 0.0051712
-0.319945 0.622505 -0.034025 0.00418017
-0.340117 0.618502 -0.0435706 0.00312863
-0.173565 -0.216225 -0.0861952 0.000453131
-0.190983 -0.21371 -0.0994041 0.00371942
-0.178941 -0.220258 -0.0659049 0.000336523
-0.195555 -0.21748 -0.079395 0.00304448
-0.0513861 0.0573626 0.468183 0.00156735
-0.0679248 0.0713019 0.463287 0.00103685
-0.0404266 0.0728822 0.482472 0.000277542
-0.0554712 0.0863377 0.479319 0.000654284
0.489836 0.794607 0.0623832 4.18074e-05
0.482538 0.812836 0.0624611 0.00228027
0.471108 0.783387 0.0646866 0.00190709
0.464434 0.800879 0.0646171 0.00176733
0.177081 0.0554677 0.472208 0.00346785
0.180011 0.0729486 0.484339 0.00145955
0.156716 0.0662379 0.474807 0.0029309
0.161419 0.0856177 0.487389 0.00515865
-0.270712 0.434255 0.2503 0.00141418
-0.266627 0.450616 0.248369 0.00235857
-0.258504 0.430773 0.270545 0.000442484
-0.254385 0.449325 0.269098 0.000513098
-0.453112 0.499943 -0.14663 0.00335687
-0.44382 0.523019 -0.140503 0.00103382
-0.467769 0.494803 -0.131946 0.00200234
-0.458534 0.517896 -0.127321 0.0031699
-0.191508 0.140076 -0.272712 0.002357
-0.197952 0.157683 -0.272774 0.00130602
-0.201001 0.132198 -0.269044 0.00408208
-0.210149 0.148373 -0.269206 0.0009807
0.397226 0.0621054 0.295072 0.000978847
0.409826 0.0809439 0.292314 0.00121556
0.386161 0.0567009 0.310898 0.000555558
0.398562 0.0740307 0.310392 0.000571438
-0.373853 0.46097 0.0157402 0.00425684
-0.4034 0.47615 0.00731561 0.00302782
-0.384311 0.442901 0.0144109 0.00251002
-0.414556 0.458181 0.00637286 0.00500421
-0.394605 0.532369 0.0147536 0.00211813
-0.422017 0.537442 0.00968911 0.00218446
-0.411597 0.514316 0.0131589 0.00245187
-0.439616 0.519653 0.00793294 0.00447504
0.48722 0.163651 0.149622 0.00105216
0.491805 0.17944 0.144663 0.000767922
0.483927 0.16171 0.1706 0.00017595
0.488712 0.177713 0.166644 0.000200048
-0.0133348 -0.0207865 0.413456 0.00132892
-0.0309331 -0.0164359 0.411892 0.00266026
-0.0144273 -0.00696649 0.424311 0.000726229
-0.0321189 -0.00263823 0.42257 0.000103773
0.176319 0.570475 -0.279229 0.000533698
0.156623 0.569986 -0.286309 0.000273447
0.180009 0.586527 -0.264019 6.62338e-05
0.16031 0.585407 -0.271649 0.00063049
-0.268973 0.167123 0.237005 0.000466185
-0.280538 0.186306 0.227228 0.000500682
-0.260007 0.174948 0.256328 0.00376421
-0.27358 0.192866 0.24504 0.00278269
0.393538 0.237043 -0.231738 0.00178232
0.396835 0.262042 -0.23429 0.000350823
0.40471 0.22878 -0.216973 0.00141517
0.409601 0.253543 -0.217994 0.000197107
0.182552 0.380333 -0.365437 0.000198197
0.161153 0.388803 -0.368777 0.00188733
0.185006 0.38407 -0.363587 0.000268805
0.162716 0.392134 -0.367509 0.00203379
-0.200042 -0.217564 -0.254185 0.000591433
-0.217838 -0.213992 -0.25368 0.00020658
-0.206022 -0.212396 -0.233759 0.00148788
-0.224301 -0.209268 -0.23366 0.00137356
-0.284448 0.458134 0.181114 0.000105529
-0.281278 0.473797 0.176976 0.00187081
-0.28084 0.452819 0.196786 0.00148652
-0.27721 0.467957 0.193425 4.41528e-05
0.262614 0.429764 0.387288 0.00104428
0.258019 0.456751 0.389542 0.00245512
0.249979 0.424221 0.392427 0.00149642
0.246577 0.449711 0.394509 0.00314006
0.287906 -0.107495 0.0559307 0.000134192
0.30177 -0.0892088 0.0521788 0.000411196
0.284982 -0.113125 0.0757563 0.0024301
0.299205 -0.0944724 0.0729655 0.000675018
0.0184974 -0.00697781 -0.247348 0.000506992
0.00227334 0.00907031 -0.260418 0.000555109
0.0112619 -0.0224993 -0.227919 0.00147612
-0.00437487 -0.00599731 -0.241185 0.000701348
0.323814 0.789315 0.0614748 0.00255113
0.309341 0.779768 0.0442054 0.00246642
0.309245 0.777063 0.0777975 0.000841036
0.296297 0.775668 0.0646912 0.00467476
0.217414 -0.650108 -0.0939916 0.0020184
0.204249 -0.635906 -0.0952816 0.00182923
0.227866 -0.642871 -0.0778417 0.00139509
0.216462 -0.628387 -0.0786433 0.000160888
-0.228012 -0.641479 0.174928 0.00247242
-0.240787 -0.625935 0.172486 0.00056983
-0.23457 -0.656482 0.17479 0.00421674
-0.247154 -0.640825 0.173126 0.000455345
-0.049052 -0.332514 0.233278 2.55195e-05
-0.0449959 -0.316477 0.230653 0.000763638
-0.0377736 -0.338631 0.253243 0.000298968
-0.0348228 -0.322228 0.250618 0.000545598
-0.32951 -0.584402 0.140521 0.000514117
-0.340759 -0.569206 0.137191 0.00124014
-0.319076 -0.579875 0.148478 0.00181831
-0.330642 -0.565364 0.145467 0.00276354
0.340339 0.0767832 -0.226201 0.00137899
0.309668 0.0636891 -0.24403 0.00275318
0.346439 0.0613293 -0.205133 0.00096718
0.315884 0.049586 -0.223687 0.000970971
0.0684552 0.723061 -0.0189145 0.000123062
0.054171 0.721368 -0.0245172 0.000518872
0.0610122 0.725096 0.00237134 9.36996e-05
0.0467156 0.723366 -0.00352756 0.000852287
-0.487371 -0.240423 -0.333986 0.00166654
-0.486485 -0.218969 -0.341786 0.00134424
-0.488242 -0.245147 -0.310943 0.000380369
-0.488293 -0.220764 -0.319681 0.000577878
-0.235655 -0.282475 0.0576101 0.000490663
-0.256187 -0.27664 0.049435 9.92523e-05
-0.241565 -0.295372 0.0698658 0.000636343
-0.262408 -0.289172 0.0616607 0.000425817
0.0123087 0.661723 -0.19189 0.00158276
-0.00396855 0.65531 -0.197675 0.00244454
0.00907091 0.669235 -0.171626 0.00039145
-0.00813152 0.66198 -0.179013 0.000743841
-0.397742 0.436797 -0.191385 0.00228381
-0.397237 0.454718 -0.191056 0.000277578
-0.4147 0.427665 -0.182116 0.00216394
-0.417159 0.446333 -0.182834 0.00187365
0.315569 0.605825 -0.183847 0.00142618
0.293337 0.60976 -0.189681 0.000411508
0.320984 0.622864 -0.169248 0.00663675
0.29836 0.625676 -0.175101 0.00294834
0.0716567 -0.163382 0.276219 0.00550956
0.0626743 -0.147919 0.277409 0.00396562
0.0713517 -0.165992 0.27703 0.00543437
0.0623693 -0.150529 0.27822 0.00395934
-0.353572 -0.228141 -0.276947 0.0027671
-0.367356 -0.2163 -0.282147 0.0127058
-0.357769 -0.232233 -0.259045 0.00307151
-0.371615 -0.219549 -0.264305 0.00637246
-0.382235 -0.550511 -0.310262 0.000467021
-0.384176 -0.536559 -0.316535 0.000208217
-0.389123 -0.557538 -0.293822 0.000370334
-0.391237 -0.543485 -0.300736 0.000663888
0.313164 -0.0814321 0.106285 0.000122643
0.327679 -0.0652547 0.105383 0.00242666
0.306913 -0.0876807 0.126229 0.000229136
0.321133 -0.0720059 0.12629 0.000521481
0.101999 -0.629295 -0.146011 0.00347512
0.0946516 -0.614879 -0.147219 0.00550256
0.111794 -0.621683 -0.130483 0.00816625
0.103898 -0.607736 -0.13285 0.00814073
-0.0266836 0.683945 -0.107964 0.001154
-0.0489977 0.674023 -0.109856 0.000752599
-0.0433269 0.682842 -0.0869401 0.000278136
-0.0640204 0.673437 -0.0885945 0.0003591
-0.168258 -0.7002 -0.357682 0.000910356
-0.177058 -0.685836 -0.366284 0.00104512
-0.177201 -0.718572 -0.347019 0.00145509
-0.185905 -0.702886 -0.355573 0.00147083
-0.182401 0.249539 -0.306211 0.000458588
-0.184906 0.266304 -0.305175 0.00141512
-0.200774 0.243409 -0.296319 0.00244605
-0.203491 0.259825 -0.295338 0.00109329
0.237781 0.382414 0.394282 0.00341958
0.235582 0.403626 0.395896 0.00099818
0.221015 0.377663 0.401202 0.00221501
0.218188 0.396632 0.402521 0.00187916
0.25042 -0.178036 0.0070991 0.00243146
0.244467 -0.163769 0.000523438 0.00171361
0.258883 -0.182368 0.020764 0.0024077
0.254541 -0.165036 0.0150596 0.0019137
0.0654297 0.660467 0.292906 0.000729145
0.0513645 0.667239 0.280031 0.000758525
0.0565405 0.64811 0.306118 0.000839883
0.0400025 0.654837 0.294616 0.000634031
0.100366 -0.418596 -0.175747 0.000598266
0.0925946 -0.407815 -0.180082 0.00252915
0.111834 -0.41644 -0.162721 0.00135414
0.103933 -0.405412 -0.166754 0.00262629
0.294927 -0.0185221 0.322939 0.00189343
0.308941 -0.0045728 0.334749 0.000501093
0.280744 -0.0165844 0.341172 0.00215343
0.293692 -0.00197142 0.355549 0.00048187
0.435225 0.0873564 0.24708 0.000549939
0.446158 0.107526 0.244152 0.000258288
0.419739 0.0814825 0.271365 0.00148704
0.431296 0.101529 0.26749 0.00238444
0.260063 -0.505234 0.0285424 0.00153748
0.262883 -0.488686 0.0217985 0.00224899
0.264751 -0.509092 0.0514627 0.00426158
0.269461 -0.491257 0.0455056 0.000157989
0.265267 0.745002 -0.000705756 0.00136609
0.247622 0.734627 -0.00581023 0.00147214
0.262601 0.746737 0.0186191 0.000126777
0.246125 0.737913 0.0127693 3.39427e-05
-0.318467 0.382205 0.101805 0.000756017
-0.316761 0.39608 0.0979153 0.0018725
-0.312866 0.383058 0.122223 0.00226866
-0.311371 0.39745 0.117624 0.00101778
0.181608 0.661152 -0.182003 0.00128321
0.165932 0.664334 -0.179759 0.000636942
0.173499 0.675445 -0.162219 0.00102246
0.156135 0.677383 -0.159455 0.00146502
-0.29322 0.467522 0.121635 0.000271401
-0.289988 0.484345 0.117191 0.00200358
-0.29138 0.460493 0.138212 0.000822389
-0.288235 0.476978 0.133943 0.000850023
0.0795738 -0.319152 -0.141425 0.00233788
0.0648339 -0.309295 -0.149579 0.000520693
0.0890394 -0.314815 -0.12606 0.00323024
0.0743362 -0.305045 -0.134318 0.000642389
-0.129654 0.563596 0.318718 0.000978749
-0.140712 0.56737 0.306069 0.000260332
-0.130677 0.54771 0.332766 0.000583655
-0.140877 0.553338 0.320532 4.72991e-06
-0.381751 -0.236113 -0.191787 0.000797146
-0.391947 -0.240405 -0.206678 0.00543323
-0.386044 -0.245041 -0.171725 0.00181458
-0.397874 -0.249275 -0.189032 0.0029199
-0.12388 0.264063 -0.341051 0.000318667
-0.12496 0.283945 -0.342619 0.000961038
-0.141227 0.256796 -0.333609 0.00164783
-0.141937 0.277015 -0.334862 0.0016796
-0.14492 -0.551301 -0.431848 0.00528921
-0.160921 -0.530902 -0.436446 0.00506106
-0.16185 -0.569821 -0.418486 0.0024379
-0.178146 -0.549527 -0.424422 0.00059732
0.144433 0.644405 0.314711 0.00115522
0.133133 0.653472 0.303666 0.00107288
0.136104 0.628463 0.331906 0.00101504
0.124257 0.637391 0.322931 0.000348073
-0.0347087 0.699313 0.146014 0.00043601
-0.0473493 0.697263 0.131107 0.000169277
-0.0431107 0.690966 0.169295 0.000752773
-0.0556075 0.689082 0.15478 0.000687216
0.376521 0.587479 0.150051 0.00288715
0.36358 0.604794 0.135396 0.00105677
0.366878 0.586485 0.174819 0.00115547
0.355391 0.603455 0.159318 5.12242e-05
-0.344313 -0.125362 -0.262172 0.00118812
-0.340356 -0.107638 -0.257996 0.00269583
-0.351568 -0.125864 -0.253333 0.00099567
-0.347842 -0.107852 -0.248421 0.00278484
-0.161172 -0.636251 -0.394717 0.000421353
-0.173891 -0.620227 -0.401269 0.000412892
-0.177004 -0.652474 -0.384849 0.000593436
-0.187884 -0.63766 -0.391567 0.000552589
0.159691 0.0201733 -0.283387 0.000885289
0.140589 0.0266238 -0.29213 0.000701989
0.158103 0.0056939 -0.269857 0.000442374
0.13877 0.00934948 -0.278581 0.00148853
-0.166553 -0.704486 0.245397 0.00045093
-0.179491 -0.691232 0.240587 0.00160949
-0.179978 -0.715025 0.248134 0.000820348
-0.19199 -0.703447 0.244456 0.00025522
-0.0728581 -0.794323 0.128928 0.00106089
-0.0985366 -0.795152 0.126427 0.000539414
-0.0816905 -0.794686 0.148232 0.00106331
-0.107134 -0.79486 0.1466 0.000166173
-0.305427 -0.245177 -0.377802 0.0042253
-0.328649 -0.230169 -0.377202 0.00312431
-0.301587 -0.23798 -0.362145 0.00425175
-0.324701 -0.222505 -0.361485 0.00185587
-0.0219144 0.230012 0.505691 0.000598185
-0.0218971 0.246675 0.50335 0.000535342
-0.00972421 0.22296 0.520838 0.00360347
-0.013278 0.23835 0.517792 0.00397756
-0.00279967 0.669571 -0.168058 0.00132946
-0.0202829 0.662179 -0.17586 0.00314971
-0.00811003 0.676132 -0.148012 0.00154967
-0.0259004 0.668533 -0.155844 0.0024122
0.142108 0.0513163 0.473462 0.00172579
0.146426 0.0699825 0.486168 0.00436509
0.124793 0.0639762 0.477272 0.000544411
0.128635 0.0821604 0.489532 0.00264873
-0.13402 0.07357 -0.255816 4.2914e-05
-0.141854 0.0887745 -0.262041 0.00151545
-0.13736 0.0579282 -0.242032 0.00108233
-0.148185 0.0711349 -0.248703 0.00209695
0.0139037 -0.152302 -0.0122043 0.00210606
0.0123672 -0.135036 -0.0273818 0.0015294
0.00899951 -0.162068 0.00575299 0.00103373
0.00782223 -0.145027 -0.0088301 0.000617952
0.372379 0.0533735 -0.165778 0.00130923
0.352937 0.0510792 -0.187898 0.00131979
0.382392 0.0411621 -0.138918 0.00380984
0.362706 0.038326 -0.161049 0.00241309
0.00872108 0.31603 0.468617 0.000294261
-0.00169878 0.319689 0.461524 0.00352226
0.0131314 0.301607 0.485163 0.00902115
-0.00280435 0.29812 0.475146 0.0064629
0.267733 -0.074405 0.247917 0.000733611
0.280018 -0.0615658 0.253842 0.00108546
0.255837 -0.074108 0.266568 0.00192869
0.267237 -0.0611732 0.273462 0.000898139
0.0240952 -0.719721 0.30979 0.00348951
0.0104149 -0.704064 0.307472 0.000898842
0.0138484 -0.736084 0.316557 0.00144462
0.000982024 -0.71968 0.314516 0.00199387
0.268671 0.203967 0.465992 0.000261183
0.260175 0.22323 0.461272 0.00246349
0.255128 0.188524 0.481511 0.00184655
0.247602 0.208791 0.47681 0.00217498
-0.226705 -0.225377 -0.279238 0.000665074
-0.244094 -0.222821 -0.278203 0.0013365
-0.237644 -0.219928 -0.264934 0.000205887
-0.256242 -0.216789 -0.262541 0.00249893
-0.104389 0.195678 0.392525 0.000166084
-0.102817 0.218189 0.390124 0.00308732
-0.0913275 0.19067 0.412551 0.00162844
-0.0885581 0.212725 0.412312 0.00260819
-0.385929 0.589156 -0.12096 0.00117385
-0.409049 0.590624 -0.112126 0.00166757
-0.396192 0.606642 -0.102047 0.00242806
-0.418489 0.606937 -0.0951866 0.000171741
-0.220145 0.0130605 0.0425997 0.00169565
-0.233447 0.0258414 0.0401114 0.000667666
-0.221044 0.0113647 0.0608515 0.00119914
-0.234767 0.0240065 0.0580733 0.000402218
0.0974677 -0.0886923 -0.129708 4.77942e-05
0.0779956 -0.0832517 -0.139011 3.9541e-05
0.092934 -0.101198 -0.112619 0.00267448
0.0712427 -0.0947737 -0.117533 0.000677412
0.0631184 -0.789813 0.25265 0.0020251
0.0434609 -0.795879 0.255263 0.000780235
0.0475309 -0.791718 0.270833 0.00133551
0.0348514 -0.789889 0.275195 0.00433907
-0.444222 -0.571992 -0.108497 0.00155985
-0.448522 -0.555952 -0.11614 0.00159299
-0.443703 -0.57225 -0.0879187 0.000145922
-0.448176 -0.555757 -0.0961894 0.000893726
0.0696245 0.255273 0.547166 0.00144155
0.0560757 0.27343 0.541721 0.00234414
0.0558519 0.238071 0.551268 0.00112678
0.0425331 0.256643 0.54636 0.000544024
0.0748475 -0.089111 -0.126717 0.000193806
0.0545094 -0.0832234 -0.132578 0.000717361
0.067574 -0.0999251 -0.109403 0.00161918
0.0461817 -0.0939277 -0.114444 0.000856796
-0.106351 0.675942 -0.008482 0.00232354
-0.123898 0.661237 -0.0225903 0.000583653
-0.108462 0.675332 0.0217484 0.00038756
-0.125886 0.662312 0.00734898 0.00250689
0.310387 -0.432749 0.110599 0.0059747
0.314093 -0.415219 0.0992543 0.00364353
0.305226 -0.436461 0.130377 0.00330531
0.311866 -0.420078 0.121315 0.00276988
-0.335586 0.167088 -0.297123 0.000894979
-0.337065 0.19029 -0.295028 0.00104106
-0.355122 0.164321 -0.286532 0.00108005
-0.357375 0.186687 -0.284976 0.00246511
0.495672 0.259598 0.156312 0.000980766
0.49607 0.277476 0.151814 0.000446283
0.493534 0.257768 0.17451 0.000694519
0.49376 0.276065 0.171238 0.00106206
0.0689769 -0.795284 -0.181055 0.00148427
0.0569041 -0.795458 -0.195837 0.00101706
0.0675679 -0.7972 -0.155011 0.000360099
0.0555493 -0.796987 -0.17015 0.000310232
0.0183233 -0.796996 0.126708 0.000639064
-0.0036818 -0.797015 0.117536 2.34448e-05
0.0169824 -0.796774 0.14096 0.0012876
-0.00428255 -0.798876 0.134033 0.00143983
-0.467371 -0.174371 -0.374791 0.00207022
-0.460042 -0.151548 -0.380076 0.000759099
-0.481231 -0.175403 -0.354993 0.00251152
-0.474171 -0.152209 -0.360869 0.00348195
-0.177957 0.476352 0.341759 0.000540581
-0.189431 0.481658 0.330325 0.00146113
-0.169954 0.460144 0.352193 0.00116032
-0.182803 0.465893 0.341473 0.000169278
0.349837 0.505853 -0.21645 0.000429392
0.3299 0.522092 -0.220081 0.00303116
0.365747 0.516022 -0.200228 0.00148586
0.34633 0.5317 -0.203731 0.00143002
0.120538 0.253468 -0.391863 0.00355672
0.10112 0.265021 -0.393121 0.00193297
0.113314 0.24503 -0.388153 0.000552178
0.0961939 0.256463 -0.390379 0.000356574
-0.0733574 0.692678 0.0549249 0.000722283
-0.0901983 0.68287 0.037713 0.00119153
-0.079464 0.690311 0.0815432 0.00127427
-0.0940854 0.683423 0.0637688 0.000733968
-0.263506 -0.545588 -0.401527 0.000856186
-0.270353 -0.526311 -0.404239 0.00103515
-0.280336 -0.55789 -0.388331 0.00129353
-0.28847 -0.538826 -0.390781 0.00130869
0.469585 0.467521 0.152069 0.000315499
0.466552 0.486092 0.141346 0.00228757
0.464439 0.457458 0.167984 0.000956433
0.459526 0.478422 0.157667 0.000821016
-0.51196 0.535264 -0.0653067 0.00284106
-0.501873 0.558677 -0.0685206 0.00147244
-0.52166 0.530189 -0.0446 0.00406961
-0.512081 0.554301 -0.048531 0.00109111
-0.45501 -0.0873764 -0.288906 0.00120857
-0.441806 -0.0637827 -0.28398 0.00234837
-0.455345 -0.0970042 -0.271728 0.00156034
-0.442871 -0.0725994 -0.266522 0.00216078
-0.454947 -0.277519 -0.386375 0.00135917
-0.456857 -0.25801 -0.390055 0.000564244
-0.467302 -0.279507 -0.361179 0.000614052
-0.468461 -0.260851 -0.368332 0.00109525
-0.378228 0.244615 -0.160055 0.00118867
-0.384593 0.261904 -0.162007 0.000504405
-0.381225 0.242316 -0.144951 0.0018666
-0.388009 0.259376 -0.147771 0.000653162
-0.228643 -0.19474 -0.188223 0.00316341
-0.2432 -0.194481 -0.194707 0.00283661
-0.23361 -0.195372 -0.166483 0.000330344
-0.244593 -0.19397 -0.174471 0.000241043
-0.0571134 -0.383723 0.245588 0.000169337
-0.0522653 -0.35927 0.246349 0.00187801
-0.0455107 -0.394467 0.261017 0.00135311
-0.0402508 -0.368345 0.261567 0.000732103
-0.260877 0.031031 -0.188319 0.00407692
-0.269834 0.034328 -0.19523 0.00652672
-0.250828 0.0409078 -0.173511 0.00264665
-0.263692 0.0424393 -0.178532 0.00125374
0.12624 -0.286439 0.344907 0.000930427
0.106729 -0.273373 0.338206 0.000927379
0.119048 -0.307452 0.34763 0.00078337
0.0977665 -0.295385 0.340685 0.00198387
-0.451057 -0.514011 -0.1808 0.00139516
-0.45477 -0.496521 -0.186584 0.00178966
-0.451701 -0.521109 -0.160905 0.000545573
-0.455384 -0.504196 -0.166923 0.00064545
-0.0670996 -0.543959 0.224004 0.000153244
-0.0843786 -0.532484 0.214456 0.00285968
-0.0532634 -0.539235 0.236331 0.00063048
-0.0730245 -0.52726 0.227644 0.00342603
0.320818 0.599559 -0.186039 0.000605932
0.299704 0.604849 -0.191171 0.000940395
0.326224 0.617137 -0.171301 0.00621345
0.304748 0.621043 -0.176635 0.00278787
-0.4663 -0.393937 -0.173314 0.00165218
-0.466659 -0.37342 -0.181467 0.000179185
-0.46669 -0.395452 -0.148448 0.000899116
-0.466127 -0.374422 -0.156545 0.00096278
0.0132389 0.298234 -0.385438 0.000858514
0.0170715 0.319695 -0.384141 0.00276437
-0.0036858 0.285784 -0.38276 0.00026208
0.00147462 0.309904 -0.381914 0.00223281
-0.215476 -0.553253 0.170983 0.00240456
-0.235588 -0.539294 0.168065 0.000541224
-0.230199 -0.571726 0.170634 0.000790182
-0.248677 -0.557942 0.167566 0.0028187
-0.385132 -0.688001 -0.03859 0.00139532
-0.39708 -0.674023 -0.0530059 0.000985282
-0.382418 -0.684554 -0.0148924 0.00171167
-0.39424 -0.671209 -0.0290444 0.000521469
0.187307 -0.0495094 -0.184448 0.0011607
0.165126 -0.0481341 -0.200843 0.0028228
0.185514 -0.0599336 -0.163853 0.000196012
0.163582 -0.0575634 -0.180986 0.00139857
0.198682 -0.650657 -0.111019 0.000244641
0.183534 -0.636373 -0.111501 0.00101726
0.208912 -0.64034 -0.0944217 0.00157181
0.194938 -0.626593 -0.0960295 0.00390981
-0.428079 -0.370862 0.00563792 0.00289392
-0.413267 -0.346089 0.0150365 0.000214826
-0.416044 -0.374347 0.0279639 0.00315022
-0.405071 -0.353846 0.030876 0.0014526
-0.249227 0.0436697 0.0647259 0.00118295
-0.261425 0.0547535 0.0573384 0.00208657
-0.244381 0.0407441 0.0907908 0.00374912
-0.258163 0.0529785 0.0819295 0.000282043
-0.0459209 -0.731328 -0.29771 0.00144134
-0.0611744 -0.728472 -0.304803 0.00338453
-0.0506002 -0.748496 -0.292078 0.00312711
-0.0633894 -0.742644 -0.299544 0.000115353
0.465454 0.0931521 0.0512167 0.00145048
0.473668 0.11053 0.0482522 0.00114562
0.468934 0.0924428 0.0770279 0.00119014
0.477836 0.110832 0.0755121 0.00174542
0.170463 0.299682 -0.378385 0.000779918
0.149963 0.311618 -0.383007 0.00025626
0.161892 0.286686 -0.381753 0.00136953
0.142209 0.299327 -0.38578 0.000691333
-0.254362 0.288353 0.286483 0.000160219
-0.268898 0.302724 0.280126 0.00355454
-0.240538 0.29166 0.296833 0.000998996
-0.254999 0.306096 0.290981 0.00209919
0.221081 0.718959 0.119185 0.000860953
0.209892 0.720573 0.10985 0.000831915
0.213371 0.717209 0.132537 0.00149202
0.201317 0.721574 0.123047 0.00180107
-0.201656 -0.79574 0.057255 0.00306263
-0.224457 -0.793025 0.0476961 6.58849e-05
-0.200467 -0.794986 0.0817219 0.00163409
-0.224546 -0.791737 0.071569 0.00139286
-0.330215 -0.334034 0.0813591 0.000100269
-0.350538 -0.334535 0.0682625 0.000723558
-0.333486 -0.356717 0.0945639 0.00115415
-0.350694 -0.353318 0.0813562 0.0016104
0.481976 0.304544 0.198548 0.00151997
0.483777 0.32605 0.19255 0.000457394
0.477078 0.296023 0.219135 0.000662022
0.478835 0.318713 0.214506 0.00158162
0.289904 -0.213643 0.141804 0.000442911
0.286049 -0.197113 0.135194 0.000461985
0.28881 -0.217617 0.158449 8.66491e-05
0.286354 -0.200781 0.152359 0.00143419
0.456375 0.44068 0.216291 0.00350667
0.446499 0.459539 0.215638 0.00156588
0.447981 0.436879 0.231653 0.000674229
0.43858 0.455458 0.23159 0.00112996
0.106227 -0.307159 -0.108533 0.00253991
0.0941235 -0.300608 -0.112063 0.000619864
0.112519 -0.294884 -0.0981244 0.000303312
0.100141 -0.289517 -0.0984978 7.0161e-05
0.113742 -0.181294 0.292423 0.00970203
0.106961 -0.164147 0.293734 0.00108367
0.111458 -0.184332 0.293459 0.00973465
0.104599 -0.167264 0.295034 0.000708549
0.0109463 -0.145543 -0.0153974 0.00172312
0.00903844 -0.127832 -0.031434 0.000436781
0.00453421 -0.154605 0.00246354 9.9014e-05
0.00289639 -0.13705 -0.0128147 0.00068809
-0.144183 0.536754 0.330136 0.00101033
-0.155457 0.539502 0.317916 0.000947765
-0.1422 0.518344 0.34387 0.00152347
-0.154711 0.521131 0.332445 0.00103681
-0.33233 -0.73567 -0.22436 0.000738024
-0.341279 -0.717027 -0.230442 0.00179843
-0.336205 -0.740957 -0.204305 0.00219642
-0.345038 -0.726202 -0.209752 0.000252945
0.272143 0.677918 -0.140901 0.000359805
0.248935 0.672304 -0.149347 0.00165984
0.28011 0.691312 -0.126226 0.00288237
0.260286 0.688289 -0.129696 0.00104258
-0.428112 -0.589366 -0.152606 0.00142496
-0.43503 -0.573007 -0.153307 0.000679934
-0.430051 -0.590747 -0.136408 0.00154248
-0.436461 -0.574454 -0.137284 0.00141454
-0.0974234 0.108771 -0.301918 0.00036018
-0.113469 0.123837 -0.301001 0.00120656
-0.113369 0.0984942 -0.28736 0.00093747
-0.124701 0.113341 -0.289951 0.000435664
0.565517 0.616682 0.0359742 0.000169392
0.568018 0.634625 0.0340018 0.000992856
0.558022 0.612527 0.0537315 0.00189708
0.560015 0.630292 0.0515691 0.000918097
-0.0682814 -0.792749 -0.11981 0.00120844
-0.0864673 -0.794576 -0.131128 0.00112038
-0.0715813 -0.791939 -0.0969028 0.00152866
-0.0899094 -0.793856 -0.108586 0.00079652
-0.22213 -0.792509 0.0457897 0.000338033
-0.242996 -0.789974 0.0367927 0.00308314
-0.223404 -0.790906 0.0675392 0.00217141
-0.24614 -0.78783 0.0577949 0.00494794
-0.203485 0.253808 -0.293517 0.00012344
-0.205221 0.27005 -0.29266 0.000858298
-0.218136 0.247263 -0.285181 0.00227229
-0.219279 0.26349 -0.284465 0.000484334
0.446267 0.340067 0.281166 0.000293016
0.43984 0.358454 0.285378 0.000243579
0.426798 0.336741 0.301842 0.00379282
0.419369 0.355029 0.306311 0.00292279
0.225951 -0.589602 0.0573146 0.00129065
0.234264 -0.571319 0.0579301 0.00299676
0.220559 -0.590457 0.0721302 0.00287816
0.229307 -0.571973 0.07288 0.000259125
-0.0245349 -0.434829 0.284981 0.000235143
-0.03924 -0.423237 0.277357 0.00435419
-0.00470852 -0.432961 0.299923 0.00106866
-0.0218 -0.422284 0.291439 0.0029119
-0.136928 0.517695 0.347773 0.00210758
-0.149323 0.520754 0.336435 0.00149993
-0.134741 0.50526 0.358622 0.00113158
-0.149939 0.50648 0.347917 0.000153963
-0.06642 0.089359 0.471523 0.000895455
-0.0820164 0.103701 0.466376 0.00490243
-0.0512294 0.0988604 0.485432 0.000236586
-0.0645356 0.113567 0.48157 0.00258878
-0.0250453 -0.124921 -0.00271533 6.64169e-05
-0.0327616 -0.108775 -0.0172349 0.00359569
-0.0287647 -0.131015 0.0159554 0.00221642
-0.0380224 -0.114843 0.0026665 0.00130729
0.328434 0.209321 0.41268 0.00202397
0.317827 0.226079 0.413938 0.00411621
0.312612 0.201191 0.42925 0.00206077
0.303 0.21809 0.429744 0.00306271
0.0482886 -0.778007 -0.00897439 0.00630801
0.0347865 -0.773304 -0.0081516 0.00629169
0.0431732 -0.776754 0.00716827 0.00231917
0.0293203 -0.772219 0.00813254 0.0100808
0.0555384 -0.521106 0.293044 0.00144434
0.0306889 -0.515541 0.292668 0.000209981
0.0469839 -0.505864 0.296995 0.00247097
0.0210104 -0.500658 0.296513 0.000173397
0.153441 -0.762492 -0.178936 0.00538527
0.139719 -0.754416 -0.188821 0.00238853
0.162565 -0.76538 -0.162775 0.000323319
0.148297 -0.756786 -0.172357 0.00247496
-0.122334 -0.794734 -0.253456 0.000602996
-0.139159 -0.794657 -0.261906 0.000489119
-0.124513 -0.79702 -0.232388 0.0013668
-0.143376 -0.797916 -0.241012 0.001962
-0.0169089 -0.364088 -0.35752 0.00116118
-0.0385756 -0.347152 -0.361125 0.000727688
-0.003573 -0.358333 -0.341985 0.000170171
-0.0249185 -0.34044 -0.345551 0.000267666
0.151962 -0.7535 0.124192 0.00251555
0.15926 -0.73661 0.127766 0.00305905
0.143539 -0.75406 0.13762 0.00116147
0.144016 -0.74482 0.140028 0.00150656
-0.106916 -0.0773344 0.212346 0.0017828
-0.12576 -0.0647042 0.21077 0.000637232
-0.104128 -0.0728423 0.239869 0.00222437
-0.122238 -0.0601533 0.238795 0.000692807
-0.324014 0.491868 -0.200411 0.000775567
-0.320318 0.509043 -0.188671 0.00267641
-0.34249 0.495923 -0.195702 0.000177939
-0.338918 0.513334 -0.183815 0.00269317
0.0308207 -0.79725 -0.207633 0.00106723
0.0175898 -0.795071 -0.2207 0.000670408
0.0293876 -0.797936 -0.184494 0.00175079
0.0159283 -0.796857 -0.198618 0.000947249
0.481913 0.341408 -0.0688618 2.91636e-06
0.48036 0.370255 -0.0672852 0.000836962
0.486651 0.339094 -0.0482782 0.000449949
0.485215 0.364461 -0.0515654 0.000557221
0.458653 0.658319 0.0570616 0.000778602
0.453556 0.68292 0.0543786 0.000568197
0.438902 0.640336 0.0586398 0.00138976
0.433944 0.665028 0.0553662 0.00140007
0.463934 0.512667 0.109802 0.0017816
0.4584 0.527565 0.109297 0.00507086
0.453101 0.509399 0.125627 0.000298825
0.448433 0.522754 0.123692 0.00441733
-0.248081 0.554602 -0.155638 0.000638363
-0.260512 0.555438 -0.152211 0.000472423
-0.255146 0.568501 -0.13626 0.000471324
-0.273187 0.565851 -0.135621 0.00255414
-0.137905 0.0107065 -0.180725 0.000654218
-0.150795 0.0229447 -0.189291 0.000111118
-0.141713 0.0044491 -0.162982 0.00160388
-0.154763 0.0160622 -0.172074 0.00086322
0.43089 0.0900912 0.261289 0.00041973
0.442362 0.110361 0.257877 0.000399285
0.415892 0.0844177 0.285758 0.000615786
0.427917 0.104435 0.281982 0.000977862
-0.0344942 -0.122739 0.0160893 0.000123574
-0.043426 -0.106711 0.00232102 0.0050531
-0.0394923 -0.127932 0.0353337 0.00432153
-0.0498615 -0.113247 0.023867 0.00201904
0.262193 -0.211889 0.0264697 0.00171273
0.259007 -0.191346 0.021128 0.00197385
0.272483 -0.21215 0.0418349 0.000262496
0.269679 -0.191354 0.0365534 0.00285223
-0.333693 0.151167 -0.0215956 0.000127101
-0.345793 0.166773 -0.0250145 0.000966572
-0.330747 0.147188 0.00141127 0.000721316
-0.341687 0.162167 -0.000552666 0.0011988
0.501197 0.399639 0.129532 0.00296541
0.502288 0.420057 0.120581 0.00217459
0.49594 0.394547 0.148549 0.00421237
0.495994 0.41375 0.139849 0.00125895
-0.0148938 -0.293157 -0.269103 0.00103088
-0.0307434 -0.283201 -0.267883 0.000637769
-0.0129239 -0.288568 -0.251942 0.00017179
-0.0286376 -0.278886 -0.250301 0.0016571
0.0553038 -0.0203372 0.432019 0.000240813
0.0354412 -0.0233556 0.427359 0.00269481
0.0587028 -0.00477408 0.446107 0.000976652
0.038736 -0.00780143 0.441809 0.00266031
-0.0120103 -0.735057 0.313786 0.00243398
-0.0277883 -0.723398 0.308268 0.00461434
-0.0161991 -0.753823 0.319389 0.00504129
-0.0318542 -0.74153 0.315048 0.00125503
0.291252 0.751717 -0.0461792 0.0016113
0.27092 0.740245 -0.0475621 0.00134161
0.282023 0.753999 -0.0237228 4.1124e-06
0.259489 0.739692 -0.0301299 0.0023233
-0.335164 0.341214 -0.228755 0.000297964
-0.335828 0.361999 -0.227623 0.000961545
-0.354707 0.33431 -0.221117 0.0026747
-0.356498 0.355095 -0.220517 0.00107638
-0.0181954 -0.282346 -0.242123 0.000923976
-0.0337448 -0.272677 -0.240445 0.00194985
-0.0159168 -0.276536 -0.225335 0.00115738
-0.0323064 -0.267066 -0.224204 0.000574989
-0.473782 -0.131037 -0.328391 0.00121419
-0.463323 -0.112425 -0.33105 0.000723652
-0.482584 -0.138592 -0.307326 0.00573576
-0.473776 -0.11715 -0.310751 0.00446737
-0.418592 -0.599847 0.0312337 0.00114973
-0.428651 -0.584065 0.022409 0.00177864
-0.412771 -0.593986 0.0506943 0.00187776
-0.421948 -0.57992 0.0428212 0.00148873
0.493479 0.164298 0.0721296 0.000812822
0.497149 0.182515 0.0594503 0.00121505
0.491079 0.156169 0.0879614 0.00051576
0.494844 0.174474 0.0757205 3.36706e-05
-0.0310628 -0.230479 0.0976667 0.00179237
-0.0178629 -0.213945 0.0956058 0.00182626
-0.029827 -0.231627 0.118421 0.000480745
-0.0171717 -0.215818 0.11599 0.00376296
-0.218938 -0.25251 -0.338038 0.00125125
-0.234891 -0.252234 -0.3425 0.000559496
-0.213422 -0.23939 -0.317016 0.000982337
-0.229264 -0.239061 -0.32195 0.0018703
0.243919 -0.50067 -0.0249608 0.00263219
0.244722 -0.483412 -0.0320708 0.00214274
0.252704 -0.503979 -0.00193065 0.00235015
0.254542 -0.487234 -0.00959135 0.000747408
0.0732029 -0.252674 0.323294 0.000627986
0.066746 -0.238126 0.316985 0.00123331
0.0765708 -0.278226 0.331924 0.000919929
0.0646531 -0.26452 0.324955 0.000206055
-0.289151 0.0967818 -0.0763753 0.00165995
-0.300613 0.10961 -0.077055 0.00251133
-0.28703 0.0974701 -0.0533352 0.00160564
-0.298333 0.110597 -0.0555536 0.000710851
-0.0551035 -0.247795 0.0444521 0.00155186
-0.0694524 -0.248887 0.029761 0.000235144
-0.0695956 -0.254016 0.068422 0.00163661
-0.0842719 -0.25532 0.0535104 0.00403519
-0.047046 0.68845 0.181344 0.000971857
-0.0598036 0.686467 0.166904 0.000611823
-0.0584366 0.67531 0.203233 0.0012467
-0.0715491 0.674107 0.188347 0.00188908
-0.386362 0.53489 0.0157603 0.00197023
-0.412295 0.540462 0.0105999 0.00151405
-0.403803 0.519113 0.0141685 0.0033464
-0.43134 0.524078 0.00876016 0.00297788
0.287988 -0.224812 0.174253 0.000341899
0.28652 -0.207405 0.168162 0.00253214
0.281909 -0.228554 0.191025 0.00165545
0.280879 -0.211261 0.184886 0.000360618
0.40822 0.149919 0.347706 0.00127927
0.409294 0.166823 0.34941 0.00228753
0.401896 0.14522 0.361768 0.00246829
0.40286 0.162084 0.363415 0.00157096
-0.241118 0.0479874 -0.244366 0.00185896
-0.247303 0.0521224 -0.257144 0.000478927
-0.247763 0.034898 -0.228306 0.00503979
-0.247755 0.0426971 -0.24215 0.00265142
0.151355 0.73006 0.0334504 0.000209001
0.134221 0.728922 0.0244068 0.00093554
0.147297 0.729808 0.0563055 0.000745672
0.129419 0.728125 0.0470157 0.00212076
0.291362 -0.286093 0.0382663 0.0011368
0.286008 -0.269699 0.0328643 0.000782134
0.299039 -0.280422 0.0543309 0.000806486
0.293136 -0.263646 0.0448816 0.00318914
0.437684 0.561479 -0.150959 0.00105241
0.431709 0.588469 -0.153839 0.00164609
0.454553 0.554972 -0.140892 0.000315465
0.449697 0.581796 -0.143383 0.00266656
0.117868 -0.0811584 0.338023 0.000738525
0.0993481 -0.0825438 0.338736 0.000835123
0.110627 -0.0722901 0.353809 0.00227133
0.091191 -0.0731658 0.354744 0.00179131
0.472497 0.71395 -0.115789 0.000290046
0.448374 0.718477 -0.124426 0.000709649
0.487541 0.72307 -0.101805 0.00235297
0.466388 0.729687 -0.111143 0.00193471
0.247077 0.729452 -0.0355425 0.000143961
0.22995 0.724273 -0.0361905 0.000773262
0.2423 0.73341 -0.0132943 0.000871292
0.226079 0.726161 -0.0170559 0.000897458
0.108569 -0.509761 -0.170287 0.00831391
0.105767 -0.493021 -0.172466 0.00547705
0.121117 -0.512287 -0.154164 0.00173499
0.118232 -0.496106 -0.156444 0.00265023
-0.0163212 -0.0920373 0.285639 0.0011664
-0.0447498 -0.0774511 0.297195 0.000917681
-0.0205802 -0.0841901 0.305808 0.00217169
-0.0493699 -0.0698389 0.316467 0.00133206
0.553008 0.731041 0.0452346 0.00201422
0.552637 0.746083 0.0396097 0.00445073
0.54963 0.72513 0.062734 0.0102428
0.547423 0.742277 0.0602461 0.0091895
0.0670667 -0.0628173 0.380116 0.000115531
0.0502039 -0.0627191 0.377336 0.000522585
0.0698519 -0.0525613 0.397738 0.00130945
0.0535571 -0.0523419 0.395277 0.000677143
-0.502017 0.414426 0.00444623 0.00258456
-0.508132 0.436864 0.00668419 0.000606366
-0.49326 0.414402 0.0237796 0.00319806
-0.499471 0.437219 0.0249124 0.00684369
-0.448505 -0.0926404 -0.344675 0.000428397
-0.436794 -0.0761767 -0.341684 1.37327e-05
-0.452947 -0.0921011 -0.323325 0.000870557
-0.440012 -0.0737129 -0.32002 0.00238371
0.00977655 -0.510924 -0.380432 0.000586283
0.00269985 -0.497458 -0.385524 2.27544e-05
0.0256443 -0.517215 -0.366531 0.000859801
0.0202839 -0.502104 -0.371084 0.000566029
0.337673 0.183436 -0.281602 0.00334733
0.317192 0.189051 -0.294999 0.000113594
0.347874 0.169032 -0.26619 0.00186092
0.327862 0.17501 -0.280001 0.00213831
-0.418868 0.430685 0.0167516 0.00144709
-0.4462 0.445161 0.0100376 0.00620332
-0.426671 0.41736 0.0175965 0.000709545
-0.449843 0.435249 0.0114508 0.00651968
-0.342646 -0.0126625 -0.340486 0.00294778
-0.336933 0.00653029 -0.335521 0.00270377
-0.333042 -0.00919265 -0.328566 0.00880719
-0.327491 0.011352 -0.324745 0.00263042
0.341044 0.0205478 -0.164885 0.00212033
0.320586 0.0153181 -0.183121 0.00248897
0.346939 0.00767585 -0.138032 0.00204325
0.327584 0.00244724 -0.155732 0.00205815
0.568838 0.723007 -0.00966897 0.00410371
0.566389 0.735642 -0.0158779 0.00522966
0.567146 0.721398 0.00862019 0.000613824
0.565838 0.73406 0.00389977 0.000279741
0.472085 0.268892 -0.105069 0.000855585
0.468468 0.285725 -0.114554 0.000956771
0.48235 0.268532 -0.0796295 0.000784273
0.480366 0.286471 -0.0881538 0.0013364
0.14413 -0.35314 0.346389 0.00106008
0.137255 -0.330819 0.348452 9.3958e-05
0.12713 -0.362239 0.346927 0.001276
0.119006 -0.340385 0.349585 0.000432
-0.126351 -0.249533 -0.303784 6.55862e-05
-0.147932 -0.244752 -0.307003 0.00058464
-0.125189 -0.241778 -0.283939 2.45798e-05
-0.145761 -0.2378 -0.28861 0.000393063
-0.0797133 -0.731125 0.254061 0.0163267
-0.100283 -0.730958 0.247252 0.000171226
-0.0848753 -0.740205 0.260623 0.0111271
-0.10565 -0.738972 0.254454 0.00621832
0.377155 0.0730883 -0.182868 0.0026618
0.357324 0.0698728 -0.203967 0.00215172
0.38697 0.0620837 -0.157126 0.00258898
0.367798 0.0599282 -0.179174 0.00113372
0.241013 0.571211 0.354841 0.00118303
0.225585 0.587212 0.347199 0.00192627
0.232448 0.558442 0.369302 0.000209444
0.217767 0.573996 0.361945 0.00169256
0.181824 -0.144653 0.272788 0.00334206
0.18065 -0.132298 0.276894 0.00262704
0.166901 -0.147347 0.276377 0.00549028
0.165133 -0.13452 0.280786 0.00200099
0.00688229 0.680963 -0.147656 0.00187268
-0.0111312 0.673026 -0.15558 0.00221683
0.00354438 0.68484 -0.131103 0.000392813
-0.0148115 0.676883 -0.138186 0.000523792
-0.00884852 0.144429 -0.352344 1.35091e-05
-0.021191 0.160364 -0.356158 8.02431e-05
-0.020248 0.127059 -0.341943 0.000973358
-0.0308097 0.142994 -0.346632 0.000324701
-0.110438 -0.241964 -0.0176824 9.2387e-05
-0.123425 -0.237186 -0.0270214 0.000206999
-0.119385 -0.249274 0.00415754 0.000240122
-0.132833 -0.243567 -0.00659562 1.65214e-05
-0.224272 -0.259063 0.0299422 0.000135853
-0.238468 -0.253604 0.0201176 0.000366822
-0.231669 -0.27265 0.0437723 0.00238957
-0.249032 -0.267042 0.0350329 0.00242807
0.0332621 -0.0657977 -0.163127 0.000163284
0.0219477 -0.057486 -0.173998 8.45637e-05
0.0247198 -0.0764666 -0.142729 0.0014725
0.0126648 -0.0681221 -0.153117 0.00111093
0.120843 -0.781917 0.149259 0.0028717
0.0985845 -0.795296 0.148265 0.00117228
0.110729 -0.785068 0.165559 0.00187689
0.0925557 -0.795051 0.165592 0.00122468
0.298413 0.463914 0.373834 0.00064524
0.290988 0.483995 0.372943 0.00103734
0.280277 0.456022 0.381882 0.00158208
0.273124 0.478949 0.382923 0.000256039
0.530638 0.582542 0.0778743 0.00273126
0.527952 0.605744 0.0743757 0.000374979
0.519494 0.567418 0.0891706 0.00238647
0.514058 0.59032 0.0862465 0.0064462
-0.0497933 -0.690472 0.282208 0.00124233
-0.0701128 -0.690942 0.272894 0.00290197
-0.0538041 -0.71009 0.289714 0.00517532
-0.0730077 -0.710526 0.280223 0.000843946
0.00162646 -0.0894193 -0.100093 0.000965033
-0.0129709 -0.0806331 -0.107747 0.00216865
-0.00965677 -0.0963417 -0.0838001 0.00144051
-0.0227458 -0.0864446 -0.0920954 0.000728766
-0.18122 0.174231 -0.287848 0.000593407
-0.186845 0.190716 -0.287505 0.00257888
-0.197992 0.165747 -0.280361 0.00363402
-0.20214 0.18391 -0.280777 0.00112604
-0.232156 -0.794755 -0.108131 0.000342396
-0.250731 -0.793133 -0.117226 0.00179606
-0.234763 -0.793821 -0.0830254 0.000194518
-0.252849 -0.79251 -0.0922488 0.0016375
-0.17897 0.168364 0.314921 0.00098619
-0.184555 0.18577 0.309253 0.00126646
-0.162982 0.163304 0.328461 2.19316e-05
-0.166615 0.181568 0.324557 0.00118872
-0.0927216 0.538932 -0.287648 0.00368579
-0.0838746 0.553971 -0.277826 0.00178505
-0.111443 0.543147 -0.270717 0.00155665
-0.10273 0.557586 -0.260616 4.687e-05
-0.354549 -0.322335 -0.427432 0.00156911
-0.363254 -0.300219 -0.430534 0.00298394
-0.377038 -0.336467 -0.416066 0.00204474
-0.383505 -0.312452 -0.42235 0.000737761
0.0518198 -0.786959 0.0103507 0.00473864
0.0400058 -0.783113 0.00814546 0.0013248
0.0503109 -0.786326 0.0245557 0.00606956
0.0368679 -0.782336 0.023405 0.0016484
0.302301 -0.747659 -0.0835889 0.000111885
0.298266 -0.741085 -0.0971857 0.000527275
0.300771 -0.752124 -0.0629223 0.00595312
0.300386 -0.745814 -0.076533 0.00331943
0.556385 0.675311 -0.0398188 0.000167052
0.552517 0.694893 -0.0465599 0.000504536
0.56172 0.673561 -0.0254933 0.000672544
0.558169 0.692238 -0.0321654 0.000470431
0.0844969 0.113925 0.504777 0.00427752
0.0817809 0.134136 0.516806 0.00534925
0.0600089 0.121317 0.509988 0.00361801
0.0580719 0.142731 0.52151 0.000262079
-0.376372 -0.274472 -0.0282094 0.000709791
-0.387004 -0.27564 -0.043516 0.000880877
-0.380058 -0.28976 -0.0115891 0.000890701
-0.388803 -0.289098 -0.0257888 0.00081216
0.119124 0.29719 0.521221 0.00472173
0.101405 0.313188 0.514157 0.00417494
0.108453 0.279418 0.533151 0.0030886
0.0923201 0.297231 0.525532 0.00263075
-0.395385 0.587074 -0.122035 0.0011808
-0.418406 0.588668 -0.113019 0.000878396
-0.41009 0.602821 -0.104536 0.00224394
-0.432671 0.603474 -0.0969376 0.00132323
-0.291578 -0.790301 -0.0452664 0.000809028
-0.309001 -0.785989 -0.0578848 0.000894733
-0.287735 -0.789824 -0.0205909 0.00105733
-0.304019 -0.785958 -0.0318534 0.000930374
-0.211276 0.0168383 0.224492 0.000331287
-0.222687 0.0265632 0.213436 0.00183637
-0.204462 0.021377 0.248149 0.000416403
-0.215506 0.0317612 0.2381 0.000124022
-0.379336 0.597756 -0.113058 0.00164769
-0.401238 0.59833 -0.106775 0.000286781
-0.38884 0.613004 -0.0911081 0.000737969
-0.409483 0.612433 -0.086419 0.00143557
0.230426 -0.569376 0.0192665 0.00122311
0.234493 -0.55131 0.0167435 0.00103343
0.231109 -0.570408 0.0366515 0.0010425
0.237987 -0.552299 0.0366211 0.000695825
-0.199496 0.621178 -0.0341311 0.000756893
-0.216671 0.612593 -0.0465484 0.000979301
-0.208168 0.620088 -0.0119022 0.00025735
-0.223446 0.612657 -0.0266153 0.000923816
0.280583 -0.179453 0.155598 0.000608612
0.279108 -0.163116 0.150576 0.00021322
0.27621 -0.180655 0.170595 0.000249523
0.275407 -0.164524 0.165166 0.000164954
0.384941 0.40481 0.329584 0.00130917
0.385179 0.425347 0.326645 0.000452478
0.367349 0.394513 0.339631 0.00045354
0.36829 0.415274 0.33693 0.000821017
0.181382 0.353636 0.42059 0.00130881
0.178016 0.367177 0.419988 0.00107034
0.16535 0.345953 0.427187 0.000204325
0.161533 0.359947 0.42657 0.00223303
0.0701442 -0.501418 -0.305546 0.000279559
0.0647413 -0.476881 -0.313734 0.000277809
0.0775886 -0.502746 -0.28648 0.000255029
0.0721456 -0.477663 -0.294576 0.000537764
-0.405398 -0.428367 0.0745123 0.000571905
-0.404855 -0.413795 0.0679795 0.00145469
-0.397131 -0.435096 0.0874812 0.00132622
-0.399435 -0.422468 0.0800371 0.000428079
-0.0698174 -0.0425147 0.34971 0.00203739
-0.0871461 -0.0318022 0.345153 0.00064564
-0.0646148 -0.035666 0.364965 0.00213576
-0.0814821 -0.0259927 0.359905 0.000133925
0.176587 -0.0250624 -0.226036 0.000231795
0.156213 -0.0260788 -0.236075 0.0026955
0.179132 -0.0341299 -0.208964 0.00146075
0.157765 -0.0340474 -0.222256 0.00124067
-0.473727 -0.280778 -0.244806 0.000285518
-0.469999 -0.258692 -0.247563 0.00155619
-0.466135 -0.293656 -0.227316 0.000636076
-0.462248 -0.270956 -0.229452 0.00126055
-0.193307 -0.223783 -0.046443 0.000285345
-0.206392 -0.219374 -0.0602094 0.000616883
-0.197769 -0.23167 -0.0271197 0.00148049
-0.209266 -0.226607 -0.0407803 0.00201242
-0.168996 0.319759 0.349746 0.00134104
-0.182924 0.333095 0.34664 0.000436813
-0.156432 0.327925 0.36016 0.000223493
-0.169934 0.341015 0.356721 0.000251714
0.465977 0.255239 -0.12081 0.000242061
0.462427 0.271923 -0.130538 9.04465e-05
0.477775 0.254547 -0.0941047 0.000908764
0.474871 0.27248 -0.10277 0.000949321
0.249171 0.560292 0.359416 0.000830825
0.233747 0.57625 0.352917 0.0024844
0.239029 0.548729 0.372623 0.000293314
0.225417 0.564365 0.366183 0.0014617
-0.224623 0.380778 0.324694 0.000211307
-0.217322 0.410584 0.328319 0.000149525
-0.21076 0.374615 0.337957 0.00143479
-0.203906 0.403439 0.34106 0.000293118
-0.289635 -0.705276 -0.302733 0.000468997
-0.295315 -0.691401 -0.306848 0.000514704
-0.299634 -0.71359 -0.288427 0.000676418
-0.30504 -0.699169 -0.292975 0.000505357
0.0405375 -0.419308 -0.330536 0.000991684
0.0240763 -0.39588 -0.340732 0.000163845
0.0536609 -0.421068 -0.309635 0.000322958
0.0361768 -0.397503 -0.320645 0.00159459
0.034596 -0.720299 0.309102 0.000700792
0.0204099 -0.704557 0.306821 0.000193911
0.0224758 -0.737505 0.316943 0.000500199
0.00950224 -0.721396 0.315057 0.00124585
0.0253186 -0.0322558 -0.216517 0.000545696
0.00973943 -0.0160935 -0.229599 0.00210234
0.0171305 -0.0452985 -0.19654 0.00168701
0.00470813 -0.0325002 -0.20931 0.00058278
-0.0508514 0.586576 0.344078 0.00202797
-0.0651557 0.593592 0.331766 0.00112538
-0.0567897 0.570819 0.355798 0.00188539
-0.068708 0.581489 0.342312 0.000567837
-0.128875 -0.45939 0.177044 0.00197147
-0.141454 -0.445214 0.170011 0.000576096
-0.119566 -0.470493 0.189279 0.00164345
-0.126779 -0.452419 0.18355 0.000656948
-0.0394586 0.647525 0.280957 0.000921115
-0.05885 0.644618 0.2693 0.00137392
-0.0414506 0.634442 0.295082 0.00135698
-0.0631438 0.630514 0.285849 0.0023995
-0.167071 -0.0250086 -0.0119231 0.000245024
-0.178203 -0.0172237 -0.0184809 0.00146313
-0.166697 -0.0292399 0.0060814 1.8347e-05
-0.178128 -0.0209598 0.00135625 0.00124932
-0.379396 -0.143853 -0.413389 0.00408177
-0.386276 -0.122945 -0.404257 0.00283896
-0.384098 -0.128567 -0.405835 0.00169349
-0.39055 -0.106764 -0.393872 0.00807517
-0.0059221 -0.0185758 -0.22171 0.000742936
-0.0206651 -0.00319107 -0.234419 0.000882292
-0.0135378 -0.0325062 -0.201926 0.00152062
-0.0252703 -0.0192055 -0.213914 0.000412487
-0.178003 0.47429 -0.270514 0.00123615
-0.173117 0.489854 -0.26154 0.00154881
-0.194959 0.475666 -0.25858 0.00220379
-0.191379 0.492558 -0.248217 0.000105067
-0.497095 0.451255 -0.0900562 0.00290263
-0.493792 0.473968 -0.0947502 7.60663e-05
-0.49969 0.445494 -0.0682895 0.00306866
-0.498041 0.469921 -0.0723862 0.00567669
0.144362 0.731292 0.0517147 0.00183364
0.125346 0.729732 0.0414388 0.000714567
0.140624 0.728538 0.0708488 0.000211565
0.121093 0.727428 0.0600149 0.00200626
-0.154461 -0.216658 -0.0894656 0.00010146
-0.174273 -0.21375 -0.101335 0.00155631
-0.160012 -0.219851 -0.0705107 0.00154916
-0.178806 -0.217002 -0.0825962 0.00114918
-0.302617 0.528251 0.0505333 0.00272735
-0.310361 0.534754 0.0422146 0.00543647
-0.300109 0.519985 0.0617722 0.00462749
-0.30427 0.530075 0.0541999 0.000825637
-0.286005 -0.260153 -0.374269 0.00058031
-0.30932 -0.244572 -0.373566 9.27976e-05
-0.283224 -0.253944 -0.361667 0.00112809
-0.30545 -0.238983 -0.360775 0.000612126
-0.0505896 -0.763395 0.0733136 0.00279156
-0.0673802 -0.761817 0.0619788 3.45276e-05
-0.049592 -0.767404 0.0945847 0.00635837
-0.0694492 -0.76715 0.0859701 0.000257321
-0.0170126 0.682459 0.226377 0.000819001
-0.029679 0.683124 0.212392 0.000803944
-0.0245868 0.671739 0.243713 4.77123e-05
-0.0393815 0.671636 0.229782 0.00195145
0.412066 0.0184604 -0.000344868 0.00052957
0.428384 0.0394442 -0.00886904 0.0017097
0.403724 0.00414671 0.0243235 0.000528083
0.419934 0.0244052 0.0173525 0.000237461
-0.0485652 0.49789 0.405221 0.0012451
-0.0656836 0.505816 0.39589 0.000644536
-0.0538835 0.473892 0.412321 0.000504309
-0.0737458 0.479202 0.40284 0.00145617
-0.380088 0.133927 -0.245594 0.00372912
-0.381251 0.153864 -0.242503 0.00720661
-0.389601 0.132734 -0.230441 0.00525381
-0.391512 0.152534 -0.228526 0.00236518
-0.139691 -0.226096 -0.231312 0.000583842
-0.154059 -0.224259 -0.239967 0.000585025
-0.133667 -0.2233 -0.210111 0.000826916
-0.147024 -0.221423 -0.21871 0.000423868
0.0115876 -0.669716 -0.302578 0.00457863
-0.00520146 -0.669517 -0.311359 0.00113687
0.0138983 -0.681759 -0.292773 0.0073864
-0.00436777 -0.681686 -0.300888 0.000270299
0.0246775 -0.702287 0.302707 0.000987337
0.00833985 -0.687831 0.299801 0.00317397
0.0133679 -0.718544 0.310218 0.00431339
-0.00139877 -0.702861 0.307539 0.000314662
-0.20888 -0.78963 -0.281532 0.00143356
-0.214426 -0.781585 -0.290643 0.000402438
-0.214971 -0.797092 -0.26145 0.00451345
-0.220673 -0.788775 -0.26967 0.0011156
0.557308 0.562446 0.00758737 0.000259086
0.559222 0.586115 0.00242187 0.00190553
0.558683 0.557445 0.0331398 0.00142055
0.561299 0.58165 0.0299063 0.000991769
0.127976 -0.291034 0.345821 0.00102999
0.108099 -0.277781 0.339453 0.000860828
0.120818 -0.31144 0.348132 0.000828885
0.0988147 -0.299441 0.341824 0.00183723
0.106989 0.000489583 -0.268202 0.00188855
0.0750327 0.00354606 -0.274264 0.00132071
0.100629 -0.0139791 -0.254426 0.000197738
0.0672697 -0.0106335 -0.26007 0.00273279
0.137556 -0.0657846 -0.170188 0.000241233
0.11886 -0.0593919 -0.187666 0.00131608
0.137901 -0.0757429 -0.148 0.00160317
0.118576 -0.0701845 -0.164855 4.16068e-05
0.307772 0.232188 0.409865 0.00167478
0.297505 0.24856 0.410105 0.00871011
0.288914 0.222732 0.423235 0.00477073
0.278839 0.239581 0.421671 0.0012209
0.495088 0.339326 0.00275619 0.00100787
0.49571 0.362933 -0.00561751 0.000250387
0.498263 0.332037 0.0249837 0.000386805
0.499755 0.357415 0.0171345 0.00159118
-0.123894 -0.393003 -0.42316 0.00250893
-0.131871 -0.379377 -0.419714 0.00228531
-0.138179 -0.391316 -0.429128 0.00129798
-0.146148 -0.376581 -0.425108 0.00115449
-0.0638871 0.0301399 0.43766 0.000788659
-0.0812617 0.0447393 0.436156 0.00233807
-0.0553524 0.0453404 0.453505 0.00117291
-0.0724293 0.058 0.450278 0.00046923
0.34782 0.122869 0.411011 0.00081086
0.3549 0.139999 0.414926 0.00503958
0.329404 0.114417 0.422123 0.00123419
0.335736 0.132401 0.426844 0.00278031
0.328098 0.0895413 0.413137 0.000319064
0.336196 0.10905 0.418463 0.00193327
0.309509 0.0806099 0.424235 0.000462579
0.316551 0.100584 0.431071 0.00141148
0.313634 -0.0766307 0.150871 0.000202599
0.327432 -0.0628421 0.154276 0.00038658
0.3131 -0.0727721 0.170911 0.00138552
