0.193758 0.362475 0.380687 0.00177658
0.185066 0.338177 0.394567 0.00190441
0.184098 0.357239 0.394239 0.00392686
0.248949 0.655458 -0.255656 0.00257332
0.245662 0.669905 -0.261836 0.00405748
0.255012 0.6517 -0.242016 0.000421133
0.252189 0.666158 -0.247985 0.00109432
-0.347178 -0.0728704 -0.264515 0.00217929
-0.345579 -0.0565255 -0.268316 0.0014615
-0.354551 -0.0724821 -0.246716 0.00294429
-0.353177 -0.0561134 -0.251416 0.0036852
0.347418 -0.0941806 -0.0952751 0.00118474
0.347533 -0.0742619 -0.101658 0.00279431
0.345276 -0.0927819 -0.0743923 0.00103451
0.346333 -0.0732546 -0.0843163 0.00191345
-0.134086 0.914825 0.0790145 9.14701e-05
-0.141079 0.917477 0.0668426 0.00219838
-0.130887 0.900755 0.0958962 0.000529428
-0.136287 0.906706 0.0851099 0.000262167
0.193951 -0.685134 0.190779 0.000841354
0.179352 -0.685275 0.185644 0.00289755
0.193009 -0.685301 0.206294 2.42617e-05
0.178317 -0.685518 0.201522 0.000283078
-0.350038 -0.686832 -0.0837462 0.00222928
-0.357437 -0.674252 -0.0896273 0.00200778
-0.3479 -0.68413 -0.0658112 0.000155036
-0.356347 -0.6701 -0.0718158 0.00132013
0.298115 0.255279 -0.279046 0.000415195
0.283454 0.268212 -0.279432 0.0020729
0.292623 0.265746 -0.268397 0.00443459
0.278247 0.278213 -0.269342 0.0106087
0.318682 -0.481864 0.226851 0.000230204
0.322592 -0.463564 0.224522 0.000706283
0.309557 -0.486469 0.244099 0.00109571
0.312119 -0.467115 0.245635 0.00085542
-0.350257 -0.0336409 -0.140865 0.000904675
-0.350603 -0.0152383 -0.144873 0.00268712
-0.346934 -0.0385464 -0.122088 0.000812145
-0.348315 -0.0198503 -0.125648 0.00165319
0.0627886 0.960378 -0.0222521 0.000824102
0.0518878 0.961512 -0.0292972 0.00189705
0.0572163 0.957437 -0.0074327 0.00335712
0.0465895 0.958565 -0.0146228 0.00144838
0.0949352 -0.148708 0.389748 0.00107133
0.0867181 -0.126831 0.3852 0.000906311
0.0845997 -0.157542 0.397826 0.00199326
0.0767248 -0.137093 0.392137 0.00193866
-0.0049058 -0.674026 -0.352519 0.00321981
-0.0174945 -0.66452 -0.359318 0.00677654
-0.0101869 -0.683173 -0.341399 0.00093948
-0.022566 -0.674535 -0.348027 0.000790373
-0.331539 -0.305712 0.0927622 0.00896751
-0.3282 -0.288123 0.0833717 0.00316511
-0.326736 -0.3099 0.116807 0.0108741
-0.3236 -0.292513 0.107631 0.00155741
0.010513 -0.372194 -0.288148 0.00102513
0.00386118 -0.35324 -0.283378 0.000882934
-0.007751 -0.38046 -0.292303 0.000868615
-0.0138352 -0.361015 -0.286812 0.000479129
0.212135 0.59507 0.200229 0.00419783
0.207917 0.612225 0.196855 0.00251303
0.202637 0.59228 0.217474 0.00082505
0.19827 0.608794 0.213516 0.00794504
0.000787932 -0.678597 -0.349554 0.00283153
-0.0118746 -0.669183 -0.356192 0.0048168
-0.00562711 -0.687029 -0.33832 0.00118057
-0.0180062 -0.67839 -0.344948 0.000925183
-0.320973 -0.652971 0.123528 0.000583295
-0.326317 -0.638837 0.118099 0.000102246
-0.316666 -0.650584 0.140097 0.00154381
-0.323016 -0.635899 0.134121 0.000796725
0.0675005 0.64886 0.340234 0.00249523
0.0569573 0.660736 0.329291 0.00162959
0.0616996 0.640129 0.35619 0.00302084
0.049168 0.652607 0.344544 0.0035282
-0.209157 0.536067 0.19721 0.00163963
-0.20636 0.557264 0.194647 0.000303217
-0.206345 0.534596 0.215009 0.000574319
-0.203093 0.556385 0.212247 0.00125155
0.217842 0.788554 -0.129217 0.00248749
0.216456 0.801345 -0.138098 0.000982073
0.21428 0.783924 -0.109711 0.0029274
0.213271 0.796513 -0.117633 0.0023296
0.125021 -0.694975 -0.134495 0.00461141
0.107822 -0.694777 -0.142793 0.00353809
0.119369 -0.690163 -0.121928 0.0023378
0.106018 -0.691066 -0.130162 0.00556952
-0.198381 0.384071 -0.214266 0.000277179
-0.197716 0.398845 -0.215775 0.00141138
-0.203346 0.38119 -0.199566 0.00361022
-0.203268 0.397317 -0.201339 0.00189055
-0.361545 -0.627634 -0.0993839 0.000197549
-0.363186 -0.610912 -0.10128 0.00164274
-0.362349 -0.621202 -0.0818163 0.00145176
-0.365668 -0.605003 -0.0852318 0.00493215
-0.224735 0.628748 -0.279007 0.00367537
-0.228827 0.643858 -0.278584 0.00409252
-0.239178 0.627092 -0.270741 0.00326944
-0.242582 0.641402 -0.270486 0.00215415
-0.0262735 -0.152308 0.399266 0.00225043
-0.0444089 -0.136876 0.390257 0.00266761
-0.0382096 -0.179339 0.404688 0.000811864
-0.057529 -0.16563 0.39572 0.0020696
-0.199464 0.924647 -0.192352 0.000477545
-0.19277 0.937912 -0.195136 0.00282839
-0.200772 0.924004 -0.175252 0.00139783
-0.194222 0.937028 -0.179357 0.00275693
0.269157 -0.206284 -0.271906 0.00239898
0.267769 -0.186951 -0.270826 0.000129541
0.27493 -0.228529 -0.267129 0.00283562
0.276845 -0.207407 -0.264977 0.000866515
-0.204977 0.510439 0.256711 0.0028477
-0.201061 0.53185 0.250427 0.00415685
-0.199009 0.500698 0.275253 0.00267923
-0.195316 0.521596 0.269605 0.0054015
-0.0688461 -0.671238 0.109353 0.00117016
-0.0852123 -0.670494 0.102213 0.0023227
-0.0687278 -0.667989 0.129454 0.00834985
-0.0851727 -0.667311 0.122904 0.00635456
-0.0350155 0.640923 0.364122 0.00100058
-0.0484653 0.637234 0.351635 0.00119294
-0.0329626 0.630981 0.378114 0.00483501
-0.0469229 0.626833 0.365864 0.00356534
-0.204206 0.902666 -0.0804009 0.00168528
-0.198775 0.91968 -0.089114 0.00169625
-0.199359 0.898251 -0.0603757 0.00280223
-0.19477 0.915371 -0.0681621 0.00550814
0.22704 0.535079 0.0149353 0.000267662
0.227179 0.553946 0.014654 0.00125422
0.227468 0.538275 0.0362802 0.00149093
0.227378 0.557927 0.0390876 0.00263991
0.170564 0.451839 -0.277199 0.00171647
0.143957 0.453497 -0.288614 0.00382305
0.1757 0.442289 -0.270148 0.00128774
0.149595 0.443861 -0.281309 0.00282505
0.0231099 -0.678526 0.184283 0.000877366
0.0101069 -0.676926 0.173359 0.00829283
0.0235379 -0.678662 0.202332 0.00606891
0.0105366 -0.676596 0.190482 0.00179107
0.276698 -0.685203 -0.0593488 0.00119724
0.263516 -0.686491 -0.0688186 0.000200976
0.274158 -0.683616 -0.0393964 0.00292575
0.258779 -0.685165 -0.0500238 0.0026307
-0.204552 0.264465 -0.126654 0.00111923
-0.216395 0.260295 -0.14766 0.00273926
-0.211716 0.258966 -0.10467 0.00493971
-0.223846 0.255319 -0.125665 0.00099663
0.0930261 -0.613057 0.421651 0.00176858
0.0912459 -0.590429 0.428542 0.00202492
0.0764455 -0.612759 0.423346 0.00231268
0.0751445 -0.590058 0.430022 0.000769388
0.163566 0.570237 0.300847 0.000692596
0.15023 0.584444 0.292681 0.00499387
0.156379 0.561323 0.325544 0.00935523
0.141877 0.576431 0.317111 0.00357556
0.311082 -0.284782 -0.237142 0.000386356
0.311806 -0.265552 -0.239074 0.00209324
0.326813 -0.297677 -0.222051 0.00197898
0.326421 -0.277118 -0.225126 0.00348908
-0.304716 0.242062 -0.175811 0.000583149
-0.308337 0.244457 -0.192024 0.000513086
-0.309751 0.235327 -0.156376 0.0013651
-0.316362 0.237218 -0.172903 0.000710955
-0.355548 -0.128848 -0.132471 0.000543936
-0.353237 -0.100362 -0.132072 0.000352344
-0.353563 -0.128895 -0.111638 0.000928397
-0.352628 -0.104311 -0.118978 0.000457504
0.362807 -0.26187 -0.124767 0.000672965
0.359178 -0.24096 -0.135092 0.00064243
0.364604 -0.266885 -0.101771 0.00227445
0.361583 -0.245291 -0.111764 0.000235216
0.187754 0.688742 -0.276501 0.0011709
0.167758 0.699292 -0.277543 0.00133332
0.172157 0.673768 -0.280757 0.00256128
0.151411 0.684635 -0.280594 0.000172963
-0.207569 0.869058 -0.142324 0.00114276
-0.206252 0.882181 -0.145951 0.00101898
-0.205808 0.869548 -0.123814 0.000320742
-0.204326 0.88384 -0.128147 0.000367935
-0.0320046 0.182324 0.319818 0.00370151
-0.0509479 0.183483 0.318395 0.00181344
-0.0337175 0.194633 0.328821 0.0023885
-0.052731 0.195443 0.327269 0.00233627
-0.296902 0.0320653 0.121417 0.00141118
-0.295803 0.0516587 0.118096 0.00130564
-0.290947 0.0352668 0.141101 0.00223209
-0.290477 0.055235 0.136865 0.00284764
0.287335 -0.687809 -0.0883399 0.00150631
0.274702 -0.691527 -0.0964958 0.00156117
0.286071 -0.686683 -0.0713518 0.00193216
0.274011 -0.689535 -0.0802892 0.000949185
-0.35737 -0.565513 -0.135976 0.00185231
-0.354509 -0.546921 -0.140755 0.000646172
-0.356561 -0.565887 -0.117248 0.00018471
-0.354416 -0.549468 -0.122623 0.00377731
-0.200109 0.280581 -0.0665091 0.00247336
-0.199039 0.301534 -0.0732304 3.8954e-05
-0.197952 0.277413 -0.0442493 3.58115e-05
-0.196825 0.298138 -0.051703 0.00305696
0.199851 0.854194 0.0726014 0.00114084
0.200073 0.874076 0.0642365 0.00488519
0.189243 0.845747 0.0877653 0.00526825
0.189245 0.866023 0.081121 0.00223318
0.311103 -0.547588 -0.266538 0.0011077
0.298141 -0.532482 -0.26936 0.00235767
0.319822 -0.540255 -0.256227 0.00260109
0.307734 -0.524849 -0.259251 0.00196977
0.312644 -0.529579 0.208977 0.000203075
0.319908 -0.512468 0.208516 0.000637409
0.305393 -0.533478 0.225738 0.00171115
0.312815 -0.514436 0.226307 0.000426847
0.261847 -0.140355 0.296571 0.00123037
0.262227 -0.119209 0.291292 3.2409e-06
0.248832 -0.146676 0.311177 0.00128538
0.248187 -0.125824 0.307907 0.000647993
0.0302091 0.644133 0.384672 0.00275711
0.0161156 0.657108 0.372981 0.00242173
0.024881 0.633024 0.399168 0.00635184
0.0122286 0.644568 0.388604 0.00189454
0.334986 0.0617138 -0.0557642 0.00135669
0.330737 0.0785125 -0.0556092 0.000666051
0.328652 0.0644721 -0.0402145 0.00678616
0.324554 0.0817418 -0.0394914 0.00802274
-0.104624 -0.24575 -0.293969 0.000482296
-0.117266 -0.229314 -0.295511 0.00294227
-0.114026 -0.261632 -0.292955 0.00468843
-0.125882 -0.244631 -0.294967 0.00365226
-0.164852 -0.68549 0.330549 0.000877528
-0.184078 -0.672946 0.3306 0.00224805
-0.154434 -0.675616 0.348328 0.00152026
-0.173742 -0.661679 0.348504 0.0004252
-0.102226 0.00552914 0.340955 0.000524646
-0.120153 0.00652588 0.333608 0.000259603
-0.108866 -0.0173745 0.342462 0.00143639
-0.125273 -0.0139901 0.334872 0.00174303
0.370677 -0.375195 0.0362196 0.00155083
0.370028 -0.357996 0.028562 0.000572368
0.370571 -0.381117 0.060041 0.00189713
0.369566 -0.363065 0.053492 0.000208603
0.0055095 0.346807 0.432003 0.000201988
-0.00860243 0.361758 0.428527 0.00213008
-0.00345926 0.340105 0.432351 0.00168989
-0.0172722 0.355529 0.429106 0.00384539
0.373487 -0.466943 -0.0595137 0.000646153
0.373241 -0.448925 -0.0615198 0.000557275
0.374568 -0.469848 -0.0377338 0.0023692
0.374916 -0.452087 -0.0399297 1.90376e-06
-0.147566 0.224423 0.289312 0.000127232
-0.157315 0.235208 0.285213 0.00134374
-0.143128 0.229498 0.304825 0.00096596
-0.153893 0.240508 0.302225 0.000413319
0.312551 -0.440731 0.250689 0.00319485
0.314176 -0.420306 0.250093 0.00112189
0.303666 -0.444155 0.265104 0.00236763
0.30517 -0.422738 0.267565 0.00218653
-0.200132 0.895467 -0.0123169 0.00199543
-0.192478 0.91037 -0.0199898 0.00154005
-0.198786 0.888087 0.00352863 0.00137453
-0.191867 0.901458 -0.00491834 0.000417215
-0.312682 -0.0823777 -0.0136088 0.00417924
-0.313119 -0.0646415 -0.0301729 0.00135801
-0.306963 -0.087689 0.0124909 0.00468357
-0.307793 -0.068737 -0.00245728 0.00172554
0.0608969 -0.384546 0.431817 0.00205465
0.0487074 -0.368081 0.432078 0.00649197
0.0462594 -0.395703 0.433412 0.00436953
0.0340039 -0.379502 0.4333 0.00417615
0.248221 0.251466 -0.114983 0.00124556
0.240197 0.261051 -0.122773 0.00347818
0.247784 0.247385 -0.0960735 0.000256657
0.239037 0.257479 -0.103347 0.00479775
0.227001 0.160653 0.237578 0.000424618
0.223156 0.177321 0.230231 3.10285e-05
0.215342 0.157498 0.251933 0.00175961
0.211999 0.174786 0.244964 0.00198717
0.11841 -0.692945 -0.233352 0.000196465
0.10015 -0.6929 -0.240204 0.00083249
0.116566 -0.69232 -0.216698 0.0075849
0.0961202 -0.691464 -0.223514 0.00322456
-0.214498 0.669017 -0.066084 0.00108782
-0.214833 0.685815 -0.0738348 0.00106963
-0.212329 0.667425 -0.0448326 0.000699332
-0.212728 0.685529 -0.0523876 0.00081559
-0.35458 -0.636256 -0.0399562 0.000686764
-0.361356 -0.619607 -0.0471163 0.0040111
-0.349733 -0.636368 -0.0186558 0.00467734
-0.355294 -0.620592 -0.0262437 0.000402889
0.230282 -0.564415 -0.313827 0.000533553
0.207914 -0.556571 -0.316389 0.00169495
0.225461 -0.54957 -0.310121 0.000410397
0.203711 -0.542282 -0.313447 0.000830784
0.308313 0.0859386 -0.281136 0.000594586
0.297944 0.0972959 -0.284512 9.89167e-05
0.308856 0.07771 -0.278404 0.00127302
0.299406 0.0899193 -0.281769 0.00175884
-0.191957 0.408913 0.327289 5.18235e-05
-0.195504 0.424849 0.318697 0.00189209
-0.184042 0.401034 0.342663 0.000127438
-0.186153 0.417742 0.334444 0.00148787
0.119588 0.597111 -0.283207 0.0004588
0.109925 0.613166 -0.282854 0.001124
0.106644 0.586452 -0.285267 0.000593117
0.0983463 0.600136 -0.285141 0.00090992
0.0330171 0.0268123 0.347309 0.000885964
0.0260124 0.0519561 0.339014 0.00509877
0.0207494 0.00590582 0.354405 0.00120511
0.0118328 0.0323311 0.345594 0.00354643
-0.258805 0.552766 -0.264148 0.000759716
-0.259276 0.571006 -0.266856 0.000777386
-0.26061 0.551679 -0.248311 0.00107178
-0.261019 0.569734 -0.251351 0.00067219
-0.25242 0.56923 -0.283745 0.0106559
-0.253463 0.586608 -0.286876 0.0153766
-0.255977 0.567633 -0.267718 0.000215291
-0.256666 0.585208 -0.270875 0.00099218
0.317933 0.132092 0.0698772 0.00234678
0.315275 0.148097 0.0599479 0.00205122
0.313769 0.127258 0.0926122 0.00150483
0.311994 0.143234 0.083907 0.00214324
-0.0780886 0.0676063 0.329371 0.00243492
-0.098829 0.0699984 0.322935 0.000657487
-0.0805892 0.0545174 0.334157 0.000460797
-0.103013 0.0556325 0.327735 0.000608439
0.325367 -0.00695925 -0.0366775 0.00272065
0.327313 0.00933231 -0.0425494 0.00271443
0.321761 -0.0113216 -0.0184947 0.00695985
0.324984 0.00732599 -0.026278 0.00636542
0.214415 0.619273 -0.274957 0.000287082
0.201559 0.632226 -0.276866 0.000381435
0.208641 0.6045 -0.274875 0.00155256
0.194706 0.617026 -0.27698 0.000356365
0.0505647 -0.300055 0.435436 0.000408418
0.0411995 -0.282374 0.43462 0.00114772
0.0382351 -0.317615 0.436764 0.000905383
0.0283531 -0.297312 0.436086 0.00051318
0.225628 0.475331 0.0205918 0.00096066
0.225393 0.495859 0.0278918 0.000940916
0.22695 0.482713 0.0430364 0.000889439
0.226454 0.503825 0.0507051 0.00173052
0.175783 -0.227075 -0.279601 0.000302152
0.16118 -0.21121 -0.283284 0.000939971
0.16757 -0.244222 -0.277663 0.000832349
0.148235 -0.233063 -0.280775 0.00175668
0.211316 0.880192 -0.0563124 0.00293516
0.207832 0.897761 -0.06586 0.00210113
0.214176 0.874797 -0.0340614 0.000631599
0.210498 0.893042 -0.0427694 0.00115948
-0.205541 0.0335797 0.273642 0.000819155
-0.199712 0.0551732 0.27299 0.000362278
-0.197765 0.0134256 0.283951 0.000372159
-0.191727 0.0351009 0.282954 0.000504701
0.214014 0.330262 -0.0419582 0.00100855
0.21333 0.347651 -0.0483891 0.00102084
0.213863 0.329547 -0.0244823 0.000382703
0.213352 0.346421 -0.03152 0.00121951
0.310122 -0.250704 0.158421 0.00111515
0.305377 -0.228553 0.156204 0.00708947
0.304505 -0.248216 0.176463 0.00441888
0.301155 -0.228924 0.172692 0.00929013
0.029441 0.551415 0.395469 0.00082668
0.0141166 0.560368 0.399857 4.32254e-05
0.0165591 0.564485 0.400632 0.00189614
0.00277286 0.574286 0.405355 0.00150173
0.174826 0.558219 0.291951 0.00133941
0.165293 0.573522 0.281546 0.00613526
0.170163 0.547667 0.308257 0.00438358
0.155567 0.562673 0.299554 0.00986918
0.0586515 0.282409 0.432952 0.000161409
0.0499178 0.29653 0.440029 0.00236177
0.0440968 0.277501 0.432905 0.000242357
0.0354796 0.292366 0.440532 0.00254947
-0.134247 -0.688562 0.0269373 0.00250971
-0.148084 -0.691038 0.0172319 0.00101877
-0.13955 -0.686138 0.0459197 0.00115051
-0.152215 -0.688009 0.0377493 0.000592704
-0.344725 -0.453764 0.150417 0.00166599
-0.349566 -0.431813 0.137835 0.00176013
-0.334135 -0.460373 0.174335 7.66338e-05
-0.339561 -0.436655 0.161264 4.83701e-05
0.192335 -0.6294 -0.335751 0.000610881
0.189568 -0.609034 -0.333424 0.000695429
0.168101 -0.636738 -0.340068 0.0021316
0.170171 -0.615222 -0.336523 0.000345128
0.290198 -0.606155 0.156621 0.00718719
0.299453 -0.590543 0.154704 0.00102166
0.281228 -0.606447 0.177592 0.00654953
0.290577 -0.590874 0.175361 0.00045183
-0.178989 0.737739 0.0694214 0.0046717
-0.180814 0.756376 0.0642512 0.000646886
-0.168032 0.737441 0.0856035 0.0034621
-0.171812 0.755026 0.0807879 0.00967397
-0.364682 -0.513877 0.0698578 0.000378576
-0.368618 -0.493963 0.0635438 0.00200406
-0.359697 -0.518184 0.092665 0.000673377
-0.363498 -0.499573 0.0857252 0.00299237
0.272892 -0.394197 -0.224566 0.0012572
0.25887 -0.381116 -0.229271 0.00116536
0.287329 -0.397715 -0.215509 0.00125329
0.276377 -0.382661 -0.219437 0.00419912
0.0890096 -0.223299 -0.287148 0.000874031
0.0769481 -0.203711 -0.289388 0.000222611
0.0797923 -0.240853 -0.286035 0.00210669
0.0663053 -0.221746 -0.288217 0.000132861
-0.361364 -0.635576 -0.10772 0.000593824
-0.362914 -0.618564 -0.109581 0.00121149
-0.362595 -0.631416 -0.0898124 0.00110018
-0.364416 -0.614916 -0.0917024 0.00312904
-0.20025 0.304308 -0.116286 0.000822673
-0.199234 0.322498 -0.124083 0.000616469
-0.199666 0.303655 -0.0926579 0.0006877
-0.19879 0.322949 -0.100956 0.00231375
-0.358731 -0.217051 -0.24952 0.000336533
-0.356555 -0.19817 -0.253344 0.00137369
-0.368126 -0.216958 -0.231454 0.00242903
-0.365145 -0.19803 -0.236484 0.00107896
-0.207782 0.863206 -0.10186 0.00055297
-0.204515 0.882112 -0.111149 0.000561399
-0.205446 0.855728 -0.0858219 0.0027758
-0.202446 0.876384 -0.0933688 0.00281125
0.164307 0.597723 -0.280626 0.000125635
0.153319 0.61667 -0.279842 0.00103876
0.151309 0.584393 -0.281527 5.7115e-05
0.140951 0.603195 -0.280149 0.00115917
-0.0524957 -0.680119 -0.0618019 0.00358325
-0.0714912 -0.684377 -0.0736813 0.00206269
-0.0546416 -0.680756 -0.0379562 0.00394314
-0.072433 -0.684252 -0.0508488 0.000940231
0.0283651 -0.258426 -0.285359 0.000454269
0.0149822 -0.24405 -0.287202 0.00122991
0.0156834 -0.272672 -0.285929 0.00169518
0.00333121 -0.258831 -0.287356 0.000173089
-0.292435 -0.329809 0.252219 0.00323622
-0.291526 -0.310645 0.24807 0.00740454
-0.280883 -0.332399 0.270824 0.00277357
-0.279684 -0.314602 0.267265 0.00331494
0.207741 0.861597 -0.152845 0.00224872
0.206579 0.877791 -0.164873 0.00127812
0.212468 0.863206 -0.1296 0.00133652
0.210922 0.877462 -0.140729 0.00190602
0.23419 -0.318772 -0.249869 0.00367181
0.211923 -0.313462 -0.255958 0.00138098
0.231976 -0.329246 -0.249147 0.00164753
0.210015 -0.32385 -0.254653 0.000601564
0.119251 0.602634 -0.283441 1.02093e-05
0.109652 0.618623 -0.282967 0.00186198
0.106458 0.591933 -0.284757 0.000358688
0.0981605 0.605618 -0.284631 0.000675491
-0.0322584 0.532367 -0.289933 0.000882572
-0.037563 0.551752 -0.288731 0.000982501
-0.0441477 0.517389 -0.289845 0.000542209
-0.05209 0.539024 -0.288506 0.00108805
-0.340805 0.165159 -0.213911 0.000897806
-0.34016 0.179366 -0.222984 0.000858706
-0.338636 0.159356 -0.196091 0.000509531
-0.338101 0.17397 -0.205805 0.00157818
0.3098 -0.216153 0.0312755 0.00186398
0.309241 -0.193783 0.0212347 6.63363e-05
0.307763 -0.224028 0.0548388 0.000327604
0.306513 -0.201471 0.0469025 0.000463583
-0.208326 0.8608 -0.0970999 0.000812135
-0.204865 0.880072 -0.107008 0.000217945
-0.206233 0.853406 -0.0810928 0.00222288
-0.203166 0.873874 -0.0887432 0.00239346
0.116875 -0.682194 -0.021857 0.000930189
0.0995171 -0.682761 -0.0261082 0.000840812
0.109198 -0.682471 -0.0055254 0.000172312
0.0924962 -0.683996 -0.0121005 0.00243435
0.000579242 0.599518 -0.284784 0.00295236
-0.00398652 0.618444 -0.286346 0.000974378
-0.017164 0.588563 -0.287179 0.00132154
-0.0219136 0.607429 -0.288887 0.00144791
-0.192787 -0.563589 -0.330095 0.00232097
-0.186748 -0.541516 -0.32478 0.00328005
-0.217156 -0.567354 -0.329133 0.00223492
-0.209984 -0.545883 -0.323733 0.000668604
0.307834 -0.680582 -0.303805 0.000564295
0.294877 -0.676 -0.320181 0.00716789
0.310683 -0.692881 -0.28853 0.00409657
0.297492 -0.689493 -0.305683 0.00357225
0.141458 0.218185 0.317098 0.00210481
0.151074 0.230326 0.328677 0.000679555
0.121812 0.218338 0.32898 0.00229137
0.132906 0.229538 0.341792 0.000371059
-0.333658 0.0381932 -0.284943 0.000980813
-0.330829 0.0570906 -0.28569 3.28767e-05
-0.34273 0.0390635 -0.269716 3.12608e-05
-0.338617 0.0592362 -0.273539 0.00190529
0.198154 -0.633958 0.326752 0.000764216
0.205015 -0.620184 0.330885 0.00411038
0.183578 -0.63387 0.340149 0.000355139
0.190716 -0.619931 0.344066 0.00312958
0.338911 -0.442408 0.187033 0.000296979
0.343491 -0.423874 0.178022 0.0031899
0.329287 -0.447319 0.211382 0.000338844
0.333706 -0.428454 0.202894 0.00145038
0.0494379 0.373247 -0.291827 0.000281456
0.0401846 0.397196 -0.29296 0.00130668
0.0301333 0.35834 -0.29241 0.0010443
0.022394 0.383353 -0.294477 0.00176906
0.0885714 0.215961 -0.291651 0.00132172
0.0773206 0.23025 -0.291203 0.0051589
0.0757694 0.205317 -0.294795 0.000777044
0.0658472 0.219171 -0.294736 0.000443025
-0.130183 -0.686952 0.0104858 0.000793473
-0.144685 -0.689375 0.000193467 0.00310344
-0.134609 -0.684305 0.0303767 0.00676289
-0.148142 -0.686653 0.0212058 0.0046581
0.323148 -0.547417 0.150931 0.00163755
0.330552 -0.532398 0.150137 0.00123152
0.316755 -0.547252 0.170987 0.00146344
0.324575 -0.53202 0.169887 0.00100686
-0.358082 -0.253521 -0.0521173 0.00110187
-0.358261 -0.234652 -0.058716 0.00059161
-0.352868 -0.258472 -0.0337401 0.0058784
-0.35236 -0.240115 -0.0397574 0.00177912
-0.0994293 0.951856 -0.0793203 0.00063169
-0.112959 0.952671 -0.0937179 0.000933589
-0.107569 0.950383 -0.0528535 0.00140241
-0.12015 0.951628 -0.0655659 0.000311224
0.364141 -0.281147 -0.0724311 5.66499e-05
0.36127 -0.259516 -0.081079 0.00116892
0.364958 -0.286898 -0.0567969 0.000518686
0.362002 -0.266083 -0.0648244 0.000505609
-0.0477526 0.231764 0.373323 0.00170566
-0.0666043 0.233453 0.371942 0.000498537
-0.0464344 0.241152 0.380578 0.00429635
-0.0649378 0.243946 0.379754 0.00285595
-0.0759003 -0.314756 0.431747 0.000254282
-0.0898241 -0.297693 0.423538 0.000899994
-0.0860651 -0.3391 0.432825 0.000631171
-0.103945 -0.32297 0.424934 0.000470965
-0.137228 0.955757 -0.13061 0.00101723
-0.151385 0.954478 -0.138612 0.000669274
-0.142799 0.954384 -0.109358 0.000805553
-0.157253 0.953926 -0.119708 0.000662257
-0.0885555 0.844817 0.139514 0.00143975
-0.114993 0.846403 0.130936 0.00313658
-0.0835488 0.841025 0.14491 0.00404283
-0.110959 0.841889 0.135531 0.00201896
0.307637 -0.48463 -0.231779 0.000607325
0.299312 -0.464139 -0.231108 0.000205695
0.317282 -0.475941 -0.212503 7.88457e-05
0.308972 -0.453699 -0.21019 0.000210129
-0.167232 -0.0195742 -0.300552 0.00171519
-0.175645 -0.00142401 -0.300077 0.00226936
-0.183532 -0.0304711 -0.303495 0.00157845
-0.192139 -0.0132614 -0.30322 0.00147178
-0.195583 -0.683482 0.146447 0.00218928
-0.211606 -0.682761 0.138747 0.000234366
-0.201095 -0.683239 0.163546 0.000853511
-0.216443 -0.682089 0.155815 0.0022525
-0.0607819 -0.694277 -0.313835 0.00134646
-0.0706305 -0.688211 -0.322097 0.00820983
-0.0672612 -0.700658 -0.297685 0.0068568
-0.0774153 -0.697196 -0.307862 0.00237822
-0.255103 0.187743 0.0950439 0.0019731
-0.246219 0.206463 0.0840601 0.0143752
-0.245329 0.184826 0.118708 0.00380219
-0.236048 0.203812 0.108189 0.0154658
-0.21575 0.50482 -0.0375947 0.000436486
-0.216733 0.524096 -0.0459376 0.00140351
-0.214976 0.498674 -0.0169694 0.000243888
-0.215672 0.518525 -0.0255179 0.000102407
0.227758 -0.282764 0.368214 0.00115393
0.227292 -0.264387 0.366847 0.00146305
0.210366 -0.293084 0.381209 0.00175337
0.210667 -0.273705 0.380002 0.00125442
0.0970693 -0.687982 0.0618653 0.00436251
0.0857525 -0.68869 0.0472462 0.0023152
0.0949076 -0.691061 0.0784953 0.00479342
0.0836928 -0.692199 0.0658678 0.000350987
0.16336 0.159644 0.263559 0.0123468
0.163075 0.177072 0.270611 0.000429903
0.153205 0.161652 0.278885 0.00142837
0.152155 0.178109 0.284694 0.00597584
0.315415 -0.625413 0.0884968 0.00351767
0.325 -0.61219 0.0870152 0.00249589
0.307735 -0.626576 0.108062 0.00466679
0.317397 -0.612186 0.106411 0.00164606
-0.0356267 0.474187 0.355555 0.00273468
-0.0521764 0.485812 0.353599 0.00646676
-0.0435946 0.470264 0.358054 0.00305516
-0.0601169 0.481925 0.355898 0.00603615
-0.203722 0.387538 0.293691 0.000471339
-0.205491 0.413997 0.286905 0.000608138
-0.199267 0.384873 0.311757 0.000150496
-0.201374 0.410074 0.304971 0.000598151
0.255178 0.708215 -0.157526 0.00162241
0.252683 0.723156 -0.1616 0.00304015
0.252022 0.7036 -0.138949 0.00866992
0.249684 0.719619 -0.143047 0.00524885
0.337568 -0.241861 0.000795453 0.00530855
0.336848 -0.224066 -0.00780786 0.00895195
0.33566 -0.247312 0.0203585 0.00610957
0.334163 -0.229828 0.0122766 0.00391521
-0.0832894 0.654611 -0.285018 3.09674e-05
-0.0981076 0.667303 -0.28427 0.000106485
-0.100507 0.643514 -0.286047 0.00262434
-0.116843 0.656775 -0.285088 0.00277202
0.234963 -0.624426 0.271029 0.00425435
0.245375 -0.609951 0.276548 0.00422693
0.225142 -0.624662 0.28842 0.00380091
0.235117 -0.608814 0.293887 0.00337308
0.00559588 -0.473458 -0.318386 0.000119706
0.0012036 -0.454291 -0.313746 0.00182206
-0.0145562 -0.471593 -0.317646 0.000656612
-0.0207824 -0.452535 -0.313053 0.000726996
0.270788 0.553514 -0.252784 0.0138571
0.254267 0.557432 -0.263888 0.003289
0.26458 0.531948 -0.246639 0.00779117
0.248347 0.535839 -0.258735 0.00388056
-0.214953 0.70485 -0.0198008 0.00142386
-0.214878 0.727962 -0.0230289 0.00174206
-0.210709 0.701569 -0.00115911 0.00158931
-0.211071 0.726046 -0.00350983 0.00113926
0.34679 -0.561415 -0.0276972 0.000100729
0.349129 -0.544379 -0.0335875 0.00396361
0.343757 -0.565416 -0.0106894 0.000542409
0.348137 -0.548972 -0.0174105 0.00523977
-0.142593 -0.69445 -0.208777 0.000426053
-0.158382 -0.695476 -0.216466 0.000279508
-0.145174 -0.693732 -0.185769 0.000548117
-0.161943 -0.695134 -0.194275 0.00866185
-0.164471 -0.583179 0.377575 0.00329522
-0.172985 -0.570194 0.37606 0.000391738
-0.146839 -0.580098 0.387791 0.00233098
-0.154484 -0.56202 0.387845 0.00222386
-0.355282 -0.105467 -0.179299 0.000821019
-0.353972 -0.075935 -0.174186 0.00197317
-0.352231 -0.106098 -0.157746 0.00143302
-0.350666 -0.0760429 -0.15209 0.000863133
-0.199754 -0.499293 -0.310017 0.00161959
-0.193174 -0.479336 -0.305294 0.000596727
-0.222877 -0.500119 -0.305171 0.000309628
-0.216163 -0.481297 -0.300299 0.000207333
-0.179578 0.950785 -0.166761 0.000874776
-0.172846 0.963174 -0.171468 0.0103167
-0.178611 0.949103 -0.146133 0.00270406
-0.174862 0.960148 -0.153479 0.00821288
-0.0343006 -0.621769 0.420524 0.000931846
-0.0542278 -0.615842 0.416046 0.00192846
-0.0196136 -0.615287 0.427163 0.00154828
-0.0401868 -0.60991 0.422272 0.00053695
0.109087 0.92938 0.0942923 0.000574977
0.102974 0.945685 0.0842718 0.00355668
0.0980209 0.91756 0.106478 0.0041989
0.0905791 0.933522 0.0986074 0.0030337
0.0484707 -0.686371 -0.0851602 0.00022458
0.0299775 -0.685924 -0.0957127 0.00176753
0.0498807 -0.685292 -0.0619179 0.00261898
0.0309166 -0.684302 -0.071715 0.000677845
-0.0946261 0.11224 0.311442 0.000649817
-0.109051 0.118135 0.305737 0.00040791
-0.100066 0.0964234 0.315516 0.00111689
-0.114665 0.101777 0.30918 0.000900251
0.259564 -0.0290313 0.262851 0.00155052
0.256798 -0.00710885 0.26213 5.87392e-05
0.248902 -0.0340514 0.279489 0.00101448
0.244759 -0.0146321 0.278391 0.00230046
0.0969511 0.865485 0.146312 0.00222219
0.0916659 0.881962 0.150222 0.00553299
0.084145 0.857632 0.15027 0.000883842
0.0786778 0.874429 0.154925 0.000622716
-0.312241 -0.20928 -0.00458571 0.000761068
-0.311614 -0.193436 -0.0115174 0.00124298
-0.309269 -0.21033 0.0112966 0.000689877
-0.30824 -0.193278 0.00537753 0.000885194
-0.0842569 -0.293945 -0.284208 0.000184901
-0.092708 -0.273637 -0.284492 0.00222706
-0.0963774 -0.304772 -0.284469 0.00110304
-0.102869 -0.282488 -0.284484 0.00061361
-0.00852715 -0.517725 0.4337 0.00242
-0.0192426 -0.496568 0.435147 0.000248231
-0.0168781 -0.529616 0.433404 0.0017665
-0.0278738 -0.509133 0.434426 0.00171225
-0.244746 -0.525752 0.330213 0.00125278
-0.251343 -0.510442 0.326662 0.000883693
-0.232244 -0.52831 0.340835 0.00155161
-0.23955 -0.510969 0.338178 0.000572716
-0.300381 -0.216346 0.193106 0.00262648
-0.299309 -0.196957 0.186365 0.000964222
-0.293797 -0.219922 0.2135 0.0023507
-0.292637 -0.200192 0.206704 0.00134372
-0.0506575 -0.693822 -0.144746 0.00263086
-0.0731229 -0.691752 -0.14561 0.00400512
-0.053575 -0.695457 -0.126155 0.00467553
-0.0756159 -0.692742 -0.127435 0.0025554
0.179613 0.137442 -0.293349 0.00079497
0.166203 0.152071 -0.292156 0.00161329
0.165793 0.123195 -0.295592 0.00145335
0.151734 0.137423 -0.293846 0.000265119
0.336044 0.194878 -0.195913 0.00109259
0.330283 0.209945 -0.20316 0.00334835
0.337948 0.1896 -0.173034 0.00247548
0.332868 0.204826 -0.180511 0.00196363
0.207038 0.461729 0.306871 0.002239
0.207149 0.481502 0.304778 0.00366952
0.195276 0.452432 0.323294 0.00292716
0.195373 0.472586 0.32064 0.00272626
-0.113791 -0.482009 -0.321944 0.00237575
-0.106806 -0.461594 -0.315877 0.000587965
-0.13707 -0.486139 -0.322346 0.00316177
-0.129195 -0.464875 -0.316171 0.000575503
0.163116 0.900634 -0.271592 0.00153037
0.145908 0.913175 -0.270845 0.00228515
0.159183 0.912552 -0.266125 0.00427177
0.141592 0.924504 -0.265766 0.00418954
-0.204615 -0.0454025 0.298597 0.00334282
-0.195339 -0.0231725 0.29874 0.0016293
-0.189597 -0.0566307 0.311832 0.00121033
-0.185422 -0.0393198 0.309801 0.000665737
0.362804 -0.574271 -0.136137 3.38669e-05
0.361706 -0.558066 -0.140645 0.000865519
0.36237 -0.571597 -0.116015 0.00261816
0.361539 -0.555026 -0.120265 0.00169287
-0.101729 0.791289 0.105477 0.00135367
-0.122996 0.798431 0.101974 0.000960249
-0.0902377 0.794293 0.110764 0.00103626
-0.114125 0.799379 0.105949 0.000165907
0.2241 0.536051 -0.0850364 0.00168504
0.227698 0.554487 -0.093334 0.00104689
0.224094 0.533964 -0.0667522 0.000582453
0.226787 0.552467 -0.0762119 0.0011293
0.219732 -0.416526 -0.261125 0.000232539
0.199154 -0.413339 -0.265661 0.00163453
0.227443 -0.405187 -0.254031 0.00245882
0.206622 -0.401429 -0.25901 0.0012827
0.22112 0.404047 0.0434477 0.000191016
0.222479 0.420787 0.036818 0.000304623
0.222226 0.402502 0.0666688 0.000838404
0.223824 0.419865 0.0589888 0.000730362
0.225686 0.573713 0.00325172 0.00156651
0.224746 0.593336 -0.00736258 0.00196659
0.227418 0.570673 0.0266146 0.00203666
0.227392 0.590472 0.0184718 0.00209474
-0.210065 0.376893 0.00420252 2.68617e-06
-0.211941 0.3995 -0.00577248 0.000361753
-0.208926 0.376439 0.0293058 0.000957954
-0.211342 0.400696 0.0208647 0.000885294
-0.379225 -0.478115 -0.0214388 0.000403699
-0.380643 -0.450353 -0.0125127 0.00517026
-0.37227 -0.480032 -0.00339408 0.00461174
-0.373299 -0.451966 0.00665354 0.00163359
-0.0138426 -0.676992 -0.0559805 0.00877468
-0.0333778 -0.68108 -0.0673527 1.04131e-05
-0.0169933 -0.678086 -0.0351529 0.00702265
-0.0360477 -0.681752 -0.0474213 0.000390702
-0.325643 -0.697933 -0.0805158 0.00109566
-0.335715 -0.694903 -0.0859597 0.0010342
-0.319951 -0.695892 -0.0616959 0.00107559
-0.33017 -0.692558 -0.0664858 0.00224353
-0.208496 0.863394 -0.0465113 0.0012005
-0.208164 0.883728 -0.0472477 0.00332879
-0.204934 0.860573 -0.0278202 0.00188716
-0.20408 0.880594 -0.0287047 0.000293242
-0.0314441 -0.674993 -0.0781457 0.00269169
-0.0503749 -0.679127 -0.08823 0.00410058
-0.0319577 -0.675425 -0.0591382 0.00525637
-0.0517254 -0.679416 -0.0705596 0.000393596
-0.119188 0.176111 -0.302798 0.00111089
-0.132696 0.193212 -0.302951 4.39329e-05
-0.135412 0.165953 -0.308876 0.00411147
-0.145538 0.183289 -0.30749 0.00349799
-0.0922029 0.897127 -0.278671 0.00406454
-0.0917296 0.915207 -0.270557 0.00295246
-0.111111 0.902484 -0.277477 0.00512484
-0.110199 0.919793 -0.268374 0.000204948
0.333484 -0.414398 -0.189348 0.00424103
0.331559 -0.396134 -0.192434 0.000245703
0.341854 -0.422557 -0.17344 0.000317411
0.341547 -0.403253 -0.175946 0.00323559
-0.0242251 0.191311 0.334446 0.00121623
-0.0429159 0.191921 0.33294 0.00344424
-0.0253667 0.204903 0.346703 0.00542995
-0.0441369 0.205443 0.34536 0.00307853
0.222858 -0.685076 0.198576 0.00248973
0.207843 -0.686408 0.194165 0.00029624
0.221525 -0.685118 0.214281 0.00297649
0.207537 -0.687937 0.210333 0.00161251
0.34026 -0.0329177 -0.184124 0.00030689
0.33873 -0.0160088 -0.188792 0.000658529
0.342562 -0.0332948 -0.16247 0.000745047
0.340874 -0.0162771 -0.168576 0.000298289
0.303547 -0.344838 -0.224515 0.00166447
0.294212 -0.329585 -0.228372 0.00702926
0.31961 -0.35006 -0.211515 0.00543983
0.315377 -0.332565 -0.214524 0.00735649
0.313288 -0.0162798 0.0855573 0.000170827
0.313407 0.00417384 0.0789815 0.00016291
0.314007 -0.0199991 0.109595 0.00163508
0.31398 0.000997775 0.102933 0.000571009
-0.0321151 0.516473 0.36744 0.00740382
-0.0516587 0.519798 0.364202 0.00102429
-0.0318119 0.530733 0.372102 0.0016953
-0.0522424 0.531273 0.367237 0.00789972
0.0437659 0.197469 -0.297471 0.000397337
0.0346271 0.210103 -0.298141 0.000277943
0.0249256 0.184343 -0.299511 0.000322167
0.0162428 0.198384 -0.301102 0.00113687
0.171376 0.771636 0.0870035 0.0027565
0.166482 0.790115 0.0825584 0.011217
0.155083 0.762378 0.095843 0.00934213
0.148686 0.779657 0.0929401 0.00245914
0.321094 -0.463553 -0.185276 0.00181936
0.313582 -0.441512 -0.18419 0.00734753
0.326387 -0.456382 -0.167097 0.00799541
0.319868 -0.435488 -0.167645 0.014851
-0.215347 0.627235 0.0151047 0.00156843
-0.213299 0.65799 0.0183361 0.000700156
-0.213334 0.627897 0.0335669 4.47218e-05
-0.211197 0.656223 0.0339103 0.00247658
0.337632 0.156835 -0.197473 0.000154083
0.333592 0.173233 -0.2068 0.00251069
0.33982 0.153295 -0.171717 0.00137501
0.337684 0.173165 -0.178656 0.00143016
-0.370196 -0.35112 -0.20087 0.000244584
-0.369382 -0.333826 -0.205551 0.00111015
-0.378261 -0.35038 -0.18473 0.00493758
-0.377404 -0.332932 -0.189278 0.00470268
0.111579 0.739948 0.0990557 0.00141427
0.105454 0.755199 0.0969788 0.00660179
0.0975797 0.730396 0.111379 0.00128251
0.0905097 0.744823 0.10898 0.00232333
-0.210637 0.515926 0.155427 0.00012142
-0.209432 0.535963 0.15031 0.000762048
-0.209086 0.513408 0.17418 0.000922488
-0.207312 0.534233 0.170902 0.00128783
0.307215 -0.162775 0.0354925 0.000978791
0.309567 -0.139459 0.0223288 0.00287333
0.305148 -0.170035 0.0595552 0.00399992
0.307483 -0.148032 0.0464761 0.000690776
-0.315492 -0.238924 0.0845363 0.00351613
-0.310915 -0.219611 0.0831963 0.00251025
-0.312377 -0.23863 0.105598 0.00143291
-0.310836 -0.223162 0.0998725 0.00121547
0.344473 -0.0659099 -0.105997 0.000373459
0.34461 -0.045809 -0.112978 0.00123421
0.344277 -0.0712235 -0.0861213 0.000183016
0.344568 -0.0508091 -0.0935227 0.000567682
-0.0377227 0.622296 -0.285265 0.000289147
-0.0541201 0.635841 -0.284423 0.000905999
-0.052506 0.611403 -0.286695 2.05967e-06
-0.0708534 0.624009 -0.285429 9.37519e-05
0.201078 0.95344 -0.152075 0.00761967
0.176868 0.957736 -0.153533 0.00492276
0.195778 0.954976 -0.132186 0.00352094
0.171408 0.959363 -0.133921 0.00178507
0.230127 -0.691457 -0.11317 0.000921586
0.216503 -0.69194 -0.119943 0.0011318
0.228697 -0.689131 -0.0924249 0.00023672
0.216469 -0.688671 -0.0994304 0.00359485
-0.26662 -0.0241007 0.20586 0.000351216
-0.266281 -0.00236235 0.199316 0.00181925
-0.256658 -0.0270601 0.226817 0.00195236
-0.255068 -0.00516826 0.220936 0.00351695
0.162353 -0.312282 -0.265054 0.000110137
0.147454 -0.300638 -0.267875 0.00165196
0.148305 -0.326072 -0.266468 0.00135792
0.13506 -0.312368 -0.268921 0.000498576
-0.185457 0.342053 0.350327 0.00213325
-0.18909 0.359216 0.346872 0.00218594
-0.174536 0.334387 0.36418 0.000355126
-0.178423 0.351163 0.360903 0.000804392
-0.0748989 -0.31534 0.431989 0.000334925
-0.0888227 -0.298277 0.423781 0.000710947
-0.0865481 -0.338865 0.43302 0.000325123
-0.104428 -0.322734 0.425129 9.4026e-05
0.00580037 0.612517 0.415438 0.0032034
-0.00901138 0.617834 0.409858 0.00610439
-0.00496568 0.611454 0.421634 0.00288915
-0.0198114 0.616332 0.41713 0.00256053
0.194264 0.242861 0.248822 0.000242858
0.196149 0.262463 0.250499 0.00341736
0.191533 0.240913 0.266531 0.00119338
0.194071 0.260775 0.270159 0.00129791
-0.148561 0.637031 0.184252 0.00091552
-0.156479 0.645432 0.170169 0.00198108
-0.151844 0.618424 0.200684 0.00126813
-0.159406 0.626574 0.187564 0.00166458
-0.0646993 -0.0503685 -0.303862 0.000671619
-0.0804843 -0.0313884 -0.30458 0.00065215
-0.0853151 -0.0640873 -0.307387 0.00350125
-0.0980543 -0.0460585 -0.307906 0.00325717
-0.370001 -0.289812 -0.205424 0.000179527
-0.370894 -0.274651 -0.208573 0.00130914
-0.368746 -0.289595 -0.189689 0.00151183
-0.37023 -0.273712 -0.191806 0.000558943
0.246733 0.606773 -0.218772 0.00250494
0.244245 0.625309 -0.224173 0.00652425
0.249772 0.608791 -0.20292 0.00424524
0.246607 0.627799 -0.209226 0.00024495
0.102989 0.591386 0.359296 0.000353695
0.0968979 0.611483 0.349715 0.00663085
0.090267 0.582532 0.375124 0.0117559
0.0848392 0.604272 0.368831 0.00465051
-0.166295 -0.632882 -0.351208 0.00102637
-0.177438 -0.618619 -0.354435 0.00724467
-0.179108 -0.640473 -0.341951 0.00715744
-0.19109 -0.626518 -0.346427 0.000459173
0.313161 0.161528 -0.0367349 0.00309464
0.313742 0.177893 -0.0461262 0.0037715
0.304064 0.156684 -0.0186336 0.00703462
0.304145 0.172578 -0.0281826 0.00699002
0.0560628 -0.266551 -0.282585 0.00092535
0.0427959 -0.250967 -0.284261 0.000794097
0.0417477 -0.27952 -0.283666 0.00205561
0.0294033 -0.265279 -0.284637 0.00014223
-0.0754629 0.472338 0.35607 0.000746276
-0.0894362 0.484524 0.349815 0.0064801
-0.077577 0.453664 0.366048 0.0123505
-0.0908944 0.464895 0.357166 0.00553802
0.365071 -0.62204 -0.195553 0.00239999
0.360026 -0.606297 -0.203707 0.00244771
0.368915 -0.620786 -0.176478 0.00531184
0.364541 -0.606453 -0.186189 0.000188921
0.2082 0.274618 0.179981 0.00153539
0.210344 0.291423 0.174603 0.000533456
0.206967 0.273853 0.200263 0.00147596
0.209965 0.290282 0.193806 0.00108456
-0.10432 -0.479909 -0.321749 0.00250933
-0.0981936 -0.461426 -0.316126 0.000234242
-0.128526 -0.482668 -0.322904 0.00434264
-0.121172 -0.462036 -0.316713 0.00142556
-0.125716 0.0524336 0.317762 0.000301401
-0.145598 0.0520042 0.309247 0.000243208
-0.127205 0.0362452 0.323041 4.83189e-05
-0.148968 0.0336909 0.314232 0.000330014
0.0637416 0.785839 0.117317 0.000771906
0.0614768 0.801053 0.116819 0.00714616
0.0505548 0.780731 0.126259 0.000191559
0.047772 0.795199 0.125006 0.000748222
0.173544 -0.596648 -0.332663 0.000686865
0.171692 -0.576373 -0.32838 0.000480293
0.151233 -0.604609 -0.335599 0.00192262
0.156994 -0.580168 -0.330149 0.000801002
-0.341465 0.157271 -0.194544 0.00239876
-0.340754 0.171606 -0.204058 0.00116534
-0.338082 0.152672 -0.176774 0.00133714
-0.337664 0.168069 -0.185907 0.00132052
-0.0380867 -0.681144 0.241907 0.00275152
-0.0557122 -0.680379 0.237136 0.00622537
-0.0488028 -0.682378 0.260492 0.00129445
-0.068102 -0.681398 0.258426 0.000581959
-0.206757 0.677054 0.0746458 0.00248521
-0.202923 0.696121 0.0652942 0.00483715
-0.202768 0.6691 0.0947727 0.00294392
-0.199641 0.688365 0.0844967 0.00428676
0.345119 0.0657495 -0.0999725 0.00552898
0.342263 0.0840115 -0.104377 0.00275441
0.339498 0.0663099 -0.0852285 0.00139553
0.336446 0.0837905 -0.0887032 0.00209705
0.336406 -0.682494 -0.12139 2.11502e-05
0.324359 -0.687643 -0.130809 0.00309982
0.331772 -0.683748 -0.101896 0.00102757
0.318857 -0.688766 -0.110494 0.00183133
0.0153066 0.289838 0.435462 0.00338398
0.00661329 0.30476 0.440715 0.00135796
0.000310804 0.283429 0.434745 0.00012805
-0.00813912 0.298092 0.438806 0.00115969
-0.364489 -0.174034 -0.209412 0.00252887
-0.361701 -0.154435 -0.215923 0.00108793
-0.370704 -0.175876 -0.19008 0.00860689
-0.367375 -0.156091 -0.196039 0.00685661
-0.334947 -0.185735 -0.0339403 0.00370154
-0.336822 -0.169492 -0.0432182 0.00830038
-0.327592 -0.187419 -0.015631 0.0066916
-0.329681 -0.173193 -0.0249131 0.00233459
-0.0216397 0.954535 -0.0295962 0.0013297
-0.0365018 0.954122 -0.0421367 0.00124259
-0.0295935 0.955066 -0.00691256 0.00134843
-0.0445233 0.954162 -0.0198732 0.00117267
-0.227495 -0.555157 -0.318421 0.00181115
-0.21975 -0.534321 -0.312945 0.00281822
-0.249594 -0.556905 -0.31578 0.00211042
-0.242048 -0.536326 -0.30945 3.27992e-05
0.325704 -0.644726 0.0498432 0.000312549
0.334385 -0.63196 0.0526339 0.00591459
0.314487 -0.646848 0.0680788 0.00582994
0.32496 -0.634262 0.0700567 0.00226073
0.215036 0.337695 0.27071 0.000941702
0.21873 0.356965 0.269743 0.00176999
0.213795 0.33844 0.295435 0.000213476
0.217133 0.358181 0.29557 0.000185507
-0.0381096 -0.409354 0.432998 0.000724611
-0.050497 -0.393243 0.428 0.00691398
-0.0479231 -0.422241 0.433458 0.00157141
-0.0610567 -0.406321 0.427696 0.00566646
0.296561 -0.259916 0.237217 0.000496854
0.295659 -0.243477 0.234123 0.00163448
0.292447 -0.265085 0.257698 0.00117589
0.291415 -0.248077 0.254478 0.000731069
-0.344499 0.0375323 -0.14402 0.00142521
-0.344054 0.0578707 -0.150064 0.000937649
-0.340741 0.031045 -0.123068 0.0015636
-0.341194 0.0517911 -0.126325 0.000191498
0.144779 0.641734 0.197842 0.000331296
0.135387 0.653364 0.19043 0.00103611
0.137935 0.632255 0.210885 0.0013623
0.124648 0.643255 0.204447 0.00320207
-0.217076 -0.186595 0.321239 0.000997372
-0.211172 -0.160348 0.320503 0.00101301
-0.201867 -0.203589 0.33542 0.00222122
-0.197583 -0.1798 0.333373 0.00177645
0.340917 -0.0294206 -0.11179 0.00105124
0.341505 -0.00978222 -0.116954 0.000936757
0.340294 -0.0304456 -0.0904018 0.00260661
0.340952 -0.0120046 -0.0967397 0.000583494
-0.279178 -0.249799 0.261893 0.00286813
-0.27625 -0.231353 0.261277 0.00384925
-0.269125 -0.25671 0.277979 0.000829303
-0.265295 -0.237184 0.279034 0.00025767
-0.0673817 0.288164 -0.299873 0.000317447
-0.0774341 0.305904 -0.301079 0.00193333
-0.0815707 0.280002 -0.297377 0.00275009
-0.0920588 0.2981 -0.298422 0.000594564
-0.227319 0.001273 0.263134 0.00153849
-0.22119 0.0231362 0.262266 0.00104814
-0.216626 -0.0138282 0.276215 0.00149207
-0.210483 0.00808096 0.275593 0.000832198
0.0250597 -0.604156 -0.343515 0.00102774
0.0142339 -0.58999 -0.343415 0.000437764
0.00644219 -0.609681 -0.346415 0.00146251
-0.00631812 -0.59487 -0.346801 0.00119748
0.230864 0.688916 -0.125936 0.00153898
0.228002 0.70788 -0.129496 9.85274e-05
0.229419 0.683086 -0.106429 0.00602501
0.225084 0.704616 -0.111681 0.00246288
-0.217196 -0.661424 0.308671 0.00175005
-0.231837 -0.657509 0.302062 0.00333703
-0.210904 -0.655223 0.324001 0.00233667
-0.22507 -0.65059 0.318318 0.00755955
0.211783 0.277774 -0.0947657 0.00146824
0.206957 0.291302 -0.102058 0.00299559
0.210696 0.27507 -0.0764249 0.000213073
0.205352 0.288078 -0.0837934 0.00491384
-0.140897 -0.28138 -0.283218 0.000605715
-0.14626 -0.26115 -0.28573 0.001757
-0.156048 -0.297263 -0.281007 0.00154059
-0.160775 -0.275991 -0.283404 0.000940689
-0.201881 0.206297 0.0600288 0.00614258
-0.192547 0.226004 0.0493767 0.00341612
-0.202411 0.204935 0.0836308 0.00198809
-0.193628 0.224572 0.0737891 0.00113504
0.0986381 -0.707807 -0.189344 0.00148819
0.0741371 -0.704902 -0.196476 0.00420525
0.094587 -0.706085 -0.167539 0.000981051
0.0700525 -0.703427 -0.174924 0.0030184
0.0830958 0.764944 0.10794 0.002918
0.0795231 0.78076 0.105035 0.00593557
0.0686957 0.757752 0.119303 0.00483716
0.0648353 0.772802 0.116436 0.00434545
0.355745 -0.40633 0.119564 0.00151883
0.355026 -0.380441 0.117484 0.00236956
0.352737 -0.409089 0.14081 0.00133168
0.352606 -0.384667 0.138052 0.000566778
-0.128462 -0.372956 0.416032 0.00317932
-0.145027 -0.355311 0.411036 0.00206517
-0.117717 -0.384441 0.421897 0.00314817
-0.141196 -0.368547 0.414849 0.000527988
0.249178 0.650372 -0.259341 0.00152028
0.245481 0.664723 -0.265815 0.00318014
0.255186 0.647033 -0.245325 0.001248
0.251829 0.661128 -0.251732 0.000645779
0.0768102 0.270672 -0.292188 0.000646601
0.0648923 0.285099 -0.291663 0.0014956
0.0638006 0.257887 -0.296287 0.00200599
0.0512213 0.272565 -0.296118 0.000857887
-0.0339657 0.687653 0.261226 0.00161301
-0.0499375 0.680612 0.243461 0.000851799
-0.0329431 0.681177 0.282354 0.00056532
-0.0488346 0.672592 0.263034 0.00110107
-0.360614 -0.65166 -0.139138 0.000560652
-0.36155 -0.634925 -0.140843 0.000655067
-0.360323 -0.646354 -0.120529 0.0014484
-0.362096 -0.629523 -0.122113 0.00100058
0.360388 -0.58224 -0.194382 2.0007e-05
0.354368 -0.568587 -0.205283 0.000689907
0.365971 -0.585744 -0.175192 0.00293897
0.360875 -0.571325 -0.184966 0.00116344
0.298406 -0.461508 -0.22633 0.00238676
0.289531 -0.440998 -0.226312 0.00198378
0.310355 -0.454603 -0.210416 0.000943824
0.302246 -0.432338 -0.207919 0.000127083
-0.101263 0.926064 -0.275326 0.00514966
-0.101778 0.942158 -0.266177 0.000702367
-0.119409 0.932396 -0.269276 0.000796231
-0.120232 0.946438 -0.260105 0.00135438
0.128607 -0.681254 -0.0922702 0.00215821
0.114667 -0.681671 -0.100027 0.0114546
0.124107 -0.678867 -0.0742737 0.00863243
0.11058 -0.679018 -0.0811018 0.00343907
0.0732183 -0.13276 -0.295332 2.13832e-05
0.0650676 -0.112445 -0.298965 0.00113838
0.0593091 -0.150512 -0.29735 0.0029217
0.0495282 -0.130233 -0.301065 0.00408006
-0.0959853 0.613057 0.228716 0.000630179
-0.110985 0.613626 0.215716 0.00578634
-0.105425 0.597102 0.247405 0.000412217
-0.118831 0.597525 0.234629 0.00460916
-0.0529618 0.0248826 -0.305404 0.000970809
-0.0713777 0.0468967 -0.305672 0.000936905
-0.068241 0.00846507 -0.306078 0.000248604
-0.0835679 0.0286813 -0.305968 0.00057942
0.276191 0.192223 -0.288742 0.000829678
0.253345 0.206497 -0.288474 0.000981439
0.262764 0.187694 -0.288064 0.000619578
0.239642 0.201651 -0.287537 0.000381642
0.212712 -0.675384 -0.0104437 0.00103736
0.199824 -0.673942 -0.0191148 0.00131024
0.204868 -0.674662 0.00883198 3.57266e-05
0.192239 -0.67354 -0.00121016 0.00273512
0.174172 0.761198 -0.27692 0.000318949
0.157159 0.779351 -0.279974 0.00232188
0.161219 0.7536 -0.274717 0.00332257
0.14451 0.7701 -0.277518 0.000764017
0.350709 -0.679163 -0.145973 0.00444606
0.343895 -0.681646 -0.156464 0.000412588
0.348528 -0.679445 -0.125303 0.00470434
0.339064 -0.683643 -0.135973 0.000746864
0.00159061 0.563406 -0.289771 0.000222298
-0.000518919 0.580637 -0.289587 0.000920717
-0.00939365 0.54862 -0.291522 0.00152467
-0.0114034 0.565855 -0.291055 0.00165395
-0.0398836 -0.485148 0.431277 8.25734e-05
-0.053473 -0.470112 0.427308 0.00183967
-0.0531885 -0.498932 0.426737 0.00218034
-0.0665717 -0.48415 0.423791 0.000396059
0.222464 0.811303 -0.0180788 0.00139895
0.220049 0.832134 -0.0163689 0.00175333
0.220141 0.815948 0.00396131 7.75715e-05
0.217701 0.83589 0.000712323 0.000194986
0.249398 -0.651037 0.243488 5.01072e-05
0.255332 -0.641801 0.247575 0.00450978
0.236011 -0.649788 0.260956 0.00396301
0.245055 -0.638482 0.266672 0.00408078
-0.027157 0.289923 0.432768 0.00137566
-0.0364778 0.303188 0.43272 0.00162361
-0.0378788 0.279841 0.432134 0.00332184
-0.0470559 0.293113 0.432458 0.000851594
-0.216082 0.601841 -0.0349003 0.00206345
-0.214715 0.622181 -0.0390533 0.000765764
-0.214709 0.598513 -0.015379 0.000207554
-0.213352 0.622963 -0.0162954 0.0014798
-0.313874 -0.547105 0.207214 0.00211622
-0.321098 -0.527091 0.19697 0.00041199
-0.306599 -0.542703 0.22573 0.00186412
-0.313735 -0.522849 0.21576 0.00142647
-0.308121 -0.289538 0.159689 0.0019065
-0.305867 -0.270643 0.151774 0.000527242
-0.305978 -0.294367 0.17692 0.0013496
-0.303321 -0.27396 0.171013 0.000320563
0.119348 -0.704935 -0.187469 0.00552384
0.0949573 -0.702307 -0.19409 0.000336573
0.115904 -0.70152 -0.166834 0.00208868
0.0911093 -0.698873 -0.173696 0.000988065
0.322541 -0.329342 0.224022 0.000984466
0.323329 -0.309796 0.209069 0.0077984
0.316785 -0.337517 0.243248 0.00175202
0.317593 -0.317837 0.227861 0.00497614
-0.245673 0.778666 -0.265122 0.00448625
-0.242305 0.79447 -0.268289 0.00767539
-0.248408 0.774678 -0.249302 0.000424433
-0.2449 0.79017 -0.25267 0.00128241
0.289176 0.253191 -0.180891 0.00153861
0.2818 0.261162 -0.191863 0.00180543
0.281757 0.249551 -0.161483 0.00299386
0.274375 0.257642 -0.172007 7.71027e-05
0.242558 -0.007208 0.275841 0.00020245
0.238715 0.0119167 0.27305 0.000874447
0.233011 -0.0130789 0.290169 0.00304259
0.22829 0.00459838 0.287931 0.00149628
0.184839 -0.679125 0.147034 0.00179567
0.16836 -0.677279 0.139427 0.00701861
0.184768 -0.68038 0.16144 0.00605797
0.169374 -0.679451 0.154321 0.00229479
0.239114 0.498295 -0.127317 0.00337984
0.245347 0.513796 -0.132729 0.0047921
0.238335 0.495189 -0.109658 0.00859959
0.244183 0.511566 -0.116157 0.00334767
-0.0513631 0.661954 0.208844 0.0145441
-0.0726106 0.652163 0.196608 0.00231062
-0.0524702 0.652096 0.225185 0.012502
-0.073896 0.642168 0.212532 0.000115496
0.178142 0.648033 0.175458 0.000816677
0.174033 0.660626 0.167119 0.000271611
0.168715 0.634473 0.190175 0.00275909
0.164049 0.648456 0.180648 0.00178457
0.121469 0.0209414 -0.297678 0.000907458
0.105551 0.0327939 -0.296486 0.00106828
0.105627 0.0102033 -0.29817 0.00120272
0.0913403 0.0239409 -0.297443 0.000306693
-0.34142 0.0987801 -0.231682 0.00013427
-0.340629 0.116747 -0.234408 0.000895792
-0.343943 0.0963576 -0.21678 0.00227125
-0.343475 0.114354 -0.219985 0.00200042
-0.143668 -0.67553 -0.35235 0.00272543
