1.275 1.175 1.14167 1.1375 1.165 1.1625 1.11667 
1.25 1.175 1.125 1.15625 1.115 1.10833 1.06667 
1.025 1.0875 1.025 1.03125 1.035 1.00833 1.04667 
0.85 0.9 0.916667 0.875 0.92 0.945833 0.996667 
1.025 1.1625 1.2 1.125 1.105 1.09583 1.07333 
0.65 0.6375 0.708333 0.75 0.785 0.804167 0.786667 
1.125 1.075 1.025 0.9875 0.95 0.916667 0.9 
1.25 1.025 0.991667 1.025 1.01 1 0.996667 
1.025 0.975 1.04167 1.125 1.145 1.2 1.16667 
1.15 1.05 0.991667 1.00625 1.05 1.05417 1.06 
1.425 1.175 1.15 1.09375 1.03 1.025 1.00667 
0.825 1.0125 1 0.9875 0.96 0.966667 0.983333 
0.725 0.825 0.883333 0.91875 0.89 0.916667 0.88 
0.65 0.85 0.916667 0.90625 0.87 0.841667 0.83 
1.125 1.2625 1.175 1.125 1.11 1.06667 1.04 
1.5 1.125 1.1 1.09375 1.08 1.04167 1.01 
0.8 0.825 0.883333 0.88125 0.905 0.941667 0.94 
0.875 0.8375 0.816667 0.85 0.83 0.829167 0.856667 
0.725 0.9375 0.908333 0.93125 0.915 0.920833 0.916667 
0.75 1.075 1.175 1.18125 1.16 1.19167 1.21 
0.775 0.8625 0.916667 0.8875 0.95 0.991667 1.01333 
1.075 0.9 0.908333 0.94375 0.935 0.941667 0.93 
1.15 1.1125 1.06667 0.98125 1.005 1.06667 1.07 
0.975 1.05 1.14167 1.15 1.1 1.05417 1.05 
0.8 0.6375 0.625 0.66875 0.67 0.708333 0.696667 
1.35 1.2 1.2 1.14375 1.1 1.11667 1.13 
1.325 1.15 1.16667 1.125 1.07 1.0625 1.05667 
0.9 0.875 0.925 0.98125 0.98 0.941667 0.933333 
1.1 1.1375 1.24167 1.23125 1.205 1.15417 1.12333 
1.05 1.1375 1.06667 0.975 0.95 0.933333 0.926667 
1.35 1.2625 1.24167 1.275 1.215 1.2625 1.24333 
0.85 1 0.983333 1 1.015 1.00417 0.993333 
1.1 1.1375 1.075 1 1.03 1.07083 1.08 
0.75 0.775 0.791667 0.84375 0.88 0.883333 0.93 
1.125 1.1625 1.09167 0.9875 0.96 1.00417 1.04 
1.075 1.025 0.933333 0.90625 0.905 0.9125 0.89 
0.75 0.65 0.758333 0.84375 0.82 0.808333 0.82 
1.1 1.125 1.11667 1.0625 1.035 1.05417 1.06333 
0.875 1.0125 1.03333 1.05 1.095 1.1125 1.08667 
0.675 0.8125 0.85 0.975 0.91 0.941667 0.98 
0.775 0.875 0.883333 0.85625 0.91 0.891667 0.856667 
1.25 1.1125 1.025 0.9625 0.915 0.9 0.903333 
0.9 0.9625 1.06667 1.075 1.055 1.01667 1.00333 
1.4 1.1625 1.14167 1.18125 1.145 1.10833 1.10667 
1.325 1.225 1.11667 1.1 1.065 1.02083 0.966667 
0.8 0.8625 0.958333 0.90625 0.935 0.925 0.976667 
1.05 0.9 1.075 1.0875 1.1 1.0625 1.03667 
0.95 1.125 1.21667 1.1375 1.075 1.075 1.07667 
0.85 0.9125 0.908333 0.90625 0.91 0.9125 0.876667 
0.95 0.875 0.9 0.9 0.895 0.920833 0.96 
0.9 0.925 0.883333 0.85 0.85 0.854167 0.863333 
1.075 1.0375 1.09167 1.03125 1.04 1.15417 1.18 
0.8 0.9625 1 0.98125 0.99 0.983333 0.973333 
0.8 0.8 0.875 0.9 0.85 0.833333 0.833333 
1.15 1.2125 1.15 1.1375 1.095 1.0875 1.04333 
0.875 0.775 0.9 0.94375 0.975 1.025 1.01333 
0.925 1.225 1.11667 1.09375 1.07 1.1 1.04667 
1.375 1.1875 1.14167 1.125 1.115 1.11667 1.09333 
0.9 0.975 0.95 0.93125 0.97 1.00417 1.00667 
1.75 1.4125 1.26667 1.19375 1.145 1.125 1.09 
0.9 0.9 0.841667 0.85 0.83 0.8625 0.903333 
0.975 0.8875 0.866667 0.85 0.855 0.870833 0.916667 
1.275 1.1875 1.00833 0.98125 0.975 0.941667 0.9 
0.625 0.8 0.8 0.8375 0.87 0.920833 0.96 
1.175 1.125 1.1 1.075 1.075 1.05833 1.08333 
1.3 1.025 0.991667 1.04375 1.04 0.995833 1.00667 
0.975 0.9625 0.95 0.9125 0.945 0.945833 0.91 
1.1 0.8375 0.808333 0.8875 0.955 0.933333 0.94 
0.675 0.725 0.733333 0.74375 0.74 0.758333 0.793333 
1.125 0.9875 0.966667 0.925 0.91 0.891667 0.896667 
0.725 0.7625 0.75 0.7875 0.75 0.779167 0.78 
1.075 0.925 0.908333 0.95625 0.97 0.9875 0.96 
1.625 1.45 1.35 1.2625 1.23 1.22083 1.18 
1.075 1.125 1.20833 1.175 1.14 1.14583 1.11333 
0.925 1.0375 1.10833 1.11875 1.12 1.08333 1.10333 
0.85 0.85 1.00833 1.0375 0.995 0.979167 0.95 
0.825 0.9375 1 0.96875 0.94 0.9625 0.966667 
0.8 0.8875 0.891667 0.94375 0.93 0.929167 0.99 
0.775 0.875 0.883333 0.90625 0.905 0.904167 0.896667 
1.075 1.0125 0.991667 0.96875 0.99 1.06667 1.11 
1.125 1.0375 0.925 0.875 0.875 0.904167 0.876667 
1.15 1.0375 0.991667 0.99375 1.01 0.9875 0.97 
1 0.9625 0.916667 0.94375 0.935 0.954167 0.946667 
0.875 1.025 1 0.9875 0.945 0.9875 0.983333 
0.95 0.875 0.916667 0.95 0.98 0.979167 0.986667 
1 1.125 1.05833 1.05 1.125 1.1 1.04 
0.875 0.9375 0.925 0.9125 0.945 0.9 1 
0.975 0.8625 0.875 0.94375 0.925 0.966667 0.98 
1.025 1.075 1.09167 1.05 1.09 1.09583 1.12667 
0.975 1 1.11667 1.175 1.12 1.14167 1.1 
1.25 1.25 1.20833 1.1125 1.085 1.0625 1.03667 
0.95 1.075 1.05 1.1 1.065 1.04167 1.01 
1.05 1.1375 1.20833 1.18125 1.1 1.06667 1.02667 
1.25 1.15 1.125 1.09375 1.08 1.06667 1.06667 
1.025 1.025 0.991667 1.025 1.04 1.03333 1.03333 
1.05 1.15 1.16667 1.15625 1.145 1.23333 1.21 
0.975 1.0125 1.05 1.09375 1.1 1.09167 1.05667 
0.575 0.8 0.9 0.925 0.99 0.991667 1.01333 
1.25 1.2125 1.175 1.15 1.115 1.10417 1.05 
0.675 0.775 0.833333 0.8875 0.845 0.825 0.823333 
0.85 0.7875 0.808333 0.8375 0.88 0.945833 1.01333 
1.1 1.0375 0.95 0.96875 1.05 1.05417 1.04333 
1 0.925 0.966667 1 1.065 1.12083 1.1 
0.975 0.975 0.975 0.98125 0.98 0.975 1.04 
1.025 1 1.125 1.1125 1.08 1.05833 1.03667 
0.85 0.95 0.966667 0.9625 0.95 0.945833 0.933333 
1.175 1.2 1.05 0.95 0.9 0.883333 0.906667 
1 1.175 1.075 0.94375 0.865 0.9 0.956667 
0.9 0.9 0.908333 0.88125 0.885 0.8875 0.893333 
0.925 1.15 1.16667 1.1375 1.115 1.13333 1.11 
0.95 0.9375 0.925 0.98125 0.97 0.9375 0.986667 
0.875 0.8625 0.858333 0.91875 0.95 0.983333 0.966667 
1.2 1.25 1.2 1.15 1.16 1.1125 1.07 
0.65 0.725 0.808333 0.8125 0.865 0.895833 0.936667 
0.95 0.975 0.966667 0.94375 0.98 0.970833 1.01667 
0.925 0.9875 0.975 0.9875 0.95 0.916667 0.91 
0.75 0.8625 0.933333 1.0375 1.03 1.03333 1.04667 
0.75 0.8875 0.933333 0.91875 0.94 0.945833 0.96 
0.925 0.9 0.958333 0.95 0.935 0.970833 0.94 
1.1 1.075 1.075 1.075 1.09 1.07917 1.1 
0.65 0.75 0.908333 0.96875 1.06 1.05 1.08667 
1.35 1.3125 1.2 1.21875 1.19 1.1875 1.17333 
1.15 1.0375 0.966667 0.9875 1.04 1.02917 1.00333 
0.675 0.8125 1.03333 1.0125 0.98 0.9875 1.00333 
0.8 0.8625 0.858333 0.875 0.85 0.8875 0.913333 
1.1 0.9625 0.975 0.95 0.95 1.01667 1.03 
1.45 1.25 1.14167 1.1 1.035 1.0125 1.02333 
1.075 1.225 1.26667 1.21875 1.18 1.175 1.17333 
1.275 1.35 1.3 1.29375 1.2 1.2 1.14667 
0.625 0.8 0.883333 0.96875 0.97 0.958333 0.943333 
0.75 0.8125 0.9 0.91875 0.94 0.9375 0.976667 
0.9 1.025 0.991667 0.96875 0.96 0.95 0.953333 
0.7 0.8375 0.866667 0.85625 0.855 0.85 0.88 
0.675 0.675 0.816667 0.89375 0.87 0.8625 0.863333 
1.05 1.175 1.24167 1.23125 1.225 1.23333 1.23333 
1.05 1.125 1 0.96875 0.945 0.95 0.943333 
0.925 0.8125 0.925 0.9875 1.005 0.995833 1.03667 
1.075 1.0875 1.04167 1.0375 1.06 1.0375 1.01333 
0.9 0.925 0.883333 0.9375 0.955 1.02917 1.01667 
1.1 1.075 1.04167 0.925 0.875 0.8875 0.863333 
1.175 0.975 0.941667 0.96875 1.01 1.00417 1.02667 
1.15 1.1 1.00833 0.99375 0.95 0.929167 0.94 
1.05 1.0875 1 0.94375 0.925 0.925 0.96 
0.875 1.0375 0.983333 0.9375 0.925 0.895833 0.876667 
0.85 0.9375 1.03333 1.00625 0.955 0.9125 0.93 
0.95 0.975 0.941667 1.00625 1.045 1.0625 1.04667 
0.7 0.7 0.775 0.78125 0.775 0.804167 0.816667 
0.95 0.8625 0.833333 0.825 0.795 0.825 0.813333 
1.025 1.0625 1.14167 1.15 1.15 1.15833 1.15667 
1.375 1.1375 1.13333 1.0625 1.015 0.991667 0.973333 
0.7 0.9 0.883333 0.8875 0.905 0.933333 0.973333 
0.975 0.925 0.891667 0.91875 0.935 0.979167 0.993333 
1.225 1.0875 1.01667 1.08125 1.065 1.01667 1.05 
0.7 0.65 0.741667 0.73125 0.735 0.775 0.823333 
1.025 1.125 1.19167 1.1125 1.06 1.025 1.04 
0.975 0.95 1.00833 1.1 1.115 1.12917 1.14333 
0.9 1 1.05833 1.125 1.085 1.04167 1.03 
0.85 0.925 0.991667 0.93125 0.905 0.9 0.88 
1.2 1.1875 1.06667 1 1.015 1.05417 1.09 
1.625 1.4 1.26667 1.25 1.205 1.18333 1.12 
0.85 0.9125 0.883333 0.9 0.98 0.9625 0.986667 
0.725 0.8875 0.858333 0.8875 0.91 0.920833 0.896667 
0.95 1.0875 1.18333 1.16875 1.11 1.1375 1.13 
0.9 0.9125 0.925 0.89375 0.9 0.929167 0.933333 
0.925 1.0375 1.05833 1.05625 1.055 1.07083 1.05667 
0.8 0.8375 0.958333 0.98125 1.005 0.979167 0.98 
1 0.975 0.958333 0.9625 0.985 0.954167 0.953333 
0.775 0.7375 0.75 0.79375 0.85 0.920833 0.943333 
1.175 1.0875 0.966667 0.9875 0.985 1.01667 0.953333 
0.925 0.9 1 1.0125 0.96 0.958333 0.956667 
1.225 1.1875 1.25 1.225 1.28 1.25417 1.21 
0.725 0.7875 0.841667 0.81875 0.835 0.858333 0.876667 
0.675 0.85 0.933333 0.96875 1.01 0.991667 1.00667 
1.075 0.975 0.916667 0.9375 0.97 0.958333 0.966667 
1.225 1.15 1.125 1.075 1.045 1.02083 0.993333 
1.25 1.1625 1.00833 0.9625 0.965 1 0.993333 
0.8 0.9 0.983333 1.00625 1.025 0.983333 0.963333 
1.225 1.1 1.11667 1.1125 1.12 1.09583 1.09 
1 0.95 0.925 0.89375 0.925 0.9 0.9 
1.2 1.0625 1.08333 1.0875 1.07 1.01667 0.993333 
0.9 0.975 0.983333 0.94375 0.905 0.891667 0.866667 
0.7 0.6625 0.708333 0.75 0.79 0.845833 0.893333 
1.025 1.125 1.15 1.13125 1.2 1.15 1.1 
0.95 0.9875 0.966667 0.9875 0.99 1.00833 1.00333 
0.8 0.75 0.816667 0.875 0.925 0.933333 0.97 
1.1 0.95 0.916667 0.89375 0.94 0.966667 1.01333 
1.4 1.0625 1.04167 1.0375 0.975 1.01667 1.00667 
1.175 1.075 1.04167 1.0375 1.035 1.0625 1.01667 
1.225 1.0875 1 1.01875 1 0.983333 0.996667 
0.8 0.9 0.958333 0.91875 0.965 0.9625 0.99 
1.025 1 1.13333 1.13125 1.095 1.12083 1.08 
0.775 0.875 0.933333 0.90625 0.95 0.991667 0.99 
0.925 0.95 0.941667 0.95 0.945 0.9625 0.98 
1.2 1.125 1.10833 1.14375 1.165 1.2 1.15667 
0.825 0.825 0.883333 0.81875 0.855 0.866667 0.946667 
0.8 0.9375 0.858333 0.88125 0.87 0.895833 0.94 
0.75 0.75 0.85 0.8375 0.89 0.875 0.86 
0.975 1.025 1 1.03125 1.025 1.02917 0.973333 
1.025 1.0375 1.1 1.0875 1.055 1.10833 1.09 
1.125 1.1375 1.175 1.1125 1.125 1.1 1.07667 
0.9 0.675 0.758333 0.78125 0.755 0.716667 0.686667 
1.375 1.1375 1.08333 1.025 1.03 1 0.976667 
0.85 0.9375 0.941667 0.99375 0.985 1.00417 0.976667 
0.95 1 0.941667 0.98125 1.055 1.05833 1.04 
1.575 1.5125 1.40833 1.35 1.28 1.2375 1.23333 
0.675 0.9125 0.891667 0.9125 0.865 0.895833 0.913333 
0.825 0.9125 0.866667 0.8875 0.905 0.920833 0.883333 
0.875 0.7875 0.858333 0.9125 0.91 0.925 0.893333 
0.725 0.8125 0.908333 0.99375 1.015 0.995833 0.976667 
1.2 1.1375 1.14167 1.15625 1.18 1.1625 1.15 
0.775 0.975 1.025 1.025 1.005 0.995833 0.966667 
0.925 1.0125 1 1.00625 1.045 1.02917 1.01667 
1.45 1.425 1.31667 1.25625 1.23 1.1625 1.15333 
1 0.95 0.95 0.95 0.93 0.995833 0.97 
1 0.95 1.025 1.0125 0.97 0.958333 0.956667 
1.05 1.125 1.125 1.025 1.015 1 1.01333 
0.675 0.7375 0.825 0.83125 0.86 0.904167 0.913333 
1.275 1.1875 1.13333 1.13125 1.12 1.12083 1.1 
1.05 1.1125 1.15 1.11875 1.135 1.1375 1.08333 
1.5 1.3375 1.16667 1.05625 1.01 1 1.00667 
0.975 0.9125 0.9 0.8875 0.945 0.9875 1 
1.3 1.1125 1.075 1.0375 1.045 1.0625 1.05333 
1.25 1.2125 1.15 1.10625 1.11 1.05833 1.02333 
0.9 1.125 1.15833 1.10625 1.07 1.05833 1.03667 
0.875 0.8125 0.816667 0.84375 0.835 0.883333 0.893333 
1.25 1.1 1.06667 1.0125 0.995 0.958333 0.976667 
1.025 1.0625 1.09167 1.08125 1.08 1.125 1.13 
1.05 1.0125 1.08333 1.0375 1.08 1.025 1.04 
1.5 1.5125 1.36667 1.25625 1.205 1.1625 1.09667 
0.9 0.85 0.991667 1.0625 1.035 1.075 1.06667 
0.875 0.85 0.908333 0.95625 0.96 0.9625 1.02 
0.925 0.9375 1.025 1.05625 1.06 1.07917 1.09667 
1.025 0.8375 0.916667 0.9125 0.905 0.933333 0.943333 
1.05 0.925 0.958333 0.98125 0.955 0.925 0.893333 
1.2 1.1 1.125 1.075 1.075 1.13333 1.13667 
1.4 1.1625 1.15 1.1375 1.075 1.06667 1.06333 
0.75 0.8375 0.875 0.8875 0.9 0.9125 0.923333 
0.675 0.85 1.01667 1.0375 1.045 1.025 1.01667 
1 1.025 1.10833 1.10625 1.09 1.07917 1.08 
1.025 1.0125 1.06667 0.9875 0.95 0.941667 0.966667 
1.3 1.2125 1.33333 1.35 1.275 1.23333 1.15667 
0.875 0.875 0.958333 0.9375 0.955 0.966667 0.993333 
1.075 0.975 0.941667 1 0.965 0.983333 0.966667 
0.95 0.825 0.883333 0.88125 0.915 0.929167 0.98 
0.925 1.075 1.08333 1.03125 1.095 1.09167 1.06667 
1.375 1.175 1.2 1.175 1.2 1.2125 1.19 
1.075 1.3375 1.44167 1.375 1.27 1.20417 1.16 
0.675 0.8875 0.991667 0.9625 0.96 0.925 0.926667 
1.2 1.275 1.25833 1.15625 1.11 1.11667 1.13333 
1.175 1.1375 1.08333 1.0875 1.065 1.05833 1.03333 
1 0.95 0.891667 0.85 0.89 0.929167 0.99 
1.1 0.95 0.85 0.8625 0.89 0.908333 0.926667 
1.275 1.1125 1 0.925 0.955 0.9375 0.943333 
1.4 1.225 1.23333 1.2 1.195 1.19583 1.12667 
1.05 1.15 1.2 1.10625 1.035 1.04167 1.03667 
1.15 1.0375 1.01667 1.1 1.12 1.15833 1.11667 
0.775 0.9125 0.975 0.98125 0.97 0.970833 0.973333 
0.625 0.7625 0.841667 0.83125 0.83 0.85 0.846667 
1.125 1.1875 1.275 1.2875 1.285 1.2375 1.19667 
1.075 1.0875 1.10833 1.03125 0.99 0.991667 0.996667 
0.7 0.725 0.733333 0.7875 0.83 0.883333 0.923333 
0.675 0.7375 0.825 0.84375 0.875 0.866667 0.883333 
0.9 0.9125 0.816667 0.86875 0.88 0.933333 0.946667 
0.9 0.9 0.941667 0.925 0.905 0.95 0.98 
1.2 1.075 0.991667 1.01875 1.105 1.0625 1.03667 
1.075 0.9875 1.075 1.1375 1.115 1.09583 1.08333 
1.15 0.9625 1.03333 0.96875 1.005 0.991667 0.966667 
0.925 1.025 1.04167 1.11875 1.145 1.125 1.17 
1.65 1.3875 1.35 1.25 1.26 1.2375 1.20333 
0.875 0.8875 0.983333 1 1.005 1.02917 1.02667 
1.225 1.0875 1 0.9625 0.9 0.9375 1.00333 
1.3 1.3125 1.275 1.275 1.26 1.23333 1.20667 
0.975 0.975 0.941667 1.025 1.015 1.03333 1.03333 
1.075 1.1 1.09167 1.1 1.07 1.04167 1.03333 
0.75 0.8375 0.883333 1.00625 1.035 1.05833 1.07667 
0.625 0.85 0.908333 0.95 0.965 0.991667 0.98 
1.3 1.1 1.075 1.1125 1.065 1.05833 1.02333 
0.925 0.9125 0.908333 0.8875 0.885 0.858333 0.893333 
0.725 0.75 0.775 0.76875 0.77 0.825 0.89 
0.75 0.775 0.85 0.89375 0.935 0.958333 0.99 
0.875 0.8625 1.05833 1.05 1.025 1.04583 1.00667 
1.075 1.1125 1.11667 1.1 1.075 1.07917 1.05333 
0.9 1.025 1.03333 1.10625 1.075 1.0625 0.993333 
0.625 0.775 0.866667 0.825 0.8 0.825 0.876667 
0.9 0.925 0.941667 0.99375 1.015 1.05833 1.06333 
0.925 1.1 1.025 1.04375 1.08 1.07083 1.11 
1.025 1.025 1 0.975 1.03 1.02917 1.03333 
0.975 0.9125 0.925 1.025 1.03 1.05417 1.07667 
1.125 0.9625 0.991667 0.975 0.94 0.9625 0.963333 
0.925 0.9625 1.04167 0.98125 1 1 0.98 
1.15 1.3125 1.25833 1.20625 1.215 1.175 1.13 
1 1.0125 0.925 0.9125 0.98 1.02083 1.02 
0.775 0.8125 0.808333 0.79375 0.825 0.841667 0.836667 
1.05 1.0625 1.01667 0.94375 0.89 0.95 0.98 
1.1 1.0125 1.04167 1.00625 0.975 0.958333 0.936667 
0.7 0.75 0.85 0.8625 0.855 0.870833 0.906667 
1.1 1.1375 1.15833 1.16875 1.155 1.12083 1.02667 
1.3 1.325 1.2 1.18125 1.125 1.12083 1.11333 
1.25 1.3125 1.24167 1.1875 1.145 1.09583 1.06667 
0.8 0.9375 1.01667 0.95625 0.905 0.870833 0.88 
0.925 0.9875 0.941667 0.9125 0.9 0.858333 0.886667 
0.7 0.775 0.85 0.85 0.93 0.991667 1.02 
1.1 1.0375 1.00833 1 1.03 0.995833 1.00333 
1.225 1.05 1.2 1.20625 1.155 1.12083 1.11333 
1.05 1.025 0.95 0.8875 0.905 0.933333 0.966667 
0.925 0.8625 0.958333 0.9625 0.995 0.995833 0.996667 
0.65 0.825 0.9 0.9 0.855 0.883333 0.91 
1 1.075 1 0.925 0.96 0.95 0.963333 
1 0.9875 0.916667 0.95 0.93 0.904167 0.873333 
0.825 1 1.09167 1.1125 1.09 1.05 1.04667 
0.925 0.8875 0.866667 0.81875 0.85 0.908333 0.92 
0.825 0.95 0.941667 0.93125 0.93 0.929167 0.883333 
1.15 1.075 0.941667 0.96875 0.975 0.991667 0.943333 
0.85 0.9 0.958333 0.9625 0.97 0.966667 1.01 
0.675 0.8375 0.85 0.81875 0.81 0.820833 0.853333 
0.875 0.9 0.933333 0.9375 0.94 0.925 0.95 
0.65 0.825 0.783333 0.79375 0.815 0.8625 0.883333 
1.2 1.2375 1.125 1.09375 1.06 1.05 1 
0.575 0.6875 0.758333 0.78125 0.81 0.8375 0.85 
1.3 1.1375 1.15833 1.13125 1.09 1.07917 1.10333 
0.775 0.675 0.683333 0.6875 0.715 0.745833 0.756667 
0.925 1.1 1.1 1 1.02 1.03333 1.00667 
1.125 1.0875 1.125 1.06875 1.04 1.05417 1.00333 
0.975 1.0125 1.03333 1.05 1.06 1.0125 0.993333 
1.075 1.1 1.15 1.1125 1.04 1.02917 1 
0.825 0.8875 0.916667 0.8625 0.89 0.883333 0.863333 
1.075 1.225 1.14167 1.15 1.125 1.10417 1.12667 
0.8 0.9875 1.04167 1.1 1.08 1.07083 1.04333 
1.375 1.2375 1.225 1.24375 1.2 1.19583 1.17333 
1.125 1.0125 1.04167 0.96875 0.98 0.979167 1.02 
1.15 1.05 1.01667 1.06875 1.11 1.06667 1.00333 
1.325 1.1875 1.24167 1.26875 1.255 1.2125 1.21 
0.625 0.7875 0.883333 0.9125 0.945 0.983333 0.983333 
1.225 1.1625 1.09167 1.0875 1.1 1.06667 1.03 
0.9 0.9375 0.933333 0.95 0.92 0.920833 0.966667 
1.4 1.0875 1.08333 1.0375 1 1.00417 0.98 
1.35 1.125 1.15833 1.14375 1.115 1.09167 1.06 
0.625 0.725 0.808333 0.7875 0.785 0.8 0.86 
0.875 0.825 0.875 0.90625 0.93 0.929167 0.88 
0.95 0.85 0.85 0.91875 0.935 0.958333 0.97 
1.525 1.2875 1.20833 1.1875 1.145 1.1125 1.1 
1.425 1.4875 1.3 1.20625 1.135 1.10833 1.06667 
1.175 1.15 1.075 1.06875 1.065 1.06667 1.03333 
0.75 0.7875 0.85 0.9 0.905 0.904167 0.9 
1.075 1.05 1.08333 1.05 0.99 0.941667 0.916667 
1.025 1.0875 1.06667 1.075 1.07 1.075 1.07 
0.975 0.95 0.891667 0.9 0.91 0.879167 0.93 
1.025 0.95 1 0.95 0.96 1.0125 1.03 
1 1 0.95 0.93125 0.95 0.954167 0.933333 
0.95 0.8375 0.841667 0.79375 0.795 0.7875 0.813333 
0.825 1.0375 1.03333 0.9875 0.98 0.9625 0.906667 
0.625 0.8 0.783333 0.78125 0.805 0.8375 0.826667 
1.125 1.1375 1.10833 1.13125 1.145 1.10833 1.09667 
1.125 1.175 1.06667 1.05625 1.1 1.08333 1.15 
0.65 0.725 0.9 0.925 0.96 1.02083 1.03333 
1.25 1.2625 1.15833 1.125 1.195 1.17917 1.15 
1.075 1.0125 0.966667 0.96875 0.945 0.925 0.97 
0.825 0.9625 0.933333 0.98125 1.02 1.02083 1.02 
1.025 1.1 1.05 0.9875 1 0.954167 0.94 
0.875 0.9125 0.966667 0.975 0.935 0.9 0.9 
0.95 0.8 0.808333 0.8125 0.79 0.795833 0.876667 
1.15 1.0875 1.00833 0.925 0.915 0.929167 1.00333 
1 1.1125 1.09167 1.05625 1.1 1.04167 1.07 
1.15 1.025 1.05 0.99375 0.96 0.941667 0.953333 
0.7 0.875 0.908333 0.93125 0.945 0.916667 0.943333 
0.95 0.875 0.891667 0.95625 0.925 0.9 0.893333 
1.025 1.0875 1.025 0.9875 0.98 0.995833 1 
0.825 1 1.08333 1.025 1.025 1.025 0.99 
0.95 0.8875 0.816667 0.8125 0.82 0.875 0.876667 
1.225 1.05 0.991667 1.025 1.035 1.05 1.08333 
0.7 0.75 0.816667 0.81875 0.8 0.8125 0.843333 
1.125 1.175 1.1 1.0875 1.09 1.09167 1.09333 
0.975 0.95 0.958333 0.975 1.03 1.08333 1.14 
1.05 1.1625 1.05833 1.00625 1.03 0.975 0.946667 
0.7 0.725 0.775 0.8375 0.935 0.916667 0.88 
1.15 0.9375 0.933333 0.96875 1.065 1.075 1.12 
0.85 0.85 1 1.08125 1.06 1.02083 1.00333 
0.575 0.725 0.733333 0.725 0.725 0.75 0.763333 
0.85 0.8875 1.00833 1 0.985 1.00833 1.04333 
0.675 0.725 0.883333 0.85625 0.86 0.854167 0.89 
0.8 0.9625 1.1 1.08125 1.07 1.02083 0.986667 
1.15 1.1375 1.08333 1.0625 1.075 1.07083 1.08333 
0.85 0.875 0.875 0.93125 0.97 0.954167 0.953333 
1.325 1.1625 1.075 1.04375 1.015 1.00417 0.996667 
0.75 0.65 0.825 0.86875 0.865 0.854167 0.83 
0.725 0.8 0.791667 0.80625 0.815 0.904167 0.956667 
0.8 1.0125 1.06667 1.09375 1.08 1.075 1.10333 
0.725 0.85 0.908333 0.9 0.945 0.970833 0.98 
0.9 0.9375 0.941667 0.9375 0.955 0.929167 0.916667 
0.55 0.825 0.908333 0.9625 0.94 0.975 1.02667 
1 1 1.03333 0.9875 0.97 0.995833 1.05333 
1.375 1.225 1.11667 1.075 1.08 1.09167 1.09333 
0.975 0.9625 0.95 0.91875 0.92 0.879167 0.896667 
1.075 0.9625 0.933333 0.95625 0.965 0.966667 0.993333 
1.075 1.1125 1.1 1.075 1.04 1.02917 1.03667 
0.775 0.9375 1.00833 1.0375 1.025 1.03333 1.04667 
1.15 1.0125 0.925 0.89375 0.895 0.983333 1 
0.825 0.75 0.758333 0.75 0.83 0.854167 0.88 
1.025 1.1125 1.025 1.05625 1.06 1.1125 1.06667 
1.125 1.05 1.00833 1.0125 1.025 1.07083 1.06333 
0.975 1.05 1.075 1.04375 1.02 1.00833 0.986667 
0.95 1.175 1.075 1.01875 1.015 1.025 1.04667 
1.2 1.2375 1.21667 1.1625 1.115 1.09583 1.02333 
0.9 0.8375 0.9 0.875 0.92 0.945833 0.976667 
0.95 1.1375 1.06667 0.99375 0.95 0.9375 0.986667 
0.875 0.8375 0.883333 0.95625 0.995 1.0125 0.986667 
0.9 0.975 1.04167 1.01875 1.01 1.01667 0.986667 
1.25 1.1 1.01667 1 0.92 0.9375 0.913333 
0.875 0.8875 0.9 0.8625 0.85 0.804167 0.836667 
0.75 0.8375 0.916667 0.95625 0.975 1.0125 1.03667 
1.025 1.125 1.00833 0.9875 0.965 0.925 0.923333 
1.025 0.9625 0.975 1 0.985 0.966667 1.01667 
0.95 0.9125 0.975 1 1.005 1.0125 1.00333 
1.075 1.0375 1.00833 1.0375 1.095 1.05833 1.03333 
1.225 1.2375 1.2 1.19375 1.19 1.15417 1.13 
1.075 1.1375 1.075 1.025 1.04 1.0375 1.03667 
0.85 0.925 0.95 0.8875 0.88 0.8875 0.906667 
0.5 0.6875 0.675 0.73125 0.845 0.883333 0.913333 
0.725 0.8 0.841667 0.85 0.88 0.945833 0.99 
0.85 0.9875 1.05833 1.1125 1.1 1.05833 1.03667 
0.75 0.75 0.775 0.86875 0.89 0.916667 0.853333 
0.875 1 1.04167 1.05 1.065 1.05 1.07333 
1.3 1.1375 1.11667 1.175 1.075 1.09167 1.04333 
0.825 0.8875 0.908333 0.9 0.92 0.966667 0.99 
0.825 1 1.06667 1.0625 1.05 1.05417 1.04333 
0.775 0.8625 0.875 0.88125 0.885 0.9375 0.95 
0.85 0.775 0.816667 0.83125 0.84 0.85 0.906667 
0.875 1 0.941667 0.91875 0.955 0.970833 0.903333 
0.875 0.825 0.841667 0.875 0.85 0.879167 0.916667 
1.25 1.15 1.025 0.94375 0.97 0.995833 1 
1.025 1.15 1.13333 1.11875 1.13 1.09167 1.07 
1.15 1.2625 1.18333 1.1875 1.185 1.14167 1.10333 
0.725 0.9375 1.04167 1.04375 1.01 1.02917 1.05 
0.975 0.9875 0.95 1 1.05 1.05833 1.05333 
0.75 0.7125 0.791667 0.88125 0.905 0.908333 0.896667 
1.15 1.075 1.03333 1.1 1.105 1.10417 1.07333 
1.2 1.0375 1.025 1.025 0.95 0.9375 0.953333 
1.05 0.975 1.13333 1.1375 1.135 1.15417 1.2 
1.025 0.9625 1 0.99375 0.985 0.983333 1.00667 
1 0.875 0.916667 0.9375 0.975 0.979167 0.97 
0.85 0.925 0.9 0.9125 0.945 0.9875 0.966667 
0.925 0.9625 1.025 0.96875 0.985 1.00833 1.07 
1.3 1.05 0.933333 0.95625 0.965 0.945833 0.983333 
1.325 1.175 1.05833 1.05625 1.035 1.02917 0.983333 
0.775 0.825 0.875 0.86875 0.87 0.875 0.9 
1.075 0.9625 1 0.98125 0.925 0.883333 0.87 
1.1 1.0375 0.966667 0.8875 0.87 0.945833 0.996667 
1.275 1.2375 1.125 1.075 1.025 1.0375 1.02667 
0.925 0.9375 0.858333 0.88125 0.92 0.954167 0.953333 
1.15 1.0375 1.06667 1.08125 1.045 1.06667 1.05333 
1.075 1.1125 1.025 0.99375 1 1 1.03333 
1.075 0.925 0.858333 0.94375 0.985 1.00417 0.99 
0.575 0.5875 0.7 0.81875 0.825 0.845833 0.896667 
0.8 0.9 0.916667 0.89375 0.915 0.9 0.896667 
1.025 0.925 0.916667 0.98125 0.985 0.975 0.93 
1.525 1.3875 1.38333 1.34375 1.28 1.20833 1.11 
0.75 0.8875 0.916667 0.90625 0.91 0.945833 1.01333 
0.875 1.0125 1.06667 0.99375 1.02 1 0.996667 
0.9 0.9 0.958333 1.0125 0.99 1.00833 1.00333 
0.725 0.9875 1 1.03125 1.01 0.954167 0.88 
0.825 0.825 0.833333 0.8875 0.94 0.941667 0.93 
0.85 0.8875 0.9 0.84375 0.86 0.883333 0.956667 
0.775 0.8125 0.908333 0.91875 0.91 0.8875 0.93 
0.925 0.925 0.825 0.84375 0.865 0.829167 0.82 
1.25 1.15 1.23333 1.20625 1.14 1.09583 1.09 
1.025 1.075 1.075 1.01875 0.94 0.908333 0.903333 
0.975 1.0125 0.991667 1.00625 0.975 0.9875 0.97 
0.775 0.7375 0.908333 0.9625 0.905 0.908333 0.893333 
1.05 1.225 1.19167 1.09375 1.085 1.06667 1.07 
0.875 1.0125 1.00833 1.0625 1.085 1.0875 1.07667 
1.175 1.05 1.025 1.0125 1.045 1.0625 0.993333 
0.925 1 0.941667 0.95 1.005 1.04167 1.01667 
1.25 1.35 1.33333 1.2875 1.25 1.24583 1.24333 
0.85 0.8375 0.883333 0.95625 0.965 0.975 0.976667 
1.325 1.1125 1.04167 1.03125 1.005 0.995833 0.993333 
0.725 0.7875 0.858333 0.8375 0.815 0.875 0.916667 
1 1.2125 1.23333 1.20625 1.165 1.20833 1.20333 
1.1 1.175 1.21667 1.2125 1.2 1.175 1.16 
1.4 1.425 1.325 1.2375 1.22 1.15417 1.11 
0.9 0.925 0.933333 0.94375 0.97 0.983333 0.95 
0.575 0.7875 0.925 0.95 0.94 0.966667 1.03 
1.225 1.1125 1.03333 1.01875 0.965 0.895833 0.923333 
0.825 1.0625 1.05 1.025 0.965 1 0.986667 
1.325 1.0375 0.958333 0.94375 0.975 1 1.00667 
1.25 1.1125 1.08333 1.05625 1.02 1.04167 1.00667 
0.825 0.7875 0.816667 0.8875 0.895 0.883333 0.93 
0.8 1.0625 1.11667 1.125 1.115 1.10833 1.08333 
1.125 1.0875 1.14167 1.125 1.04 1.00417 0.99 
1 1.1375 1.20833 1.25625 1.22 1.17083 1.12 
1.05 1.15 1.1 1.075 1.02 1.01667 1.01667 
0.875 0.8875 0.941667 0.9375 0.95 0.958333 0.93 
1.1 0.9375 0.941667 0.96875 0.97 0.995833 0.96 
1.1 1.2 1.21667 1.15625 1.115 1.06667 1.05333 
1.025 0.8625 0.816667 0.80625 0.825 0.808333 0.87 
1.05 1.15 1.23333 1.24375 1.25 1.17083 1.15333 
0.775 0.8125 0.891667 0.96875 1.015 1.00833 0.973333 
1.05 1.0875 1.11667 1.09375 1.06 1.05833 1.05 
0.7 0.9375 0.933333 0.925 0.88 0.9125 0.903333 
1.05 1.1125 1.04167 1.0625 1.12 1.10833 1.06 
0.775 0.75 0.783333 0.80625 0.805 0.858333 0.913333 
0.875 0.925 0.966667 0.96875 0.98 0.995833 1.04 
1.05 1 0.908333 0.8625 0.845 0.8625 0.88 
0.85 0.9625 0.916667 0.9375 0.95 1 0.996667 
1.25 1.15 1.10833 1.09375 1.115 1.04167 0.98 
1.225 1.1 1.09167 1.09375 1.085 1.1 1.08667 
0.75 0.8375 0.908333 0.90625 0.945 0.95 0.98 
0.925 0.95 1.01667 1.11875 1.185 1.1625 1.14667 
0.875 0.9625 0.958333 1.025 1.05 1.05833 1.04667 
0.95 0.9875 1 0.99375 1.005 0.970833 0.933333 
0.775 0.925 0.941667 0.91875 0.93 0.925 0.93 
0.875 0.9375 0.933333 0.925 0.895 0.95 0.96 
1.1 1.1625 1.03333 0.9875 0.985 1.00833 1.02333 
1.3 1.0875 1.1 1.0625 1.055 1.025 1 
0.9 1.0375 1.025 1.05 1.115 1.14167 1.14667 
1.075 1.0625 0.991667 0.98125 0.915 0.9125 0.916667 
1.35 1.2625 1.18333 1.075 1.02 1.025 1.04333 
1.275 1.2 1.15 1.14375 1.115 1.09583 1.08 
1.15 1.1125 1.11667 1.075 1.02 1.00417 0.983333 
0.8 0.825 0.816667 0.85 0.865 0.891667 0.936667 
1.2 1.275 1.13333 1.1125 1.07 1.0375 0.99 
1.275 1.1 1.08333 1.05 1.035 1.03333 1.03333 
1.1 1.075 1.01667 1 0.955 0.9375 0.946667 
0.9 1.0375 1.08333 1.03125 1.03 1.02083 0.996667 
0.85 0.8125 0.816667 0.81875 0.8 0.820833 0.826667 
0.675 0.775 0.733333 0.75 0.76 0.795833 0.836667 
0.95 0.9625 0.983333 0.9625 0.945 0.908333 0.94 
0.95 0.9375 0.883333 0.95625 0.98 0.958333 0.963333 
1.025 0.8875 0.9 0.93125 0.97 0.979167 0.996667 
0.925 0.875 0.966667 0.95 0.875 0.895833 0.916667 
1.05 1.075 1.1 1.10625 1.095 1.05417 1.05 
0.875 0.8375 0.85 0.825 0.835 0.875 0.913333 
0.675 0.7 0.65 0.66875 0.73 0.741667 0.793333 
1.375 1.2875 1.24167 1.21875 1.14 1.1125 1.08333 
0.95 1 0.991667 1.05 1.12 1.13333 1.1 
1.15 1 0.958333 1.01875 1.065 1.0375 1.03667 
1.05 0.9125 0.925 0.9 0.895 0.883333 0.886667 
0.725 0.675 0.7 0.73125 0.735 0.8125 0.9 
0.9 1.0125 1.00833 1.01875 0.99 1.00833 0.96 
0.85 0.8375 0.9 0.88125 0.885 0.904167 0.903333 
1 0.9625 0.933333 0.9 0.92 0.9 0.936667 
0.55 0.6625 0.808333 0.91875 0.93 0.970833 0.97 
1.425 1.275 1.275 1.2375 1.16 1.14583 1.11667 
1.525 1.3875 1.26667 1.15625 1.09 1.07083 1.06667 
0.95 0.8125 0.766667 0.85 0.905 0.929167 0.913333 
1.25 1.1875 1.09167 1.025 0.98 1.04167 1 
1.1 1.15 1.125 1.05625 1.03 1.01667 1.03 
1 1.1625 1.025 1.0375 1.08 1.0875 1.08667 
1.025 1.025 1.05 1.025 0.945 0.920833 0.896667 
0.975 0.9375 0.925 0.9625 0.995 0.983333 0.956667 
0.625 0.7625 0.833333 0.9 0.915 0.883333 0.87 
1.05 1.2125 1.18333 1.175 1.185 1.15417 1.16 
1.25 1.225 1.19167 1.1625 1.17 1.075 1.09 
1.4 1.3125 1.20833 1.1625 1.06 0.979167 0.91 
0.85 0.85 0.833333 0.8375 0.865 0.875 0.9 
0.875 0.85 0.875 1 1.045 1.04583 1.00333 
1.3 1.15 1.04167 1.0625 1.02 1.01667 0.98 
1.525 1.3125 1.19167 1.1375 1.05 1.00417 0.943333 
0.9 1.0125 1.19167 1.15625 1.12 1.09583 1.05667 
1.175 1.1 1.13333 1.15625 1.16 1.11667 1.15 
1.1 1.1125 1.175 1.1375 1.075 1.07917 1.02 
0.95 0.9375 1 0.93125 0.955 0.941667 0.943333 
1.025 1.0375 1.05833 1.0625 1.06 1.01667 1.04333 
0.85 0.95 1 1.04375 1.01 1.00833 1.01333 
1.225 1.125 1.05 1.03125 0.985 0.958333 0.98 
1.15 1.1875 1.23333 1.2 1.155 1.14167 1.17667 
1.075 1.1875 1.09167 1.0625 1.055 1.06667 1.09333 
1.5 1.2375 1.2 1.1875 1.105 1.04167 0.993333 
0.95 0.9875 1.03333 1.0375 1.03 1.025 1.03 
1.3 1.1 0.966667 0.925 0.975 1 0.98 
1.1 1.025 1.06667 1.0125 0.985 0.983333 0.986667 
0.9 1.125 1.15833 1.19375 1.13 1.15 1.10667 
0.925 1 1.01667 1.10625 1.155 1.1125 1.1 
1 1.2375 1.19167 1.15625 1.14 1.1125 1.05667 
0.875 0.9375 0.833333 0.8375 0.82 0.783333 0.833333 
0.95 1.0375 1.00833 1.00625 0.985 0.970833 0.94 
1.3 1.1125 1.11667 1.125 1.06 1.04583 1.06667 
0.85 0.8375 0.875 0.925 0.92 0.970833 0.96 
1.05 1.175 1.29167 1.225 1.08 1.07917 1.06333 
1.5 1.325 1.28333 1.2 1.16 1.17917 1.11 
0.9 0.975 1.025 0.94375 0.98 1 0.976667 
0.95 0.9875 1.00833 1.00625 0.955 0.941667 0.95 
0.85 1 0.975 0.9375 0.93 0.970833 1.02667 
0.875 0.95 0.95 0.975 1 0.983333 0.976667 
0.625 0.6125 0.641667 0.7125 0.745 0.75 0.75 
0.65 0.8875 0.891667 0.9 0.9 0.8875 0.9 
1.075 1.0875 1.1 1.025 0.955 0.95 0.926667 
0.6 0.725 0.816667 0.825 0.865 0.895833 0.906667 
0.975 0.975 1.00833 0.99375 1.015 1.04583 1.01 
0.725 0.8625 1 1.05625 1.07 1.05417 1.05333 
0.925 0.9375 1 1.1125 1.11 1.11667 1.09667 
1.15 0.975 0.941667 0.96875 0.97 0.966667 0.99 
0.7 0.975 0.975 0.975 0.955 0.991667 1.02 
1.05 0.95 0.991667 1.05 1.07 1.05417 1.04333 
1 1.225 1.2 1.125 1.13 1.11667 1.12667 
1.425 1.0375 0.991667 1.01875 1.015 1.0125 0.993333 
1.15 1.2125 1.14167 1.125 1.07 1.04583 1.07333 
1.1 1.1 1.11667 1.10625 1.105 1.08333 1.03667 
1 1.175 1.2 1.1625 1.13 1.09167 1.06 
0.75 0.7875 0.883333 0.90625 0.89 0.891667 0.92 
0.875 0.975 1.00833 1.0875 1.065 1.05833 1.06 
1.025 0.9625 0.933333 0.975 0.95 0.9625 0.956667 
0.8 0.85 0.841667 0.9125 0.915 0.9125 0.893333 
0.75 0.775 0.808333 0.86875 0.905 0.9 0.93 
1.15 1.1875 1.11667 1.09375 1.07 1.04583 1.06333 
1.2 1.2 1.1 1.1125 1.125 1.06667 1.04 
1 1 1.01667 1.025 1 0.995833 0.963333 
1.15 1.1 1.15833 1.09375 1.03 0.995833 0.986667 
0.725 0.725 0.841667 0.85625 0.84 0.845833 0.863333 
0.9 0.85 0.808333 0.7875 0.8 0.808333 0.836667 
0.85 0.925 0.975 1.03125 1.055 1.04583 1.04 
1.2 1.15 1.06667 0.9875 0.95 0.9375 0.913333 
0.6 0.7 0.791667 0.875 0.9 0.925 0.983333 
1.025 0.9125 1.05833 1.075 1.095 1.08333 1.06333 
1.225 1.05 0.941667 1.0125 1.07 1.08333 1.05 
0.85 0.9625 0.966667 1.00625 1.06 1.02083 0.986667 
1.2 1.0375 1.06667 1.0375 1.055 1.025 1.03 
1.025 1.2 1.23333 1.18125 1.2 1.20417 1.17667 
0.725 0.7 0.8 0.9 0.975 0.9375 0.963333 
0.95 1.0625 1.025 0.9875 0.945 0.9125 0.903333 
0.8 0.9875 1.13333 1.1 1.04 1.06667 1.06333 
0.875 1 1.025 1.0125 0.985 0.945833 0.94 
0.625 0.7625 0.866667 0.8875 0.91 0.908333 0.903333 
1.25 1.15 1.04167 1 0.98 0.979167 0.963333 
0.775 0.7 0.741667 0.78125 0.8 0.820833 0.863333 
0.725 0.85 0.791667 0.7875 0.835 0.854167 0.86 
0.925 1.1625 1.225 1.16875 1.2 1.15 1.11333 
1.575 1.475 1.375 1.2625 1.19 1.15 1.12333 
1.1 0.975 0.941667 0.95 1.01 0.983333 0.973333 
1.2 0.9875 0.958333 0.9125 0.89 0.908333 0.9 
1.225 1.1125 1.05 1.01875 1.01 0.979167 0.99 
0.775 0.85 0.866667 0.85 0.875 0.8625 0.866667 
1.275 1.175 1.1 1.03125 0.985 0.983333 0.983333 
1.325 1.3 1.25833 1.225 1.215 1.2 1.20333 
0.775 0.9125 0.908333 0.93125 0.955 0.95 0.976667 
1.05 1.15 1.23333 1.25 1.235 1.18333 1.14 
1.6 1.4375 1.275 1.20625 1.17 1.10417 1.07 
1.625 1.6125 1.50833 1.4 1.35 1.275 1.17 
1.45 1.3 1.15833 1.15 1.13 1.1125 1.05667 
1.05 0.95 1.03333 1.125 1.11 1.0875 1.04667 
0.725 0.8375 0.875 0.9125 0.915 0.933333 0.91 
0.85 0.8375 0.858333 0.9125 0.92 0.891667 0.926667 
0.775 0.875 0.941667 0.9875 0.97 0.983333 0.976667 
1.4 1.1625 1.05 1.0625 1.03 1.00417 0.99 
1.2 1.1375 1.15 1.15625 1.155 1.1 1.07 
1 1.0625 1.03333 1.0125 1.005 1.00833 1.02667 
0.7 0.9625 0.95 0.9 0.89 0.891667 0.916667 
1.225 1.1 1.03333 1.0125 1.02 1.00833 0.986667 
0.6 0.6 0.691667 0.7625 0.79 0.791667 0.763333 
1.025 0.975 1.00833 1.01875 1.035 1.03333 1.06333 
0.85 0.8875 0.916667 1.00625 1.02 1 0.993333 
1.175 1.1375 1.13333 1.15 1.16 1.15417 1.12 
1.05 0.9375 0.966667 1.0375 1.095 1.14583 1.13667 
0.75 0.95 0.966667 0.93125 0.96 0.958333 0.983333 
1.7 1.3125 1.23333 1.225 1.185 1.15417 1.13 
0.675 0.8875 0.95 0.925 0.865 0.825 0.81 
1.1 1.025 0.966667 0.875 0.885 0.895833 0.933333 
0.95 0.8875 0.983333 1 0.925 0.945833 0.953333 
1.3 1.2875 1.35833 1.31875 1.295 1.24583 1.21667 
1.225 1.0625 1.025 1.05 0.985 0.979167 0.97 
1.15 1.025 0.975 1 1.005 1.00417 0.976667 
1.175 1.25 1.325 1.36875 1.265 1.24583 1.21 
1.35 1.1 0.941667 0.925 0.93 0.954167 0.976667 
0.95 0.8875 0.833333 0.85625 0.875 0.85 0.82 
1.25 1.225 1.25833 1.26875 1.19 1.19167 1.16333 
1.25 1.2625 1.2 1.10625 1.08 1.0625 1.05667 
0.875 0.8625 0.85 0.85625 0.86 0.870833 0.906667 
1.025 0.975 0.975 0.96875 1.07 1.06667 1.07 
0.975 0.9875 0.933333 0.9625 0.93 0.983333 1.01333 
1.175 1.2375 1.075 0.9875 0.985 0.966667 0.963333 
1.175 1.25 1.18333 1.1125 1.105 1.1125 1.09 
1.05 1 0.991667 1.025 0.975 1.02083 1.01333 
0.9 0.7 0.791667 0.925 0.995 1.00417 0.993333 
0.85 0.9125 1.01667 0.94375 0.89 0.883333 0.88 
1.325 1.1875 1.18333 1.125 1.12 1.1 1.07 
1.2 1.0625 1.03333 1.075 1.15 1.1375 1.15 
1.025 1.1375 1.1 1.09375 1.09 1.0625 1.07667 
1.375 1.2 1.11667 1.075 1.065 1.00417 0.98 
1.375 1.175 1.09167 1.11875 1.145 1.10833 1.1 
1.3 1.1125 1.05 1.05 1.005 1.00833 1.03333 
1.025 0.9375 0.85 0.775 0.795 0.816667 0.853333 
1 1.025 1.08333 1.025 0.995 0.9625 1.06667 
1.3 1.3 1.28333 1.2375 1.18 1.1375 1.12667 
0.775 0.8125 0.858333 0.88125 0.93 0.9875 1.01333 
1.35 1.2125 1.13333 1.14375 1.12 1.0875 1.03667 
1.15 1.0875 1.08333 1.1375 1.225 1.23333 1.19 
0.65 0.7375 0.775 0.80625 0.825 0.841667 0.876667 
1.075 0.9625 1.025 1.08125 1.11 1.12083 1.13 
1.35 1.1875 1.075 1.01875 1.03 1.05417 1.02333 
1.175 1.175 0.966667 0.9875 0.955 0.920833 0.886667 
0.925 1.1625 1.23333 1.15625 1.095 1.05833 1.03 
0.85 0.775 0.85 0.8625 0.87 0.833333 0.846667 
0.975 1.1625 1.225 1.16875 1.105 1.075 1.09 
0.95 0.9 0.866667 0.9625 0.975 1 0.963333 
1.4 1.25 1.225 1.23125 1.155 1.12083 1.06667 
0.85 0.95 0.975 0.90625 0.855 0.854167 0.916667 
1.325 1.2125 1.15 1.0625 0.975 0.95 0.916667 
1.225 1.1125 1.03333 1.025 1.095 1.11667 1.11333 
1.15 1.0375 1.15 1.1625 1.11 1.14583 1.14 
0.75 0.775 0.716667 0.66875 0.65 0.658333 0.713333 
1.225 1.2375 1.16667 1.2125 1.185 1.15 1.08 
0.575 0.6875 0.766667 0.8 0.82 0.8375 0.866667 
1.325 1.1875 1.15833 1.08125 1.03 1.02917 1.04 
1.05 1.15 1.15 1.05625 1.035 1.0375 1.04667 
0.95 1.0875 1.08333 1.01875 0.94 0.908333 0.916667 
0.65 0.6625 0.675 0.66875 0.625 0.6125 0.63 
0.975 0.9625 0.966667 1 0.96 0.95 0.97 
0.85 0.8875 0.833333 0.8125 0.795 0.816667 0.836667 
0.8 0.9375 0.95 0.94375 0.965 0.979167 0.97 
0.975 0.8125 0.808333 0.85 0.85 0.820833 0.82 
1.075 0.9875 1.00833 1.01875 1.055 1.05 1.00667 
1.2 1.0875 1.01667 0.9875 0.935 0.875 0.903333 
1.025 1.1125 1.24167 1.21875 1.155 1.15833 1.11667 
1.225 1.0625 0.966667 0.95625 0.995 0.995833 1.03 
1.15 1.0125 1 0.95 0.995 0.966667 0.956667 
1.2 1.2 1.10833 1.15 1.115 1.125 1.11 
0.975 0.9375 1 1.00625 0.985 0.945833 0.936667 
0.975 0.8125 0.941667 0.98125 0.935 0.9375 0.956667 
1.6 1.4 1.34167 1.3125 1.235 1.1875 1.10667 
0.95 1.025 1.01667 0.9875 1.02 1.00417 0.99 
0.875 0.8125 0.875 0.95625 0.955 0.958333 0.936667 
0.8 0.7375 0.8 0.89375 0.935 0.920833 0.92 
0.95 1.0125 1.05833 1 1.015 1.00833 1.02 
1.3 1.2625 1.19167 1.175 1.115 1.0875 1.05 
0.95 1.075 1.06667 1.03125 1.045 1.07083 1.06 
0.7 0.9125 0.866667 0.90625 0.915 0.95 0.953333 
0.925 1.0375 1.05833 1.06875 1.095 1.05833 1.06333 
1.075 1.0375 1.025 0.98125 0.955 0.929167 0.94 
1.15 1.1 1.05 1.01875 0.985 0.975 0.936667 
0.925 0.925 0.975 0.9375 0.985 0.995833 0.996667 
0.85 1.0125 1.09167 1.08125 1.02 1 1.00667 
1.1 0.875 0.883333 1.01875 1.015 1.00833 1 
0.9 0.95 1 1.025 0.975 0.9875 0.983333 
1.025 1.0375 0.991667 0.9625 1.005 1.0125 1.00333 
1.05 1.0375 1.01667 0.99375 0.985 0.979167 0.96 
0.875 0.9125 1.03333 0.96875 0.98 0.9875 1 
1.125 1.1 1.075 1.125 1.13 1.13333 1.08 
1.05 1.3875 1.38333 1.3125 1.235 1.1875 1.16333 
1.025 0.875 0.916667 0.99375 0.98 0.954167 0.953333 
0.85 0.7875 0.758333 0.76875 0.87 0.8625 0.88 
1.325 1.075 1.1 1.03125 0.985 0.954167 0.976667 
0.65 0.775 0.866667 0.86875 0.855 0.8875 0.856667 
1.2 1.05 1.04167 1.01875 1.03 1.0625 1.08667 
1.125 1.1 1.08333 1.05625 1.045 1.0125 0.963333 
1.475 1.3375 1.13333 1.125 1.145 1.11667 1.06333 
0.7 0.6625 0.733333 0.8 0.845 0.9 0.923333 
0.975 0.975 1.05 1.11875 1.09 1.0625 1.00667 
0.725 0.8375 0.883333 0.90625 0.875 0.9 0.923333 
0.8 1.025 0.95 0.89375 0.95 0.975 0.916667 
1.025 1.025 0.966667 0.98125 0.94 1 1.02667 
1.1 0.975 1 1.0125 1.015 1.04167 1.07667 
0.675 0.775 0.891667 0.90625 0.89 0.904167 0.896667 
0.625 0.7375 0.858333 0.83125 0.86 0.895833 0.936667 
1.025 1.1 1.025 1.09375 1.08 1.04583 1.00667 
0.825 0.925 0.983333 0.99375 1.005 1.04167 1.05333 
0.775 0.85 0.825 0.8 0.83 0.833333 0.85 
0.85 0.775 0.833333 0.8125 0.805 0.8125 0.823333 
1.15 1.175 1.15 1.0625 1.04 0.995833 0.996667 
1.05 0.925 0.95 0.89375 0.905 0.85 0.89 
1.725 1.4875 1.325 1.2125 1.155 1.10833 1.08667 
1.125 1.075 1.09167 1.1 1.105 1.0875 1.03667 
1 0.975 0.983333 0.96875 0.95 0.925 0.93 
1.35 1.1625 1.05833 1.09375 1.135 1.18333 1.17333 
1.025 1.025 1.00833 0.94375 0.955 0.954167 0.95 
0.95 1.15 1.15 1.08125 1.09 1.075 1.09333 
1.05 1.075 1.15833 1.16875 1.115 1.0875 1.12667 
1.225 1.0625 1.04167 1.05 1.05 1.04583 1.03667 
1.1 0.95 0.908333 0.98125 1.02 1.01667 0.993333 
0.925 1.0625 1.025 1.05625 1.02 1.05 1.03 
0.725 0.6875 0.683333 0.7375 0.75 0.741667 0.79 
0.875 1.0375 0.983333 1.025 0.995 1.025 1.00667 
0.975 1.1 1.075 1.075 1.08 1.08333 1.09333 
0.875 0.825 0.833333 0.86875 0.87 0.883333 0.913333 
1.225 1.2875 1.325 1.21875 1.17 1.1 1.09667 
1.175 1.075 1.01667 0.95 0.955 0.954167 0.97 
1.025 0.9875 0.916667 0.925 0.93 0.945833 0.946667 
1 0.9875 1.06667 1.05 1.035 1.05 1.07333 
1.275 1.2125 1.125 1.0875 1.085 1.04583 0.986667 
0.725 0.85 0.958333 0.94375 1 0.9875 0.973333 
1.15 1.0625 1.16667 1.20625 1.205 1.15 1.10667 
1.025 0.8875 0.875 0.8375 0.835 0.875 0.933333 
1.025 0.95 0.941667 0.90625 0.89 0.883333 0.896667 
0.825 1.075 1.05 1 0.98 0.9375 0.923333 
0.75 0.925 0.983333 0.9625 0.96 0.958333 1.00667 
1 1.3375 1.275 1.19375 1.155 1.20833 1.18 
0.8 0.8 0.875 0.925 0.995 1.025 1.03 
1.325 1.1375 1.15833 1.15625 1.11 1.075 1.1 
0.725 0.8625 0.858333 0.84375 0.89 0.941667 0.993333 
0.825 0.7875 0.858333 0.925 0.965 0.991667 0.966667 
0.75 0.675 0.741667 0.80625 0.86 0.8875 0.926667 
1.15 1.05 1.04167 1.0625 1.05 1.06667 1.07333 
1.025 1.1625 1.10833 1.075 1.05 1.05417 1.04667 
0.925 1.1375 1.15 1.15625 1.16 1.10833 1.08 
0.85 0.85 0.733333 0.825 0.835 0.883333 0.886667 
0.825 0.775 0.841667 0.84375 0.865 0.904167 0.92 
0.95 0.9125 0.85 0.8375 0.855 0.9 0.916667 
0.675 0.875 0.883333 0.91875 0.94 0.929167 0.896667 
0.95 0.95 0.975 1.06875 1.075 1.05 1.04667 
1.1 1.1875 1.18333 1.20625 1.21 1.22917 1.21333 
0.75 0.8125 0.883333 0.88125 0.9 0.916667 0.996667 
0.625 0.8875 0.966667 0.90625 0.865 0.8375 0.82 
0.95 0.9 0.933333 1 1.03 1.02083 1.02 
1.2 1.3 1.23333 1.16875 1.125 1.12083 1.12333 
0.85 1.0125 1.06667 1.0875 1.05 1.05417 1.05 
1.8 1.4 1.375 1.2625 1.195 1.14583 1.09667 
1.3 1.1625 1.14167 1.0625 1.035 1.0125 0.973333 
0.85 0.9625 1.05833 1.01875 0.995 0.9625 0.946667 
0.925 0.8625 0.858333 0.95 0.97 1.0125 1.01 
1.05 0.95 0.991667 1.03125 1.065 1.05417 1.01 
0.8 0.875 0.875 0.99375 0.945 0.945833 0.956667 
0.75 0.8625 0.925 0.96875 0.95 0.95 0.96 
0.85 0.9875 1.025 1.0125 0.96 0.958333 0.973333 
0.825 0.95 0.983333 0.99375 1 0.995833 0.993333 
0.925 0.9625 0.925 0.94375 0.955 0.991667 1.03 
0.95 0.9 0.933333 0.99375 0.96 0.95 0.94 
0.925 0.9125 0.9 0.9375 0.935 0.9875 1.01667 
1.175 1.15 1 0.98125 0.97 0.9375 0.956667 
1.05 1.1375 1.18333 1.13125 1.07 1.07917 1.03 
0.925 1.025 0.95 0.96875 0.97 1 1.01 
1.075 1.05 1.01667 1.0125 1.02 1.03333 1.01 
0.95 1.025 0.95 1 1.015 1.02083 1.05 
1.375 1.2125 1.09167 1.025 0.97 0.958333 1.01667 
0.8 0.825 0.991667 1 0.975 0.958333 0.943333 
1.125 1.1125 1.08333 1.08125 1.06 1.04583 1.03667 
1.1 1.1125 1.14167 1.15625 1.09 1.09167 1.07 
0.775 0.9375 0.983333 0.95625 0.995 0.995833 1.01 
0.8 0.8625 0.908333 0.9125 0.87 0.841667 0.81 
1.225 1.15 1.125 1.05625 1.01 0.95 0.976667 
0.8 0.8125 0.833333 0.8875 0.9 0.879167 0.883333 
1.425 1.4125 1.44167 1.33125 1.29 1.25417 1.19667 
1.55 1.3875 1.23333 1.14375 1.095 1.07917 1.03667 
0.925 0.8625 0.875 0.875 0.885 0.9 0.973333 
0.825 0.9625 0.916667 0.8875 0.96 0.933333 0.923333 
1.025 1.0375 1.19167 1.15 1.11 1.07917 1.05667 
1.025 1.0375 1.05833 1.05 1.055 1.0125 0.97 
0.975 0.9875 0.941667 0.83125 0.82 0.8875 0.913333 
0.675 0.8 0.866667 0.8625 0.885 0.895833 0.93 
1 0.8625 0.841667 0.875 0.93 0.9375 0.923333 
0.775 0.9125 0.958333 0.9375 0.895 0.920833 0.926667 
0.825 0.8625 0.916667 0.94375 0.895 0.9125 0.926667 
0.725 0.675 0.741667 0.91875 0.95 0.954167 0.943333 
0.775 0.8625 0.958333 0.975 1 1.00417 0.986667 
0.725 0.7625 0.75 0.7625 0.78 0.841667 0.88 
1.65 1.4625 1.35833 1.30625 1.305 1.25833 1.19667 
1 0.9125 0.991667 0.95625 0.955 0.908333 0.91 
1.05 1.075 1.13333 1.075 1.06 1.0125 0.986667 
0.825 0.825 0.85 0.9 0.945 0.933333 0.923333 
1.15 1.175 1.16667 1.13125 1.05 1.03333 1.02333 
0.65 0.7125 0.833333 0.81875 0.83 0.854167 0.843333 
0.675 0.7375 0.808333 0.81875 0.85 0.891667 0.906667 
0.95 0.8625 0.925 0.95625 0.99 1.04167 1.08 
0.975 0.925 0.916667 0.90625 0.94 0.941667 0.92 
0.975 1.0625 0.941667 0.9125 0.935 0.933333 0.9 
1.325 1.1125 1.06667 1.03125 1.015 1.02917 1.05667 
1.15 1.175 1.16667 1.1625 1.12 1.10417 1.07333 
0.825 0.7875 0.791667 0.8375 0.845 0.866667 0.86 
0.95 1.075 1.1 1.08125 1 1.025 1.01 
0.9 0.9125 0.941667 0.9875 0.99 0.979167 0.943333 
0.85 0.9375 0.908333 0.94375 1.025 0.9875 0.956667 
1.55 1.4125 1.28333 1.18125 1.095 1.09167 1.09 
0.825 0.7375 0.808333 0.875 0.915 0.9125 0.93 
0.95 0.975 0.925 0.89375 0.885 0.9125 0.883333 
0.75 0.9 0.875 0.875 0.9 0.983333 1.02333 
1.125 1.0625 1.08333 1.1 1.1 1.1125 1.13667 
1.225 1.0375 1 0.93125 0.885 0.891667 0.923333 
1.3 1.1 1.08333 1.05 1.065 1.04583 1.04 
1.05 0.95 0.941667 1 0.975 0.970833 0.95 
1 1.075 1.09167 1.10625 1.045 0.983333 0.986667 
1.1 1.1 1.05833 1.05625 1.1 1.1 1.09 
1.025 1.0875 1.08333 1.09375 1.145 1.11667 1.12 
0.825 0.975 0.925 0.90625 0.89 0.9125 0.953333 
0.85 0.8125 0.825 0.85625 0.89 0.891667 0.903333 
0.7 0.7375 0.8 0.80625 0.84 0.833333 0.856667 
1.05 1.175 1.11667 1.075 1.08 1.12917 1.12333 
1.025 1.075 1.06667 1.06875 1.07 1.07917 1.11 
0.975 0.975 1.03333 1.025 1.045 1.0625 1.01333 
1.05 1.15 1.15 1.25 1.29 1.29583 1.23667 
0.85 0.8875 0.875 0.875 0.845 0.841667 0.853333 
0.825 0.85 0.925 0.89375 0.89 0.870833 0.886667 
0.825 0.85 0.883333 0.88125 0.93 0.916667 0.903333 
1.275 1.2125 1.13333 1.0875 1.13 1.11667 1.11 
0.675 0.7875 0.816667 0.8 0.825 0.816667 0.8 
0.975 1.0125 1.01667 0.9375 0.955 0.916667 0.906667 
0.9 0.9 0.833333 0.86875 0.875 0.870833 0.913333 
0.825 0.875 1.01667 1.0125 0.955 0.9875 1.04667 
0.625 0.7625 0.85 0.86875 0.845 0.870833 0.9 
0.775 0.8875 1.03333 1.1375 1.115 1.11667 1.09667 
1.175 1.025 1.13333 1.13125 1.115 1.07917 1.11667 
1.15 0.9625 0.95 0.96875 0.96 0.958333 0.956667 
1.275 1.25 1.09167 0.98125 1.01 1.05 1.10667 
1.025 0.9625 1.00833 0.98125 0.96 1.00417 1.00333 
0.8 0.9125 0.958333 0.99375 0.985 1.01667 1.00667 
1.05 0.925 0.883333 0.925 0.895 0.9 0.923333 
0.825 0.875 0.841667 0.91875 0.97 0.966667 0.93 
1.075 1 0.9 0.89375 0.885 0.891667 0.913333 
1.2 1.25 1.15833 1.23125 1.195 1.16667 1.11667 
1.55 1.4 1.19167 1.06875 1.01 0.9625 0.94 
0.975 0.9875 0.983333 0.9875 0.995 0.975 1.00333 
1.4 1.1375 1.04167 1.09375 1.1 1.05 1.03667 
0.95 0.875 0.816667 0.81875 0.915 0.920833 0.9 
1.2 1.025 0.916667 1.025 1.015 0.991667 1.02 
1.025 0.925 0.983333 1 1.015 1.0125 0.99 
0.775 0.7375 0.808333 0.825 0.835 0.870833 0.9 
1.35 1.125 1.05833 1.075 1.145 1.175 1.16667 
1.2 1.15 1.2 1.225 1.12 1.06667 1.01 
1.125 1.1375 1.11667 1.0625 1.065 1.07083 1.07667 
1.125 1.15 1.075 1.05625 1.04 1.04583 1.07 
0.575 0.825 0.791667 0.8375 0.825 0.833333 0.876667 
1.2 1.05 1.05833 1.03125 1.02 0.970833 0.893333 
0.8 0.875 0.991667 0.9375 0.94 0.954167 0.953333 
1 0.975 0.916667 0.93125 0.94 0.945833 0.926667 
0.925 0.8625 0.858333 0.9 0.9 0.9 0.906667 
0.7 0.7625 0.841667 0.825 0.825 0.85 0.92 
1.2 1.0625 1.05833 1.03125 1.04 1.0125 0.963333 
1.1 1.0875 1.05 1.0625 1.015 1.04583 1.01667 
1.3 1.1 1.125 1.0625 1.065 1.04167 1.02 
1.025 0.95 0.933333 1.00625 1.075 1.05833 1.04 
1.275 1.2375 1.075 1.04375 1.04 1.02083 1.02333 
0.95 0.9375 1.025 1.0125 0.965 0.983333 0.98 
1 0.8125 0.8 0.9 0.915 0.929167 0.973333 
0.875 0.9 0.908333 0.9 0.9 0.908333 0.946667 
0.6 0.7625 0.85 0.89375 0.895 0.883333 0.853333 
1.475 1.325 1.19167 1.15 1.09 1.08333 1.07333 
1.025 0.9125 0.908333 0.9 0.94 0.975 1.03 
1.2 1.075 1.09167 1.11875 1.11 1.15417 1.15333 
0.75 0.675 0.741667 0.9 0.945 0.958333 0.96 
0.9 1.0875 1.03333 1.01875 0.99 0.979167 1.00333 
1 1.15 1.15833 1.1875 1.145 1.1 1.06 
1.425 1.4125 1.325 1.26875 1.265 1.22917 1.17667 
1 0.95 1.05833 1.0625 1.065 1.05833 1.08333 
1.025 1.1 1.175 1.225 1.195 1.175 1.14 
1.025 0.9625 0.933333 0.89375 0.86 0.895833 0.876667 
1.15 1.1 1.13333 1.125 1.15 1.15417 1.15 
1.575 1.4125 1.33333 1.23125 1.23 1.19167 1.11667 
1.2 1.225 1.10833 1.0375 1.015 0.9875 0.963333 
0.775 0.7875 0.725 0.76875 0.815 0.845833 0.92 
1.25 1.1875 1.15833 1.1625 1.15 1.10417 1.08333 
1.175 1.1125 1.05 1.05625 1.07 1.10833 1.08333 
0.95 0.95 0.95 0.94375 0.945 0.970833 0.963333 
1.025 0.95 0.883333 0.88125 0.875 0.916667 0.916667 
1.35 1.2875 1.19167 1.16875 1.12 1.12083 1.13667 
1.3 1.3375 1.33333 1.29375 1.245 1.22083 1.19333 
0.925 0.875 0.825 0.81875 0.815 0.820833 0.846667 
1 1.175 1.09167 1.025 0.985 0.966667 0.95 
1.025 1.1625 1.1 1.0125 0.985 0.991667 0.973333 
0.65 0.775 0.775 0.7625 0.775 0.791667 0.843333 
0.925 0.9 0.858333 0.9 0.945 0.966667 1.00667 
1.15 1.05 1.025 0.9875 0.94 0.9375 0.94 
1 1.175 1.14167 1.0875 1.04 1.01667 1.01333 
0.725 0.85 0.95 0.975 0.995 1.01667 1.02 
0.8 0.9375 0.891667 0.90625 0.98 0.954167 0.976667 
1.05 0.9625 0.966667 1.01875 1.065 1.12917 1.11333 
0.725 0.95 0.983333 0.9625 0.945 0.929167 0.87 
1.325 1.1125 1.1 1.15 1.11 1.09583 1.06 
0.9 0.875 0.941667 0.925 0.885 0.904167 0.953333 
0.9 0.825 0.875 0.89375 0.865 0.85 0.873333 
1.125 1.2125 1.15833 1.1875 1.13 1.1125 1.08333 
0.8 0.8125 0.95 0.9625 0.93 0.95 0.97 
0.925 1.025 1.01667 0.96875 0.94 0.958333 0.99 
1.075 1.075 1.03333 1.0375 1.05 1.04167 1.01 
0.9 0.925 0.925 1.00625 0.985 1.025 1.01 
0.925 0.9625 0.958333 0.98125 1.01 1.0125 1.02333 
1.1 0.925 0.783333 0.80625 0.83 0.8625 0.88 
1.3 0.9875 0.95 1 0.995 0.975 0.99 
0.95 1.05 1.04167 1.05 1.07 1.075 1.10667 
0.9 0.9625 1.04167 1.0625 1.045 0.975 0.96 
0.775 0.825 0.95 0.925 0.935 1.00833 1.03 
1.4 1.325 1.26667 1.18125 1.19 1.11667 1.07667 
1.05 1.1125 1.10833 1.0625 1 0.929167 0.933333 
0.65 0.7375 0.833333 0.85 0.85 0.883333 0.95 
0.975 1 0.975 0.96875 1.005 1 0.98 
0.875 0.85 0.875 0.9375 0.94 0.995833 0.986667 
0.875 1 0.983333 1.00625 0.97 1.00833 0.98 
1.15 1.1125 1.01667 1.03125 1 0.995833 0.98 
1.3 1.2125 1.21667 1.23125 1.235 1.19583 1.19333 
0.975 0.9375 0.925 0.9125 0.965 0.975 1.00667 
0.65 0.65 0.7 0.75625 0.785 0.8375 0.9 
0.675 0.8375 1 1.08125 1.08 1.075 1.06333 
0.8 1.0125 1.01667 1.0375 0.975 1.01667 0.993333 
0.85 0.9875 0.991667 0.96875 0.935 0.979167 0.986667 
1.35 1.2625 1.38333 1.29375 1.245 1.18333 1.16333 
0.825 0.9875 0.941667 0.96875 0.985 0.9625 0.95 
0.875 0.7875 0.783333 0.8125 0.82 0.820833 0.85 
0.85 1.1 1.08333 1 0.945 0.975 0.953333 
0.7 0.7125 0.783333 0.85625 0.895 0.941667 0.966667 
0.95 0.975 0.916667 0.83125 0.805 0.791667 0.843333 
1.275 1.0875 1.075 1.00625 0.97 1.025 1.02667 
0.925 1.1125 1.05 1.0625 1.035 1.01667 1.00667 
1.225 0.9125 0.941667 1 0.96 0.895833 0.9 
0.8 0.875 0.933333 0.975 1.02 0.995833 1.02333 
1.325 1.1625 1.10833 1.16875 1.2 1.19583 1.20333 
0.825 0.775 0.7 0.7125 0.755 0.791667 0.8 
0.85 0.675 0.7 0.79375 0.845 0.875 0.913333 
1.1 1.075 1.14167 1.09375 1.105 1.07083 1.10667 
0.9 0.9125 0.875 0.84375 0.855 0.870833 0.896667 
0.9 0.875 0.883333 0.91875 0.955 1 1.01667 
0.7 0.6875 0.708333 0.75 0.87 0.8625 0.913333 
1.2 1.1375 1.16667 1.0625 1.03 1.0375 1.04 
0.9 1.1 0.966667 0.9125 0.905 0.8625 0.85 
1.2 1.05 0.991667 0.96875 1 1.00833 0.966667 
0.85 0.7375 0.7 0.775 0.79 0.775 0.793333 
1.125 1 0.908333 0.925 0.915 0.8875 0.916667 
1.325 1.225 1.1 1.05625 1.03 1.00833 1.02333 
0.675 0.825 1.00833 0.975 0.925 0.883333 0.9 
1 1.2125 1.275 1.2375 1.19 1.19583 1.20333 
1.25 1.05 1.21667 1.25 1.215 1.14583 1.12333 
1.125 0.9875 1.04167 1.0625 1.11 1.14583 1.21667 
0.95 0.8625 0.833333 0.89375 0.97 0.95 0.956667 
1.075 1.1 1.05833 1.05625 1.055 1.00833 1 
0.925 0.9875 0.925 0.95 0.925 0.95 0.98 
1.05 1.025 0.975 0.93125 0.92 0.904167 0.91 
1.075 1.0125 1.11667 1.1625 1.145 1.15833 1.13667 
1 0.9625 1.01667 1 1.1 1.1125 1.09667 
1.125 1.1375 1.19167 1.125 1.075 1.04167 1.00333 
1.1 1.1375 1.06667 1.01875 1 0.983333 0.973333 
0.775 0.8125 0.866667 0.86875 0.81 0.808333 0.823333 
0.75 0.8625 0.991667 1.03125 1.025 1.02917 1.02 
1.025 1 1.03333 1.1 1.075 1.04167 1.02333 
0.925 0.9375 0.975 0.925 0.93 0.904167 0.91 
1.35 1.4 1.35833 1.30625 1.29 1.25 1.18 
0.65 0.775 0.85 0.83125 0.865 0.883333 0.873333 
1.025 0.875 0.991667 1.05 1.04 1.01667 1.04667 
0.9 0.9625 0.975 0.975 1.015 0.995833 1.02333 
0.7 0.7875 0.808333 0.83125 0.86 0.925 0.963333 
