-0.874691 -0.0285826 0.0997519 0.0017441
-0.893835 -0.0114469 0.0901327 0.00264946
-0.862339 -0.0274274 0.12068 0.00602974
-0.878033 -0.0112104 0.11014 0.000359236
0.767512 -0.0311188 -0.199542 0.00105498
0.748374 -0.0343606 -0.217984 0.000413357
0.77555 -0.0428119 -0.180044 0.000920089
0.755755 -0.0463304 -0.199065 0.000663247
0.0810522 0.568374 -0.351037 0.000265888
0.0607036 0.581117 -0.355858 0.0013413
0.0925489 0.575894 -0.330936 0.000360406
0.0729623 0.588721 -0.335119 0.0018472
-0.49553 -0.168211 0.338956 0.00155573
-0.512919 -0.158301 0.330234 0.000838035
-0.480752 -0.159282 0.36071 0.000428136
-0.498781 -0.149522 0.351617 4.77099e-05
0.40919 0.550639 0.0452113 0.00290886
0.39727 0.568174 0.0342744 0.000163746
0.400821 0.539533 0.0634827 0.00221384
0.388446 0.556967 0.0537707 0.000472315
-0.280335 0.634358 0.0836299 0.000970124
-0.299582 0.629259 0.0636258 0.00435072
-0.277594 0.613472 0.107035 0.00109761
-0.298861 0.608324 0.0886001 0.00243479
0.15775 -0.755898 0.0841848 0.00125216
0.170768 -0.734724 0.0963202 0.0010432
0.133466 -0.758331 0.103179 0.00290222
0.145487 -0.737713 0.116482 0.000186054
-0.317483 0.204104 -0.480579 0.00124965
-0.303985 0.224737 -0.472658 0.000795767
-0.339384 0.200018 -0.460475 7.21138e-05
-0.325478 0.220782 -0.452735 0.00058113
-0.378277 -0.493374 -0.127424 0.000535518
-0.391329 -0.476265 -0.132738 0.000190088
-0.391415 -0.502324 -0.105174 0.000629365
-0.40462 -0.485193 -0.10964 0.00031762
-0.420768 -0.10516 0.479497 0.00313068
-0.441932 -0.0935148 0.467643 0.00178229
-0.405755 -0.0933335 0.500436 0.000276212
-0.426561 -0.0818974 0.490078 0.000846592
0.0404961 -0.710974 -0.255183 0.00383905
0.0174629 -0.715628 -0.265248 0.000962193
0.0376333 -0.721671 -0.243177 0.00142954
0.0139382 -0.728325 -0.252894 0.00279816
0.136653 0.854711 0.00611279 0.00145819
0.125349 0.871874 -0.00359528 0.000469786
0.127256 0.849144 0.027885 0.00247293
0.116833 0.866965 0.0189023 0.00155657
0.287569 0.561958 -0.148152 0.00134156
0.267844 0.574078 -0.159106 0.000592608
0.297818 0.569151 -0.126282 0.00389765
0.279627 0.582009 -0.136463 0.0010992
0.305552 0.600871 -0.0920813 0.000865066
0.287534 0.612672 -0.102299 0.00144457
0.315653 0.608689 -0.0705685 0.0029393
0.297819 0.620657 -0.0817863 0.000149631
0.512229 0.325022 0.162192 0.000322897
0.501392 0.339465 0.158027 0.000645852
0.501209 0.313674 0.185805 0.000395941
0.490236 0.327731 0.182305 0.000155122
-0.384568 -0.226919 0.391255 0.00158182
-0.407098 -0.214745 0.380916 0.00159147
-0.369324 -0.216156 0.416317 0.00103687
-0.393242 -0.200966 0.405039 0.000435383
-0.664502 0.25653 0.075541 0.00198029
-0.653426 0.274675 0.070248 0.000954875
-0.659483 0.242853 0.0944126 0.00187884
-0.665595 0.248374 0.0827559 0.00189252
0.0494442 -0.80583 -0.148734 0.00231275
0.029719 -0.812935 -0.162934 0.00322509
0.0489732 -0.818002 -0.132389 0.000368694
0.0291286 -0.825046 -0.146482 0.000377958
0.338885 -0.590499 -0.0710016 0.000221333
0.318569 -0.59904 -0.0873609 0.00286831
0.341949 -0.605854 -0.0510592 0.000657795
0.322918 -0.613513 -0.0669575 0.00195524
0.0216832 -0.87979 -0.106847 0.00480077
0.0161878 -0.868895 -0.11744 0.00145398
0.0120887 -0.898068 -0.0876085 0.00129201
0.00641915 -0.887688 -0.0990048 0.00397891
0.268551 0.659224 -0.0640025 0.00474919
0.248886 0.672904 -0.0774603 0.000433785
0.281797 0.663248 -0.0457336 0.00532573
0.262601 0.678664 -0.0559144 0.00162959
-0.268498 0.593452 0.134825 0.00186336
-0.291146 0.586812 0.1171 0.00285515
-0.26045 0.576677 0.160434 0.00140862
-0.28399 0.568399 0.143067 0.00262447
-0.0214276 -0.368331 -0.606534 0.00214178
-0.0390941 -0.363575 -0.613599 0.0093913
-0.0272686 -0.382627 -0.592107 0.00115489
-0.0441913 -0.377412 -0.599128 0.0119682
0.320953 0.503273 -0.169206 0.00379337
0.297069 0.512026 -0.184558 0.00366575
0.336819 0.515572 -0.144642 0.00171407
0.314266 0.5241 -0.160273 0.000786867
-0.0652531 -0.599423 -0.331338 0.00230211
-0.0740317 -0.584057 -0.33992 0.0011509
-0.0753673 -0.607383 -0.315495 0.00101475
-0.0856642 -0.593255 -0.321706 0.000359398
0.313462 0.300111 0.389243 0.00162415
0.299957 0.316356 0.383747 3.31797e-05
0.29479 0.29336 0.414646 0.00161279
0.282763 0.308814 0.409363 0.00054125
-0.268072 0.117691 0.612008 0.00128848
-0.288101 0.112796 0.593094 0.00347079
-0.260961 0.0948945 0.638721 0.00313287
-0.280109 0.0907834 0.62047 0.00498872
0.282093 0.0414591 0.679168 0.00156884
0.272095 0.058809 0.678542 0.00545223
0.263219 0.0336117 0.698654 0.0026088
0.253365 0.0504191 0.698228 0.00115977
-0.219086 0.537053 -0.24497 0.000639646
-0.210288 0.557159 -0.233697 0.000659846
-0.245137 0.534491 -0.222651 0.00131514
-0.23593 0.55445 -0.211775 0.00124341
0.0209028 0.0619519 -0.935107 0.0103673
0.0169558 0.0807644 -0.916343 0.00811785
0.00261045 0.0674104 -0.921658 0.00480662
-0.000518856 0.0861865 -0.902296 0.00635164
0.342044 -0.517214 0.138801 0.00112208
0.356903 -0.492228 0.14972 0.000664583
0.317504 -0.520753 0.159855 0.00109133
0.33114 -0.497844 0.169467 0.000895069
-0.178567 -0.531574 -0.288502 0.000784467
-0.184772 -0.514365 -0.296946 0.0022628
-0.191814 -0.53922 -0.269545 0.000333566
-0.198739 -0.522675 -0.277998 0.000340227
0.0368109 -0.608133 0.371276 0.0093633
0.00498516 -0.611382 0.376922 0.00387597
0.0191122 -0.590417 0.394662 0.00241902
-0.0144297 -0.595753 0.397523 0.00444755
-0.118026 -0.644682 0.236727 0.000327553
-0.1432 -0.627362 0.23003 0.000341054
-0.111197 -0.631481 0.258138 0.000469877
-0.136487 -0.615429 0.250067 0.00114414
-0.225015 -0.295984 0.479272 0.000155458
-0.246032 -0.27928 0.476222 0.000884177
-0.211917 -0.283713 0.505688 0.000759909
-0.232439 -0.267559 0.502126 0.00122519
0.383296 -0.0201961 0.600707 0.00242363
0.385385 0.00102275 0.602112 0.00662938
0.36212 -0.0320791 0.618888 0.00755507
0.364272 -0.0105232 0.620792 0.00254853
-0.217534 0.406081 -0.375124 0.000728959
-0.208966 0.42213 -0.366697 0.0012749
-0.238853 0.402102 -0.361674 0.00151589
-0.22938 0.417462 -0.353669 0.000293823
0.474764 -0.188157 -0.340565 0.00201175
0.460868 -0.185492 -0.353231 0.00023659
0.474039 -0.202341 -0.324141 0.000299346
0.456417 -0.206136 -0.336877 0.000329951
0.258524 0.501488 -0.236218 0.00217749
0.237771 0.512144 -0.247016 0.00177205
0.273261 0.512332 -0.213195 0.000700858
0.251261 0.522298 -0.225348 0.000631436
-0.414341 -0.12179 -0.465122 0.000721406
-0.420513 -0.100031 -0.477714 0.0010079
-0.423414 -0.134296 -0.444454 0.0012473
-0.43025 -0.113182 -0.456946 0.000216342
-0.0401843 -0.0594629 -0.891811 0.00493331
-0.0701684 -0.0427058 -0.886338 0.000456659
-0.0505907 -0.0671372 -0.878327 0.0022802
-0.0780127 -0.0513338 -0.873559 0.00167489
-0.177162 -0.235187 0.585479 0.00125482
-0.212183 -0.208088 0.584152 0.00255318
-0.167525 -0.225645 0.606893 3.55991e-05
-0.203807 -0.199384 0.604715 0.00456343
-0.0256355 -0.315909 0.652551 0.00341016
-0.047762 -0.307573 0.647477 0.00162196
-0.0142978 -0.305998 0.674256 0.00314739
-0.0362572 -0.295666 0.667001 0.000623067
-0.322174 -0.184448 -0.490999 0.00137446
-0.333457 -0.169923 -0.496327 0.000170483
-0.330659 -0.192613 -0.474486 0.00129569
-0.345145 -0.178162 -0.475796 0.00051923
-0.325948 0.21433 -0.461692 0.00113617
-0.312028 0.23543 -0.45383 0.000742453
-0.347662 0.210867 -0.440188 0.000741975
-0.333285 0.232417 -0.432574 0.000996733
0.269867 -0.589563 0.139725 0.000488448
0.28122 -0.567725 0.151494 0.000252225
0.246746 -0.590353 0.163243 0.0001969
0.257443 -0.569261 0.17563 0.00134674
-0.575191 0.371255 0.046059 0.0043287
-0.561666 0.390314 0.0377718 0.00591805
-0.580473 0.369367 0.0683583 0.0105059
-0.570214 0.385328 0.0604923 0.00925624
-0.234815 0.441533 -0.324119 0.000268349
-0.223627 0.458721 -0.31771 3.25956e-05
-0.258064 0.437196 -0.305785 0.000602526
-0.246574 0.455786 -0.299538 0.00109449
-0.0336171 -0.636495 -0.328425 0.000845543
-0.0432685 -0.620129 -0.338178 0.000908168
-0.0428235 -0.64472 -0.309892 0.00148226
-0.0518087 -0.629293 -0.319714 0.000469983
-0.342544 0.0495811 -0.611503 0.00209359
-0.331286 0.0684147 -0.600861 0.000323106
-0.359504 0.0460083 -0.591234 0.00187957
-0.349498 0.0664187 -0.581126 0.00170906
0.117374 -0.645417 -0.239861 0.00152943
0.100817 -0.647432 -0.252765 0.000583555
0.122743 -0.664553 -0.212996 0.000166731
0.106413 -0.667148 -0.22704 0.000345458
0.0144684 -0.449671 0.543903 0.00464215
-0.00823088 -0.44782 0.548144 0.00242122
0.00932484 -0.436205 0.564125 0.00557302
-0.0141016 -0.430158 0.56703 0.00651708
0.0751299 0.245553 -0.672009 0.00422088
0.0562669 0.261955 -0.673787 0.00461501
0.0849065 0.2588 -0.652547 0.00216469
0.0652829 0.275346 -0.655859 0.00202956
-0.705304 -0.176133 0.120468 0.00109704
-0.727572 -0.162162 0.113279 0.00173594
-0.69264 -0.165235 0.142059 3.96339e-05
-0.71304 -0.150583 0.137641 0.000726772
0.300681 -0.607531 -0.0927793 0.000570451
0.280075 -0.614579 -0.109812 0.00257639
0.30685 -0.621246 -0.0717309 0.000101356
0.280946 -0.631153 -0.0934889 0.00322476
-0.105064 0.157135 0.735881 0.00111072
-0.130868 0.145367 0.721494 0.00131419
-0.10293 0.143201 0.752191 0.000971072
-0.1297 0.131125 0.737902 0.000738081
0.402711 -0.0211336 0.584066 0.00456627
0.403319 -0.00166891 0.585821 0.00530802
0.381886 -0.0331117 0.602625 0.0101729
0.383974 -0.0118928 0.604029 6.11227e-05
0.279531 -0.220937 -0.50467 0.0029653
0.257957 -0.230818 -0.518002 0.0039123
0.283571 -0.234712 -0.483816 0.00121032
0.258222 -0.248136 -0.497259 0.00208753
0.090425 -0.831113 0.0744028 0.00234476
0.102106 -0.816198 0.0877014 0.00346465
0.0881385 -0.821494 0.0926862 0.00133654
0.0910278 -0.812575 0.103767 0.0042525
-0.154023 -0.0827233 -0.764652 0.000806583
-0.160643 -0.0635582 -0.774328 0.00084908
-0.160903 -0.0950979 -0.748078 0.00235283
-0.168307 -0.0750694 -0.756713 5.06161e-05
0.578082 -0.174898 -0.250841 0.00220575
0.561154 -0.17867 -0.262757 0.00148933
0.579585 -0.189217 -0.231183 8.99127e-06
0.563963 -0.192546 -0.243732 0.000138708
-0.45256 -0.51846 -0.0349356 0.00343714
-0.463725 -0.50307 -0.0403705 0.00413573
-0.458376 -0.516654 -0.0137926 0.0064544
-0.471003 -0.504218 -0.0186798 0.00352242
0.447116 -0.466956 0.0840524 0.00108445
0.451299 -0.445474 0.102161 0.000616821
0.427694 -0.468387 0.103354 0.000328214
0.432854 -0.4461 0.121247 0.000113912
-0.254717 -0.171492 -0.575026 0.000712264
-0.268118 -0.153467 -0.581592 0.00183291
-0.262305 -0.181955 -0.554886 0.000494074
-0.274738 -0.163767 -0.561246 0.000145053
0.446621 -0.166725 0.386251 0.000233363
0.457488 -0.146368 0.396668 0.00030108
0.422225 -0.167369 0.407466 0.00169833
0.432842 -0.145982 0.418416 0.00159421
0.00137907 0.106398 -0.886917 0.00306609
-0.00104127 0.121052 -0.87311 0.002772
-0.0103342 0.116661 -0.870716 0.00132414
-0.00984286 0.131107 -0.85753 0.000879084
0.12846 0.85705 -0.0245912 0.005831
0.11547 0.872718 -0.0341652 0.0129033
0.121088 0.854798 -0.0018445 0.0128587
0.108593 0.871703 -0.0114401 0.0047742
0.743103 0.155383 -0.102677 0.000668928
0.721931 0.164249 -0.11248 0.000776578
0.753458 0.165843 -0.0792906 0.000814115
0.733764 0.17528 -0.0878206 0.00181247
-0.0816434 0.125018 -0.7957 0.00136184
-0.0693372 0.144686 -0.785153 0.000475673
-0.103498 0.121233 -0.778446 0.00183342
-0.091026 0.14195 -0.768034 0.000582009
0.589428 0.351896 0.0557093 0.00171426
0.581528 0.372083 0.0440317 0.00136268
0.581366 0.340457 0.0793754 0.000690246
0.574397 0.361452 0.0679565 0.0021958
-0.420181 0.28156 0.293297 0.00286709
-0.441809 0.277211 0.276903 0.00235558
-0.418906 0.264707 0.317653 0.000729164
-0.43998 0.259991 0.301349 0.000760223
0.204844 -0.779422 0.0129318 0.00161738
0.22141 -0.761921 0.0184647 0.00103599
0.186871 -0.78224 0.0329241 0.00117578
0.202883 -0.765051 0.0398993 0.0045221
0.69545 0.172901 0.130662 0.000572231
0.678625 0.192267 0.128166 0.000545355
0.679292 0.167592 0.153336 0.000125377
0.66448 0.186438 0.149038 2.65036e-05
0.501742 -0.249516 -0.250635 0.00109222
0.490629 -0.250073 -0.263525 0.00243975
0.500456 -0.26664 -0.234633 0.00099756
0.488472 -0.268626 -0.247565 0.00269148
0.101834 -0.115726 -0.784777 0.00134864
0.0838881 -0.121201 -0.798851 0.00227333
0.10098 -0.130106 -0.769321 0.00023373
0.0873779 -0.130974 -0.782296 0.000373424
0.359497 -0.126988 -0.515495 0.0011411
0.34191 -0.126519 -0.532465 0.000514723
0.359464 -0.150451 -0.491462 0.000793673
0.342598 -0.151132 -0.508042 0.00102139
-0.0338409 -0.287102 0.681958 0.00167324
-0.0546658 -0.271773 0.672834 0.000421457
-0.0230854 -0.280389 0.7037 0.0041397
-0.0449557 -0.26195 0.691385 0.000988412
-0.511234 -0.0348555 -0.457374 0.00199885
-0.509421 -0.018967 -0.457852 0.00794555
-0.52479 -0.0423785 -0.441794 0.00517287
-0.525744 -0.0282294 -0.441245 0.00276174
-0.132665 0.657722 -0.211991 0.00137136
-0.11679 0.680407 -0.202956 8.66055e-05
-0.154054 0.654744 -0.193012 0.00104312
-0.138904 0.677455 -0.183168 0.000274744
-0.0226315 -0.949497 0.0213018 0.00379565
-0.0404791 -0.941619 0.00727701 0.00613742
-0.023308 -0.941306 0.0420232 0.00382884
-0.0413401 -0.934836 0.0299639 0.00354196
-0.169501 -0.343268 -0.485971 0.000728821
-0.185703 -0.3266 -0.485111 0.00149404
-0.18623 -0.352725 -0.461449 0.000232069
-0.199347 -0.336811 -0.462469 0.000793956
-0.688943 0.23086 -0.0799953 0.000117964
-0.678381 0.247544 -0.0729198 0.000668635
-0.708043 0.232062 -0.0610464 0.000662152
-0.697742 0.248717 -0.0539956 0.000261144
0.802286 -0.034541 0.16668 0.00202388
0.795338 -0.0144339 0.17687 0.00771336
0.787373 -0.0394469 0.177643 0.00257694
0.78158 -0.0188264 0.187946 0.00672449
0.026737 0.530709 -0.441129 0.000824387
0.00769948 0.539987 -0.443461 0.00511173
0.0369859 0.539348 -0.424296 0.000362386
0.0182002 0.548639 -0.428102 0.00292161
-0.0949737 0.733243 0.171154 0.000366366
-0.113124 0.727693 0.156089 0.00178935
-0.0978399 0.709366 0.192178 0.000358818
-0.114634 0.706408 0.177334 0.000940407
0.401861 0.0499573 -0.545003 0.00183631
0.384552 0.0646534 -0.551642 0.000488526
0.418914 0.0531327 -0.524366 0.00207232
0.400518 0.0655391 -0.531835 0.0012178
-0.342396 0.135702 0.517799 0.00237023
-0.366058 0.129191 0.498747 0.00346795
-0.341158 0.116399 0.542078 0.000212717
-0.366029 0.109248 0.522665 0.00118938
-0.153512 -0.709204 0.142072 0.00276156
-0.173627 -0.695869 0.135388 0.00281755
-0.13738 -0.699609 0.163535 0.000299924
-0.157313 -0.68395 0.159578 0.000484168
-0.699785 -0.17435 -0.126052 0.0001052
-0.710594 -0.150738 -0.137268 0.000811148
-0.711674 -0.184402 -0.104004 4.32579e-05
-0.722898 -0.157425 -0.116174 0.00202596
0.0790951 0.631706 0.285867 0.00192526
0.0731401 0.651662 0.275175 1.4753e-05
0.071027 0.617169 0.307657 0.0023957
0.0640011 0.638008 0.297143 0.000491092
0.258853 0.0219673 -0.712262 0.00399675
0.241914 0.0345963 -0.721008 0.00143585
0.275275 0.024995 -0.695469 0.00246198
0.258546 0.0365029 -0.704898 3.34625e-05
0.301227 0.0322104 -0.661697 0.0028111
0.283679 0.0419732 -0.673883 0.000269853
0.31563 0.0406873 -0.642002 0.000971721
0.298045 0.050984 -0.653338 0.00136484
-0.375992 0.348489 -0.278109 0.00149332
-0.366024 0.366354 -0.268336 0.000410208
-0.394534 0.34253 -0.263179 0.00013887
-0.385866 0.361568 -0.252664 5.47346e-05
0.022721 0.331774 -0.658504 0.00750322
0.0189663 0.346245 -0.636999 0.00127423
0.00794139 0.348263 -0.637218 0.00379882
0.00488627 0.364775 -0.61327 0.00985538
0.218443 0.65289 -0.120714 0.00459262
0.195817 0.665932 -0.13684 0.000815667
0.231834 0.661544 -0.0992031 0.00428492
0.208842 0.67553 -0.115779 8.54097e-05
0.275708 0.0561003 0.666527 0.000962285
0.26554 0.0738242 0.664149 0.00202661
0.259975 0.0532059 0.682018 0.00277318
0.249861 0.0704084 0.681099 0.000788923
-0.537966 -0.127888 -0.335828 0.000969
-0.549038 -0.110633 -0.338318 0.0011627
-0.559587 -0.133803 -0.312713 0.0035221
-0.568592 -0.115609 -0.31746 0.000957055
-0.0811513 0.516551 -0.410633 0.004811
-0.0684785 0.536217 -0.394309 0.000575715
-0.0981972 0.522097 -0.391425 0.00676437
-0.0827324 0.543729 -0.375796 0.00130194
0.092135 0.349247 -0.562548 0.00226644
0.0658106 0.372107 -0.555086 0.00404056
0.0982638 0.359405 -0.54435 0.00116329
0.0716587 0.381689 -0.540998 0.00326637
0.624119 0.0884538 -0.283431 0.0023086
0.602023 0.103964 -0.290793 0.00186095
0.641029 0.0977674 -0.258019 0.00183993
0.618694 0.113599 -0.265909 0.00103932
0.598801 0.0738419 0.326859 0.000288998
0.584013 0.0926879 0.323679 0.000217572
0.588585 0.063919 0.346552 0.000546212
0.573991 0.0829142 0.343801 0.000405928
0.386775 0.208795 0.406059 0.000939312
0.373686 0.226426 0.400828 0.000541655
0.378591 0.198869 0.424191 0.000951769
0.365685 0.213432 0.419915 0.00055982
-0.746656 -0.140973 0.109527 0.00164411
-0.765996 -0.121905 0.113409 0.0007551
-0.741389 -0.128738 0.129792 4.94194e-05
-0.759305 -0.112373 0.131058 0.00157787
-0.615631 -0.143582 -0.241609 0.000473572
-0.627078 -0.1245 -0.249422 0.000576027
-0.628127 -0.1519 -0.219869 6.05679e-05
-0.641526 -0.131729 -0.227898 0.00066388
-0.578744 0.366644 -0.0664315 0.0068228
-0.562246 0.38423 -0.0695648 0.00926039
-0.584517 0.363927 -0.04399 0.00436969
-0.568712 0.382117 -0.0480898 0.000625409
-0.0938668 0.343964 -0.56448 0.00133181
-0.0845691 0.36093 -0.550777 0.00215182
-0.119675 0.344045 -0.541916 0.00325195
-0.110553 0.36049 -0.528478 0.000278923
0.396278 0.0672517 -0.535481 0.000572234
0.375509 0.0783317 -0.542942 0.00185882
0.411686 0.0748648 -0.51368 0.000132329
0.390213 0.0841659 -0.523268 0.00135988
0.186791 -0.110996 0.703322 0.000637631
0.195433 -0.0953118 0.710965 0.000984215
0.159954 -0.118814 0.717685 0.00205144
0.170524 -0.102853 0.724859 0.00102152
-0.0584734 0.767821 0.170559 0.0018167
-0.0813448 0.76288 0.155708 3.92884e-05
-0.0563472 0.752399 0.188166 0.00178378
-0.0772448 0.749282 0.173746 0.000155538
0.127161 0.0855259 0.792251 0.00284959
0.117327 0.108156 0.780868 0.00366569
0.115569 0.0705177 0.813248 0.000386751
0.104907 0.0933452 0.802487 0.000424911
0.0239956 -0.349246 -0.63736 0.0061198
0.00382685 -0.346254 -0.645096 0.00278574
0.0202198 -0.362992 -0.622887 0.00352024
-0.00103249 -0.36222 -0.630277 0.00373706
-0.170655 -0.255903 -0.574188 0.00043014
-0.177646 -0.237356 -0.582486 0.00145092
-0.17953 -0.266405 -0.554454 0.000222925
-0.186879 -0.249617 -0.562259 0.000719667
0.757478 -0.00434894 0.234762 0.0019699
0.749559 0.0193562 0.244474 0.00772865
0.729941 -0.0116752 0.258226 9.36831e-05
0.722547 0.0113566 0.267811 0.000986654
-0.0437185 -0.362143 -0.593962 0.000103315
-0.0568033 -0.352848 -0.601596 0.00649262
-0.0524874 -0.372071 -0.57957 0.00238198
-0.0648703 -0.360938 -0.58569 0.0066375
-0.677607 0.290188 0.0273935 0.00277929
-0.660659 0.312005 0.0257345 0.000926342
-0.681992 0.27257 0.0472551 0.0010477
-0.666236 0.295253 0.0445445 0.00348143
0.52548 0.0369227 0.434919 0.00154736
0.520692 0.0555343 0.424933 0.000668348
0.517884 0.0261343 0.453008 0.00171791
0.513193 0.045037 0.442686 0.000527752
-0.240076 -0.147705 0.614455 0.00128999
-0.263941 -0.133866 0.604469 0.00131305
-0.224555 -0.136483 0.641357 0.00138155
-0.246999 -0.123451 0.632006 0.00141645
-0.126929 0.418807 -0.457553 0.00189665
-0.116793 0.437253 -0.445293 0.000383785
-0.145615 0.417026 -0.439694 0.00134648
-0.134339 0.436125 -0.42947 3.96904e-05
-0.072061 -0.475439 0.452863 0.000208047
-0.0921315 -0.461919 0.448389 0.00140669
-0.062721 -0.463926 0.474292 0.000541134
-0.0807123 -0.452474 0.469144 0.00134362
-0.217267 -0.197955 -0.586558 0.00102642
-0.230318 -0.18219 -0.590658 0.00182749
-0.224249 -0.208142 -0.567034 0.000332643
-0.241416 -0.191269 -0.568497 0.000681965
0.35471 -0.112534 0.527864 0.00282658
0.366066 -0.0904807 0.542133 0.000764013
0.328148 -0.11859 0.548512 0.00274451
0.337751 -0.0976779 0.561774 0.00161612
-0.0778595 -0.163705 0.760439 0.00115549
-0.101542 -0.156621 0.746436 0.00265299
-0.0660202 -0.153897 0.781296 0.000700972
-0.0872041 -0.146584 0.768209 0.00115257
-0.000833243 0.0275196 -0.961407 0.00591394
-0.00348785 0.044725 -0.950146 0.000950126
-0.0262604 0.0224417 -0.951882 0.000334482
-0.0223741 0.0441431 -0.935136 0.000951185
0.287056 -0.248042 -0.47071 0.00335219
0.256758 -0.266393 -0.483662 0.0039323
0.291775 -0.258566 -0.452011 0.00135628
0.256231 -0.283408 -0.465544 0.00299123
0.0990908 0.787676 0.110622 0.00150866
0.0823345 0.808422 0.108231 0.000587151
0.0887919 0.780278 0.128503 0.00140196
0.0730324 0.802414 0.12377 0.000453962
0.502004 -0.379638 -0.119016 0.000377394
0.479644 -0.389811 -0.134999 0.00256951
0.49874 -0.395795 -0.101204 0.00246224
0.482817 -0.402436 -0.115803 0.000607751
0.0548522 -0.761952 -0.183835 0.000368336
0.0399475 -0.764801 -0.196095 0.000486479
0.0502123 -0.781999 -0.1645 0.00189864
0.0325402 -0.786584 -0.178316 0.00147769
-0.390761 -0.114872 -0.493967 0.000232752
-0.396839 -0.0936265 -0.506526 0.0017386
-0.401219 -0.126552 -0.473513 0.000739412
-0.40749 -0.10513 -0.486356 0.000592824
-0.412581 -0.0423925 0.546796 0.00102029
-0.428901 -0.0264011 0.539987 0.00272139
-0.398222 -0.0416675 0.566588 0.00373896
-0.41213 -0.024441 0.559061 0.00252307
0.491419 0.295 -0.209136 0.00256793
0.476626 0.311354 -0.210336 0.000972937
0.501883 0.304261 -0.18898 0.00281635
0.487553 0.319231 -0.191508 0.000987106
-0.090675 -0.125149 -0.783484 0.000399725
-0.0984754 -0.108683 -0.79286 9.58576e-06
-0.0985852 -0.135166 -0.76542 0.00048001
-0.106792 -0.118456 -0.773363 0.00080318
-0.299325 0.150964 0.545191 0.00261069
-0.319422 0.1468 0.526436 0.00424058
-0.299507 0.127482 0.570634 0.00137403
-0.31855 0.123793 0.552164 0.00317319
0.554701 -0.0484248 0.394177 0.00155869
0.560515 -0.0302044 0.41027 0.000569995
0.527082 -0.0541297 0.416256 0.00146306
0.534304 -0.0369512 0.431236 0.00143746
0.938059 0.0344106 0.0226703 0.00280936
0.924966 0.0495623 0.0228809 0.00149836
0.935651 0.0292466 0.0386579 0.00204972
0.924333 0.0444485 0.0382878 0.00407937
-0.0207808 -0.0164757 0.952902 0.00568445
-0.0456928 -0.00204828 0.951419 0.000487624
-0.020425 -0.00502043 0.967234 0.00422813
-0.0458893 0.0081873 0.967143 0.0122491
-0.0533114 0.836325 0.109867 0.000287896
-0.0763571 0.828268 0.0954242 2.66038e-05
-0.0527564 0.820766 0.124825 0.000955647
-0.0777186 0.811857 0.110913 0.000279553
0.259335 -0.112531 -0.627411 0.000418657
0.242005 -0.11547 -0.644966 0.00140764
0.256861 -0.132732 -0.610175 0.000135495
0.240511 -0.13575 -0.626875 0.00180975
-0.724778 0.0168091 -0.260467 0.00118337
-0.725642 0.0357626 -0.258017 0.0112101
-0.736281 0.0127341 -0.24403 0.00401732
-0.73793 0.0324215 -0.241682 0.00694554
0.283809 0.337844 -0.375928 0.00139868
0.266424 0.349948 -0.380288 0.00193023
0.295701 0.346162 -0.358355 0.000124391
0.278601 0.358673 -0.362497 0.00013438
0.100843 -0.684919 -0.21553 0.000743889
0.0871462 -0.686088 -0.230031 0.00188332
0.100766 -0.699847 -0.198052 0.000773007
0.0845711 -0.702377 -0.21291 8.45509e-05
0.167769 0.625022 0.206822 0.000223902
0.153184 0.643177 0.203068 0.000330868
0.152767 0.618261 0.229446 0.000273066
0.141919 0.636389 0.220634 0.000611862
-0.0414695 0.110532 -0.848904 0.000521837
-0.0315267 0.128851 -0.836069 0.00205207
-0.0587327 0.111514 -0.832257 0.00144447
-0.048368 0.130395 -0.820213 0.000592973
-0.773801 0.0870265 -0.139281 6.20056e-05
-0.760581 0.104956 -0.133846 0.000357342
-0.796389 0.0843848 -0.120782 0.000896599
-0.783668 0.10139 -0.116942 0.00115419
0.0623023 0.517296 0.417521 0.00166457
0.0580445 0.536572 0.408348 0.00171072
0.046587 0.506034 0.440336 0.00406707
0.0427414 0.525602 0.43124 0.000241414
-0.203895 0.20975 -0.587631 0.000736363
-0.195726 0.230754 -0.575522 0.00115544
-0.224872 0.204327 -0.568879 0.0011104
-0.216808 0.227672 -0.555328 0.000111593
0.317207 0.161105 0.519225 0.00142257
0.310003 0.180081 0.508025 0.0010931
0.310437 0.148563 0.538829 0.00125459
0.300773 0.168658 0.528781 0.00103386
-0.0987996 -0.61078 -0.287307 0.00179963
-0.112678 -0.598206 -0.287965 0.000666264
-0.110055 -0.617142 -0.269793 0.00173986
-0.126196 -0.604695 -0.268979 7.646e-05
0.281093 -0.353221 0.36647 0.0004507
0.291644 -0.337271 0.373482 0.001382
0.255523 -0.356685 0.385452 0.00135232
0.26638 -0.340447 0.392363 0.000469424
0.694041 -0.179219 0.125234 0.000871504
0.707001 -0.159747 0.135338 0.0012024
0.673925 -0.178985 0.141634 0.00315137
0.686367 -0.159194 0.152655 0.00103101
-0.557135 -0.202626 -0.24314 0.00167432
-0.562093 -0.182061 -0.254013 0.00105914
-0.566906 -0.21531 -0.224342 0.00378567
-0.573603 -0.193676 -0.235411 0.0015522
0.405541 0.532762 -0.0506728 0.00636611
0.392573 0.545066 -0.0601254 0.00129181
0.415355 0.54002 -0.0309596 0.00789049
0.403934 0.552471 -0.0419414 0.000955874
0.0197314 -0.58029 -0.421342 0.0123326
0.0102895 -0.570312 -0.428784 0.00541786
0.0121401 -0.588781 -0.402279 0.00184638
-0.000350189 -0.582906 -0.41105 0.00328884
0.376537 0.609311 -0.0335209 0.0111813
0.363483 0.630283 -0.0509643 0.0258237
0.367022 0.602757 -0.00900709 0.012249
0.353812 0.624549 -0.0261839 0.00262276
-0.0591921 0.50683 -0.436097 0.00122196
-0.0579024 0.518688 -0.421179 0.0012892
-0.0822632 0.505796 -0.42145 0.00548886
-0.0694249 0.525289 -0.405361 4.20435e-05
0.3389 0.669824 -0.0089731 0.0102154
0.325839 0.694316 -0.0265139 0.0269428
0.332851 0.658029 0.0131625 0.00233199
0.320185 0.682209 -0.00417913 0.00379307
-0.0976069 0.871313 0.0334926 0.00139012
-0.0882714 0.884486 0.0259631 0.000741337
-0.0900728 0.862863 0.0547559 0.00443887
-0.0877756 0.872444 0.0427115 0.00168963
-0.327739 -0.266419 0.405803 2.36889e-05
-0.354299 -0.247477 0.397841 0.000221689
-0.320549 -0.255679 0.426842 0.0017716
-0.346467 -0.236056 0.420851 0.00194667
0.466145 -0.407127 0.120615 0.00353088
0.477321 -0.386421 0.132601 0.002113
0.449948 -0.409091 0.142322 0.000784197
0.459794 -0.386826 0.155289 0.00110116
0.237879 -0.130299 0.632593 0.000443837
0.248289 -0.113617 0.638815 0.000414787
0.208536 -0.13261 0.654854 0.00231088
0.218205 -0.116109 0.662119 0.00206148
-0.0646469 0.160372 -0.777452 0.00142736
-0.0535667 0.17892 -0.766049 0.000845667
-0.0856871 0.157023 -0.759489 0.00126875
-0.0730464 0.178408 -0.748476 4.16015e-05
-0.0470772 0.224752 -0.729154 0.000565252
-0.0476386 0.237657 -0.712963 0.00100819
-0.0594338 0.234011 -0.715996 0.00544808
-0.0581176 0.247192 -0.699899 0.00300545
0.542176 0.183181 -0.272246 0.00138445
0.524159 0.200185 -0.272894 0.0015953
0.553675 0.194279 -0.249577 0.0014264
0.53751 0.211532 -0.250356 0.00034789
-0.239084 -0.0239578 -0.74931 0.00712981
-0.237188 -0.000664135 -0.747491 0.00846351
-0.249821 -0.0319514 -0.72844 0.00589329
-0.248627 -0.00816044 -0.729071 0.00816651
-0.302668 -0.585399 -0.109191 0.00158483
-0.310709 -0.569492 -0.124234 0.00255926
-0.311929 -0.59632 -0.0806721 0.00639809
-0.322212 -0.578709 -0.0940576 0.00290083
-0.799788 0.0769108 -0.121212 0.00120783
-0.787067 0.0939161 -0.117372 0.000950362
-0.82416 0.0738377 -0.103211 0.000695943
-0.811522 0.0896313 -0.100536 0.000972872
0.558252 0.177511 0.264253 8.13255e-06
0.534668 0.195823 0.268895 0.000355012
0.545718 0.17262 0.282092 0.000246849
0.521425 0.192033 0.286341 0.000117022
0.386013 -0.599666 -0.0234182 0.00525064
0.391093 -0.590521 -0.0334475 0.00869444
0.372614 -0.610635 -0.00481738 0.00689089
0.391362 -0.593275 -0.0116955 0.00211878
0.530993 0.464391 -0.0184967 0.00801311
0.513748 0.478743 -0.0234407 0.00919739
0.52712 0.461978 0.00284167 0.00465524
0.511835 0.476054 -0.00319661 0.00514771
0.361492 0.311831 -0.327623 0.000545121
0.335537 0.320408 -0.339103 0.00286081
0.374075 0.318211 -0.308546 0.00047879
0.348951 0.325605 -0.31991 0.00319734
-0.106224 0.0108057 0.866966 0.00924292
-0.121561 0.0282225 0.858779 0.00494183
-0.095497 0.000865852 0.887939 0.0090653
-0.111575 0.0190363 0.878163 0.00506279
0.659164 0.277933 0.0587424 0.00240363
0.640631 0.300744 0.0573851 0.000717527
0.649015 0.27217 0.0787471 4.09841e-05
0.627904 0.295546 0.0783433 0.00103397
0.0408096 -0.813867 0.162043 0.00965171
0.0141412 -0.823677 0.152939 0.00533724
0.0443204 -0.80454 0.174929 0.0137345
0.020717 -0.808882 0.168408 0.00115193
-0.556212 -0.395596 -0.0519219 0.00215201
-0.566413 -0.377431 -0.0572345 0.00062166
-0.565217 -0.398272 -0.0299595 0.00378339
-0.575077 -0.380944 -0.0380908 0.00340079
0.431413 0.0656203 0.501999 0.000559957
0.420953 0.0799686 0.498967 6.63376e-05
0.41554 0.060099 0.520856 0.00202447
0.404638 0.0747006 0.518683 0.00114377
0.275622 0.0664426 -0.655579 0.00136196
0.258806 0.0732154 -0.665635 0.00135472
0.288212 0.07522 -0.635288 0.000740954
0.271422 0.0850285 -0.642754 0.000461009
0.403163 0.338774 0.257095 0.000560138
0.396693 0.356833 0.245988 0.000281685
0.391604 0.328968 0.278135 0.000747699
0.385413 0.347852 0.266462 0.000159708
-0.894011 -0.0364661 -0.0735427 0.00231918
-0.89742 -0.0173472 -0.0750349 0.00588936
-0.910854 -0.0356428 -0.0546438 0.000656755
-0.91493 -0.0156101 -0.056779 0.00732361
-0.120303 0.842334 -0.0390029 0.000946142
-0.105692 0.859381 -0.037792 0.00165265
-0.133956 0.837771 -0.0229057 0.00309967
-0.119012 0.855101 -0.022378 0.00202755
-0.363898 -0.594136 0.0393006 0.00154
-0.382884 -0.57875 0.0358454 0.0014565
-0.358243 -0.590394 0.060525 0.00528852
-0.378184 -0.57441 0.058381 0.00633481
0.445846 0.219865 -0.334623 0.000191987
0.426488 0.231499 -0.341324 0.000399241
0.455181 0.229793 -0.314195 0.000480739
0.435113 0.241889 -0.321309 0.000976111
0.291337 0.38059 -0.331142 0.00177077
0.269969 0.397325 -0.33179 0.000530557
0.300652 0.391528 -0.308608 0.000453463
0.28015 0.408683 -0.309032 0.0012348
0.441887 -0.50164 -0.0589295 0.00141733
0.451577 -0.487935 -0.0673558 0.00396356
0.441586 -0.517254 -0.0375412 0.00209022
0.450572 -0.50296 -0.0464104 3.44835e-05
-0.174891 -0.575677 -0.249596 9.44793e-05
-0.183018 -0.558976 -0.258366 0.000206925
-0.18342 -0.588274 -0.227466 0.000485591
-0.195922 -0.570826 -0.232713 0.00031154
-0.22704 -0.32189 0.454532 0.00199811
-0.247614 -0.306306 0.44861 0.00145949
-0.212163 -0.314084 0.476417 0.00153683
-0.232367 -0.299302 0.471134 0.00161706
0.187963 -0.422019 0.390182 9.33944e-05
0.197865 -0.403608 0.401021 0.00143914
0.166565 -0.426189 0.407974 0.000419283
0.177672 -0.407062 0.417469 0.00127126
-0.470719 -0.367967 0.16275 0.00082758
-0.488102 -0.357851 0.155859 0.00104464
-0.456878 -0.360546 0.182752 0.000100652
-0.472535 -0.352142 0.17571 0.000221995
0.136393 0.331344 -0.534593 0.00134354
0.109759 0.35254 -0.534589 0.00179834
0.144539 0.342116 -0.512855 0.000284043
0.11933 0.359598 -0.518601 0.00142837
-0.0163348 0.216638 -0.762778 0.00245352
-0.0182589 0.22788 -0.745897 0.00459901
-0.0370743 0.224146 -0.74697 0.00472692
-0.0381189 0.236407 -0.730565 0.00293701
0.618501 -0.311548 0.0683272 0.000938525
0.631933 -0.293019 0.0758386 0.000455159
0.592627 -0.319439 0.0863332 0.000925665
0.605238 -0.30093 0.0955567 0.000994431
-0.487775 0.360851 -0.151784 0.000235838
-0.478304 0.378593 -0.14473 0.000938388
-0.505211 0.35593 -0.134103 0.00274769
-0.49629 0.374629 -0.12681 0.00131327
-0.117283 -0.129851 0.761156 0.00478446
-0.138414 -0.115914 0.748467 0.00161152
-0.102771 -0.122421 0.784077 0.00535051
-0.123658 -0.106814 0.771629 0.00121203
-0.00672999 0.976552 -0.00432894 0.00715414
-0.0172459 0.98124 -0.0103011 0.00507215
-0.0157423 0.973932 0.0185195 0.0047293
-0.0283707 0.974636 0.00526404 0.00477358
0.439205 0.0277126 0.529691 0.00195905
0.427428 0.0436936 0.529362 0.00027806
0.425442 0.0221504 0.549072 0.00192692
0.414399 0.0376023 0.549788 0.00103207
0.387804 0.349834 -0.256673 0.00328656
0.369797 0.361304 -0.262999 0.00340785
0.398803 0.360254 -0.237013 0.0022704
0.381804 0.371753 -0.24351 0.00169443
0.0276165 0.171669 0.804295 0.00206623
0.00904587 0.186938 0.794387 0.00555984
0.0183274 0.151543 0.820014 0.0058415
0.000690497 0.167173 0.810112 0.0127172
0.567953 0.238112 0.195202 0.000731244
0.55592 0.255017 0.188984 4.62588e-05
0.559662 0.226417 0.214934 0.000584104
0.543407 0.24316 0.212668 0.000442179
-0.0349133 -0.644698 -0.315708 0.00270371
-0.0438985 -0.629271 -0.325531 0.000751461
-0.0449119 -0.654748 -0.299499 0.000487321
-0.0545613 -0.639185 -0.308743 0.00143609
0.160758 0.682879 -0.152065 0.00248269
0.141254 0.69854 -0.158374 0.00105943
0.171218 0.693129 -0.13176 0.00224962
0.153162 0.707415 -0.137922 0.000868695
0.196618 -0.347197 0.456992 0.000464949
0.205773 -0.331257 0.465369 0.00138386
0.170519 -0.356155 0.472345 0.000567597
0.180791 -0.338039 0.4815 0.000189492
0.484014 -0.393079 0.117685 0.00301718
0.495298 -0.373467 0.128789 0.00141354
0.468536 -0.395072 0.137504 0.000640952
0.47914 -0.373675 0.150036 0.00164512
0.0204618 0.551632 0.44047 0.00725267
0.00323103 0.558431 0.430388 0.00459129
0.0203006 0.532314 0.453142 0.00332269
0.00287438 0.539007 0.442284 0.00914332
0.233471 -0.478129 -0.290804 0.00138695
0.218128 -0.47969 -0.305175 0.00172651
0.234407 -0.496675 -0.270468 0.000894371
0.217566 -0.500312 -0.28425 0.00122754
0.610369 0.24786 0.144806 0.00175179
0.603035 0.268722 0.132349 0.00236971
0.599512 0.234851 0.167077 0.00083025
0.593003 0.255193 0.154559 0.00158951
-0.150817 0.287296 0.562871 0.00056685
-0.178011 0.272533 0.549235 0.000128417
-0.147879 0.267997 0.581939 0.00126259
-0.174573 0.254051 0.568316 0.00176787
-0.251302 -0.141421 -0.606557 0.000416736
-0.264394 -0.122798 -0.612666 8.32551e-05
-0.258087 -0.152122 -0.586133 0.00211297
-0.271438 -0.134112 -0.591894 0.0014774
0.0486556 -0.188676 -0.765849 0.00183584
0.0340672 -0.191187 -0.777706 0.00170968
0.0520042 -0.20169 -0.74767 0.000786526
0.0347228 -0.206509 -0.75992 0.000663992
0.875411 0.0990811 -0.0278491 0.00134871
0.861824 0.11537 -0.0196459 0.00182652
0.871184 0.114525 -0.00923442 0.00292224
0.856642 0.130549 -0.00251442 0.00594507
-0.483971 -0.458894 0.0556145 0.000878934
-0.505227 -0.44601 0.0482454 0.000299965
-0.469019 -0.453911 0.0766261 0.000257402
-0.493828 -0.442353 0.0671302 0.00191034
-0.0691312 0.547372 0.384423 0.00053355
-0.0878099 0.542858 0.370216 0.000508819
-0.0673637 0.529897 0.401899 0.000486788
-0.0880122 0.522836 0.387169 0.00114618
-0.398606 0.536563 -0.0666203 0.0010317
-0.384442 0.556106 -0.0599619 0.000293023
-0.41939 0.530884 -0.0496945 1.93677e-05
-0.403175 0.549911 -0.0457725 0.000659729
0.228748 0.702386 -0.0709657 0.00121035
0.205101 0.720964 -0.0752501 0.000756345
0.238103 0.712154 -0.049073 0.000389458
0.214292 0.731445 -0.0522596 0.00115876
-0.619216 0.107728 -0.273317 0.000148783
-0.607494 0.126146 -0.266018 0.000198167
-0.64206 0.100264 -0.256739 0.000542652
-0.630829 0.118623 -0.249072 0.000853082
-0.0230447 -0.675392 -0.292981 0.00495682
-0.0333356 -0.663054 -0.302775 0.000483681
-0.0332716 -0.689742 -0.276348 0.000370364
-0.0432484 -0.67668 -0.286562 0.00374527
0.166025 0.566525 0.269715 0.00130708
0.153594 0.581833 0.265593 0.000587871
0.152618 0.557444 0.291248 0.000754956
0.141107 0.575481 0.283931 0.000298177
0.566227 0.0844167 0.351205 0.00106568
0.550986 0.10518 0.346126 0.00132133
0.553865 0.0758881 0.369974 0.000158954
0.540172 0.0975656 0.362863 0.000344813
0.727656 -0.253447 0.0189841 4.79072e-05
0.743155 -0.23635 0.0184043 0.00120893
0.715044 -0.257687 0.0380893 0.00624451
0.730536 -0.240417 0.0393119 0.00592377
0.516392 -0.105256 0.375628 0.00157449
0.527843 -0.0865857 0.384231 0.00077525
0.494252 -0.109739 0.393907 0.00121535
0.505248 -0.0915813 0.402907 0.000154
-0.217933 -0.348001 0.441813 0.00447181
-0.239564 -0.334666 0.431742 0.00344621
-0.202824 -0.338575 0.460095 0.000861066
-0.22329 -0.324368 0.452262 4.66484e-05
-0.0133817 0.316321 0.669152 0.00066324
-0.0239908 0.329315 0.657223 0.00607727
-0.0159628 0.304664 0.684993 0.00324264
-0.0280509 0.313699 0.674368 0.00930386
0.459109 -0.241588 -0.299314 4.7815e-06
0.440053 -0.245335 -0.315139 0.000302667
0.463723 -0.258346 -0.280371 0.00140811
0.447526 -0.261051 -0.295387 0.00228696
0.270188 0.125079 -0.605719 0.000568113
0.244897 0.142773 -0.610701 0.000941291
0.28216 0.130575 -0.586302 0.000557449
0.256914 0.149058 -0.590113 0.00226134
0.0171397 0.684358 -0.302052 0.0020475
-0.00850398 0.689425 -0.305174 0.00178987
0.0161544 0.700538 -0.286822 0.00202665
-0.00976874 0.705691 -0.290057 0.00318239
0.564677 0.429347 -0.0242509 0.0105501
0.547767 0.445569 -0.0308109 0.0139399
0.55898 0.428322 -0.00125516 0.00660756
0.542296 0.443965 -0.0081375 0.00323516
-0.00508978 -0.477088 -0.50118 0.00960991
-0.0222646 -0.462502 -0.512317 0.00168477
-0.0106714 -0.490972 -0.489297 0.00523195
-0.0283462 -0.47723 -0.499588 0.00298059
0.0848323 0.465914 0.450032 0.000447782
0.0741168 0.483722 0.444145 0.00114362
0.0759261 0.456343 0.468685 0.000549388
0.0653528 0.474724 0.460155 0.000133073
0.545322 0.22414 -0.227075 0.00199975
0.53001 0.239563 -0.227807 0.00151254
0.556592 0.237056 -0.20533 0.000590558
0.541955 0.252438 -0.205621 7.2496e-06
0.550529 0.0740989 0.374903 0.000272437
0.537886 0.0954668 0.366683 1.8993e-05
0.541522 0.0641196 0.394035 0.000187433
0.531713 0.084821 0.385689 0.00128173
-0.409307 0.223263 -0.366792 0.00036944
-0.393961 0.244976 -0.358313 0.00158919
-0.434597 0.221087 -0.345618 0.000750747
-0.41963 0.242461 -0.336833 0.000622185
0.0857036 -0.167141 -0.750842 0.00212692
0.071169 -0.170461 -0.76297 0.00265468
0.0846104 -0.181222 -0.734333 9.31391e-05
0.0684705 -0.186201 -0.746752 0.000820409
0.125146 -0.0225386 -0.859633 0.00422332
0.108076 -0.0118848 -0.870789 0.00534347
0.144105 -0.0293407 -0.839083 0.00723281
0.126166 -0.0176303 -0.848832 0.00425668
0.470886 -0.0598325 0.466029 0.00187865
0.480877 -0.0417162 0.474848 0.00147854
0.446612 -0.0639914 0.48377 0.00324945
0.454501 -0.0461936 0.493956 0.00308964
0.219454 -0.0317963 0.748222 0.000305872
0.222702 -0.0120306 0.75983 0.00313937
0.200054 -0.0368637 0.76247 0.00035422
0.203396 -0.0166851 0.775783 0.00238765
-0.511403 -0.236827 0.25262 0.000490037
-0.534582 -0.223177 0.244934 0.00155475
-0.504353 -0.224184 0.274139 0.00154365
-0.524069 -0.210693 0.267327 0.00120492
0.0198049 -0.0479442 0.940474 0.00474389
0.00600799 -0.0295263 0.948394 0.00928186
0.0230087 -0.0389163 0.956892 0.0108614
0.00462031 -0.0211772 0.962575 0.00671514
0.499883 -0.202405 0.296399 0.000759199
0.511177 -0.181098 0.307073 0.000377656
0.479456 -0.205712 0.317244 0.00139153
0.490134 -0.180194 0.330001 0.000188864
-0.17811 -0.177526 0.644517 8.68414e-05
-0.203924 -0.161469 0.638261 0.00210896
-0.163768 -0.166792 0.671126 0.000972047
-0.184266 -0.155277 0.66313 0.00154271
-0.45686 0.477257 0.0618648 0.00232108
-0.473149 0.475346 0.0421816 0.00538402
-0.453356 0.461948 0.0839457 0.000434911
-0.473337 0.456385 0.0640023 0.00362479
0.932307 0.051234 0.0116807 0.0027618
0.918151 0.0656138 0.0133401 0.0016736
0.925725 0.0525365 0.0290446 0.00421555
0.912012 0.0669857 0.0297641 0.00505708
0.16617 -0.17423 0.659879 0.000160439
0.175645 -0.15699 0.668568 0.000693957
0.140429 -0.175952 0.679285 0.00250371
0.150175 -0.158031 0.6886 0.00184551
-0.00860233 -0.868197 0.110187 0.00751607
-0.0312554 -0.870233 0.104494 0.00345128
-0.0134202 -0.85561 0.125482 0.00316972
-0.0380821 -0.86134 0.117365 0.00969073
0.0554381 -0.104714 -0.840422 0.000330311
0.0280704 -0.118281 -0.857988 0.00250395
0.0621385 -0.11749 -0.823775 0.00196316
0.0393471 -0.127478 -0.84032 0.00412475
-0.409748 0.552486 0.0305476 0.00416894
-0.394474 0.568193 0.0267073 0.00613595
-0.408688 0.546606 0.0582962 0.00784475
-0.406672 0.555333 0.04784 0.0056823
0.256402 0.0917474 -0.650166 0.000974443
0.239662 0.0990158 -0.659463 0.00107518
0.268558 0.0997093 -0.630242 0.000862388
0.252023 0.109799 -0.637484 0.000402004
0.543604 0.0639187 0.389386 0.00178614
0.533725 0.0848171 0.381683 0.00012842
0.532461 0.0546438 0.410173 0.00157287
0.526347 0.0746793 0.401821 0.00164242
0.542651 -0.20323 -0.256857 0.00158049
0.529066 -0.204997 -0.268225 0.00131982
0.542897 -0.219976 -0.239178 0.00118382
0.529562 -0.220527 -0.251389 0.00085249
0.366165 -0.530501 -0.106536 0.00184665
0.349698 -0.527483 -0.120516 0.00133187
0.367078 -0.547251 -0.0884717 0.00161509
0.349693 -0.546026 -0.103029 0.00072468
-0.16292 -0.298971 0.541664 0.00205165
-0.178298 -0.288776 0.535392 0.00142254
-0.148504 -0.288437 0.56504 0.00114213
-0.164567 -0.278498 0.558862 0.00111142
-0.462875 0.364771 0.166846 0.00318136
-0.490757 0.352227 0.150806 0.00358659
-0.4627 0.344395 0.192051 0.000493945
-0.490356 0.331621 0.17606 0.00113451
0.673809 -0.0237614 0.308673 0.00360269
0.673892 -0.00460267 0.31381 0.0044445
0.644921 -0.0334356 0.327243 0.00323123
0.648191 -0.0140959 0.3329 0.00278085
0.130395 0.47271 0.397468 0.00032948
0.118513 0.492833 0.389455 0.000460384
0.112744 0.464977 0.419602 0.00154772
0.101674 0.482404 0.414212 0.00098939
0.292376 -0.410084 -0.303795 0.00360916
0.269904 -0.414806 -0.319051 0.00217038
0.296748 -0.425248 -0.277632 0.000216145
0.273051 -0.431083 -0.292739 0.00180739
-0.609409 -0.0912707 -0.300656 0.000769486
-0.617861 -0.0739031 -0.305596 0.00152575
-0.62374 -0.100578 -0.277334 0.000952947
-0.629402 -0.0832807 -0.286845 0.000274381
-0.0410489 -0.439415 0.518729 0.000467108
-0.0614985 -0.426423 0.51705 0.00286955
-0.0402286 -0.423446 0.534663 0.000961305
-0.0622469 -0.410778 0.534832 0.00453538
-0.557884 0.0533222 -0.390311 0.00087471
-0.543621 0.0720861 -0.385786 0.000860726
-0.578957 0.0469245 -0.373244 0.000506014
-0.564942 0.0671207 -0.368261 0.000185855
-0.0560789 0.274737 -0.670715 0.000882375
-0.0508774 0.289401 -0.653548 0.00356596
-0.0788188 0.282518 -0.651738 0.00754721
-0.0720535 0.298307 -0.633305 0.00211503
0.374025 0.519816 0.108177 0.0011635
0.360897 0.53356 0.10587 0.000186887
0.357822 0.516778 0.126555 0.000664655
0.344166 0.530322 0.125337 0.000102707
0.433386 -0.23866 -0.327918 2.25164e-05
0.411715 -0.243669 -0.344744 7.28757e-05
0.437793 -0.257497 -0.307745 0.00175138
0.418313 -0.261276 -0.324256 0.00221871
0.162206 0.150284 0.686073 0.00083069
0.153547 0.167543 0.67719 0.000993804
0.148849 0.134929 0.71592 0.000177829
0.139688 0.154638 0.70483 0.000489973
0.0552848 -0.714609 -0.237042 0.00400155
0.0320553 -0.72186 -0.24716 0.000617702
0.0489967 -0.730935 -0.222378 0.00133113
0.0278033 -0.737717 -0.233088 0.000804947
-0.684307 0.114955 -0.201848 0.000639025
-0.671787 0.134809 -0.19441 0.000579141
-0.70434 0.111929 -0.185311 0.000908932
-0.68925 0.13322 -0.178292 0.000438024
0.0527818 0.113858 0.832478 0.000510684
0.0470472 0.136618 0.817355 0.000587328
0.0386328 0.0980979 0.853077 0.0058863
0.0341005 0.120492 0.838567 0.00394961
0.145336 -0.540853 0.312572 0.000716764
0.160663 -0.522187 0.318387 0.000713254
0.124564 -0.545768 0.328579 0.000630496
0.140162 -0.52767 0.337325 0.0029754
0.573019 0.228615 -0.195591 0.00160284
0.558226 0.244105 -0.195858 0.00104599
0.582548 0.243358 -0.173155 0.000542647
0.567287 0.258591 -0.173883 0.000138535
0.524091 -0.355446 -0.122654 0.00126285
0.502542 -0.365274 -0.137186 0.00288614
0.5209 -0.374339 -0.104507 0.00014827
0.500857 -0.382766 -0.120087 0.00213963
0.48473 -0.14465 -0.379108 0.00489875
0.475348 -0.129442 -0.39112 0.00236313
0.476244 -0.171394 -0.359371 0.00404498
0.466666 -0.15882 -0.37207 0.00141246
0.0885666 0.166751 0.744006 0.000392304
0.0771011 0.187358 0.73518 0.000210551
0.0753848 0.152509 0.768553 0.00205197
0.0644171 0.174495 0.758517 0.00148493
-0.175314 -0.0138245 0.799623 0.00648961
-0.186999 0.0172738 0.800535 0.00277475
-0.157162 -0.0276609 0.81973 0.00262704
-0.168419 0.00236122 0.820401 0.00509267
0.351581 0.0396877 -0.608682 2.95409e-05
0.332279 0.058208 -0.609417 5.65442e-05
0.358603 0.0455618 -0.593175 0.00153716
0.3389 0.0684479 -0.587975 0.00270199
-0.016065 -0.666207 0.304498 0.00763982
-0.0351739 -0.656946 0.309699 0.00104825
-0.0163606 -0.642857 0.325405 0.0088796
-0.0380597 -0.636448 0.327924 0.00140261
0.126526 -0.763445 -0.110381 0.000201456
0.109551 -0.766947 -0.126378 0.00165897
0.117022 -0.789463 -0.0930581 0.000264925
0.101519 -0.789913 -0.110412 0.00106368
0.65929 -0.300124 0.0362159 0.00252504
0.677338 -0.283735 0.0370521 0.00108394
0.649266 -0.303564 0.0540569 0.00397469
0.665113 -0.286484 0.0591313 0.0061922
0.0854074 -0.876432 -0.0399171 0.00101154
0.094156 -0.862339 -0.0495536 0.0034905
0.0820791 -0.889518 -0.0213926 0.00404936
0.100545 -0.8693 -0.0281413 0.0011654
0.522691 0.359264 -0.115081 0.00171316
0.503378 0.37383 -0.118364 0.00255796
0.537249 0.370176 -0.0948955 0.00133848
0.514669 0.385966 -0.0976237 0.00100719
0.13576 -0.504411 0.35858 0.000722611
0.151298 -0.485808 0.364706 0.0010447
0.115856 -0.506357 0.374696 0.00178612
0.130368 -0.488007 0.382073 0.000256761
0.347474 0.245919 0.40671 5.83536e-05
0.333236 0.264569 0.398788 0.00196855
0.334653 0.235173 0.431262 0.000627412
0.321209 0.250074 0.426511 0.0012748
0.927456 0.0490647 -0.0358638 0.00714749
0.914686 0.0626414 -0.0339213 0.00649316
0.928494 0.0521501 -0.0138563 0.00317838
0.914198 0.0651466 -0.0115742 0.00524526
-0.273202 -0.18055 -0.546553 0.000175439
-0.285593 -0.162388 -0.553343 0.000763411
-0.280642 -0.187733 -0.53043 0.000691049
-0.291432 -0.170451 -0.538141 1.20254e-05
0.774306 0.203893 0.0187606 0.00175506
0.761994 0.218873 0.0133438 0.00334308
0.770843 0.200673 0.0405813 0.00698387
0.760083 0.21789 0.0359574 0.0080416
0.696943 0.119981 0.18293 8.64489e-05
0.690156 0.140068 0.171269 0.000860973
0.687889 0.104205 0.206056 0.00107005
0.680617 0.124728 0.193588 0.000617439
-0.487884 0.352383 -0.16229 0.00147489
-0.478413 0.370125 -0.155236 0.00217754
-0.503021 0.347695 -0.147403 0.00108794
-0.493842 0.36558 -0.140795 0.000124226
-0.38656 -0.377321 0.237655 0.000885729
-0.402375 -0.364915 0.234184 0.000850142
-0.377628 -0.372506 0.251494 0.000938348
-0.394506 -0.359742 0.247434 0.000969971
0.0371674 -0.0383669 -0.925793 0.00076352
0.0201473 -0.0389549 -0.943657 0.0015899
0.0256572 -0.0618028 -0.908326 0.00243413
0.00874857 -0.0633967 -0.926429 0.000825705
0.198916 -0.71959 -0.0825004 0.000578074
0.180964 -0.722831 -0.102561 0.00366624
0.197239 -0.741725 -0.0620289 0.000571678
0.183221 -0.742013 -0.0811724 0.00369695
-0.608407 0.0555268 0.332453 0.00208742
-0.625071 0.0512098 0.321231 0.00143782
-0.604001 0.0422815 0.348234 0.00316708
-0.621101 0.0390306 0.336346 0.00203489
0.297397 -0.638605 -0.0678676 0.00223276
0.269588 -0.649238 -0.0915324 0.00597871
0.297749 -0.651688 -0.0473041 0.00188355
0.274034 -0.659158 -0.0694754 0.00153821
-0.160472 0.253979 -0.585787 0.000137088
-0.15385 0.276156 -0.571589 0.000919471
-0.181637 0.249222 -0.565454 0.00212934
-0.175728 0.272438 -0.55119 0.000372309
0.49239 -0.13384 -0.380455 0.003858
0.481915 -0.120929 -0.393451 0.00214072
0.484511 -0.160954 -0.360374 0.00336953
0.4749 -0.149252 -0.372999 0.00164631
0.717067 -0.0695589 -0.214295 0.000528995
0.69737 -0.0722799 -0.233788 0.00198272
0.721583 -0.0814574 -0.195349 0.00093257
0.702872 -0.0841547 -0.214481 0.000868028
-0.0157702 0.130806 0.846304 0.0041114
-0.0334709 0.136145 0.83097 0.000337097
-0.0163619 0.1137 0.865017 0.00284343
-0.0342163 0.11861 0.849831 0.00153314
-0.598017 -0.0425529 0.359636 0.000117621
-0.619197 -0.0325408 0.34901 0.00043045
-0.584422 -0.0376887 0.378851 0.000554095
-0.606212 -0.0274675 0.367454 0.000653381
0.345042 -0.497657 -0.157805 0.000289581
0.327945 -0.502698 -0.172347 0.00172527
0.347026 -0.51479 -0.140714 0.00145941
0.331646 -0.515915 -0.154702 0.00130539
0.577883 0.196781 -0.224005 0.000769376
0.562705 0.213515 -0.224055 0.000157756
0.587531 0.206084 -0.204094 0.00132312
0.57271 0.221468 -0.204537 0.000741751
0.0597567 -0.592406 -0.350452 0.00150807
0.0342643 -0.600519 -0.362493 0.00157329
0.0602397 -0.61131 -0.330413 0.00113203
0.030435 -0.621697 -0.342571 0.00305959
0.810259 -0.102308 0.0863576 0.000623604
0.815473 -0.0896439 0.0950585 9.83531e-05
0.792049 -0.105876 0.101775 0.000174539
0.798238 -0.0917712 0.110157 9.42764e-05
-0.186989 -0.414448 -0.399966 0.000808887
-0.193631 -0.397031 -0.40929 2.85989e-05
-0.200868 -0.426095 -0.376132 0.00178594
-0.206951 -0.408222 -0.385798 0.000559584
0.152907 0.748658 0.0986611 0.000128443
0.141618 0.769436 0.0903123 0.000788026
0.143231 0.742746 0.116092 0.00119223
0.131823 0.764077 0.107404 0.00190548
-0.107226 -0.269743 -0.623559 0.000303574
-0.118626 -0.245586 -0.634021 0.00102194
-0.113329 -0.277991 -0.608895 0.00012231
-0.126093 -0.251499 -0.619738 0.0015426
0.396102 -0.15219 0.449658 0.00118465
0.411505 -0.126667 0.459555 0.00131413
0.374523 -0.159123 0.467142 0.000453412
0.390947 -0.132603 0.476164 0.000166487
-0.0706843 0.707105 0.218169 0.00233599
-0.0880867 0.70477 0.2036 0.00204873
-0.0683938 0.68778 0.24027 0.00205423
-0.0856533 0.686394 0.225499 0.00141848
0.619932 0.0454811 -0.332654 0.00111716
