0.289932 -0.18081 0.737011 0.00136044
0.294563 -0.156924 0.736666 0.00144822
0.28647 -0.184428 0.752065 0.00201428
0.29182 -0.158216 0.752621 0.00460708
-0.20839 -0.0486067 -0.0550547 0.000152402
-0.205896 -0.0335969 -0.0587585 0.000339765
-0.214434 -0.0458869 -0.0366221 0.000492779
-0.212065 -0.0323194 -0.0405835 0.00111334
0.0666997 -0.0140242 -0.516586 0.00172539
0.0507194 -0.00107187 -0.5188 0.00136476
0.0541862 -0.0261295 -0.51678 0.000930615
0.0401197 -0.013486 -0.518963 0.00181947
0.123452 -0.0822018 -0.487461 0.00125423
0.104951 -0.081867 -0.494602 0.001123
0.119835 -0.0953287 -0.479732 1.62342e-05
0.100721 -0.0960683 -0.487299 0.00146545
0.00171204 0.218317 -0.592864 0.000304461
-0.0114102 0.220046 -0.593875 0.00117031
0.00101421 0.226337 -0.5813 0.00229266
-0.0125609 0.226207 -0.582518 0.00235304
-0.0447083 0.23078 -0.152446 0.00137022
-0.054207 0.232029 -0.164935 0.000760823
-0.0494305 0.224466 -0.139602 0.00146715
-0.0591578 0.224878 -0.153207 0.000948226
0.00419425 0.188768 0.366368 0.00180148
-0.0150512 0.189814 0.357976 0.00159804
0.000173559 0.186056 0.390147 0.0011751
-0.0178653 0.186069 0.381585 0.00098861
0.262589 -0.0593269 0.00749478 0.000104371
0.259032 -0.0461948 0.0030836 0.00162285
0.272586 -0.0574277 0.0213975 0.00381014
0.269494 -0.044542 0.0175045 0.0024094
-0.00872121 -0.240504 -0.34183 0.000450646
-0.0213138 -0.23358 -0.351797 0.000709492
-0.0130429 -0.247965 -0.326656 0.000659011
-0.0247986 -0.240374 -0.337269 0.000273528
0.218639 -0.0353798 -0.183892 0.00201045
0.223439 -0.0217137 -0.187368 0.0019524
0.214643 -0.0386105 -0.167802 0.0011579
0.219161 -0.0241847 -0.171585 0.000521025
0.295191 0.132386 0.531949 0.000160941
0.296266 0.148946 0.52125 0.0033827
0.295407 0.128091 0.551097 0.00102239
0.296469 0.144306 0.542124 0.00188016
-0.0448554 0.245733 -0.210184 0.000844258
-0.0527116 0.248017 -0.219975 0.000568477
-0.0524651 0.239518 -0.196032 0.000703186
-0.0611677 0.241411 -0.206268 0.000945984
-0.277368 -0.229354 0.741756 6.86065e-06
-0.281039 -0.211714 0.743018 0.000268611
-0.268546 -0.224094 0.762479 0.00132462
-0.27294 -0.207918 0.761143 0.00119108
0.251628 -0.0477778 0.27524 0.00155912
0.248465 -0.0364994 0.269338 1.12025e-05
0.250244 -0.0486427 0.289564 0.00102358
0.247019 -0.0372824 0.284991 0.000162298
0.09053 0.00969719 -0.515996 0.00141695
0.0711043 0.0215792 -0.517863 0.000330213
0.0848727 0.00455393 -0.51537 0.00228975
0.065867 0.0169406 -0.517263 5.97048e-05
-0.175317 0.187909 -0.511543 0.00673397
-0.167454 0.199416 -0.506523 1.30897e-05
-0.187274 0.18924 -0.502564 0.00538784
-0.178696 0.200994 -0.496741 0.00122215
-0.0449882 0.268031 -0.469904 5.42674e-05
-0.0634152 0.263548 -0.480654 0.000452511
-0.0448929 0.269137 -0.45147 0.000461189
-0.0623213 0.265072 -0.461842 6.57763e-05
-0.0644952 -0.435984 0.782325 0.00118314
-0.0753515 -0.433036 0.779634 0.00147104
-0.0607733 -0.42702 0.798953 0.000258178
-0.0721461 -0.425085 0.79575 0.000851136
-0.109989 -0.00345122 0.861387 0.000725366
-0.121126 0.00134463 0.853315 0.000927307
-0.115323 -0.0136384 0.871736 3.65314e-05
-0.126726 -0.00884392 0.863904 0.000417897
-0.206119 -0.119143 0.883435 0.00179588
-0.207629 -0.0992257 0.877196 0.00125197
-0.194469 -0.128373 0.894164 0.00148025
-0.196594 -0.10879 0.888196 0.0014637
-0.234058 -0.349557 0.533173 0.000155692
-0.24056 -0.33829 0.527205 0.000612949
-0.233576 -0.353646 0.551368 0.000365164
-0.239829 -0.342576 0.545669 0.000897363
0.243821 -0.240085 0.0894721 0.00332776
0.249459 -0.225911 0.0849798 0.000807284
0.239322 -0.243923 0.104878 0.0021543
0.247445 -0.229137 0.101897 0.000127363
0.301517 -0.220253 0.598498 0.000533996
0.303023 -0.206137 0.590515 0.00148172
0.301782 -0.223516 0.614128 0.00106543
0.303046 -0.209386 0.606401 0.00119569
0.0655494 0.197231 -0.00982196 0.000761496
0.0546712 0.198326 -0.0190617 0.00461498
0.0651765 0.198226 0.00783041 0.00118517
0.0549014 0.199029 -0.00133145 0.0024243
0.253364 0.112745 0.145628 0.000774533
0.252465 0.126093 0.141681 0.000634604
0.247418 0.109035 0.156426 0.000556123
0.245738 0.121402 0.151848 0.000219339
-0.267332 -0.271379 0.715079 0.00136201
-0.279765 -0.256844 0.706897 0.00207873
-0.261632 -0.268654 0.732808 0.00343407
-0.273431 -0.254327 0.725403 0.000296931
0.00314118 0.268754 -0.511693 0.00108326
-0.0106493 0.266293 -0.52035 0.000535631
0.00168035 0.270409 -0.494983 0.00143605
-0.0117998 0.267745 -0.504351 0.000481246
0.142654 0.167326 -0.120935 0.000271814
0.135391 0.177464 -0.128621 0.000901286
0.139203 0.165671 -0.104816 0.00128736
0.131362 0.175621 -0.111408 0.00249557
0.285342 -0.153917 0.490537 0.000402857
0.281036 -0.140499 0.480438 0.00039721
0.293341 -0.15307 0.505768 0.000864573
0.289225 -0.139483 0.497021 0.00119946
-0.107312 -0.229299 -0.269979 0.000780016
-0.115402 -0.218607 -0.280418 0.000241696
-0.110092 -0.234911 -0.252528 0.000562794
-0.117913 -0.224691 -0.262729 0.000536054
0.100456 -0.185294 -0.385798 0.00039056
0.0860935 -0.185909 -0.39364 0.000709503
0.0979971 -0.193582 -0.373089 0.00173562
0.0834406 -0.194565 -0.381928 0.00118689
0.205777 -0.170398 -0.318728 7.79474e-05
0.193826 -0.17318 -0.320507 0.00121085
0.19427 -0.171206 -0.302119 0.00363333
0.19153 -0.168825 -0.304581 0.000500839
0.170708 -0.37777 0.34623 0.000485303
0.175711 -0.369344 0.334642 0.00213235
0.174915 -0.378243 0.372535 0.00136102
0.173691 -0.37516 0.356501 0.000700002
0.0169226 -0.382567 0.887041 0.000685983
0.000480257 -0.382361 0.889247 0.000743808
0.0138934 -0.370057 0.898001 0.00241879
-0.00308722 -0.370616 0.900494 0.000763643
0.215362 -0.362752 0.685467 0.000625223
0.226947 -0.351202 0.683313 0.00136776
0.202929 -0.368665 0.700907 0.000302237
0.214499 -0.357206 0.698117 0.00106607
0.182345 0.0918728 -0.087344 0.000525164
0.178152 0.101802 -0.0927339 0.00220069
0.184361 0.0886655 -0.0756918 0.00261982
0.177846 0.0985519 -0.0804338 0.00108093
-0.193879 -0.0678061 0.87615 0.000523461
-0.197484 -0.0577703 0.868205 3.79424e-05
-0.19122 -0.0818527 0.883513 0.00048134
-0.192803 -0.0689736 0.87567 0.000789975
0.2216 -0.244244 0.83659 0.00076561
0.225932 -0.230778 0.841709 0.00110385
0.208805 -0.247383 0.849034 0.00322713
0.213165 -0.231594 0.853508 0.00241365
-0.118801 -0.410294 0.294514 0.000725307
-0.131781 -0.402882 0.291696 0.000158752
-0.118952 -0.413629 0.312529 1.62442e-05
-0.130441 -0.406377 0.308786 0.000589137
0.0858781 0.197817 -0.0885588 0.00103945
0.0736424 0.20451 -0.0997231 0.0016803
0.0878033 0.194875 -0.0715737 0.00368955
0.0753046 0.200551 -0.0826512 0.000592222
-0.223553 -0.334112 0.471227 0.000778555
-0.229212 -0.321585 0.469848 0.00231143
-0.229289 -0.335104 0.488707 0.000777184
-0.235097 -0.323145 0.486202 0.00156693
0.183869 -0.28884 0.858456 6.23851e-06
0.189507 -0.27142 0.862725 0.00233699
0.166011 -0.295911 0.873743 0.0011617
0.171445 -0.279014 0.876943 0.0012286
0.251472 -0.0588724 0.284909 0.000826901
0.248532 -0.0453762 0.280098 0.000832529
0.251134 -0.0603571 0.298641 0.000778632
0.248166 -0.0472911 0.295846 0.000306737
0.0509076 -0.249815 0.95358 0.00100753
0.0373741 -0.232144 0.954871 0.00253557
0.0335572 -0.253893 0.954041 0.000612077
0.018415 -0.235247 0.95557 0.00552647
-0.153597 -0.325432 -0.00813703 0.000499481
-0.165554 -0.309568 -0.0123472 0.000252347
-0.155196 -0.329771 0.00888445 0.000295154
-0.167652 -0.313402 0.00293492 0.000467583
-0.372135 -0.152014 -0.384941 0.000642306
-0.377373 -0.145778 -0.385927 0.0066269
-0.367377 -0.145259 -0.369887 0.00669968
-0.373075 -0.138681 -0.369776 0.00107503
-0.130308 -0.062877 -0.492118 0.000458427
-0.139947 -0.0452662 -0.491334 0.00243554
-0.137701 -0.0704837 -0.483545 0.00228339
-0.147731 -0.0538918 -0.482808 0.00113596
-0.00122824 0.149415 -0.612867 0.00289327
-0.0113631 0.160545 -0.616101 0.00191354
-0.0157136 0.138319 -0.60932 0.00807272
-0.0255838 0.149522 -0.612464 0.00298823
0.135856 -0.388694 0.23139 0.000887464
0.123092 -0.39519 0.221356 0.00131106
0.134819 -0.395928 0.249156 0.00338435
0.12144 -0.402129 0.238915 0.000673917
-0.217634 -0.376162 0.604374 0.000977894
-0.22705 -0.368287 0.600847 0.00257953
-0.216317 -0.374264 0.622855 0.000372078
-0.22674 -0.365212 0.620185 0.00148608
-0.289075 0.045195 0.623369 0.000895441
-0.289469 0.0658072 0.627286 0.0027817
-0.285872 0.0456526 0.640876 0.000279062
-0.285797 0.064092 0.642763 0.00185396
0.152564 0.134957 -0.0763712 0.000519545
0.1394 0.14255 -0.0782868 0.00481226
0.156233 0.133057 -0.0685615 0.00356092
0.141643 0.139498 -0.0712094 0.00380145
0.344573 -0.157666 -0.39775 0.0026788
0.328743 -0.158831 -0.407066 0.00305867
0.345275 -0.161623 -0.381841 0.00380725
0.328975 -0.163436 -0.390369 0.00125478
-0.214839 -0.0828235 -0.439246 0.00216691
-0.231463 -0.0884072 -0.440283 0.000149932
-0.221446 -0.0828452 -0.423662 0.000391409
-0.236492 -0.0857124 -0.423588 0.000860285
0.0635507 -0.369874 -0.0427283 0.000228559
0.0557643 -0.369041 -0.0555199 0.00150541
0.0589326 -0.379096 -0.0292413 0.00207447
0.0507043 -0.378502 -0.0423909 0.00349343
-0.164384 -0.339526 0.114557 0.000780366
-0.17346 -0.328036 0.10491 0.000525917
-0.168731 -0.339433 0.135651 0.000494717
-0.177034 -0.328889 0.127913 0.00111463
0.300064 -0.0498618 0.660481 0.000383614
0.297214 -0.0323967 0.652886 0.000920138
0.298118 -0.0501217 0.677164 0.000155316
0.295213 -0.0326203 0.668934 0.000356217
0.24747 0.0343723 -0.398973 0.000586506
0.250895 0.0501577 -0.401472 0.000305234
0.250676 0.0311723 -0.386522 0.00237216
0.253202 0.0464793 -0.389066 0.00103417
-0.295745 -0.160712 0.723985 0.000258621
-0.297813 -0.147327 0.71738 0.000629663
-0.289395 -0.160004 0.739429 0.000468093
-0.291041 -0.146594 0.73408 0.00123284
-0.272441 -0.178854 0.119631 0.00188193
-0.277886 -0.163243 0.113366 0.000950957
-0.268342 -0.176035 0.139933 0.00106561
-0.273672 -0.160712 0.134113 0.00100619
-0.118406 -0.261818 -0.180357 0.000661607
-0.129894 -0.249156 -0.177977 0.000309337
-0.12058 -0.26484 -0.162733 0.000635626
-0.132295 -0.251622 -0.160791 0.00169533
-0.0610275 0.248141 -0.559561 0.00212813
-0.0766862 0.247203 -0.558475 0.000725295
-0.0643889 0.259098 -0.545245 0.00191116
-0.080515 0.258305 -0.544514 0.0071053
-0.177675 0.200986 0.3815 0.00280621
-0.183349 0.211364 0.372001 0.0158639
-0.182412 0.181063 0.389898 0.000535503
-0.187875 0.191137 0.38054 0.00148246
-0.0217973 0.173354 0.499937 0.0014283
-0.0422103 0.175432 0.492132 0.00255327
-0.0256474 0.172913 0.520957 0.00127165
-0.0460553 0.174999 0.513771 0.00312184
0.26111 -0.313124 0.646125 0.00107907
0.269812 -0.300477 0.6428 0.00132255
0.253886 -0.319059 0.658066 0.000543302
0.263265 -0.306539 0.653917 0.000950664
0.155063 0.148795 0.178973 0.000127056
0.146292 0.159403 0.171603 0.00350212
0.151217 0.141806 0.192622 0.00541194
0.142698 0.150652 0.185249 0.00340856
0.259019 0.215212 0.086907 0.000598256
0.249262 0.229028 0.0801609 0.0136613
0.251198 0.208194 0.101867 0.00156892
0.242135 0.222382 0.0948406 0.0045025
-0.269326 0.0747135 0.0213016 0.00017137
-0.269173 0.0904725 0.0146093 0.0029755
-0.272431 0.0716193 0.0412838 0.0045739
-0.272828 0.087859 0.0340703 0.000944741
-0.281153 -0.0936222 -0.40522 0.00147518
-0.285391 -0.085209 -0.393707 0.00470797
-0.290877 -0.0869661 -0.391579 0.0026982
-0.293989 -0.0791761 -0.380549 0.0028964
-0.180324 0.207226 -0.0771752 0.0047187
-0.179819 0.226431 -0.0798612 0.0166106
-0.195639 0.196945 -0.0647633 0.00557063
-0.196744 0.216825 -0.0685816 0.0094567
-0.243318 -0.166987 0.835818 0.00112769
-0.244411 -0.152998 0.833035 0.0013939
-0.236395 -0.166316 0.846585 0.00119426
-0.238535 -0.152083 0.843454 0.000663245
0.275273 -0.0621386 0.164432 0.00191555
0.274652 -0.0475773 0.163379 0.00300651
0.27003 -0.0657943 0.182424 0.0011571
0.269513 -0.0503917 0.181493 0.000607726
0.126789 -0.396477 0.22838 0.00119934
0.114682 -0.400518 0.216708 0.000971257
0.124664 -0.403999 0.246176 0.00328463
0.111862 -0.407706 0.235023 0.00221031
-0.293919 0.158247 0.552509 0.00118876
-0.292928 0.173614 0.546199 0.00111903
-0.290359 0.155064 0.570199 0.000218955
-0.289469 0.169266 0.563088 0.000211678
-0.126264 0.0616374 0.781115 0.000738942
-0.137638 0.0704277 0.769018 0.000405328
-0.133989 0.0496754 0.795375 0.00106406
-0.1442 0.0586802 0.782266 0.000787655
-0.242544 0.190135 -0.431607 0.000614598
-0.231362 0.202378 -0.428604 0.000761949
-0.251398 0.187522 -0.415012 0.00357819
-0.243446 0.198384 -0.416421 0.00297368
0.272264 0.0479236 0.536073 0.000611467
0.273641 0.0650716 0.530285 3.28396e-09
0.273267 0.045148 0.551046 0.00314212
0.274693 0.0624246 0.544977 0.00198129
-0.263931 -0.152241 0.803343 0.000805797
-0.264049 -0.138316 0.803136 0.00121525
-0.253981 -0.151612 0.818807 0.000479309
-0.253969 -0.136474 0.818229 0.000326397
-0.349952 -0.155824 -0.445375 0.0022901
-0.368349 -0.153183 -0.450317 0.00120646
-0.357683 -0.156259 -0.429438 0.000821493
-0.376104 -0.152907 -0.434993 0.00287454
-0.251185 -0.176739 0.242057 0.000325673
-0.255073 -0.162445 0.234605 0.00164346
-0.249767 -0.179046 0.260695 0.00066303
-0.253442 -0.164187 0.253252 0.00104278
-0.0987244 -0.452425 0.636551 0.000776299
-0.113672 -0.445562 0.629194 0.000267798
-0.0994568 -0.450053 0.655242 0.000547999
-0.113823 -0.443389 0.649655 0.000588829
0.189201 -0.152246 -0.124985 0.000303912
0.191051 -0.136999 -0.132071 0.000122745
0.191911 -0.154162 -0.111174 0.00125612
0.193334 -0.138718 -0.118087 0.000210784
0.0418698 0.17235 -0.617074 0.00451925
0.0275998 0.177995 -0.622648 0.00122943
0.0289003 0.157934 -0.61485 0.00020286
0.0147111 0.165168 -0.620559 0.000841499
-0.155752 0.204031 0.596537 0.00101743
-0.165546 0.217545 0.580087 0.00200562
-0.159873 0.193728 0.61529 0.000710367
-0.169558 0.206703 0.599734 0.00111307
-0.246264 -0.00393124 0.4839 0.000568543
-0.243102 0.00864317 0.484592 0.00197645
-0.253535 -0.0061956 0.495712 0.000320849
-0.250243 0.00646741 0.495726 0.00149473
-0.281209 0.197947 0.0596604 0.00353362
-0.279706 0.21569 0.047076 0.00257488
-0.278653 0.194622 0.0858251 0.00676117
-0.278916 0.211325 0.0716009 0.00600878
-0.240813 0.0581651 0.484954 0.00183201
-0.245041 0.0704181 0.483513 0.00156872
-0.25003 0.0522387 0.494655 0.0024006
-0.252863 0.0633882 0.493238 0.000173302
0.241183 0.181981 -0.443105 0.00174908
0.232933 0.193345 -0.446429 0.000480946
0.247174 0.185431 -0.427038 0.000748719
0.239845 0.196471 -0.431005 0.000845599
-0.289594 -0.0908375 0.118136 0.00142942
-0.29035 -0.0753385 0.111759 0.000787938
-0.286226 -0.090464 0.136653 0.000541562
-0.288291 -0.0758833 0.131282 0.00136168
-0.151566 0.17707 0.412356 0.00467434
-0.155235 0.185149 0.406604 0.00242156
-0.159182 0.165674 0.419046 0.000545084
-0.162773 0.173295 0.414269 0.00313528
0.270655 0.123138 -0.290343 0.0013025
0.270308 0.137009 -0.301622 0.00114931
0.266649 0.117677 -0.275224 0.000590078
0.266551 0.131572 -0.28709 8.81126e-05
0.0614326 0.107326 0.700805 0.00133048
0.0508102 0.111015 0.689581 0.000925664
0.0575085 0.101581 0.707416 0.000317348
0.045748 0.105963 0.69762 0.000741658
0.309401 -0.181733 0.60868 0.000430105
0.310161 -0.169226 0.604405 0.000336502
0.308966 -0.180694 0.622445 0.000260338
0.310329 -0.168144 0.617076 0.00042455
0.0817853 -0.461944 0.524447 0.00126164
0.0685413 -0.469043 0.516552 0.00178098
0.0749721 -0.464836 0.542544 0.00193547
0.061565 -0.471679 0.534054 0.000759872
-0.0248491 -0.473891 0.491407 0.000132122
-0.0357047 -0.471111 0.482708 0.000514162
-0.0288752 -0.47651 0.50922 0.00126817
-0.0403982 -0.473537 0.500565 0.000237717
0.130709 0.139347 -0.515627 0.00191485
0.120696 0.149893 -0.525757 0.000320384
0.122899 0.115503 -0.505541 0.00287389
0.11354 0.125892 -0.516202 0.00206742
0.0497035 -0.119037 0.930818 0.000347974
0.0371499 -0.103641 0.924771 0.000984678
0.0411135 -0.138237 0.936442 0.00122554
0.0282218 -0.121298 0.930435 0.00132062
0.235191 0.209891 -0.332346 0.000454532
0.225673 0.219403 -0.342085 0.000820433
0.23027 0.208009 -0.319638 0.00151627
0.220948 0.218387 -0.327153 7.93697e-05
0.125933 -0.346255 -0.013506 0.00131079
0.116032 -0.348616 -0.0248076 0.002139
0.125142 -0.352456 0.00303048 0.000246862
0.114268 -0.355954 -0.00834315 0.000459795
0.144908 0.0363325 0.805975 0.000736079
0.135902 0.047286 0.798072 0.000688121
0.144221 0.024108 0.81911 0.00232351
0.134118 0.0345829 0.810546 0.0019259
-0.208676 0.181651 -0.0676996 0.00205207
-0.211423 0.200525 -0.0717399 0.00132559
-0.223189 0.165078 -0.0565818 0.00256969
-0.226949 0.182388 -0.0607495 0.00377519
-0.234826 -0.247996 0.332875 0.000325584
-0.239558 -0.230742 0.326676 0.000422152
-0.23263 -0.251179 0.351487 0.000729168
-0.236811 -0.234148 0.344479 0.00115367
-0.14478 -0.19373 -0.263055 0.00163438
-0.155326 -0.184182 -0.266658 0.000261197
-0.146248 -0.196253 -0.248659 0.00270723
-0.156268 -0.184815 -0.251932 0.00131519
-0.288956 -0.000513885 -0.326409 0.00233928
-0.282649 0.0172951 -0.3314 0.00502881
-0.286703 -0.00482708 -0.311224 0.00128503
-0.281352 0.0121278 -0.31658 0.00361135
0.264924 -0.22598 0.46228 2.66087e-05
0.264797 -0.206117 0.454416 0.00190829
0.271097 -0.229324 0.479818 0.000411257
0.271429 -0.211604 0.472962 0.00157021
0.0982029 -0.149392 -0.439692 0.000638309
0.0847721 -0.148122 -0.447285 9.99768e-05
0.0945804 -0.161011 -0.427201 0.00124596
0.0816948 -0.159617 -0.435058 0.000153216
0.268433 -0.0871966 0.487601 0.00271778
0.26326 -0.074984 0.480112 0.000456241
0.278309 -0.0818734 0.503208 0.000217879
0.273088 -0.0699684 0.497561 0.00151295
0.114549 -0.448567 0.652181 0.00486394
0.0947468 -0.458503 0.648078 0.00303385
0.108057 -0.446437 0.672465 0.00194865
0.086511 -0.457153 0.669787 0.00106322
-0.092894 -0.076305 0.913089 0.00064509
-0.106938 -0.0670602 0.906209 0.00134112
-0.10157 -0.0894335 0.921064 0.00065588
-0.11458 -0.0797786 0.913448 0.000652713
-0.13368 0.217698 0.526007 0.000377296
-0.148367 0.224756 0.51637 0.0168314
-0.133733 0.217551 0.547329 0.00334121
-0.148189 0.225143 0.536896 0.0121389
0.154991 -0.369111 0.215307 0.000593138
0.14573 -0.374637 0.204433 5.92467e-06
0.155407 -0.373012 0.230489 0.00178083
0.143456 -0.380379 0.220165 0.000963335
0.247169 -0.0214667 0.485029 0.00059198
0.242949 -0.00729625 0.485951 0.000366942
0.254206 -0.019674 0.499927 0.00173102
0.249741 -0.00324376 0.502248 0.00200124
-0.13792 0.194959 0.594408 0.000861727
-0.148695 0.206823 0.580511 0.00230621
-0.14634 0.186427 0.614748 0.000377152
-0.156498 0.199532 0.599639 0.00120522
-0.216045 0.129499 0.168371 0.00308309
-0.224385 0.131971 0.158192 0.00422499
-0.217489 0.117351 0.180212 0.00147829
-0.225377 0.119708 0.170577 0.000895639
0.197021 -0.0929552 -0.108783 0.00174009
0.199743 -0.0754924 -0.102744 0.000720741
0.198472 -0.0893995 -0.0898997 0.0031593
0.200511 -0.0717616 -0.0861435 0.00251996
0.225976 0.206229 -0.295889 0.000566188
0.214447 0.218119 -0.302207 0.00098976
0.22247 0.201526 -0.280008 0.00103178
0.209635 0.213444 -0.285579 0.000245156
-0.212727 -0.263763 0.0296728 0.000830457
-0.218073 -0.252711 0.0211229 0.00101121
-0.214466 -0.266104 0.0479273 0.00139269
-0.220529 -0.254828 0.039849 0.00135251
0.165533 -0.37246 0.278446 0.0021435
0.166409 -0.368172 0.271989 0.00135083
0.163525 -0.377376 0.297362 0.00089864
0.16353 -0.373374 0.29013 0.000638911
-0.184567 -0.0785377 -0.443509 0.000775744
-0.188499 -0.0695693 -0.438343 0.000956776
-0.19342 -0.0711678 -0.430207 0.000160357
-0.202448 -0.0698127 -0.427038 0.00528287
0.319978 -0.161279 -0.429054 0.001615
0.30952 -0.16017 -0.438584 0.00271863
0.316595 -0.16615 -0.413143 0.0025331
0.304697 -0.165403 -0.42261 1.80871e-05
-0.0583239 -0.42663 0.244494 0.00049701
-0.0706532 -0.423512 0.237553 0.000540707
-0.0583521 -0.429313 0.262808 8.48619e-05
-0.0718134 -0.425529 0.256392 0.000899425
0.232656 -0.143149 0.852701 0.0015337
0.236674 -0.124508 0.85051 0.0019799
0.223391 -0.150707 0.86409 9.60912e-05
0.227889 -0.132589 0.861132 0.00112677
-0.109586 0.116763 -0.510108 0.000430235
-0.112834 0.129724 -0.515808 0.000769926
-0.119763 0.106852 -0.499862 0.00137576
-0.123314 0.120253 -0.506275 0.000977611
0.0571443 0.248158 -0.225683 0.000545224
0.0409998 0.250945 -0.229443 0.000418816
0.0502659 0.245017 -0.211681 6.10635e-05
0.0353535 0.247782 -0.215969 6.40929e-07
0.137358 0.181515 -0.138566 0.00151778
0.128176 0.192017 -0.147746 0.000789815
0.132292 0.180148 -0.122684 0.00320621
0.123575 0.190511 -0.131179 0.00288448
-0.106495 0.203065 0.0440614 0.0010292
-0.12279 0.205621 0.0378655 0.00449915
-0.111191 0.201842 0.0624506 0.000922919
-0.12523 0.203276 0.0515155 0.00636025
-0.0336231 0.187834 0.274904 0.000430328
-0.0461717 0.18639 0.26079 0.000510217
-0.0443636 0.184092 0.298425 0.000694729
-0.0537552 0.18322 0.284055 0.000426984
0.173419 -0.382266 0.729848 0.00246603
0.188111 -0.370227 0.737485 0.000123699
0.169585 -0.38036 0.746851 0.00157669
0.183246 -0.368721 0.756098 0.00107446
-0.260541 -0.316976 0.617522 0.00108708
-0.269279 -0.305716 0.609486 0.000827814
-0.26015 -0.315982 0.635939 0.00091634
-0.269234 -0.303711 0.628022 0.000831001
0.152861 -0.21863 -0.175608 0.00132035
0.160208 -0.206548 -0.177441 0.000221946
0.155428 -0.221842 -0.162565 0.000229775
0.16197 -0.208892 -0.16503 2.39679e-05
0.174724 -0.292751 -0.0241633 0.00179801
0.175029 -0.284963 -0.0326816 0.00137885
0.174249 -0.30009 -0.00719609 0.000303624
0.174071 -0.292666 -0.0167128 0.0013009
-0.0117849 -0.317594 0.940843 0.00503453
-0.0286124 -0.313819 0.942029 0.00044482
-0.013631 -0.306987 0.948816 0.00188875
-0.0300396 -0.297835 0.950618 0.00208307
-0.258364 0.0624339 -0.390524 0.000234417
-0.257903 0.0763758 -0.39645 0.00354786
-0.266299 0.0562937 -0.377008 0.00302363
-0.265503 0.0712992 -0.383897 0.000560497
0.302913 0.158211 0.520621 7.98143e-05
0.303046 0.175467 0.508252 0.00369935
0.303987 0.154552 0.541069 0.00441736
0.303894 0.170956 0.529351 0.00139428
-0.0308339 0.129228 -0.59018 0.00286769
-0.0403094 0.140163 -0.594564 0.000903533
-0.0379469 0.123672 -0.578383 0.000811543
-0.0470086 0.135016 -0.583442 0.000993322
0.190571 0.0800572 0.431248 0.00313108
0.17854 0.0927869 0.430724 0.000210937
0.193365 0.0812505 0.443945 0.00356042
0.180345 0.0945332 0.444332 0.0036488
-0.291826 -0.238515 0.665196 0.000777244
-0.29652 -0.22763 0.66032 0.000164165
-0.287737 -0.238758 0.680176 0.00160942
-0.293194 -0.227588 0.674677 0.000425572
-0.413106 -0.119931 -0.369574 0.001556
-0.405051 -0.10509 -0.367803 0.00470219
-0.411672 -0.119644 -0.356542 0.0065846
-0.405094 -0.104177 -0.356514 0.000303248
-0.146084 -0.414702 0.695061 0.000368673
-0.163552 -0.401334 0.698294 0.000229484
-0.146796 -0.41161 0.711634 0.00084748
-0.163954 -0.399614 0.71389 0.00195134
-0.0445217 0.2698 -0.360509 0.000320163
-0.0545147 0.269511 -0.368995 0.000139044
-0.0519541 0.269423 -0.342854 0.00108447
-0.0615985 0.269199 -0.35159 0.000529175
-0.298582 -0.22761 0.645159 0.000406471
-0.301456 -0.217006 0.642138 0.000498857
-0.295373 -0.22815 0.661481 0.000592471
-0.299442 -0.217286 0.656931 0.00018208
-0.201341 0.0631312 0.353125 0.000323172
-0.188979 0.0769816 0.353026 0.00432542
-0.203619 0.0628357 0.36949 0.00235819
-0.192587 0.0770497 0.370696 0.000129482
-0.245994 -0.0711116 0.419568 0.00173634
-0.242955 -0.0566068 0.414602 0.00115039
-0.247803 -0.0673464 0.434546 0.00300514
-0.242751 -0.0521205 0.429981 0.000505392
0.13931 0.203793 0.47055 0.0108318
0.123187 0.20575 0.468777 0.00397046
0.130123 0.201169 0.487934 0.00686109
0.114333 0.202225 0.485267 0.00725357
-0.12231 -0.171044 0.937442 3.07339e-05
-0.134022 -0.160084 0.931231 0.00113451
-0.126192 -0.179951 0.938191 0.000853448
-0.136959 -0.169109 0.932125 0.00100951
-0.40388 -0.139302 -0.361534 0.000996565
-0.397623 -0.125214 -0.362811 0.00881525
-0.402815 -0.136965 -0.346506 0.00931067
-0.39683 -0.123186 -0.348352 0.0010864
0.00270831 0.211295 0.0381851 0.00017827
-0.00991587 0.211975 0.0292758 0.000523121
-0.00569465 0.210578 0.0578694 0.00118182
-0.0188613 0.210977 0.0490784 0.00204959
-0.141944 -0.291806 0.899274 0.000139096
-0.159925 -0.280546 0.890806 0.00109764
-0.131311 -0.289457 0.910084 0.000905406
-0.146878 -0.278308 0.903742 8.11189e-05
-0.306171 -0.137983 -0.338357 0.000286958
-0.32117 -0.132436 -0.343187 0.0011469
-0.300744 -0.128795 -0.322979 0.0019003
-0.316051 -0.123314 -0.329633 0.000883161
0.109994 0.167374 0.247056 0.00178269
0.0942085 0.174777 0.237682 0.000236227
0.107994 0.164178 0.267243 0.000161161
0.0914037 0.172621 0.257248 0.00129542
-0.0850667 -0.101512 -0.489013 0.00166446
-0.103664 -0.0877275 -0.489926 0.000621769
-0.0929174 -0.111178 -0.480881 0.000379448
-0.111005 -0.0975883 -0.482154 0.0010672
-0.186256 -0.0197755 -0.460191 0.000287568
-0.187515 -0.00382203 -0.464583 0.00153788
-0.195656 -0.0263825 -0.447806 0.00219016
-0.196776 -0.0104314 -0.451573 5.48e-05
0.290074 -0.0733523 0.53981 0.000288483
0.286009 -0.0592782 0.534051 0.000531441
0.295817 -0.0740287 0.557305 0.000249747
0.291899 -0.060445 0.550709 0.000852465
0.226986 0.048311 -0.440458 1.28639e-05
0.226065 0.0689423 -0.447167 0.000503751
0.235302 0.0411199 -0.426768 0.00196453
0.23556 0.0612694 -0.432392 0.000990654
-0.194541 -0.389745 0.65055 0.000718427
-0.208657 -0.376484 0.65213 0.00104742
-0.193149 -0.387405 0.667618 0.000598545
-0.207652 -0.373505 0.670247 0.000762801
-0.264871 -0.308226 0.626903 0.000924576
-0.273236 -0.296198 0.619504 0.000332629
-0.263748 -0.307509 0.642976 0.00139161
-0.27432 -0.292624 0.635436 0.000444561
-0.0867079 -0.433671 0.334557 0.00137856
-0.0975469 -0.427522 0.326747 0.00152997
-0.0874036 -0.43589 0.358089 0.000340784
-0.0975118 -0.430045 0.34822 8.00907e-05
0.37386 -0.0864738 -0.319776 0.00172013
0.364895 -0.0796549 -0.319697 0.00210031
0.375178 -0.0831401 -0.308328 0.0119399
0.366126 -0.0760397 -0.308953 0.00818504
0.273428 0.0267133 -0.31799 0.000608667
0.272101 0.0387238 -0.320185 0.00189016
0.270967 0.0280673 -0.304647 0.00190033
0.270402 0.0412948 -0.30819 0.000218456
0.154596 -0.376725 0.790391 0.000603094
0.161454 -0.366244 0.798005 0.00053751
0.138274 -0.377689 0.806166 0.000362172
0.145075 -0.367081 0.813782 0.000311781
0.229689 0.159752 -0.470128 1.7394e-05
0.220822 0.174856 -0.474655 0.000511548
0.241165 0.159571 -0.456956 0.000620649
0.232364 0.174342 -0.461749 0.00092773
-0.138036 0.229429 -0.231132 0.00110364
-0.147777 0.22589 -0.242586 0.00291695
-0.139853 0.216635 -0.215444 0.00164104
-0.149842 0.212415 -0.226909 0.00553454
-0.235884 -0.0245491 0.437457 0.000550559
-0.231965 -0.00945994 0.436632 0.00101004
-0.240478 -0.0235381 0.457396 0.00249843
-0.236372 -0.00784198 0.456511 0.00438423
-0.416172 -0.155289 -0.415284 0.000616758
-0.431378 -0.154156 -0.422802 0.00234875
-0.413585 -0.153842 -0.395446 0.00311477
-0.427441 -0.153093 -0.402063 0.00294962
0.396527 -0.148229 -0.451351 0.000450976
0.385415 -0.14562 -0.460637 0.00198189
0.394327 -0.15207 -0.43866 0.000732533
0.382455 -0.150247 -0.448271 0.00097412
0.256094 -0.224343 0.789431 0.00258779
0.260391 -0.209471 0.792399 0.000744336
0.247713 -0.225872 0.805985 0.00121954
0.251573 -0.212109 0.809823 0.00126828
-0.206232 -0.207047 -0.0447075 0.00223205
-0.213078 -0.18581 -0.0439549 0.00112006
-0.211794 -0.21082 -0.0289811 0.00100675
-0.218255 -0.190451 -0.0289836 0.00211324
0.0473201 -0.409174 0.0752431 0.000244415
0.034887 -0.408826 0.0614544 0.00268928
0.045603 -0.413379 0.0923677 0.000745469
0.0312205 -0.413384 0.076689 0.00160921
-0.24349 0.0154659 -0.396526 0.000354725
-0.244609 0.029147 -0.401386 0.000785985
-0.252975 0.0135009 -0.383111 0.00118373
-0.254369 0.0271663 -0.38762 0.0002942
0.116495 -0.407824 0.280312 0.00216309
0.0972845 -0.417222 0.271956 8.73343e-05
0.113987 -0.414291 0.295797 0.000337533
0.0940021 -0.424261 0.28778 0.00278485
0.296663 0.143819 0.486793 0.000556218
0.301005 0.161982 0.477082 0.00248025
0.297712 0.135331 0.504969 0.00249545
0.299889 0.153015 0.493544 0.00074543
-0.189393 -0.116279 -0.14462 0.00127454
-0.19354 -0.0998049 -0.149059 0.000238631
-0.192737 -0.113817 -0.13092 0.000552469
-0.196806 -0.0972138 -0.134762 0.00210118
-0.152352 0.199744 0.599435 0.000555552
-0.161993 0.213214 0.582825 0.00223655
-0.159909 0.190769 0.618543 7.80998e-05
-0.168941 0.204622 0.601976 0.00124904
-0.236456 0.0301055 0.232961 0.000854611
-0.23283 0.0458449 0.228666 0.00197109
-0.231649 0.0260744 0.250436 0.000823073
-0.2279 0.041404 0.246211 5.70748e-05
-0.204501 -0.0333306 -0.148194 4.79654e-05
-0.209588 -0.018942 -0.158468 0.00332414
-0.198052 -0.0332543 -0.126425 0.00278626
-0.202311 -0.01881 -0.134964 0.000708799
-0.0637045 -0.420093 0.206735 0.00117195
-0.0789944 -0.414825 0.200939 0.00108968
-0.0682963 -0.421727 0.223651 0.000237315
-0.0812088 -0.417723 0.216959 0.000461531
-0.163049 -0.212404 -0.13345 0.00100862
-0.168099 -0.195673 -0.142544 0.00200985
-0.166206 -0.217499 -0.116474 0.000218505
-0.17099 -0.20103 -0.125534 0.000518625
-0.246058 0.0507044 0.192802 0.000314217
-0.238811 0.0668125 0.194632 7.97777e-05
-0.240278 0.0467881 0.20566 0.00209512
-0.232509 0.0622614 0.20643 0.000681023
-0.193806 -0.311107 0.154358 0.000437055
-0.201235 -0.299852 0.150843 0.000645073
-0.193643 -0.313264 0.173261 5.18384e-06
-0.201303 -0.301466 0.169523 0.000920397
-0.0273586 0.269693 -0.485138 0.00074209
-0.0455079 0.265246 -0.496142 0.00112727
-0.0274737 0.271056 -0.468341 0.00114036
-0.0460771 0.266638 -0.479167 0.000520083
-0.0362714 0.0861624 0.735538 0.000750203
-0.0545128 0.0915751 0.72778 0.000249096
-0.0403876 0.0753385 0.747803 0.00246438
-0.058221 0.0804059 0.739769 0.00384699
-0.277324 0.0888591 0.510553 0.00110003
-0.278466 0.101818 0.50503 0.00176526
-0.280286 0.0845314 0.52702 0.00110028
-0.280507 0.0985115 0.524184 0.0025764
0.209464 -0.273815 0.0505203 0.00134143
0.218075 -0.26107 0.0468169 0.0010554
0.208532 -0.278771 0.0668027 0.002267
0.21754 -0.265876 0.0641521 0.00213313
-0.213286 -0.307845 0.354021 0.000212762
-0.221506 -0.289319 0.346888 0.00126586
-0.211802 -0.312156 0.37174 8.62204e-05
-0.219936 -0.294501 0.364603 0.00165669
0.0295507 0.104751 -0.56053 0.000283759
0.0145055 0.108112 -0.567191 0.000201018
0.0245721 0.0910522 -0.551664 0.000455226
0.00970151 0.0956284 -0.55777 0.00172444
-0.195473 0.145678 0.172145 0.000456502
-0.204324 0.148921 0.160959 0.00360711
-0.194806 0.137556 0.186468 0.00466232
-0.203811 0.139341 0.174733 0.000140981
0.224803 -0.0607066 -0.212942 0.00033511
0.231158 -0.0473112 -0.215812 0.000585994
0.219255 -0.0628185 -0.19916 6.4011e-05
0.22524 -0.0493357 -0.202474 0.000729698
-0.164077 -0.414648 0.604773 0.00189951
-0.177761 -0.406557 0.59899 0.00017651
-0.163835 -0.414523 0.623482 0.00047807
-0.177443 -0.406689 0.618414 0.00100158
-0.284624 -0.273786 0.649228 0.00131417
-0.289528 -0.261512 0.644645 0.000607066
-0.280222 -0.272583 0.66531 0.000651098
-0.290079 -0.258048 0.659494 0.0013819
-0.0189514 0.187408 0.32679 0.00256456
-0.0312242 0.187576 0.31657 0.00012613
-0.02955 0.184471 0.350258 0.00193446
-0.042615 0.184141 0.339708 5.31179e-05
0.281498 -0.275456 0.653326 0.000357432
0.288434 -0.263099 0.646989 0.000787095
0.275885 -0.278676 0.66511 0.0012891
0.283818 -0.266202 0.658472 0.00091167
0.105292 0.263026 -0.318002 0.00185573
0.0833111 0.264837 -0.329328 0.000419063
0.102375 0.260995 -0.298897 0.00135859
0.0828276 0.263491 -0.31004 0.000529213
-0.202227 -0.01188 -0.130837 0.000202341
-0.205956 0.00217036 -0.139739 0.000625144
-0.198495 -0.0123622 -0.11208 0.00191474
-0.200024 0.00235046 -0.118745 0.000150054
0.294598 -0.0184867 -0.354982 0.00589675
0.287144 -0.00850772 -0.355332 0.00550442
0.291669 -0.0174047 -0.343401 0.00225287
0.284316 -0.00765876 -0.343696 0.00359576
-0.0415635 -0.40091 0.0214362 0.000354615
-0.0571817 -0.391152 0.00654169 0.000646515
-0.0418629 -0.40398 0.0403214 0.00241275
-0.0581479 -0.393604 0.0248538 0.00313893
-0.0871012 0.162425 0.437799 0.000311832
-0.103663 0.165261 0.436726 0.00388825
-0.08538 0.164821 0.453331 0.00218746
-0.103415 0.168175 0.45176 0.00140769
-0.237623 -0.088843 -0.260368 0.00163338
-0.24797 -0.0778743 -0.267368 0.00143684
-0.226634 -0.0829154 -0.242166 0.000614612
-0.236327 -0.0718135 -0.248603 0.00207173
-0.210677 0.0650851 -0.148943 0.000299685
-0.209774 0.0816839 -0.153286 0.00103506
-0.202288 0.0651067 -0.132733 0.00127907
-0.199589 0.0811055 -0.135979 0.00157814
0.212174 -0.281054 0.238059 0.000342219
0.219333 -0.266775 0.238802 0.000962956
0.211226 -0.286788 0.254333 9.92461e-05
0.217659 -0.272856 0.254517 0.000314629
0.0382359 0.269223 -0.41842 0.000320303
0.0197451 0.269701 -0.42655 0.000912091
0.0403404 0.269106 -0.399462 0.000669318
0.0220225 0.270014 -0.406035 7.26173e-07
0.209025 -0.272172 0.0437354 0.00053742
0.217557 -0.259338 0.0395142 0.000175355
0.210099 -0.276159 0.0610628 0.00242924
0.219039 -0.263391 0.057979 0.00234739
-0.122792 0.196035 0.468213 0.000906666
-0.139825 0.199413 0.46582 0.0130162
-0.125272 0.202781 0.48525 0.00170191
-0.142383 0.205628 0.482697 0.0138889
-0.310063 -0.168583 -0.386936 0.00231034
-0.324104 -0.165521 -0.391757 0.00181949
-0.303121 -0.160578 -0.371416 0.000939596
-0.317539 -0.156752 -0.375313 0.00061392
0.0226704 0.242352 -0.572144 0.00111634
0.00766816 0.241984 -0.574095 0.00252925
0.0239977 0.250487 -0.559308 0.00245728
0.00903182 0.249702 -0.561182 0.00184224
0.177933 -0.407006 0.534297 0.000113701
0.162217 -0.417507 0.521101 0.000367093
0.176032 -0.409365 0.551281 0.000751585
0.15977 -0.420774 0.538204 8.75148e-05
-0.223093 -0.309929 0.432496 0.000827552
-0.229161 -0.294458 0.433857 0.00107163
-0.226067 -0.310757 0.449339 0.00164153
-0.232634 -0.295072 0.451504 0.00278629
0.120439 -0.134089 -0.448533 0.00144777
0.102462 -0.131142 -0.455657 0.000235885
0.115532 -0.14445 -0.436795 0.000194269
0.100135 -0.142121 -0.443969 0.00121529
0.265354 0.0664735 0.697198 0.000442353
0.265669 0.0847402 0.69138 0.000446002
0.258159 0.0606838 0.712031 8.88862e-05
0.258281 0.0782584 0.70592 0.000403697
-0.231163 -0.178119 -0.388313 0.000212729
-0.24376 -0.176907 -0.398836 4.25732e-05
-0.230527 -0.176661 -0.369551 0.000601181
-0.243279 -0.176558 -0.379291 0.000301265
0.00185444 -0.124972 0.932965 2.99743e-05
-0.0137482 -0.108101 0.925907 3.95923e-05
-0.00745253 -0.142664 0.937884 0.000611768
-0.0217671 -0.125324 0.931434 0.00183427
-0.295483 -0.0251433 0.671991 0.00134403
-0.294431 -0.012644 0.666002 0.00210334
-0.289419 -0.0280816 0.691844 0.00185906
-0.289109 -0.0153148 0.685096 4.91416e-05
0.259436 -0.0151609 0.193628 0.000417012
0.257143 0.00230209 0.193106 0.000685958
0.254945 -0.0205926 0.207746 0.000756803
0.252684 -0.00369964 0.206582 0.00127648
0.181315 -0.0820378 -0.456054 0.000144661
0.169519 -0.0731195 -0.459209 0.00316791
0.188033 -0.0797442 -0.441986 0.00194311
0.176497 -0.0715134 -0.445358 0.00213559
-0.177962 0.214258 -0.242951 0.000149388
-0.187991 0.210541 -0.255047 0.00248044
-0.179531 0.207283 -0.231055 0.00103195
-0.189677 0.203372 -0.242622 0.00103145
0.248608 -0.0437424 0.294073 0.000540303
0.245616 -0.0322306 0.290092 0.000660159
0.247284 -0.0448291 0.308429 0.000293113
0.244578 -0.0325474 0.305571 0.000959044
-0.235294 -0.0191275 0.347694 0.000569865
-0.232093 -0.00698522 0.343766 0.000133947
-0.233928 -0.0212233 0.365647 0.00140148
-0.230823 -0.00819632 0.361449 0.00063724
0.0511029 -0.449686 0.365637 0.000686717
0.0427665 -0.448567 0.356034 0.000450639
0.0450873 -0.453759 0.37984 0.000389782
0.0365254 -0.452782 0.369861 0.000453863
0.309587 -0.143803 0.570372 0.00101777
0.306998 -0.131394 0.565852 0.00153856
0.312629 -0.143455 0.585749 0.00243136
0.310002 -0.131049 0.581904 0.000231994
-0.198944 0.19124 0.379312 0.000907637
-0.204763 0.202589 0.369764 0.0116167
-0.206297 0.170936 0.385948 0.00352419
-0.212605 0.18289 0.376553 0.00213392
-0.049908 -0.335078 -0.127069 0.00155698
-0.0621763 -0.329864 -0.132593 0.000943996
-0.0521853 -0.341659 -0.110388 0.00158009
-0.0652839 -0.335872 -0.116486 0.00106883
-0.250224 -0.183718 0.29578 0.000499719
-0.253716 -0.168064 0.286847 0.00201473
-0.248677 -0.184113 0.314943 0.00120565
-0.252172 -0.16849 0.305396 0.000682816
0.209016 0.0576638 0.288819 0.000410303
0.202684 0.0712685 0.278918 0.00085338
0.209566 0.0534204 0.306599 0.000659814
0.202547 0.0660681 0.296001 0.00165098
-0.0777578 0.0622087 0.775832 0.000552743
-0.0873928 0.0700118 0.768137 0.000580802
-0.0864875 0.050354 0.790727 0.00182868
-0.0946957 0.0592763 0.782493 0.000264222
-0.0452459 -0.220324 0.954313 0.00202458
-0.0594612 -0.211336 0.951797 0.00027104
-0.0569868 -0.23139 0.95425 0.00124228
-0.0724954 -0.2229 0.950451 0.00181765
-0.0911684 -0.118196 0.931169 9.07399e-05
-0.105374 -0.110903 0.926134 0.00140573
-0.0999372 -0.134271 0.935329 0.00073777
-0.113879 -0.126441 0.930222 0.000588548
-0.146034 -0.301985 0.888393 9.0316e-05
-0.166165 -0.290403 0.878208 0.00125648
-0.135676 -0.299954 0.900393 5.26356e-05
-0.154169 -0.288557 0.891429 0.00128722
-0.056692 -0.458466 0.70973 0.000785028
-0.0688752 -0.454937 0.708551 7.54857e-05
-0.0563586 -0.456443 0.722765 0.000334098
-0.0684525 -0.453249 0.721259 0.000740929
-0.274613 -0.00571477 0.164904 0.00040551
-0.275359 0.00837973 0.160996 0.000672271
-0.265529 -0.00665436 0.1844 0.00148
-0.26604 0.00836516 0.18056 0.00199577
-0.24813 0.0259254 -0.394196 0.000403377
-0.249107 0.0393923 -0.399034 0.00140724
-0.25404 0.0242394 -0.381965 0.0025436
-0.255262 0.0377383 -0.386509 0.00204234
0.147091 -0.132515 -0.443026 0.00215471
0.128389 -0.129549 -0.44985 0.000563705
0.140199 -0.14152 -0.433014 0.000946572
0.122862 -0.138363 -0.439459 0.00139875
0.169208 0.146677 0.417198 0.00324991
0.155881 0.156531 0.417932 0.00258017
0.158696 0.1431 0.423893 0.00119436
0.144751 0.153398 0.425876 0.00369618
-0.00326159 0.130566 0.645862 0.000394345
-0.0134732 0.136541 0.635198 0.000158377
-0.00566313 0.121196 0.663702 0.000729088
-0.0161601 0.12731 0.653682 0.000622132
-0.293645 -0.218032 0.535673 0.00223899
-0.294371 -0.204015 0.532083 0.00100049
-0.294761 -0.219443 0.556612 0.000367706
-0.297444 -0.205011 0.550917 8.808e-05
0.216053 0.211931 0.125329 9.73947e-05
0.208878 0.225351 0.118002 0.00744554
0.207462 0.203092 0.137458 0.00465902
0.199719 0.216324 0.130445 0.00594183
-0.248034 0.00296856 0.49191 0.000332821
-0.245482 0.0156673 0.492546 0.000386527
-0.258541 0.00184322 0.504901 0.00201432
-0.255931 0.0151937 0.505668 0.00141244
0.0413258 0.269143 -0.411764 0.000633581
0.0226536 0.269614 -0.41995 0.000650796
0.0431766 0.269064 -0.393184 0.000784025
0.0249144 0.269737 -0.399809 0.000239805
0.161992 -0.285573 -0.053913 0.000878879
0.167197 -0.274761 -0.0571661 0.000525958
0.165558 -0.289613 -0.0395083 0.000405352
0.168325 -0.28034 -0.0453873 0.000319798
-0.220391 0.0531609 0.261198 0.00138921
-0.216013 0.0670443 0.256963 0.00147428
-0.215844 0.0483145 0.280188 0.00132305
-0.211544 0.0611284 0.275472 0.000225567
0.233697 -0.340139 0.688618 0.00127735
0.244405 -0.328277 0.683278 0.00181808
0.222804 -0.344972 0.705859 0.000400586
0.233395 -0.332783 0.699097 0.00119883
-0.245492 0.0281271 -0.39888 9.11811e-05
-0.246469 0.041594 -0.403718 0.00115457
-0.252948 0.0244319 -0.385309 0.00202002
-0.254171 0.0379308 -0.389853 0.00234589
0.16906 0.103571 -0.0596326 0.00106772
0.159532 0.11181 -0.0634735 0.0062519
0.170246 0.0977703 -0.0522476 0.000505955
0.159433 0.104813 -0.0561083 0.00627102
0.255584 -0.00615727 -0.254024 0.000431142
0.257449 0.00841433 -0.25712 0.00224674
0.246388 -0.00779824 -0.241375 0.00273356
0.247505 0.00702914 -0.242694 0.0044618
0.18281 -0.0975224 0.891035 0.000769429
0.17438 -0.0799745 0.889198 0.000276444
0.171258 -0.108745 0.901056 0.0023394
0.160913 -0.0893361 0.899435 0.00181109
0.298433 -0.121581 0.727502 0.000387233
0.299786 -0.102263 0.717805 0.000393378
0.296133 -0.129202 0.740734 0.0032468
0.295169 -0.109171 0.738997 0.00119307
0.286951 -0.0290567 0.700621 0.000594758
0.284614 -0.0108364 0.692388 0.000947347
0.281804 -0.0317001 0.720472 0.000874623
0.278825 -0.013113 0.710816 0.0010567
-0.253972 0.108421 -0.0141634 0.0016482
-0.25428 0.126518 -0.0187139 0.00281073
-0.26445 0.101491 -0.00149769 0.0034433
-0.264702 0.119262 -0.00679878 5.51748e-05
-0.185361 -0.345964 0.291404 6.43788e-05
-0.192452 -0.334507 0.286943 0.000143135
-0.185298 -0.347855 0.309644 0.00093167
-0.192952 -0.336304 0.305347 0.000454796
-0.137492 0.136232 0.402792 0.0017503
-0.132059 0.146774 0.407442 0.00659216
-0.142655 0.133323 0.415114 0.00119924
-0.138486 0.143475 0.4197 0.00225236
0.0415667 -0.427574 0.209237 0.000450328
0.0296538 -0.428831 0.196907 0.000896767
0.0383479 -0.430698 0.230737 0.00108245
0.0256216 -0.432058 0.217881 0.00200706
0.283882 -0.117431 0.495733 0.00139269
0.27835 -0.104094 0.487535 0.00118604
0.29411 -0.114542 0.513144 0.00197979
0.288903 -0.101112 0.505539 0.00296336
0.231134 -0.0219174 0.412896 6.59717e-05
0.226619 -0.00933871 0.403353 7.21052e-05
0.233663 -0.0232906 0.43057 0.00110498
0.229471 -0.0099014 0.422005 0.00169712
-0.182876 -0.233628 0.890259 0.000472535
-0.190795 -0.221228 0.887447 0.00105304
-0.174257 -0.230022 0.899637 0.000225672
-0.184851 -0.215805 0.895321 0.000423714
-0.283378 -0.160861 -0.479789 0.0107983
-0.300257 -0.158133 -0.483604 0.00984636
-0.290007 -0.150427 -0.468218 0.00519134
-0.306958 -0.147974 -0.472152 0.00507038
-0.166379 -0.191883 -0.183299 0.000538558
-0.171818 -0.179382 -0.189048 0.00031126
-0.165624 -0.194783 -0.165891 0.000626675
-0.170946 -0.181174 -0.172037 0.0012905
-0.272791 0.0902079 -0.294968 0.00123005
-0.272786 0.106457 -0.298516 0.000523559
-0.269141 0.0915785 -0.276052 0.001828
-0.268829 0.107154 -0.279391 0.00161137
-0.0361787 -0.256912 0.955457 0.00223392
-0.0539513 -0.249304 0.953985 0.000291218
-0.0462828 -0.266171 0.953846 0.000233861
-0.0654305 -0.259223 0.952215 0.00162742
0.222939 0.0557423 0.750631 0.000319353
0.210053 0.0685071 0.745954 0.000848375
0.214977 0.0446799 0.764535 0.00140521
0.201221 0.0577008 0.759385 0.000685819
-0.0629737 0.233978 -0.182186 4.35471e-05
-0.073344 0.235008 -0.193532 0.000831453
-0.0676889 0.225986 -0.167087 0.00142537
-0.0792991 0.226004 -0.1794 0.00136008
0.114531 0.148241 0.369016 0.000647037
0.0995426 0.156006 0.361352 0.000366164
0.115967 0.145503 0.382544 0.000238187
0.100147 0.154449 0.377618 0.000970843
-0.173434 -0.407061 0.511566 0.00101291
-0.18428 -0.398086 0.507241 0.000847693
-0.174483 -0.408699 0.531711 0.00016371
-0.186324 -0.399837 0.527887 0.000701789
-0.241153 -0.207511 0.354997 0.00242566
-0.243743 -0.191674 0.346301 0.00424975
-0.245107 -0.208283 0.372803 0.00304455
-0.24563 -0.193199 0.364481 0.000581397
0.301662 -0.164264 -0.435804 0.000154972
0.291576 -0.163419 -0.445795 0.000198122
0.298113 -0.168461 -0.419039 0.00185721
0.287726 -0.167072 -0.428954 0.000350264
0.0173714 0.270471 -0.36231 0.00155729
0.000169743 0.270955 -0.370854 0.000409786
0.0136002 0.268955 -0.343541 0.000476132
-0.0015626 0.269411 -0.353377 0.000323988
0.266144 -0.141035 -0.32096 0.00227432
0.262678 -0.134416 -0.309243 5.88775e-05
0.249056 -0.141575 -0.308065 0.000189645
0.249636 -0.13211 -0.294801 0.00399103
-0.174925 -0.367873 0.321875 7.28556e-05
-0.183601 -0.357276 0.316856 0.00199427
-0.174313 -0.366538 0.339017 0.00342208
-0.183347 -0.355958 0.333048 0.000931058
-0.243691 0.00620294 -0.217895 0.00014249
-0.249873 0.019085 -0.226004 0.000547766
-0.236667 0.0082029 -0.199005 0.000418103
-0.242779 0.0222809 -0.207291 0.00058892
0.300854 -0.165099 0.533859 0.000218967
0.299999 -0.15144 0.526029 0.00103403
0.305274 -0.163522 0.548843 0.00141491
0.304207 -0.150303 0.54152 0.00109009
0.260059 -0.162325 0.189569 0.000470239
0.263299 -0.145618 0.190467 0.00219226
0.257831 -0.161863 0.208009 0.000550409
0.261878 -0.14627 0.207456 0.00327158
-0.152687 0.203837 0.593681 0.000652836
-0.162327 0.217307 0.577072 0.00238034
-0.156317 0.193763 0.612736 0.000917448
-0.166198 0.207436 0.596691 0.000808496
0.0830813 -0.238567 -0.297017 0.00296399
0.069956 -0.24229 -0.308923 0.00304912
0.0741795 -0.248218 -0.282922 0.000202615
0.0631164 -0.250281 -0.295824 0.00157718
0.206854 -0.294327 0.259494 0.00125912
0.213531 -0.280646 0.25957 0.0011371
0.204498 -0.301475 0.274788 0.00169064
0.210362 -0.287171 0.275427 0.00261706
0.0608187 0.201647 -0.0217212 0.000549509
0.0504088 0.203608 -0.0306334 0.00224431
0.0599321 0.201403 -0.0061087 0.00127155
0.0492688 0.203161 -0.0152202 0.00187832
-0.0254081 -0.403396 0.85503 0.000154276
-0.0412321 -0.402506 0.853757 0.00219454
-0.0222681 -0.394497 0.866945 0.00114763
-0.0387407 -0.392831 0.866724 0.000766373
0.306321 -0.141234 -0.496386 0.00672223
0.288153 -0.138435 -0.499474 0.0123898
0.297653 -0.135932 -0.483122 0.00575485
0.279565 -0.133422 -0.485565 6.80195e-05
0.120897 0.192308 -0.052964 0.000975437
0.107839 0.203068 -0.061646 0.0156127
0.116107 0.189376 -0.0402419 0.00640458
0.103639 0.195854 -0.0494831 0.00639301
-0.320058 -0.0969399 -0.415496 0.00169642
-0.333944 -0.0990849 -0.420305 0.000882853
-0.32695 -0.0973987 -0.398515 0.00118157
-0.340542 -0.0988974 -0.403043 0.000643408
-0.292726 0.177173 0.0427335 0.000811413
-0.288746 0.197053 0.0328038 0.00530689
-0.291066 0.176857 0.0676428 0.00187815
-0.288431 0.194367 0.0560945 0.00112041
-0.109934 0.256418 -0.432359 0.000377016
-0.121805 0.25187 -0.440062 0.000686921
-0.111645 0.258056 -0.41498 0.00171819
-0.123495 0.254027 -0.424054 0.00126088
-0.164579 -0.321667 0.851339 4.20319e-05
-0.182635 -0.313007 0.840207 0.00225538
-0.154426 -0.316508 0.869243 3.52222e-06
-0.173873 -0.306429 0.857632 0.00208059
-0.256065 -0.231575 0.792358 0.00129367
-0.261793 -0.218053 0.788107 0.00123861
-0.248574 -0.228422 0.807811 0.000755611
-0.254882 -0.215665 0.803158 0.000340856
0.218391 0.201986 -0.454955 0.00117309
0.205541 0.2134 -0.456778 0.000411961
0.223862 0.204095 -0.44055 0.00203766
0.212402 0.215381 -0.4424 0.00104036
-0.0582331 0.185084 0.233771 0.00027333
-0.0733057 0.180204 0.218925 0.000928772
-0.0659642 0.180884 0.256872 0.000764288
-0.0802496 0.176965 0.240151 0.00103853
-0.300586 -0.126542 -0.501205 0.00243343
-0.31768 -0.12633 -0.505689 0.00643633
-0.304061 -0.117716 -0.492815 0.00500111
-0.321346 -0.118498 -0.496727 0.00110396
-0.185917 -0.311262 0.090265 0.000689446
-0.194869 -0.299687 0.0853694 0.000864068
-0.18973 -0.310926 0.109805 0.000586199
-0.198008 -0.29948 0.105849 0.000145971
0.194546 0.196439 -0.234995 0.000604576
0.186625 0.207595 -0.241837 0.00112572
0.19176 0.189664 -0.221411 0.001069
0.185399 0.201408 -0.22897 0.00215223
-0.133574 0.2213 0.0708121 0.00115171
-0.146153 0.22475 0.0611567 0.013724
-0.135691 0.217047 0.0812452 0.00168945
-0.146966 0.221223 0.0717056 0.0113267
-0.207244 -0.0895973 -0.0641306 0.00148911
-0.204084 -0.0748032 -0.0726887 0.00112635
-0.216686 -0.0928115 -0.0471631 0.00081808
-0.213582 -0.0778906 -0.0556439 0.00262257
0.108922 -0.405932 0.237022 0.00081012
0.0974766 -0.407667 0.224769 0.00226591
0.10738 -0.412592 0.253726 0.00259396
0.0943064 -0.415938 0.242424 0.0018747
-0.0722055 -0.465415 0.627893 0.000186615
-0.0823611 -0.461731 0.624726 0.000335608
-0.072725 -0.462915 0.645445 0.000507396
-0.0830069 -0.459207 0.642632 0.0005973
-0.262705 0.130139 0.433637 0.00182118
-0.270977 0.143355 0.429171 0.00125101
-0.27071 0.125902 0.449073 0.000197321
-0.278038 0.138616 0.445167 0.00158426
-0.14974 0.24276 -0.28603 0.00193033
-0.158475 0.244028 -0.296778 2.7711e-05
-0.158428 0.23506 -0.271245 0.000897455
-0.167416 0.236361 -0.282351 0.000138944
-0.14896 0.135524 -0.067501 0.00101664
-0.138063 0.149269 -0.064897 0.00108545
-0.152292 0.13191 -0.0522065 0.000898093
-0.141062 0.145589 -0.049482 0.00614229
0.267756 0.0724649 -0.377172 0.000864752
0.269276 0.0878728 -0.379425 0.0024958
0.271087 0.0687406 -0.362832 0.00182005
0.271891 0.0833041 -0.364918 0.000137612
-0.0687556 -0.365534 0.885523 0.000455009
-0.0835333 -0.357096 0.887002 0.000361278
-0.0645694 -0.357971 0.896826 0.00219398
-0.0794983 -0.348942 0.899644 0.00107487
-0.2459 -0.175944 -0.385624 0.000268705
-0.260019 -0.174846 -0.396244 0.000296919
-0.243263 -0.17472 -0.367936 0.00109785
-0.257207 -0.174301 -0.377824 0.000141682
-0.398833 -0.106696 -0.342286 0.000630271
-0.396234 -0.0884631 -0.343551 0.00198873
-0.398659 -0.10838 -0.327753 0.0128642
-0.395863 -0.0905827 -0.329112 0.00467655
0.0208901 -0.448434 0.760191 0.00246887
0.00329515 -0.450528 0.761792 0.00139796
0.0174729 -0.443545 0.774788 0.00131134
0.0004417 -0.44538 0.776782 2.48455e-05
0.315709 -0.14617 0.628946 0.00205889
0.313823 -0.128376 0.620486 0.000537688
0.311202 -0.145598 0.644104 0.00262798
