-0.0719039 0.0810179 0.101128 0.000600623
0.466465 -0.235288 -0.223039 0.0010656
0.464477 -0.222882 -0.227879 0.000503906
0.467884 -0.236634 -0.209199 0.000278972
0.466018 -0.222977 -0.215032 5.65629e-05
-0.0567736 0.547053 0.0826671 0.000458353
-0.0536001 0.563821 0.0917477 0.00372598
-0.0682149 0.550543 0.0911724 0.000431713
-0.062969 0.56648 0.0967514 0.00168171
0.267286 0.112261 -0.0896278 0.00076727
0.253633 0.114031 -0.0967953 0.00132945
0.263142 0.108804 -0.0744443 0.00247552
0.250601 0.111623 -0.0819009 0.00135691
-0.0816892 -0.213943 -0.12807 0.00111108
-0.0933265 -0.210271 -0.13759 0.0011799
-0.0922552 -0.225201 -0.110348 0.00227481
-0.103916 -0.221539 -0.119523 0.0020354
0.459788 0.0430506 -0.167866 0.000882966
0.455574 0.0570742 -0.172756 0.00178131
0.462973 0.0412845 -0.148884 0.001031
0.45968 0.0565464 -0.154986 0.000472809
0.212134 0.331743 0.0882 0.000453566
0.198886 0.348043 0.0809729 0.00131917
0.225941 0.334412 0.106791 0.00237797
0.213137 0.350966 0.0998077 8.55495e-05
0.0997223 -0.302281 -0.306069 0.000521178
0.104709 -0.289504 -0.30426 0.00444236
0.0978961 -0.307117 -0.292765 0.0016623
0.102338 -0.293223 -0.295804 0.00329546
-0.170186 -0.121356 -0.191805 0.00105684
-0.165305 -0.105079 -0.18287 0.00190091
-0.190779 -0.11478 -0.18635 0.00191366
-0.185576 -0.0986697 -0.1771 0.00144195
-0.359331 -0.556118 -0.332516 0.00343436
-0.359917 -0.540407 -0.324883 0.00213091
-0.375412 -0.544589 -0.322466 0.00102829
-0.376069 -0.529277 -0.315006 0.000247506
-0.248774 -0.398821 -0.260037 0.00108164
-0.263111 -0.391513 -0.269435 0.00451283
-0.261189 -0.412416 -0.249328 0.00654944
-0.273138 -0.403323 -0.259163 3.22203e-06
0.340962 0.0672024 0.00942111 8.43509e-05
0.329652 0.0718777 0.000333933 0.00023805
0.333527 0.0623322 0.0249651 0.000301586
0.324167 0.0665504 0.0165881 0.000465483
0.18463 0.36085 0.177463 0.0004604
0.169607 0.369368 0.176728 0.00208451
0.188573 0.377925 0.183323 0.00190276
0.174307 0.388167 0.183833 8.65647e-05
0.340439 -0.606271 -0.183296 0.000592856
0.342288 -0.589497 -0.176819 0.000115648
0.325291 -0.602485 -0.179255 0.000119973
0.327 -0.586575 -0.172691 0.00018207
-0.0474598 0.669014 0.32326 0.000683306
-0.0428528 0.683381 0.326516 0.000676054
-0.0684706 0.666716 0.33698 0.000611854
-0.0635818 0.681075 0.338398 0.00139772
0.16802 -0.254846 -0.228016 0.000730394
0.16677 -0.242118 -0.233525 0.000207566
0.169681 -0.259342 -0.211028 0.00190615
0.16814 -0.246745 -0.218534 0.00142063
-0.14919 -0.190238 -0.185467 0.00346277
-0.161751 -0.190229 -0.191401 0.00189337
-0.157028 -0.197423 -0.176631 0.000695032
-0.169551 -0.19745 -0.182546 0.000746234
-0.386373 -0.715514 -0.248543 0.00400951
-0.397531 -0.707585 -0.253349 0.000720386
-0.387656 -0.717339 -0.236107 0.00130671
-0.398124 -0.709659 -0.241132 0.00252199
-0.12017 -0.233007 -0.0800047 0.00320823
-0.128489 -0.231792 -0.0907069 0.000639903
-0.12649 -0.242273 -0.0644607 0.00104982
-0.135947 -0.241952 -0.0753257 0.0023212
-0.271336 -0.49973 -0.0560114 0.00551439
-0.26764 -0.487657 -0.0553949 0.0048187
-0.279577 -0.499492 -0.0462784 0.00254454
-0.27566 -0.486263 -0.0447048 0.0120185
0.20449 0.132849 -0.134377 0.00139276
0.187754 0.133739 -0.134626 0.00215581
0.198628 0.136772 -0.118787 0.00718404
0.181992 0.138535 -0.120035 0.00687778
0.460831 -0.260554 -0.26459 0.000507912
0.458133 -0.24641 -0.267185 0.00100388
0.461944 -0.256277 -0.249082 0.000536022
0.460498 -0.242523 -0.25293 0.000641627
-0.38772 0.0839708 -0.0333842 0.00109019
-0.393021 0.0853669 -0.035896 0.000406502
-0.391606 0.0840205 -0.0179027 0.00458816
-0.396156 0.0858452 -0.0234338 0.00457435
0.215105 0.519145 0.182454 0.000966833
0.202845 0.53068 0.172624 0.00295773
0.224606 0.522985 0.198114 8.99346e-05
0.213504 0.534865 0.188593 0.00187996
0.245319 0.453001 0.196939 0.00271487
0.238191 0.466962 0.192463 0.00159773
0.244484 0.451583 0.206649 0.00268912
0.238074 0.466512 0.203406 0.0035558
0.307307 0.0350093 -0.2153 0.000295334
0.316213 0.0583207 -0.203791 0.00412141
0.289183 0.0445767 -0.213313 0.0043571
0.296706 0.0651563 -0.202085 5.5007e-05
-0.409554 -0.0562526 -0.00616089 0.000188078
-0.411154 -0.0387964 -0.00981329 4.27613e-05
-0.407503 -0.0547963 0.00831597 0.000376553
-0.409532 -0.0387878 0.00293762 0.000472813
-0.150915 -0.450972 -0.0872867 0.00151714
-0.164903 -0.454063 -0.0999865 0.00301777
-0.154933 -0.45528 -0.0669261 0.00715017
-0.170236 -0.460653 -0.0809432 0.000267282
0.0988001 -0.109402 0.0883601 0.000824782
0.0855552 -0.107914 0.09009 0.000452329
0.0949394 -0.0976938 0.0985083 0.00456053
0.0804028 -0.0968036 0.0996317 0.00274768
0.473725 -0.124277 -0.127907 0.000388907
0.473007 -0.10261 -0.130255 0.000416418
0.476858 -0.123984 -0.106963 0.000481524
0.475309 -0.101942 -0.110066 0.00036125
-0.327255 -0.492106 -0.00647967 7.26721e-05
-0.32484 -0.474078 0.00215351 0.000884487
-0.340288 -0.485228 -0.00192743 0.000843325
-0.339148 -0.467855 0.0048587 0.00163794
-0.183472 -0.29603 0.0524342 0.00265967
-0.181203 -0.280478 0.0604512 0.00141736
-0.201074 -0.295602 0.0566494 0.00202256
-0.197846 -0.28009 0.0640604 0.00114526
0.0504005 0.637798 0.0944553 0.000230798
0.0352889 0.646234 0.0959535 0.000142484
0.0438687 0.651318 0.0993772 0.000322618
0.029019 0.660386 0.101036 0.000291668
0.235977 -0.0771135 -0.233061 0.00186876
0.224164 -0.0581531 -0.225408 0.00779103
0.224479 -0.0794016 -0.2291 0.00298073
0.210414 -0.0608236 -0.220884 0.0023912
-0.0786542 0.14223 0.103638 0.00116959
-0.0754756 0.160007 0.109429 0.00127141
-0.0931333 0.143781 0.11289 0.00244052
-0.0900663 0.161989 0.118652 0.00262601
0.112031 -0.308982 -0.266014 0.00117445
0.114414 -0.295483 -0.273494 0.00725112
0.115175 -0.313484 -0.251762 0.000161488
0.117604 -0.300375 -0.259741 0.00770609
-0.296452 -0.747448 -0.132956 0.00421829
-0.309913 -0.743427 -0.127311 0.00306297
-0.306755 -0.740367 -0.123004 8.93977e-05
-0.321111 -0.737526 -0.118154 0.000861922
-0.0862046 0.493125 0.271448 0.000605536
-0.078987 0.509141 0.271932 0.00112129
-0.0978814 0.489398 0.284391 0.00178431
-0.0902155 0.505354 0.284116 0.00155564
0.265471 -0.256095 -0.324978 0.000685052
0.269062 -0.241622 -0.317203 0.00171259
0.250462 -0.248886 -0.320811 0.00202695
0.255144 -0.234403 -0.312712 0.000841629
-0.152525 0.78413 0.462113 2.04216e-05
-0.155805 0.793202 0.452383 0.00432528
-0.162858 0.771664 0.477219 0.00648159
-0.166621 0.780782 0.466536 0.00250346
0.131611 0.440088 0.0528861 0.00102988
0.122698 0.454518 0.0543725 0.00237604
0.141784 0.450499 0.0636475 0.000291981
0.133878 0.465444 0.0649593 0.00055008
0.0661244 0.385592 0.163848 0.00115824
0.0631782 0.397169 0.168904 0.00128241
0.0489817 0.393965 0.164527 0.00244791
0.0529866 0.410742 0.172036 0.00166286
-0.0686826 0.332063 0.182888 0.00110424
-0.0630356 0.349846 0.18794 0.000467048
-0.078859 0.330588 0.191988 0.000711854
-0.0734376 0.349086 0.196357 0.000728663
-0.0543988 0.00821996 -0.151285 0.00249781
-0.0578035 0.0252006 -0.148327 0.00320593
-0.0767167 0.00246474 -0.149094 0.00790182
-0.0785873 0.0192149 -0.146852 0.00107785
-0.214717 0.24041 0.199105 0.00138169
-0.213788 0.257493 0.195778 0.00169959
-0.219946 0.23873 0.218051 0.00113087
-0.219596 0.256421 0.214954 0.00233897
-0.205715 0.380386 0.251959 0.00152733
-0.203054 0.40244 0.259257 0.000903396
-0.20903 0.378822 0.272155 0.000204721
-0.206166 0.400564 0.278398 0.000892672
-0.178233 0.67821 0.33614 0.000768576
-0.175122 0.695024 0.332179 0.0013905
-0.181546 0.674632 0.34936 5.57103e-05
-0.178607 0.691341 0.346006 0.000439437
-0.250447 -0.694471 -0.241242 0.00299232
-0.264391 -0.700242 -0.256381 0.00441809
-0.247688 -0.698149 -0.221203 1.95649e-05
-0.262177 -0.705119 -0.237136 0.00157069
-0.381746 0.0911441 -0.0584903 0.00302576
-0.385249 0.0943689 -0.0550513 0.000913372
-0.390288 0.0926511 -0.0438297 0.00348108
-0.394485 0.0943875 -0.0431733 0.00554183
0.288113 0.0755829 0.00635221 0.000239939
0.273035 0.0823494 0.002086 0.00122538
0.282784 0.0751439 0.0187677 0.000843747
0.267543 0.0824193 0.0152911 0.00110183
-0.299985 -0.437897 -0.210277 0.00617378
-0.297842 -0.4143 -0.219549 0.0108348
-0.29873 -0.444426 -0.193598 0.00526636
-0.29574 -0.420006 -0.203637 0.0116712
-0.104223 0.864509 0.374962 0.000473496
-0.105301 0.881786 0.372581 0.00425928
-0.102907 0.856901 0.380832 0.00564848
-0.104427 0.875532 0.379705 0.0019466
0.0383606 0.0813822 -0.146246 0.00155522
0.0426997 0.0985932 -0.139867 0.00205294
0.0196816 0.0842208 -0.145104 0.00158098
0.023907 0.10116 -0.138475 0.000777203
-0.20098 0.677079 0.451489 0.000996537
-0.198192 0.692645 0.450295 9.45465e-06
-0.201905 0.674477 0.470958 0.000415904
-0.199864 0.691066 0.472145 0.000915308
-0.0307857 0.527352 0.24715 0.00112744
-0.0181786 0.55107 0.252625 3.30973e-05
-0.0535206 0.521259 0.257324 0.00175172
-0.0411612 0.543571 0.261962 0.00020971
0.227362 -0.655274 -0.244648 0.000220115
0.223182 -0.639043 -0.250193 5.43846e-05
0.22803 -0.648756 -0.226672 1.82902e-05
0.224213 -0.632642 -0.231633 0.0010681
0.486367 -0.498684 -0.223409 0.00672081
0.489041 -0.481192 -0.223134 0.0102504
0.476812 -0.496866 -0.214367 0.00399269
0.480442 -0.478846 -0.213619 0.000435174
0.397119 -0.235417 -0.0250484 0.000380032
0.400709 -0.219761 -0.0172224 0.0016916
0.378247 -0.229404 -0.0219203 0.00138358
0.382316 -0.213514 -0.0134456 0.000562661
0.285216 -0.435968 -0.0960298 0.000214341
0.276811 -0.4311 -0.09255 6.43191e-05
0.272628 -0.426604 -0.0921978 0.00228616
0.269136 -0.417938 -0.0857444 0.000613655
-0.258042 -0.616657 -0.338352 3.16989e-05
-0.259945 -0.602702 -0.346066 0.00105504
-0.252652 -0.619056 -0.321804 0.00147915
-0.25446 -0.604938 -0.329487 0.000937871
0.080158 0.858865 0.200133 0.0064364
0.0678525 0.875014 0.202529 0.002907
0.0867741 0.874259 0.21306 0.00453097
0.0740007 0.888248 0.214839 0.00230348
0.331911 -0.207673 -0.00437342 0.000654655
0.338953 -0.192297 0.00671972 0.00164464
0.320654 -0.194417 0.00392792 0.00259854
0.326384 -0.179269 0.0149645 0.00165852
0.193672 0.00638274 -0.205291 0.000312557
0.190765 0.0209031 -0.199363 0.000115824
0.177825 0.00652351 -0.203379 0.000677171
0.175015 0.0207806 -0.197358 0.00067727
0.197769 -0.410958 -0.225009 0.000643325
0.184675 -0.405856 -0.235789 0.000987414
0.199034 -0.415738 -0.212634 0.000631251
0.186257 -0.4106 -0.223697 0.00099478
0.210145 -0.0849007 0.0788139 0.00120243
0.215155 -0.0700797 0.0837754 0.000518303
0.192307 -0.0817686 0.081499 0.000672257
0.197287 -0.0670183 0.0864842 0.0013116
0.197375 0.0410835 -0.193278 0.00032353
0.198464 0.0525661 -0.18891 0.000195874
0.180536 0.0418048 -0.190272 0.00068233
0.182626 0.0533137 -0.186281 0.000740211
0.335652 -0.0697453 0.0624484 0.00162594
0.342565 -0.0535573 0.0687667 0.00193085
0.318207 -0.0697154 0.0630218 0.000826023
0.326131 -0.0518602 0.069945 0.000479974
-0.0544166 0.84963 0.197459 0.00116555
-0.0465882 0.867963 0.206726 0.0026038
-0.0694499 0.85259 0.208108 0.00293117
-0.0611162 0.871059 0.21685 0.00148503
0.155522 0.832812 0.26722 0.00190809
0.142867 0.837927 0.262101 0.00133054
0.157325 0.830097 0.279089 0.000462603
0.145131 0.836104 0.273856 0.00250517
-0.23817 -0.606804 -0.217403 0.00112428
-0.240519 -0.589117 -0.221096 0.00033599
-0.234188 -0.611912 -0.199287 0.000182418
-0.23661 -0.595502 -0.2028 0.000336364
-0.199164 0.703034 0.548183 0.0050877
-0.198551 0.72121 0.547627 0.00439415
-0.207596 0.69034 0.562214 0.00228422
-0.20681 0.709237 0.562689 0.00278192
0.116473 -0.197719 -0.189099 0.00234144
0.110028 -0.192173 -0.195746 0.000137725
0.108856 -0.204516 -0.171357 0.00292325
0.102342 -0.198995 -0.178966 0.00102582
0.333256 -0.464842 -0.114349 0.00364518
0.317212 -0.458318 -0.11536 0.00262854
0.333438 -0.451932 -0.103546 0.00811217
0.316863 -0.447466 -0.104973 0.00221457
-0.36489 -0.160177 -0.171648 0.000630593
-0.363358 -0.145105 -0.163977 0.00109122
-0.384034 -0.155488 -0.167444 0.00168654
-0.380485 -0.138358 -0.158755 0.00054184
0.194326 0.146432 -0.0281958 0.00284498
0.181415 0.157632 -0.0343207 0.00108438
0.201738 0.149978 -0.0113566 0.000947262
0.189446 0.16262 -0.0178303 0.00222824
-0.180143 0.721132 0.363951 0.00142115
-0.175761 0.739559 0.363865 0.00025313
-0.184911 0.718889 0.381546 0.00168693
-0.181118 0.736463 0.380629 0.000478228
0.447515 -0.46728 -0.142473 0.00131695
0.443684 -0.451849 -0.132853 0.000383728
0.429034 -0.464046 -0.137532 0.00131938
0.425663 -0.449501 -0.128221 0.00054298
0.00173258 0.342724 -0.0289048 0.000121195
0.00269594 0.360886 -0.0197621 0.00131795
-0.017793 0.351402 -0.0237851 0.00240759
-0.0159134 0.368175 -0.0156305 0.00134157
0.334227 0.0379902 0.0781628 0.00377138
0.324747 0.0467609 0.0742904 0.000633747
0.326651 0.0336393 0.0897544 0.00555955
0.316507 0.0416482 0.0867402 0.00409995
0.252749 0.273951 0.122764 0.00219048
0.243448 0.29172 0.119235 0.000148052
0.255855 0.272073 0.134201 0.00074232
0.247438 0.289313 0.130573 0.00232647
-0.250031 -0.603029 -0.118785 0.00566894
-0.25887 -0.59021 -0.122488 0.00282227
-0.253707 -0.607545 -0.10381 0.00565664
-0.261498 -0.59478 -0.106636 0.00331536
0.252813 0.0937618 -0.0298687 0.000131319
0.239382 0.103766 -0.0427193 0.00312291
0.252983 0.090603 -0.0131385 0.000163432
0.240206 0.10023 -0.0252971 0.00282466
0.327654 -0.374761 -0.383542 0.000471529
0.328905 -0.360391 -0.376337 0.00109442
0.309401 -0.37088 -0.379859 0.00157158
0.31184 -0.355846 -0.373173 0.000525234
0.470327 -0.44987 -0.26508 0.000138592
0.469364 -0.431765 -0.271838 0.00090927
0.47327 -0.452746 -0.246707 0.000194353
0.473188 -0.434542 -0.253058 0.00166542
0.163952 -0.262455 -0.0328627 0.000385987
0.151304 -0.257686 -0.0390072 0.00063578
0.161511 -0.261375 -0.0208301 0.00412849
0.146866 -0.258119 -0.0232024 0.00408506
-0.382471 -0.156364 0.104361 0.00236295
-0.388724 -0.142289 0.104239 0.00285777
-0.385766 -0.148837 0.117114 0.00242115
-0.39194 -0.134495 0.116952 0.00754017
-0.21634 0.466175 0.440232 0.00480069
-0.215563 0.481858 0.434265 0.00342445
-0.225099 0.45042 0.455458 0.00174042
-0.224645 0.466695 0.450478 0.00291242
-0.348877 -0.506471 -0.313025 0.00153396
-0.353709 -0.492795 -0.306739 0.00148855
-0.360171 -0.494896 -0.301021 0.00343182
-0.362622 -0.481772 -0.295785 0.00310378
-0.159369 0.756751 0.513322 0.00068495
-0.162504 0.769537 0.50742 0.00329037
-0.16616 0.74753 0.524081 0.00119767
-0.167176 0.761445 0.519146 0.000442713
-0.214868 0.374302 0.354897 0.00922259
-0.20766 0.391564 0.355349 0.0140297
-0.228157 0.367198 0.37422 0.000794517
-0.221857 0.38407 0.37415 0.00331587
-0.107294 -0.210749 -0.136575 0.0015354
-0.115644 -0.206534 -0.146228 0.00198001
-0.117406 -0.221242 -0.120408 0.00159547
-0.125485 -0.217131 -0.129893 0.00110416
0.354108 -0.405886 -0.0965161 0.000848159
0.354761 -0.391119 -0.0893955 0.000362921
0.336039 -0.40585 -0.0929963 0.000753738
0.336995 -0.3924 -0.0855292 0.000629949
-0.00866235 0.00345608 -0.163118 0.00252034
-0.0142684 0.0230513 -0.158193 0.00230804
-0.0246082 -0.000316285 -0.160313 0.00604087
-0.0305533 0.0182803 -0.155654 0.00356303
-0.333297 -0.210889 0.12154 8.72252e-05
-0.340611 -0.189687 0.125502 0.00589093
-0.348533 -0.209107 0.124318 0.00135207
-0.358683 -0.190189 0.126415 0.00613138
-0.203229 0.603256 0.411817 0.000322473
-0.199944 0.618817 0.407813 0.000575039
-0.205162 0.596557 0.427667 0.000576151
-0.20254 0.612615 0.421085 0.000512663
-0.137778 0.748668 0.26133 0.00163454
-0.128746 0.769153 0.257531 0.000409233
-0.145471 0.741385 0.279401 0.000532373
-0.137815 0.761484 0.275511 0.00202173
0.33844 -0.694621 -0.286761 0.000909102
0.327384 -0.692485 -0.29247 0.000635151
0.334118 -0.698706 -0.277198 0.000417555
0.322541 -0.696714 -0.281225 0.000582068
0.485101 -0.112975 -0.0526424 6.1838e-05
0.481885 -0.0918 -0.0626729 0.000573226
0.485782 -0.116846 -0.032002 0.00275022
0.484409 -0.0961639 -0.0401244 0.00176056
0.0893448 0.249051 0.106146 0.000592213
0.0758422 0.254306 0.108116 1.02407e-05
0.0720033 0.258909 0.108011 0.0018071
0.0649797 0.268226 0.112452 0.00120581
-0.222155 -0.220556 -0.205704 0.00819324
-0.230377 -0.213431 -0.206826 0.000606495
-0.23517 -0.222509 -0.204584 0.00475579
-0.243238 -0.213319 -0.203071 0.0103542
-0.321849 -0.291682 0.0821178 0.00114724
-0.323681 -0.276668 0.0894862 0.000959906
-0.337597 -0.287941 0.0868725 0.00106208
-0.340016 -0.272895 0.0941923 0.00103064
-0.237782 -0.292436 0.068155 0.000817914
-0.232037 -0.27842 0.072853 0.000294204
-0.25867 -0.289854 0.0715769 0.000688262
-0.252137 -0.276208 0.076068 0.00111414
-0.0946215 -0.0877775 -0.179855 0.00247516
-0.0936443 -0.0735368 -0.166779 0.00149736
-0.106073 -0.0759715 -0.172936 0.00445173
-0.10504 -0.0617774 -0.161034 0.00620785
-0.307105 -0.0588348 0.186708 1.86413e-05
-0.308948 -0.0486183 0.194526 0.002602
-0.316882 -0.0491519 0.190996 0.00169863
-0.323134 -0.0431545 0.195305 0.00130945
-0.0862251 0.101458 -0.116115 0.000929905
-0.0842662 0.114078 -0.110764 0.00170566
-0.106179 0.103454 -0.113641 0.000900143
-0.104189 0.116555 -0.108412 0.000402081
-0.135678 0.419275 0.290529 0.000277448
-0.130609 0.433507 0.293791 0.00127782
-0.148031 0.417301 0.301956 0.00284545
-0.14223 0.431562 0.304502 0.000930503
0.105299 0.909002 0.278603 0.0065198
0.0961661 0.918997 0.274607 0.00144417
0.0986167 0.89841 0.294456 0.00356557
0.0921582 0.909981 0.290538 0.0089294
0.235275 0.441168 0.179563 0.000576591
0.227159 0.454266 0.172949 0.0012604
0.242723 0.442425 0.191928 0.00043041
0.235899 0.456492 0.187305 0.000270406
-0.193919 0.383388 0.360909 0.00451266
-0.187267 0.398858 0.36083 0.00239462
-0.206361 0.37627 0.378066 0.00720006
-0.199837 0.393206 0.377712 0.0054073
0.0758649 0.816529 0.167279 0.000792503
0.0677788 0.829005 0.172148 0.00200998
0.07 0.830726 0.170128 0.00102327
0.0597572 0.842985 0.174422 0.00187981
0.0797547 -0.21945 -0.121308 0.000131004
0.0662722 -0.215573 -0.128508 0.000290487
0.0709017 -0.227547 -0.102382 0.000977877
0.0570781 -0.223329 -0.110122 0.000378552
0.157196 -0.191713 -0.258648 0.00111827
0.153781 -0.181017 -0.256389 0.00246325
0.153889 -0.193385 -0.250464 0.00295708
0.147754 -0.184274 -0.249231 0.00208781
-0.33902 0.0330244 -0.0975846 0.000781515
-0.339247 0.0465514 -0.0901661 0.00120109
-0.35308 0.0362169 -0.0942573 0.00124804
-0.35274 0.0498345 -0.0873339 0.000343711
-0.176949 0.523097 0.404842 0.00503567
-0.171772 0.536787 0.400776 0.00560744
-0.184804 0.519459 0.421573 0.00435166
-0.181378 0.53294 0.416915 0.00630311
-0.0956251 0.291934 0.186127 0.000346292
-0.0909723 0.309924 0.189912 0.000831602
-0.108434 0.288082 0.197379 0.000694022
-0.103926 0.306444 0.201128 0.000229094
-0.24295 -0.627105 -0.264605 0.000491949
-0.243711 -0.610991 -0.270313 0.000657408
-0.239269 -0.630009 -0.242938 0.000509141
-0.239515 -0.613182 -0.24822 0.00105294
-0.14329 0.544787 0.366478 5.37988e-05
-0.138874 0.55973 0.367183 0.000259457
-0.151285 0.545039 0.380809 0.000441409
-0.146067 0.558869 0.378629 2.64863e-05
-0.113055 -0.158127 0.0847903 0.00326727
-0.111531 -0.138436 0.0950545 0.00151278
-0.134665 -0.151323 0.0913884 0.00243417
-0.13556 -0.132555 0.101726 0.00180066
0.0740358 0.121257 0.0545629 0.00150044
0.0732986 0.143146 0.0607352 0.00118529
0.051985 0.1207 0.0554373 0.00249418
0.0555899 0.14176 0.0601652 0.0010774
-0.296945 -0.451539 -0.182432 0.00717561
-0.293163 -0.427962 -0.193215 0.00820631
-0.289943 -0.456831 -0.161503 0.00560815
-0.287056 -0.43669 -0.172842 0.00733438
-0.316319 -0.402574 -0.279885 0.00317331
-0.320342 -0.386689 -0.284623 0.0139433
-0.318799 -0.398756 -0.266814 0.00701497
-0.322669 -0.38296 -0.271598 0.00374603
-0.0818217 -0.0342049 -0.141962 0.000301325
-0.084222 -0.0175447 -0.139433 0.000234896
-0.100969 -0.0346496 -0.14076 0.00176842
-0.102456 -0.0187885 -0.136129 0.000125113
-0.224139 0.208803 0.225209 0.00376742
-0.225326 0.227035 0.224565 0.000623512
-0.22974 0.205812 0.242472 0.00221836
-0.230654 0.224251 0.242358 0.00171782
0.358818 0.0832483 -0.0395668 0.000456826
0.34329 0.0888901 -0.0502915 0.000358582
0.354441 0.0779161 -0.0228841 5.58208e-06
0.338812 0.0835786 -0.0337468 6.59416e-05
0.105055 0.342532 -0.00742518 0.000709366
0.0927733 0.350872 -0.0107174 0.000154317
0.114313 0.351634 0.00205897 0.000750581
0.102283 0.360615 -0.00105784 0.000661319
-0.101713 0.754775 0.414832 0.000206385
-0.101555 0.770574 0.422503 0.000258957
-0.108482 0.75162 0.425278 0.00153614
-0.109163 0.767206 0.434136 0.00156511
0.18911 -0.0227329 0.110593 0.00106688
0.194723 -0.00640786 0.11532 0.000331761
0.170373 -0.0236531 0.113611 0.000978264
0.176105 -0.00756798 0.118313 0.000327785
0.111049 0.873671 0.278317 0.0119842
0.094461 0.882535 0.274764 0.00335545
0.109555 0.868034 0.291007 0.008245
0.0933422 0.876231 0.285838 0.00693279
-0.0565046 0.742933 0.362589 0.000490347
-0.0524285 0.761907 0.369595 0.000792575
-0.0756389 0.739222 0.372918 0.00373601
-0.0700135 0.75716 0.378291 0.00226808
-0.17956 0.135104 0.026754 0.00283067
-0.171882 0.147157 0.0209817 0.00209182
-0.187059 0.13063 0.046629 0.00027125
-0.178748 0.143647 0.0419491 0.00237609
-0.422394 0.0100454 -0.0609765 0.000218343
-0.421159 0.0241005 -0.0619309 0.00250496
-0.425381 0.0106246 -0.0485927 0.00465701
-0.423681 0.0248966 -0.0494892 0.00190715
-0.421004 -0.0220545 -0.075425 0.00179036
-0.42274 -0.00823716 -0.0769357 0.00122296
-0.422452 -0.0194009 -0.0605783 0.00182541
-0.423994 -0.00509619 -0.0614099 0.00227759
-0.0273294 0.038403 0.167131 2.20581e-05
-0.0394756 0.0464749 0.156484 0.00186599
-0.0298394 0.0258989 0.179887 0.00665413
-0.04075 0.0334766 0.170781 0.00346484
0.348506 -0.153156 0.0196568 0.00093434
0.347134 -0.140527 0.0293225 0.00241507
0.3343 -0.144421 0.024509 0.00251124
0.332938 -0.131664 0.0341359 0.000752935
-0.295636 -0.54889 -0.168044 0.00309711
-0.299289 -0.53171 -0.178262 0.00193166
-0.295583 -0.549359 -0.153128 0.000646792
-0.298648 -0.53274 -0.162917 3.44926e-05
-0.195502 0.197838 0.265755 0.00129509
-0.188841 0.209936 0.263107 2.28216e-05
-0.203652 0.192667 0.278464 0.00139815
-0.198718 0.205666 0.277184 0.000892877
0.479633 -0.0749113 -0.07083 0.000648884
0.476894 -0.0579106 -0.0844072 0.000370528
0.4839 -0.077714 -0.0439309 0.000697723
0.481235 -0.0605656 -0.0581921 0.000234968
0.111648 -0.307422 -0.270112 0.00134854
0.114394 -0.293975 -0.27698 0.0071934
0.113996 -0.311747 -0.254754 0.000446395
0.116425 -0.298639 -0.262733 0.00831399
0.457968 0.0554385 -0.189086 0.00298906
0.451868 0.0694932 -0.190421 0.00207747
0.458251 0.0631248 -0.173608 0.00131311
0.453428 0.0767546 -0.177349 0.00214769
0.117249 -0.372598 -0.213574 0.000855589
0.113825 -0.35748 -0.21614 0.00205041
0.120651 -0.375719 -0.197837 3.0167e-05
0.116764 -0.360649 -0.1989 0.00182507
0.0876619 0.394578 0.00522996 0.000608526
0.0714672 0.395848 0.00154118 0.00109139
0.0909828 0.408899 0.0122193 0.00110198
0.0740519 0.408752 0.00767473 0.000840852
-0.107392 0.471595 0.0930764 0.00097478
-0.101358 0.486058 0.0946004 0.000161754
-0.117131 0.467946 0.104902 7.03178e-05
-0.112462 0.48133 0.107654 0.00136035
0.406507 0.0611242 0.0071697 0.000408913
0.394288 0.0676867 -0.00250777 0.00121546
0.400948 0.0547045 0.024212 0.000942045
0.388731 0.0609764 0.0140908 0.000256356
-0.296221 -0.564863 -0.180536 0.00206517
-0.30191 -0.547325 -0.191378 0.000865717
-0.296449 -0.569323 -0.165259 0.00196859
-0.30126 -0.551716 -0.176258 0.00119699
0.461734 -0.643166 -0.393754 0.00161968
0.459325 -0.636669 -0.403975 0.000271096
0.459367 -0.642838 -0.377301 0.00409215
0.455794 -0.636009 -0.387924 0.00563029
-0.393791 -0.549573 -0.11702 0.000762242
-0.397234 -0.531649 -0.128847 0.000422999
-0.390645 -0.553074 -0.0993904 0.000827224
-0.394342 -0.535599 -0.110723 0.000129383
0.102092 0.303638 0.130843 0.000207055
0.0911075 0.312726 0.133475 0.000275886
0.0859824 0.313067 0.132911 4.16764e-06
0.081338 0.327157 0.139114 0.000574531
0.304669 0.0668147 0.0948884 0.00977455
0.291253 0.0783411 0.0939861 0.00265156
0.297393 0.0636052 0.101479 0.00176275
0.28372 0.0761582 0.100564 0.00714999
-0.241113 -0.196245 -0.207698 0.00020801
-0.250706 -0.187663 -0.20482 0.00190735
-0.255723 -0.200521 -0.207069 7.55876e-05
-0.26381 -0.189647 -0.202346 0.00109218
-0.183401 0.581699 0.44285 0.00929873
-0.180637 0.595703 0.437334 0.0123038
-0.18507 0.579709 0.458996 0.00421318
-0.182223 0.592352 0.455249 0.0060059
0.162751 -0.0700452 -0.204233 0.00128866
0.159167 -0.0549673 -0.202767 0.000827714
0.146299 -0.0780262 -0.201431 0.000281468
0.14282 -0.0631505 -0.200201 0.00106036
-0.135677 0.396182 0.279802 0.000283035
-0.130622 0.410307 0.282888 0.00175312
-0.146958 0.392994 0.289343 0.0021332
-0.140305 0.408157 0.291836 0.000169832
-0.070791 0.359523 0.00853929 0.000349741
-0.0677899 0.375126 0.0138523 0.000157629
-0.0857808 0.359029 0.0198051 0.000580229
-0.082674 0.374417 0.024522 0.00041527
0.474573 -0.569336 -0.287766 0.00114962
0.473571 -0.551221 -0.288966 0.00130991
0.475969 -0.576982 -0.270939 0.000450964
0.474843 -0.5584 -0.273195 0.0002271
0.292757 -0.46262 -0.108317 0.00131727
0.276062 -0.463792 -0.111188 0.00243822
0.281912 -0.453222 -0.103427 4.5917e-05
0.267557 -0.452603 -0.103479 0.00267606
0.02153 0.939871 0.287232 0.00299208
0.0080043 0.941901 0.284046 0.00341585
0.0245859 0.940652 0.301062 0.00297252
0.0111003 0.941971 0.29819 0.00200486
-0.167245 -0.362277 -0.254022 0.00122209
-0.169574 -0.349433 -0.255506 0.0018883
-0.166441 -0.362517 -0.24258 0.000696884
-0.167109 -0.348622 -0.244065 0.0014882
0.216314 0.450363 0.152963 0.00102283
0.206917 0.463362 0.144603 0.000917694
0.2256 0.453516 0.167118 0.000181869
0.217088 0.466187 0.159476 2.8844e-05
-0.12085 0.889012 0.343355 0.00388752
-0.117482 0.903573 0.338025 0.00430985
-0.115881 0.884266 0.356878 0.0012331
-0.113575 0.900232 0.351918 0.00196346
0.193477 -0.286034 -0.0147696 0.00566407
0.189583 -0.268214 -0.011983 0.00870491
0.188648 -0.285308 0.000393415 0.0114304
0.184828 -0.267438 0.00289409 0.00339778
-0.26646 -0.543645 -0.277189 0.00771895
-0.276268 -0.532956 -0.282134 0.00180805
-0.266986 -0.545728 -0.260836 0.00430748
-0.277 -0.535968 -0.265949 0.000649648
-0.24756 -0.0364801 -0.11565 0.00172404
-0.249658 -0.0152802 -0.106229 0.0037094
-0.26363 -0.0337597 -0.111254 0.0010656
-0.265782 -0.0125867 -0.101219 0.00605877
-0.157693 0.529011 0.199415 0.00173166
-0.149943 0.550469 0.197294 0.000349004
-0.163681 0.523053 0.212164 0.000787664
-0.156047 0.544881 0.209664 0.000655365
-0.39458 -0.41433 -0.0631947 0.000250015
-0.397028 -0.397055 -0.0686012 0.000172878
-0.391044 -0.409463 -0.045706 0.00126807
-0.39361 -0.392257 -0.048337 0.00028295
-0.114541 0.642675 0.179774 0.000422215
-0.107951 0.658106 0.17787 0.00014825
-0.126547 0.638882 0.195233 0.000859811
-0.120223 0.654113 0.193143 0.000292363
-0.140609 -0.213584 -0.136533 0.000416833
-0.148242 -0.211253 -0.144913 0.000243573
-0.140458 -0.223317 -0.119405 0.00194939
-0.147759 -0.222331 -0.129416 0.00449116
0.104889 -0.335282 -0.257894 0.00262663
0.106149 -0.323652 -0.266437 0.00115755
0.109611 -0.343247 -0.240884 0.00121001
0.109952 -0.331035 -0.249882 0.00179544
-0.22967 -0.67367 -0.185097 0.000990979
-0.226125 -0.658368 -0.195218 0.00388389
-0.230108 -0.676402 -0.168577 0.00449859
-0.225933 -0.658821 -0.178039 0.00102815
-0.2379 0.0476787 0.258936 0.00501218
-0.236217 0.0603109 0.256799 0.00720585
-0.239747 0.0432233 0.271788 0.000991696
-0.23842 0.0564906 0.269324 0.00361667
0.0462438 0.0352191 0.152112 0.00261971
0.0354333 0.0457541 0.150407 0.00543037
0.0405359 0.0253803 0.160798 0.00157155
0.0260621 0.0336282 0.158477 0.00286461
0.209747 -0.619314 -0.338718 0.000542696
0.205869 -0.599507 -0.34957 0.00146305
0.211764 -0.61973 -0.314761 8.08814e-05
0.207847 -0.600382 -0.325099 0.000201299
-0.00379929 0.919182 0.353775 0.000446083
-0.0145881 0.927713 0.35138 0.00569051
-0.0185722 0.915913 0.357511 0.00340881
-0.0297075 0.924061 0.355273 0.00239768
0.141004 -0.163211 -0.262834 0.00120893
0.131577 -0.155698 -0.260289 0.000807678
0.131882 -0.158321 -0.25692 0.00329214
0.117258 -0.153 -0.252699 0.00275405
-0.0925072 0.586184 0.321753 0.000485842
-0.0888101 0.601585 0.325636 0.000270085
-0.101816 0.583734 0.332276 0.000701886
-0.101116 0.601357 0.339649 0.000430703
0.273447 0.0113989 -0.216689 0.00163154
0.281157 0.0305838 -0.20906 0.00315156
0.255984 0.0160242 -0.216075 0.00241723
0.259494 0.0314059 -0.208826 0.000611927
0.24262 0.0949402 -0.0229331 0.000902442
0.230136 0.104295 -0.0346445 0.00196549
0.244204 0.0929954 -0.0048597 0.00119217
0.232318 0.101452 -0.0156063 0.00200101
-0.128524 0.73292 0.447777 0.00263116
-0.130716 0.747047 0.452644 0.000499182
-0.133654 0.725853 0.463038 0.00752512
-0.136243 0.738715 0.461917 0.0015302
0.0480404 0.465101 0.0240466 8.43017e-05
0.035278 0.470268 0.0247236 0.00014963
0.0409295 0.474697 0.0281805 0.000926467
0.0313723 0.482353 0.0310291 0.00122592
-0.207355 0.663655 0.554259 0.000225896
-0.20484 0.677203 0.554983 0.00131862
-0.214628 0.657531 0.566141 0.0104835
-0.212778 0.671572 0.566716 0.00674912
0.25821 0.140379 0.121238 0.00579515
0.245982 0.157383 0.120101 0.00583825
0.261596 0.148301 0.134127 3.34376e-05
0.250319 0.16712 0.133568 0.000509707
0.466895 0.0519232 0.0159332 0.000431742
0.460319 0.0624078 0.0108897 0.00698315
0.467339 0.0474614 0.0284552 0.000173666
0.459271 0.0556594 0.0225577 0.00467472
0.150046 -0.128666 0.0688952 0.000359478
0.140417 -0.120852 0.0765064 0.00185178
0.135237 -0.114416 0.0774181 0.000808037
0.124898 -0.108017 0.0838263 0.000612113
-0.261895 -0.563864 -0.208105 0.00221859
-0.273553 -0.558358 -0.214073 0.0018124
-0.265699 -0.570479 -0.189526 0.00296016
-0.273473 -0.559579 -0.198743 0.002185
0.195739 0.29786 0.0502801 0.000480982
0.180877 0.312316 0.0402656 2.12817e-06
0.209745 0.302069 0.0704931 0.000621673
0.19499 0.317367 0.0606114 0.000623941
0.0733816 0.707071 0.296723 0.00063687
0.0745249 0.720845 0.303486 0.00160238
0.0508898 0.7139 0.298636 0.00231847
0.0561806 0.728421 0.305426 0.000997096
-0.114324 0.0322564 0.186822 0.00215883
-0.122487 0.0440885 0.185344 0.00297785
-0.130634 0.024174 0.193208 0.00219296
-0.13808 0.0359134 0.1916 0.00169597
-0.236428 -0.634348 -0.0899217 0.00154074
-0.242915 -0.619481 -0.0900861 0.00884823
-0.246924 -0.639971 -0.0774499 0.0101742
-0.253784 -0.625852 -0.0753675 0.00512953
0.190881 -0.357672 -0.107334 0.000800025
0.194855 -0.34228 -0.108198 0.00164671
0.191991 -0.359178 -0.0968135 0.003148
0.194131 -0.342675 -0.0958682 0.0012508
-0.129968 0.272855 0.209798 0.00100379
-0.12476 0.288744 0.212581 0.000504235
-0.139937 0.272317 0.221407 0.00088744
-0.134168 0.285968 0.222531 8.69528e-05
-0.221788 0.459628 0.457795 0.00100882
-0.221154 0.475741 0.452522 0.000273525
-0.228559 0.443345 0.472433 0.0163568
-0.227611 0.460112 0.467615 0.00648518
0.108839 -0.0157318 0.127898 0.000192926
0.108457 0.00177399 0.13338 0.00202193
0.0932834 -0.0215927 0.129777 0.00161599
0.0916872 -0.00314495 0.13465 0.0017326
0.115269 0.33613 0.144949 0.00088735
0.100552 0.338592 0.145455 0.000590668
0.107156 0.349074 0.149419 0.000452522
0.0916829 0.350399 0.14906 0.000290108
0.243115 0.305078 0.178777 0.00528737
0.229404 0.313226 0.176655 0.00296861
0.249504 0.313728 0.188766 0.00320054
0.235863 0.321525 0.186576 0.00077339
0.12995 0.444532 0.192186 0.000853428
0.113262 0.448511 0.192438 0.000760255
0.114961 0.457976 0.194678 0.000996991
0.102967 0.466707 0.197309 0.00037704
-0.422031 -0.262314 -0.175213 0.000965976
-0.418702 -0.245942 -0.176197 0.00547141
-0.426469 -0.263546 -0.162567 0.00549834
-0.42488 -0.248911 -0.166096 0.00241611
-0.141022 0.777799 0.474382 0.000554408
-0.145074 0.787608 0.46457 0.00477972
-0.147304 0.763735 0.489794 0.00166002
-0.151275 0.775319 0.481505 0.00048417
-0.418541 -0.00413987 -0.0996328 0.00343292
-0.419148 0.0101718 -0.10044 0.00893638
-0.423637 -0.00397012 -0.0892881 0.00124889
-0.424419 0.010785 -0.0906599 0.00334252
0.111631 0.224469 -0.0580681 3.96259e-05
0.0952871 0.236497 -0.0607962 0.000226267
0.122083 0.230828 -0.048169 0.000241943
0.105819 0.243388 -0.05111 0.00112422
-0.229415 0.156192 0.311187 0.00269966
-0.227157 0.174625 0.315737 0.0031408
-0.230946 0.15568 0.32484 0.00370498
-0.229634 0.17518 0.331122 0.00309088
-0.0359608 -0.25441 0.0432886 0.00292445
-0.051699 -0.253358 0.0428784 0.00637744
-0.0507848 -0.249752 0.0528521 0.00125937
-0.0608045 -0.244265 0.0561336 0.000277958
0.0133402 0.547076 0.0567697 1.09196e-05
0.0146294 0.565369 0.0645163 0.000418856
-0.00887091 0.554511 0.060437 0.00284739
-0.00652557 0.571634 0.0682527 0.0016896
-0.336892 -0.124188 0.149766 0.00108932
-0.350933 -0.123972 0.146997 0.00380172
-0.331856 -0.115634 0.161858 6.52246e-05
-0.344731 -0.114236 0.16017 0.00383068
0.457137 0.0942383 -0.0945458 0.00048939
0.446002 0.0998867 -0.103649 0.000581845
0.454263 0.0880875 -0.0774307 0.000502272
0.443641 0.0936565 -0.0869424 0.000398927
0.263097 -0.351806 -0.053433 0.000425001
0.267801 -0.336032 -0.0479211 0.000260119
0.24727 -0.348705 -0.0505162 0.000892048
0.251958 -0.3329 -0.0455462 0.00207882
-0.236135 -0.0478205 -0.121225 0.00059339
-0.236657 -0.027884 -0.112548 0.000806393
-0.252048 -0.0450624 -0.117968 0.0014394
-0.254005 -0.0234857 -0.108224 0.00173719
-0.394375 -0.61396 -0.139813 0.000394237
-0.396546 -0.598614 -0.14726 0.000344847
-0.391213 -0.614548 -0.1204 0.000407088
-0.393489 -0.599659 -0.126186 0.00075579
-0.379641 0.00774567 0.216741 0.00201541
-0.376896 0.0236966 0.209 0.00296262
-0.377438 0.00306404 0.234033 0.00293388
-0.376199 0.0174087 0.226192 0.000475456
-0.0732627 0.251605 -0.0395414 9.69533e-05
-0.0697241 0.269196 -0.0318164 0.00154898
-0.0939378 0.246443 -0.0278684 0.00154233
-0.0881607 0.26751 -0.0201952 0.000272035
-0.106354 0.418306 0.255695 0.000401809
-0.104435 0.432802 0.25989 0.000897781
-0.11743 0.416945 0.267807 0.000174365
-0.114813 0.431093 0.271567 5.23074e-05
0.476539 0.0568694 -0.0444996 0.000700769
0.471141 0.0686782 -0.0524774 0.00417969
0.478184 0.0510798 -0.0305927 0.00151158
0.473619 0.0629029 -0.0366264 0.00446376
-0.137262 0.799413 0.417465 0.00192509
-0.134441 0.812337 0.419241 0.0108672
-0.146677 0.797909 0.430979 0.00113558
-0.145192 0.809314 0.428244 0.0106796
0.224531 0.246029 0.149824 0.000396194
0.213081 0.254102 0.146356 0.000740514
0.229601 0.259071 0.158828 0.000293558
0.221196 0.26865 0.157322 0.000202726
-0.161391 0.234771 0.232332 2.21219e-05
-0.154296 0.247095 0.229493 0.000409178
-0.171111 0.229932 0.243264 0.0005146
-0.163781 0.242477 0.240359 0.000285797
0.0685936 0.463815 0.195506 0.000434631
0.0735046 0.48518 0.204551 0.000619641
0.0512493 0.475127 0.200116 0.000686788
0.0589735 0.497121 0.209513 6.80564e-05
-0.0348938 0.630684 0.295613 0.000992783
-0.0299964 0.644122 0.299037 0.00069919
-0.0524345 0.627531 0.306518 0.000354716
-0.0472502 0.640516 0.308894 0.000285557
0.00924021 0.852547 0.17225 0.000962067
0.0054927 0.868266 0.183729 0.00341558
-0.0106483 0.86123 0.177104 0.00319829
-0.0106138 0.87814 0.188237 0.00290489
0.0613965 0.649464 0.101253 0.000391936
0.0459024 0.657918 0.102215 0.000291556
0.0603406 0.663887 0.107233 0.000255101
0.0449649 0.672542 0.107941 0.000571376
-0.161328 0.212217 0.0447315 0.000887919
-0.156066 0.231353 0.0407109 0.00171645
-0.172498 0.209202 0.0650215 0.00142492
-0.166819 0.226559 0.0606608 1.67999e-05
0.0835271 0.353017 -0.0132302 0.000697015
0.0704213 0.360271 -0.0148828 0.000563634
0.0913245 0.364149 -0.00505624 0.000588639
0.0781743 0.370095 -0.00752277 0.000831059
-0.161414 0.591551 0.241934 0.000734759
-0.154576 0.605641 0.237365 0.000979812
-0.169665 0.588815 0.259023 0.00168723
-0.163833 0.601853 0.254472 0.000279353
0.263538 -0.119452 0.0513754 0.000445654
0.26501 -0.104095 0.0607227 0.00199629
0.241675 -0.11177 0.0563478 0.00278564
0.243841 -0.0963279 0.0652972 0.000618194
-0.382628 -0.428003 0.00339763 0.000538717
-0.390383 -0.412428 0.00350353 0.00609807
-0.379174 -0.418588 0.0153744 0.00265463
-0.388763 -0.405978 0.0151359 0.00593193
-0.168833 -0.423649 -0.00817059 0.00259173
-0.165393 -0.406519 -0.00370349 0.00402682
-0.181265 -0.425643 0.00141354 0.00472378
-0.17735 -0.408732 0.00619442 0.00429851
0.44647 -0.144828 -0.306202 4.32671e-05
0.445786 -0.133018 -0.301579 0.00102944
0.45193 -0.138058 -0.294285 0.00279108
0.451414 -0.12631 -0.290999 0.00240665
-0.117367 -0.0610211 0.148835 0.000996808
-0.116939 -0.0449951 0.157444 0.000333968
-0.135519 -0.057461 0.15198 0.00268374
-0.134261 -0.0425566 0.159807 0.00146232
0.233876 0.245991 0.0816504 0.000723372
0.225129 0.260467 0.0772164 0.00185563
0.2453 0.249114 0.0997838 0.000686024
0.236957 0.265313 0.0963654 0.000650837
0.148325 0.267837 0.126008 0.000112566
0.131624 0.272344 0.123899 0.000625307
0.146691 0.284867 0.131913 0.000393525
0.130672 0.290019 0.130003 0.000193817
-0.300573 -0.515454 -0.166048 0.000671682
-0.301129 -0.500697 -0.174042 0.000741169
-0.300088 -0.511557 -0.148487 0.00294953
-0.300301 -0.497642 -0.156548 0.00122459
-0.210928 0.512152 0.447806 0.00580883
-0.207456 0.527228 0.444561 0.0074227
-0.216297 0.500562 0.460284 0.00244285
-0.212642 0.520068 0.45954 0.00405314
0.236022 0.0247817 -0.207427 0.000970866
0.236163 0.038922 -0.200566 0.000344591
0.223029 0.0254529 -0.204865 0.00106506
0.221925 0.039436 -0.198569 0.000424913
-0.202484 0.406263 0.403222 0.00132409
-0.195885 0.422188 0.402101 0.000730241
-0.213338 0.399354 0.415461 0.00575627
-0.207214 0.415488 0.413577 0.00393955
-0.185001 -0.481848 -0.0301523 0.00140504
-0.202047 -0.485379 -0.0425734 0.000854673
-0.191195 -0.487116 -0.0128209 0.0153151
-0.204948 -0.486733 -0.020574 0.00584636
-0.0553207 -0.168811 0.0741514 0.000367784
-0.0516773 -0.150593 0.0826776 0.00406693
-0.0772432 -0.162375 0.0781541 0.0021243
-0.0736947 -0.142904 0.0872094 0.00216481
0.202022 0.380992 0.193262 0.00021718
0.188991 0.394109 0.1952 0.00255242
0.202836 0.39741 0.197853 0.00182643
0.189891 0.412092 0.199911 1.9947e-05
0.323641 -0.302164 -0.352899 0.00037902
0.329581 -0.289734 -0.346884 0.00232019
0.3109 -0.298607 -0.351021 0.00133734
0.317777 -0.286373 -0.345983 6.12036e-05
-0.316759 -0.266265 -0.223239 0.000953071
-0.320222 -0.235314 -0.212792 0.00328978
-0.335293 -0.26395 -0.217787 0.000107614
-0.338016 -0.233116 -0.20756 0.0022657
0.0403741 -0.176014 -0.234934 0.00331182
0.02746 -0.170885 -0.236644 0.00036765
0.0256624 -0.179052 -0.229531 0.00453669
0.0126261 -0.17441 -0.231408 0.00124085
0.0877642 0.84513 0.202433 0.0164469
0.0753869 0.861738 0.204747 0.00612754
0.0938975 0.855075 0.216583 0.00737162
0.0810699 0.870708 0.218507 0.00268653
-0.194705 0.179138 0.0896154 0.00128622
-0.187901 0.195259 0.084144 0.000961845
-0.201477 0.174811 0.109015 0.000347279
-0.196428 0.192464 0.104576 0.00044005
0.0948342 0.140693 0.0633583 0.00061858
0.0880912 0.162607 0.0704659 0.0005541
0.0733064 0.142873 0.0619332 2.53468e-05
0.0712886 0.165267 0.068584 0.00230846
-0.175302 0.0402779 0.197762 0.00139442
-0.176464 0.051319 0.198387 0.00557214
-0.187303 0.0388887 0.20252 0.00174983
-0.186306 0.0499617 0.203498 0.00721216
-0.39546 -0.00108333 0.110203 0.00121998
-0.395342 0.0112394 0.103887 0.000707196
-0.391427 -0.00208831 0.12517 0.000306097
-0.391997 0.0100729 0.119082 0.00150781
-0.423643 0.0576854 -0.0343741 0.00213396
-0.417679 0.0694295 -0.0329769 0.00428589
-0.426566 0.0550581 -0.016859 0.00797282
-0.421098 0.0678647 -0.0204579 0.00117694
-0.120206 0.433383 0.0935735 0.000404489
-0.11638 0.446361 0.0951492 0.000716003
-0.132346 0.42915 0.10602 0.0010926
-0.128121 0.442003 0.108693 0.000407151
0.225155 -0.643372 -0.283045 0.00482987
0.21967 -0.625425 -0.29133 0.0041482
0.219478 -0.64242 -0.264978 0.00227124
0.215653 -0.624566 -0.272199 0.00225227
0.422315 -0.0155037 -0.255741 0.000619518
0.411369 -0.00448859 -0.251554 0.00129956
0.419751 -0.00340865 -0.248757 0.00231485
0.410522 0.00842703 -0.242859 0.00195589
0.378606 -0.496738 -0.441151 0.000331996
0.382171 -0.478648 -0.431018 0.0029924
0.360006 -0.491426 -0.439186 0.00358261
0.363215 -0.47398 -0.429774 0.000746494
-0.0659281 0.756423 0.375926 0.00107117
-0.0608324 0.774499 0.382086 0.000537081
-0.0800114 0.753272 0.385181 0.00297158
-0.0744165 0.770992 0.390328 0.00133284
0.283068 -0.611537 -0.178151 0.00232897
0.278496 -0.594745 -0.170413 0.00299656
0.279613 -0.608319 -0.172363 0.000971376
0.274437 -0.591076 -0.165029 0.000344107
0.229633 0.211972 0.137911 0.00133648
0.207947 0.217951 0.131292 0.00114447
0.233568 0.223582 0.146 0.000472143
0.217467 0.230393 0.139761 0.000181145
0.0540839 0.448126 0.0184578 0.0004025
0.0379835 0.449586 0.0156898 0.000552419
0.0543733 0.459763 0.0233551 0.000337719
0.040356 0.463708 0.0225699 7.69644e-05
-0.0789653 0.0204921 0.177784 0.00142891
-0.0867506 0.0328319 0.174852 0.00772121
-0.0942546 0.00870378 0.186607 0.00867736
-0.101576 0.0225858 0.184801 0.000201593
-0.262075 -0.557648 -0.222206 0.00125823
-0.272946 -0.55177 -0.227715 0.00018005
-0.260397 -0.560365 -0.208424 0.00121855
-0.272055 -0.554859 -0.214392 0.00162474
0.0444874 0.731819 0.310089 0.000187385
0.0488145 0.746423 0.316137 0.000752429
0.0268085 0.734068 0.31231 0.00232389
0.0297429 0.749484 0.317968 0.0024211
-0.413646 -0.367025 -0.249344 0.00432043
-0.411345 -0.34841 -0.247538 0.0090445
-0.418067 -0.367361 -0.23542 0.00530123
-0.416606 -0.348581 -0.235591 0.00109092
0.384646 -0.482178 -0.135288 0.000588886
0.383592 -0.464655 -0.126198 0.00143065
0.36907 -0.47611 -0.131732 0.00132057
0.366299 -0.460105 -0.123689 0.00109042
0.0215127 0.000871943 0.151324 0.000257856
0.00637942 0.00834599 0.150893 0.00622955
0.00733499 -0.00715598 0.157415 0.00606148
-0.00387638 0.00347053 0.160988 0.00307697
-0.200028 0.716303 0.555514 0.00339875
-0.19962 0.73496 0.555329 0.00249025
-0.209529 0.701398 0.569735 0.00497557
-0.208901 0.720379 0.570368 0.00561943
-0.228592 -0.0211875 -0.117386 0.00347401
-0.230301 -0.000661005 -0.108365 0.00378582
-0.247428 -0.0176259 -0.11442 0.00382912
-0.249737 0.00360083 -0.105091 0.00423968
-0.11418 0.485572 0.296462 0.00053965
-0.10696 0.500558 0.295759 0.000490111
-0.127748 0.478878 0.308948 0.000970797
-0.121834 0.493186 0.308968 0.000733764
-0.205469 0.608436 0.43775 0.000127595
-0.203165 0.624976 0.431028 0.000129191
-0.206718 0.60117 0.453254 0.00118323
-0.204509 0.617617 0.447774 0.00116892
0.287596 -0.684224 -0.310616 0.000182246
0.276069 -0.67618 -0.323038 0.0017215
0.286992 -0.690809 -0.292047 0.000129482
0.275021 -0.681685 -0.304347 0.00269771
0.0234035 0.422814 0.184025 0.000594013
0.0310018 0.441739 0.190915 0.00103289
-0.000315204 0.423868 0.188594 0.00149798
0.00688575 0.442707 0.194946 0.00104245
0.237189 -0.537237 -0.270037 0.0023461
0.249844 -0.521118 -0.275029 0.0071104
0.238554 -0.54776 -0.253038 0.00520329
0.247625 -0.531977 -0.260495 0.00377974
0.214584 -0.596734 -0.281172 0.000577834
0.216933 -0.578234 -0.28943 0.00528079
0.212041 -0.597068 -0.262659 0.00493341
0.215873 -0.579649 -0.269822 0.000839674
-0.311579 -0.164788 -0.184363 0.00171655
-0.309859 -0.150851 -0.177769 0.000528768
-0.331206 -0.160945 -0.178479 0.00100606
-0.330993 -0.147796 -0.1723 0.000158614
-0.287327 0.0165585 -0.112169 0.00174046
-0.282791 0.0329663 -0.105727 0.00132335
-0.304459 0.0209074 -0.108502 0.000767943
-0.30055 0.0370965 -0.101246 0.000955046
-0.403919 -0.637559 -0.211187 2.13621e-05
-0.408044 -0.617106 -0.223747 0.000706615
-0.400571 -0.644606 -0.191643 0.00025137
-0.405012 -0.626269 -0.20433 0.00140918
0.305141 -0.200809 0.00368678 0.00572132
0.309848 -0.185759 0.0140694 0.000676798
0.297013 -0.187267 0.0128133 0.000196814
0.29855 -0.174139 0.0223085 0.00147042
-0.163964 0.288722 0.0894627 5.6622e-05
-0.157555 0.302837 0.084802 7.90328e-05
-0.174075 0.287409 0.106697 0.00102241
-0.167859 0.300757 0.101881 0.000787582
0.345175 -0.696214 -0.282712 0.00099024
0.333852 -0.694266 -0.287692 0.000806725
0.341227 -0.70097 -0.272615 9.91617e-05
0.329967 -0.69947 -0.27654 0.000152664
0.438116 0.0973376 -0.0961902 9.56536e-05
0.427611 0.10264 -0.104924 0.00103132
0.43415 0.0901673 -0.0793606 0.001067
0.423285 0.0953591 -0.0898211 0.000871301
0.202186 -0.392522 -0.060405 0.000473285
0.188755 -0.383864 -0.058563 0.000439013
0.191136 -0.38601 -0.0553584 0.000484245
0.176946 -0.377374 -0.0537649 0.00884515
-0.414926 -0.446028 -0.225148 0.00391156
-0.416944 -0.431884 -0.230194 0.00365161
-0.41654 -0.451744 -0.210736 0.00034454
-0.419658 -0.436617 -0.213457 0.00199513
0.185635 0.610798 0.276247 0.00201481
0.16997 0.622146 0.277677 0.000553488
0.1827 0.629848 0.28315 0.00162479
0.167387 0.640605 0.284346 0.000737185
0.0574802 0.117934 0.0540514 0.0024735
0.0602353 0.139285 0.0589455 0.00118119
0.036393 0.117111 0.0549036 0.0023865
0.043631 0.13884 0.0604452 0.000302591
-0.0174846 0.427661 0.0120097 0.000344628
-0.0154569 0.443216 0.0178461 0.000777355
-0.0340042 0.428469 0.0181597 0.000748729
-0.0318969 0.442539 0.0229827 0.000966245
-0.162663 0.00344514 0.187466 1.22563e-05
-0.164702 0.0165968 0.19209 0.00151921
-0.176739 0.00388108 0.189485 0.000758523
-0.178371 0.0171648 0.194713 0.00170659
-0.214931 0.119737 0.113265 0.000886863
-0.212773 0.131732 0.11149 0.000191517
-0.218196 0.113041 0.132312 0.00474812
-0.219895 0.118005 0.127803 0.000912407
0.0857738 0.0678443 -0.162643 0.000647029
0.0838455 0.0812516 -0.155513 0.000823204
0.0670214 0.0731162 -0.15813 0.00155952
0.0669896 0.0878608 -0.151577 0.000771142
-0.139018 0.106392 -0.106725 0.00117283
-0.135544 0.121393 -0.100843 0.000495651
-0.156284 0.104509 -0.101543 0.00132095
-0.1531 0.121931 -0.0951804 0.00153136
0.48634 -0.201803 -0.0869049 0.00166256
0.485846 -0.183385 -0.0871026 0.00218962
0.48583 -0.202516 -0.0702291 0.00143628
0.485493 -0.185459 -0.0713784 0.000670253
0.218633 -0.596653 -0.448994 0.00158607
0.215927 -0.577547 -0.444422 0.00154053
0.199604 -0.596516 -0.442425 0.00315767
0.19664 -0.577055 -0.437741 0.00301179
0.384507 -0.522165 -0.452571 0.000606083
0.387804 -0.504161 -0.44259 0.0025845
0.363608 -0.520837 -0.451077 0.00323385
0.368056 -0.503139 -0.441355 2.32793e-05
0.144265 0.167321 -0.062965 0.000462324
0.131426 0.171685 -0.0667585 0.00238021
0.150239 0.17654 -0.0523555 0.000533545
0.138243 0.181128 -0.0568132 0.00266658
0.294612 -0.0347138 -0.239134 0.000957645
0.306568 -0.00982151 -0.233795 0.000930094
0.271224 -0.0420681 -0.235193 0.00320906
0.280803 -0.0181076 -0.229816 0.0012825
0.00793059 0.133195 0.065992 0.00197179
0.0175634 0.154447 0.0715855 0.000761255
-0.0139889 0.128892 0.0683279 0.000408197
-0.00500805 0.149384 0.0730161 0.000810588
0.294014 -0.606218 -0.469292 0.000877705
0.288859 -0.591979 -0.466023 0.00386673
0.280297 -0.611835 -0.46127 0.00314528
0.273996 -0.597583 -0.459429 0.00169234
-0.00158955 0.815764 0.341136 0.00517195
-0.00520344 0.829051 0.346441 0.00841997
-0.0220849 0.816093 0.345896 0.00472391
-0.0250991 0.829194 0.35082 0.0052269
-0.183776 0.555311 0.28651 0.000662709
-0.180221 0.569793 0.285018 0.000204176
-0.187264 0.55574 0.303607 0.000505028
-0.184236 0.571213 0.304374 0.00120137
0.164278 0.219772 -0.0196054 0.000449618
0.152555 0.229802 -0.0243528 0.00124763
0.174568 0.227263 -0.00777935 0.000886153
0.163097 0.238241 -0.0125208 9.73363e-05
-0.0319697 -0.196044 -0.170319 0.00114474
-0.0496054 -0.193576 -0.179007 0.000199149
-0.0315498 -0.204281 -0.155959 0.00108418
-0.0505917 -0.2015 -0.165252 0.00193936
-0.192062 -0.207498 -0.179036 0.00435924
-0.20282 -0.204646 -0.183944 0.000280516
-0.196802 -0.215804 -0.170845 0.00641752
-0.207607 -0.211787 -0.176116 0.00461082
-0.285506 -0.50804 -0.103886 0.00414358
-0.288212 -0.501148 -0.117639 0.0040607
-0.287314 -0.509608 -0.0905248 7.27055e-05
-0.28818 -0.502003 -0.102487 0.00153396
-0.411862 -0.236781 -0.0915003 0.00067183
-0.413119 -0.22243 -0.0962761 0.000212503
-0.4075 -0.239983 -0.0756797 0.000898667
-0.409007 -0.224354 -0.0795966 0.00105815
0.489132 -0.662625 -0.28565 0.0102213
0.473073 -0.670407 -0.30029 0.0038045
0.481726 -0.672401 -0.265101 0.000748977
0.4683 -0.678 -0.278506 0.0122481
-0.0250947 0.191212 0.0994905 0.000676325
-0.0183031 0.204047 0.103647 0.00171249
-0.0464321 0.189718 0.106563 0.000797886
-0.0406573 0.202363 0.110145 0.000156604
0.171645 0.213351 -0.0155255 0.000431584
0.159802 0.224308 -0.0200609 0.00149625
0.18078 0.221432 -0.00291468 0.000158168
0.169409 0.232923 -0.00659006 0.00167678
0.461252 0.0122207 -0.166821 0.00052462
0.457306 0.0267187 -0.177264 0.00100148
0.465378 0.00612317 -0.14632 0.00113841
0.461708 0.0214382 -0.156634 9.04237e-05
0.0936486 0.919731 0.320052 0.00365536
