-0.182021 -0.972334 -0.0311041 0.000567997
-0.154075 -0.976516 0.0367271 0.00163799
-0.182489 -0.970616 0.0137125 0.00263591
0.808328 -0.578019 0.122149 0.0022423
0.823353 -0.547358 0.122077 0.00291379
0.79135 -0.582027 0.142204 0.00675167
0.804171 -0.553074 0.143717 0.0110342
-0.261819 -0.433753 0.844931 0.00291995
-0.296133 -0.420919 0.833151 0.00242447
-0.249318 -0.405274 0.862477 0.00278915
-0.289843 -0.397026 0.849984 0.000555019
0.0191004 0.363668 0.906765 8.73162e-05
0.00658265 0.387017 0.891185 0.00505241
0.0039028 0.336465 0.918457 0.00116213
-0.0105194 0.35844 0.901187 0.00664989
0.0559539 -0.931783 0.331082 0.00260906
0.0233525 -0.936423 0.328276 0.000479678
0.0614214 -0.917936 0.36705 0.00183888
0.0307613 -0.91924 0.369571 0.000730245
-0.424078 -0.152327 -0.754253 0.00201219
-0.456664 -0.150085 -0.759453 0.00586078
-0.424582 -0.144428 -0.722798 0.00152953
-0.459356 -0.142103 -0.729297 0.0052019
-0.762876 -0.506083 0.344777 0.00159261
-0.789426 -0.476733 0.323121 0.000806307
-0.745238 -0.500282 0.385088 9.4489e-05
-0.770491 -0.47158 0.364329 0.00219195
-0.408919 -0.136006 -0.620681 0.00167514
-0.446329 -0.138096 -0.632633 0.00268203
-0.415407 -0.132453 -0.579095 0.00304728
-0.453047 -0.133694 -0.590939 0.000957936
-0.802585 0.158967 -0.0501928 0.00333004
-0.82549 0.166111 -0.0614946 0.000697881
-0.813456 0.162189 -0.0198841 0.00121667
-0.838023 0.170724 -0.0294882 0.00254999
0.369711 -0.930788 -0.145359 0.0148274
0.329143 -0.939448 -0.147435 0.00937426
0.340676 -0.919099 -0.127141 0.00858557
0.299823 -0.930682 -0.130098 0.0104785
0.141583 -0.31349 0.696919 0.00214666
0.141816 -0.279315 0.688884 0.000957739
0.149768 -0.322056 0.731957 0.00136884
0.150661 -0.283969 0.728647 0.000199381
-0.0554453 -0.795548 0.584512 0.000524542
-0.0863292 -0.789057 0.588553 0.000803975
-0.0556115 -0.77457 0.615307 0.00169065
-0.0863116 -0.766984 0.61957 0.00128928
0.167411 0.770577 0.434813 0.00242099
0.167353 0.810808 0.421467 0.00715951
0.151855 0.753787 0.467992 0.00634832
0.150387 0.793106 0.453501 0.0123954
-0.523224 0.118685 -0.562261 0.000450096
-0.550742 0.114008 -0.579796 0.000862903
-0.526743 0.120787 -0.520379 0.00301615
-0.554669 0.11852 -0.534474 0.00330296
0.792973 0.542058 -0.242509 0.00347285
0.774285 0.55746 -0.254754 0.00105144
0.793456 0.548309 -0.211637 0.000597396
0.775815 0.564694 -0.226322 0.000425197
-0.424645 0.0585902 -0.883444 0.00518691
-0.405628 0.0926868 -0.871439 0.011071
-0.447785 0.0493925 -0.873769 0.00664211
-0.431689 0.0802684 -0.862339 0.00839316
0.216169 0.12723 -0.56384 0.000741095
0.165688 0.137135 -0.574392 0.00222738
0.21257 0.154135 -0.558968 0.00199847
0.162852 0.163938 -0.56954 7.60232e-05
0.172227 0.0324083 0.797863 0.000403467
0.16862 0.0680867 0.789642 0.00102941
0.184177 0.0285054 0.831425 0.00368371
0.180819 0.0626404 0.823453 0.00318443
0.0684507 0.317905 0.511545 0.00150967
0.0514698 0.340115 0.492763 0.00602085
0.0576903 0.294502 0.529737 0.000896492
0.0418432 0.314322 0.515374 0.00228622
0.136474 -0.585823 0.643614 0.000933555
0.138353 -0.549332 0.644004 0.000642485
0.13921 -0.586773 0.671485 0.00124937
0.141015 -0.552853 0.678478 0.000113425
0.63266 0.128808 -0.750239 0.000239298
0.600884 0.15076 -0.766247 0.00402191
0.661474 0.13018 -0.726055 7.61793e-05
0.629849 0.15429 -0.742495 0.00380258
-0.656122 0.111833 0.705544 0.00128264
-0.675966 0.112821 0.683848 0.00245655
-0.647622 0.105534 0.73522 0.0142446
-0.668368 0.104158 0.713963 0.0123607
0.0691647 0.941962 0.22474 0.000647751
0.0353681 0.947417 0.205372 0.00101684
0.0575881 0.933841 0.26252 9.85538e-05
0.0252817 0.938317 0.243026 0.0019134
-0.103853 -0.940756 0.293962 2.10305e-05
-0.140604 -0.940544 0.282592 0.00272854
-0.0985651 -0.925415 0.333907 0.00135332
-0.137149 -0.92499 0.324839 0.000460686
-0.14701 0.406853 0.510621 0.00396755
-0.13416 0.443745 0.496629 0.00232424
-0.160945 0.387504 0.530853 0.00118172
-0.145601 0.423173 0.518541 0.000634656
-0.58592 -0.133693 -0.581276 0.00141492
-0.613901 -0.132853 -0.594289 0.0017745
-0.587427 -0.134965 -0.547659 0.00419301
-0.616515 -0.13078 -0.555035 0.00747115
-0.938853 -0.254423 -0.0411596 0.002083
-0.948806 -0.225195 -0.0576185 0.00520174
-0.933112 -0.264091 -0.00130146 0.00225936
-0.942386 -0.236484 -0.0165319 0.000668433
0.377747 0.196452 -0.448024 0.000594655
0.349412 0.225128 -0.458084 0.00128028
0.403008 0.204016 -0.420346 0.0016981
0.375807 0.232924 -0.429567 0.00130271
0.943603 0.0129965 0.228185 0.00777403
0.9419 0.0459284 0.231019 0.00456039
0.935871 0.00442207 0.241639 0.0075301
0.934483 0.0372988 0.245994 0.0118414
-0.158527 0.370063 -0.433636 0.0119387
-0.153047 0.401774 -0.441817 2.23368e-05
-0.160055 0.358653 -0.404024 0.0414825
-0.155816 0.392075 -0.412667 0.0151785
0.65895 0.633466 0.113911 0.00905384
0.635937 0.66479 0.108362 0.0139039
0.638936 0.621048 0.129469 0.00743206
0.615116 0.652645 0.123807 0.0012201
0.610334 -0.131875 -0.0622275 0.000918957
0.616206 -0.102766 -0.0673521 0.000229141
0.612071 -0.132554 -0.0292259 0.00156227
0.618135 -0.102463 -0.0321979 0.00149027
0.141309 0.326469 0.67659 0.000306602
0.139365 0.362956 0.661533 0.000417091
0.1501 0.321357 0.721968 0.00142321
0.147644 0.35754 0.708064 0.00201993
-0.347363 -0.554336 -0.134845 0.00533749
-0.365988 -0.529878 -0.13665 0.0028023
-0.367822 -0.563651 -0.126156 0.00208479
-0.38675 -0.536813 -0.127371 0.00544853
-0.919332 -0.302854 -0.0927912 0.000510896
-0.930971 -0.273123 -0.107633 0.00379531
-0.914287 -0.316697 -0.0535106 0.00367634
-0.926651 -0.286866 -0.0704556 6.25202e-05
-0.124652 0.725502 -0.607444 0.000684866
-0.12457 0.73838 -0.599696 0.00410647
-0.14367 0.734825 -0.589932 0.0150419
-0.142341 0.748903 -0.58188 0.0095713
0.914258 -0.389948 0.0768909 0.00155325
0.933063 -0.349506 0.0741969 0.000882236
0.907326 -0.396466 0.105251 0.0027121
0.924214 -0.355494 0.104762 0.00274262
0.782165 -0.300351 -0.248009 0.000133488
0.750252 -0.284488 -0.264486 0.00163885
0.770782 -0.328334 -0.226338 0.00155611
0.740934 -0.311717 -0.24318 0.00384533
0.154543 0.350458 0.901969 0.000847777
0.140815 0.38017 0.893107 0.00219933
0.131117 0.324865 0.913878 0.000484965
0.117529 0.35408 0.905106 0.000390958
0.0200285 -0.483568 0.390912 0.000844587
-0.00912681 -0.475056 0.398485 0.000154983
0.018337 -0.460057 0.413002 0.00225277
-0.0104282 -0.451805 0.42042 0.00273278
0.927927 0.326424 0.195736 0.0126009
0.909517 0.374195 0.187181 0.0115267
0.918948 0.307288 0.215916 0.00187187
0.900652 0.354663 0.208459 0.00331469
-0.329504 -0.929278 -0.0518476 0.000693888
-0.353981 -0.917202 -0.0631111 0.00219471
-0.334718 -0.931884 -0.0173842 0.00251255
-0.358766 -0.919936 -0.0299316 0.000463522
0.811881 0.18345 -0.534169 0.00270859
0.798104 0.204738 -0.545468 0.00296039
0.833302 0.188862 -0.502825 0.000152912
0.821009 0.211757 -0.512594 0.000287191
-0.780845 -0.00843526 -0.580413 0.00113449
-0.780014 0.0218999 -0.574081 0.00296133
-0.805786 -0.00480315 -0.552054 0.00500096
-0.801194 0.0272671 -0.547754 0.000417614
-0.62847 0.0454611 -0.746096 0.00264743
-0.620897 0.0677276 -0.735246 0.00911572
-0.658342 0.0459482 -0.715221 4.04893e-05
-0.654986 0.0682604 -0.707632 0.0063046
0.112162 0.949847 0.179768 0.000899392
0.0759243 0.954542 0.160955 0.000931393
0.107781 0.941058 0.217494 0.000265191
0.0723091 0.945624 0.198055 0.00308393
0.404224 -0.699074 -0.132863 0.00208522
0.381971 -0.671551 -0.130359 0.00308699
0.365935 -0.709296 -0.138412 0.00523316
0.345598 -0.680013 -0.134 0.00588589
0.356834 0.291776 -0.869404 0.000411718
0.336154 0.311381 -0.870368 0.000415435
0.376828 0.308062 -0.854849 0.00108738
0.355798 0.327082 -0.856254 0.00103676
-0.00694166 -0.993461 0.0815378 0.00367916
-0.0473659 -0.99081 0.0865474 0.00326621
-0.0222536 -0.983302 0.120648 0.00148747
-0.0649007 -0.980238 0.131155 0.000528659
-0.561363 -0.212006 -0.0671058 0.00116325
-0.569677 -0.182112 -0.0848615 0.000367719
-0.562712 -0.212358 -0.0269451 0.00163794
-0.57109 -0.18468 -0.0429708 0.00203906
-0.315017 -0.739309 -0.137767 0.00012489
-0.329742 -0.714386 -0.131384 0.0017995
-0.348573 -0.745949 -0.139578 0.000152348
-0.3622 -0.720776 -0.133615 0.000176958
-0.0540426 0.683241 -0.690164 0.00195155
-0.0835839 0.681594 -0.686131 0.00332369
-0.0665416 0.705367 -0.667746 0.000375483
-0.0861495 0.70878 -0.663968 0.00140311
0.310508 0.893743 -0.243564 0.00103132
0.272326 0.902337 -0.25209 0.000234481
0.312853 0.903584 -0.208674 0.00256506
0.27433 0.911311 -0.218641 0.000652898
-0.718042 0.125991 0.428113 0.00069073
-0.746183 0.135876 0.399403 0.00167867
-0.710794 0.123767 0.469506 0.000885738
-0.736709 0.134236 0.440906 0.0027821
-0.49326 -0.615308 0.58465 0.000266268
-0.522076 -0.599115 0.580729 0.00356571
-0.480601 -0.603698 0.608464 0.00104678
-0.506285 -0.587271 0.605334 0.00285071
-0.0378489 0.610671 -0.761869 0.00166592
-0.0587138 0.616223 -0.752672 0.000659064
-0.0489523 0.637223 -0.738016 0.00102231
-0.0728884 0.641689 -0.728774 0.00108726
-0.962657 0.11267 -0.0485258 0.00274712
-0.955769 0.137091 -0.0658479 7.42186e-05
-0.963066 0.103729 -0.0121804 0.00104647
-0.959545 0.129309 -0.0317373 0.00127867
0.990678 0.081375 -0.013482 0.000268795
0.989091 0.110945 -0.013389 0.00134112
0.992523 0.0832465 0.0185077 0.00152969
0.990917 0.112853 0.018339 0.0034484
-0.732639 -0.0691647 -0.634132 0.00229826
-0.740776 -0.0461949 -0.643139 0.00917625
-0.750235 -0.07262 -0.603981 0.00732578
-0.758928 -0.0486974 -0.611193 0.00312886
0.120954 0.966202 -0.0335484 0.00167285
0.0881848 0.966772 -0.0450631 0.00053033
0.107753 0.967845 0.00397656 0.00153828
0.071065 0.968597 -0.0116618 0.000728399
-0.724974 -0.651064 -0.0416873 0.00403883
-0.747095 -0.630209 -0.0576934 0.000238501
-0.727369 -0.651403 -0.00358642 0.00282398
-0.751991 -0.630237 -0.0166683 0.00221438
-0.932423 0.175707 -0.209014 0.00357377
-0.919338 0.20087 -0.21476 0.00204188
-0.93393 0.172502 -0.164579 0.00361037
-0.920015 0.199572 -0.174614 0.00964133
0.605208 -0.132445 -0.595836 0.00260235
0.576056 -0.136125 -0.61538 0.00165419
0.604429 -0.135822 -0.564271 0.001392
0.574262 -0.137864 -0.584304 0.00257015
-0.0640257 0.355019 0.480157 0.00318712
-0.0716593 0.384177 0.467651 0.00556178
-0.0839396 0.323085 0.499618 0.00323079
-0.0936792 0.351339 0.486632 0.00439361
0.64016 0.698231 0.119246 0.00377592
0.624124 0.723739 0.105404 0.0164174
0.620328 0.679739 0.143298 0.0210767
0.603664 0.707774 0.131833 0.00891341
-0.15694 -0.110812 -0.589014 0.00665035
-0.178868 -0.106574 -0.576336 0.000673719
-0.181103 -0.107149 -0.573328 0.00140542
-0.203389 -0.10481 -0.563823 0.00317624
0.49284 0.309346 -0.203202 0.00205522
0.476042 0.334807 -0.202097 0.00131466
0.501277 0.316657 -0.171052 0.00173752
0.483959 0.345823 -0.167847 0.000884561
-0.94051 -0.1289 -0.206709 0.00101865
-0.943014 -0.0964527 -0.216785 0.00225078
-0.941013 -0.135614 -0.167259 0.00506539
-0.944696 -0.101396 -0.177471 0.0033149
-0.0881027 -0.0441788 -0.608171 0.00314226
-0.104792 -0.0198891 -0.602242 0.00100592
-0.105561 -0.0456632 -0.60356 0.00150192
-0.126219 -0.0272758 -0.594398 0.00390903
0.293884 -0.146865 -0.699985 0.00537571
0.258271 -0.14601 -0.702112 0.0039739
0.294532 -0.132013 -0.658327 0.00429819
0.258587 -0.131191 -0.66231 0.00509885
0.561314 -0.164953 -0.447053 0.000345573
0.541994 -0.161271 -0.462257 0.00265041
0.554389 -0.171971 -0.417634 0.00402271
0.544918 -0.161624 -0.430805 0.00870235
0.811807 0.367189 -0.441517 0.00529198
0.782707 0.404414 -0.454118 0.00285346
0.828525 0.362961 -0.407416 0.00214034
0.79848 0.402591 -0.41998 0.000763455
0.641989 -0.151557 0.117941 0.00448932
0.632927 -0.121162 0.11055 0.0120544
0.637364 -0.177178 0.131025 0.00863824
0.623392 -0.150026 0.124949 0.00266363
-0.591796 0.111055 0.33376 0.00108534
-0.617129 0.110449 0.314989 0.00197238
-0.596404 0.116022 0.373846 0.00370889
-0.62015 0.115367 0.354975 0.00215999
0.0368307 -0.911093 0.388264 0.00127427
0.00585555 -0.911831 0.390584 0.000457305
0.0429381 -0.893664 0.421406 0.00295268
0.0119737 -0.893059 0.42723 0.00125313
-0.667483 0.114629 -0.189158 0.00188821
-0.700881 0.123461 -0.195854 0.000479232
-0.676823 0.117165 -0.156463 0.000660807
-0.708284 0.125433 -0.162299 0.000931956
0.133009 -0.138164 0.639021 0.00391594
0.136688 -0.0930761 0.652349 0.00140433
0.142986 -0.142566 0.66476 0.00332115
0.14635 -0.095147 0.681137 0.00465227
-0.648263 -0.695465 0.23636 0.000783539
-0.675344 -0.67628 0.213882 0.000516571
-0.63589 -0.684581 0.286547 0.00343003
-0.663305 -0.667216 0.265479 0.00256159
-0.108814 0.259342 -0.535289 0.00210858
-0.0990798 0.288823 -0.525496 0.00135777
-0.141934 0.262907 -0.528951 0.000505169
-0.132578 0.293317 -0.520394 0.00628747
0.268215 -0.491921 0.285552 0.00449691
0.248837 -0.486142 0.28343 0.0114499
0.252035 -0.501193 0.30034 0.00217534
0.240111 -0.485179 0.305883 0.00525407
0.650039 -0.760731 -0.0493881 0.00245797
0.627086 -0.773934 -0.0716138 0.000596014
0.64743 -0.761146 -0.0286918 0.000551038
0.621329 -0.781072 -0.0520194 0.000271899
0.0771383 -0.623081 -0.0157001 0.00170643
0.0444091 -0.624817 -0.0192256 0.00157622
0.0650879 -0.619241 0.0213699 0.00248591
0.0320161 -0.620997 0.0190841 0.0027168
-0.052118 -0.192004 0.961963 1.39547e-06
-0.0785167 -0.161616 0.968801 0.00360782
-0.0772711 -0.206853 0.954753 0.00210608
-0.107673 -0.177316 0.961778 0.00260386
0.160678 -0.443461 0.737248 0.00780803
0.163067 -0.413783 0.737063 0.0102782
0.14949 -0.437629 0.7621 0.00968739
0.151167 -0.408676 0.760761 0.00773196
-0.857659 0.177777 0.168519 0.00625564
-0.880751 0.188916 0.154989 0.00903836
-0.856893 0.175334 0.206525 0.00808645
-0.87697 0.187938 0.190139 0.00749268
0.498743 -0.385495 -0.0268176 0.00116885
0.519141 -0.357645 -0.0365387 0.000645935
0.480287 -0.400946 -0.000114154 0.0047334
0.501185 -0.37411 -0.0108388 0.00420471
0.591854 -0.803072 -0.00856286 0.00101496
0.567724 -0.817877 -0.0315184 0.00239727
0.581168 -0.81236 0.0125525 0.000101528
0.562176 -0.822426 -0.00605476 0.00232861
0.708074 -0.143416 -0.503408 0.00394655
0.677606 -0.143372 -0.529083 0.00175424
0.707674 -0.156705 -0.469905 0.000430517
0.67959 -0.153609 -0.494484 0.00414343
0.0737696 0.481717 0.356008 0.0013691
0.0484491 0.497791 0.339032 0.000523916
0.0574159 0.46152 0.380119 0.00393131
0.0333621 0.480651 0.361729 0.00101703
0.189532 0.127944 0.952315 0.00269184
0.177662 0.157533 0.949184 0.00292297
0.176707 0.103319 0.957919 0.00241025
0.163515 0.136389 0.958499 0.000456648
-0.192799 0.328158 -0.851954 0.00115676
-0.179276 0.34906 -0.860198 0.00132693
-0.197149 0.325328 -0.816824 0.00110567
-0.184598 0.34633 -0.825143 0.00169253
0.917668 0.00770546 0.202982 0.0110955
0.916314 0.0420764 0.206976 0.0073899
0.909886 -0.00141414 0.214156 0.00252411
0.90888 0.0331933 0.217636 0.00565076
0.169234 0.351351 0.471521 0.0117591
0.158891 0.377897 0.447739 0.00238764
0.161119 0.334154 0.507571 0.0124634
0.1524 0.361895 0.484152 0.00141318
0.336272 0.0160154 -0.929838 0.0012322
0.287246 0.0233275 -0.942296 0.00119988
0.318847 -0.015971 -0.937704 0.00311523
0.270783 -0.0090288 -0.949681 0.00039725
0.688722 -0.720959 -0.0689014 0.00015716
0.704067 -0.704364 -0.07949 0.000706753
0.686623 -0.727181 -0.0356297 0.00117184
0.707404 -0.708168 -0.043591 0.00263253
0.140332 0.210183 0.678701 0.000540606
0.137148 0.251628 0.663046 0.00169854
0.145923 0.202268 0.716612 0.00188432
0.142782 0.243825 0.704594 0.0032473
-0.732853 -0.527165 0.383015 0.0033835
-0.758112 -0.499268 0.364944 0.00163694
-0.724195 -0.508723 0.413618 0.000165288
-0.744167 -0.485282 0.403373 0.00100067
0.593634 -0.480416 -0.147987 0.00069
0.596518 -0.454359 -0.148753 0.00722889
0.565173 -0.511594 -0.152228 0.0141141
0.569694 -0.48602 -0.151117 0.00550533
-0.660661 0.111139 0.197723 0.00454394
-0.686286 0.123511 0.196691 0.00319982
-0.657746 0.112386 0.228302 0.00292244
-0.687493 0.123015 0.230154 0.00262084
-0.0243767 0.956107 0.174043 0.00130648
-0.051137 0.955844 0.154203 0.00088029
-0.037838 0.94976 0.210494 0.00312349
-0.0620776 0.950171 0.188265 3.94066e-05
0.120249 0.502411 -0.830008 0.00139121
0.0880392 0.509207 -0.828463 0.00176374
0.107429 0.53435 -0.814331 0.00146097
0.0760763 0.542001 -0.811894 0.00105404
0.182135 0.0413779 0.822456 0.00156272
0.179041 0.0755854 0.814282 0.000740895
0.194786 0.0312046 0.850834 0.00271189
0.191449 0.0647685 0.843648 0.00255547
0.160592 0.299771 -0.922317 0.00100748
0.122768 0.30728 -0.921172 0.00186984
0.130532 0.330785 -0.9188 0.00436983
0.0970537 0.339684 -0.916928 0.0023682
0.203412 -0.155472 0.952165 0.000573386
0.203945 -0.117786 0.949541 0.00690399
0.184212 -0.163438 0.968562 0.0142358
0.184688 -0.12601 0.96549 0.00644163
-0.910098 -0.174758 -0.291687 0.000322775
-0.914953 -0.149522 -0.30646 0.00481642
-0.915655 -0.18459 -0.259205 0.00247706
-0.919408 -0.155344 -0.271813 0.000162468
0.842506 0.20297 -0.477717 0.00228517
0.831636 0.227776 -0.484221 0.00258347
0.861098 0.210491 -0.444649 0.00019193
0.850557 0.235502 -0.45242 0.000595112
-0.654342 -0.452386 -0.156881 0.00105743
-0.677189 -0.422697 -0.171804 0.00302455
-0.667013 -0.483036 -0.1458 0.000205125
-0.684304 -0.447032 -0.161397 0.00353423
0.768173 0.270569 -0.570005 0.0040242
0.74462 0.298052 -0.57926 0.000122993
0.781912 0.27273 -0.547313 0.00264619
0.759445 0.299037 -0.555421 0.00235993
0.610406 0.131353 -0.768782 0.000321322
0.580946 0.15374 -0.783316 0.00175847
0.637138 0.133357 -0.745257 0.00044538
0.605337 0.155248 -0.761139 0.00446675
0.882596 -0.115084 -0.452821 0.00283746
0.880217 -0.0862422 -0.463317 0.00317743
0.892293 -0.127326 -0.427868 0.00166293
0.890926 -0.10079 -0.436266 0.00143074
-0.965023 -0.107391 0.0139817 0.00100992
-0.968095 -0.0764145 0.0022731 0.00123053
-0.962525 -0.113357 0.0492902 0.000696614
-0.964511 -0.0825988 0.0362579 0.00107633
0.252176 -0.216667 -0.894474 0.00412405
0.22109 -0.207572 -0.906817 0.0183737
0.237414 -0.231484 -0.874294 0.0198685
0.203703 -0.2257 -0.885355 0.00908684
0.772954 -0.184834 -0.396589 0.00116438
0.746352 -0.178289 -0.411801 0.000281943
0.76008 -0.203303 -0.37142 0.00375506
0.73156 -0.196108 -0.387315 0.00509901
0.473033 0.380156 -0.0954366 0.0019078
0.455305 0.398559 -0.109677 0.00119964
0.477727 0.382122 -0.0589993 0.00235238
0.459049 0.402391 -0.0744847 0.000562095
0.0752804 -0.157721 -0.971133 0.00063395
0.0573118 -0.143535 -0.97834 0.00494307
0.0554769 -0.172755 -0.961238 0.00747733
0.037701 -0.159786 -0.970893 0.000748766
-0.119689 0.702345 -0.376658 0.000443675
-0.127332 0.737179 -0.381432 0.00115656
-0.11813 0.696139 -0.350162 0.00110093
-0.126314 0.732169 -0.356156 0.000609974
0.0501451 0.560063 -0.219456 0.00122451
0.0100286 0.560725 -0.230847 0.0030194
0.0640174 0.578476 -0.172371 0.00249762
0.0242411 0.578863 -0.185649 0.0049321
-0.17984 0.344756 -0.766649 0.00289813
-0.167428 0.367172 -0.771224 0.00237149
-0.179928 0.344301 -0.733571 0.00292116
-0.166523 0.368829 -0.736516 0.00242565
0.968901 0.000767427 0.23321 0.0018702
0.967359 0.0329411 0.235951 0.0019746
0.962018 -0.0079894 0.247864 0.00165471
0.960612 0.0244296 0.251189 0.000539055
0.441909 0.533056 -0.69369 0.0027159
0.412274 0.550699 -0.701283 0.000201882
0.460273 0.552858 -0.665296 0.00286974
0.425763 0.571595 -0.673924 0.00102885
-0.728076 -0.377073 0.530173 0.000707876
-0.754997 -0.35501 0.509002 0.00238141
-0.709939 -0.369282 0.558189 6.08245e-05
-0.736494 -0.347844 0.538055 0.00122386
0.0378097 -0.35542 0.507579 0.0018861
0.0020541 -0.351326 0.507592 0.00134025
0.0382875 -0.317577 0.528877 0.000840374
0.00110087 -0.313765 0.528083 0.00329395
-0.595192 -0.626927 -0.12281 0.00152002
-0.609258 -0.59178 -0.126386 0.000848921
-0.624433 -0.654879 -0.122057 0.00314341
-0.637419 -0.622134 -0.12659 0.00157656
-0.285758 0.227217 -0.624993 0.000390259
-0.288805 0.224307 -0.64042 0.000101384
-0.288618 0.224111 -0.59444 0.000851482
-0.29731 0.217328 -0.61117 9.95239e-05
-0.447856 -0.196789 -0.357417 0.00203978
-0.457497 -0.178422 -0.371195 0.00836889
-0.457718 -0.205451 -0.326327 0.00868937
-0.472434 -0.189709 -0.339878 0.00523122
0.791471 0.139279 0.14746 0.00303484
0.76754 0.17148 0.142721 0.000238006
0.803974 0.119719 0.156516 0.000950041
0.771846 0.144444 0.14694 0.00315005
0.546946 -0.680396 0.127208 0.00149308
0.54176 -0.650997 0.128791 0.000539049
0.522581 -0.69325 0.134985 0.00132499
0.517013 -0.663013 0.136239 0.00115528
-0.876934 0.10593 -0.395912 0.00133346
-0.868029 0.125106 -0.408405 0.00171288
-0.887562 0.0984551 -0.356137 0.0078247
-0.87727 0.118389 -0.36907 0.0099083
-0.210475 0.288483 -0.911721 0.00196525
-0.192565 0.318538 -0.906542 0.0030865
-0.22942 0.288154 -0.888369 0.00376194
-0.212945 0.313981 -0.888057 0.00723211
-0.881704 -0.220369 0.349304 0.00161668
-0.899002 -0.18978 0.33065 0.00483571
-0.867176 -0.213267 0.383835 1.21172e-06
-0.882908 -0.184331 0.366829 0.00204256
-0.67342 -0.132902 -0.691997 0.000460418
-0.69803 -0.118143 -0.706106 0.0251542
-0.680472 -0.137095 -0.661905 0.000764833
-0.705081 -0.121032 -0.67629 0.00969396
0.717365 0.0120137 0.129498 0.00135832
0.675738 0.0372401 0.120328 0.00394304
0.70645 -0.0138496 0.131228 0.00194869
0.664059 0.0106738 0.121414 0.00198136
-0.534194 -0.572647 0.590489 0.000358885
-0.557789 -0.558236 0.58404 0.00189342
-0.519841 -0.562547 0.616263 0.00266034
-0.542169 -0.545714 0.611856 0.00294388
0.68419 -0.615873 0.114197 0.0110023
0.672293 -0.583586 0.121883 0.00319103
0.650932 -0.623549 0.125654 0.00235849
0.627259 -0.586148 0.135145 0.0130999
-0.28785 -0.125499 -0.932598 0.00312183
-0.309129 -0.104129 -0.927142 0.00286653
-0.312327 -0.12613 -0.920211 0.00032022
-0.334924 -0.105296 -0.915453 0.000510283
0.691103 -0.176612 -0.406383 0.0042716
0.670985 -0.167468 -0.431604 0.0022417
0.681157 -0.196371 -0.375761 0.000265971
0.659805 -0.184576 -0.402641 0.00162856
0.150992 -0.354745 0.899418 0.00837354
0.147304 -0.320494 0.919929 0.000986836
0.121883 -0.351914 0.908288 0.00459153
0.118596 -0.3176 0.929018 0.00278147
-0.168611 -0.952138 0.215917 0.00106329
-0.204052 -0.94997 0.200344 0.00268491
-0.161986 -0.940287 0.252823 0.0021372
-0.197579 -0.938663 0.23752 0.00140193
0.26 0.775356 0.287282 5.42833e-05
0.261725 0.811124 0.281635 0.00258285
0.238079 0.770913 0.312174 0.00137949
0.240954 0.805772 0.304358 0.00402278
-0.747864 0.136581 0.0451821 0.00146535
-0.781138 0.146885 0.037563 0.0002318
-0.741252 0.131849 0.0774323 0.00105114
-0.783871 0.148154 0.0746973 0.000277443
0.263254 -0.549131 0.282052 0.00158912
0.260177 -0.531314 0.286652 0.000330107
0.239007 -0.557347 0.297939 0.00930892
0.238768 -0.534435 0.304576 0.00565816
-0.193407 0.929919 0.179198 0.001933
-0.211684 0.928062 0.162709 0.00267379
-0.196423 0.923394 0.201659 0.003207
-0.214887 0.921052 0.185112 0.00482628
0.695991 -0.17729 -0.407213 0.00333536
0.675599 -0.168022 -0.432144 0.00139339
0.685541 -0.200794 -0.37439 0.00287734
0.664189 -0.188999 -0.40127 0.00502028
0.943825 0.288864 -0.114576 0.00215709
0.929686 0.320325 -0.129693 0.00084
0.950771 0.286417 -0.0638499 0.00322857
0.935398 0.320735 -0.0794249 0.000901469
-0.478888 0.0974099 -0.851795 0.00654044
-0.476356 0.121634 -0.831307 0.00676499
-0.502078 0.102042 -0.831675 0.00179593
-0.502016 0.123041 -0.810134 0.000883532
-0.107922 0.639944 0.0628676 0.00295293
-0.120798 0.668567 0.0492923 0.00615718
-0.111245 0.633555 0.0916415 0.000694122
-0.123466 0.662015 0.0774019 0.00949031
0.910486 -0.170533 -0.390241 0.00867244
0.907424 -0.147073 -0.401744 0.00695476
0.914995 -0.179574 -0.358289 0.00223393
0.908981 -0.159334 -0.373664 0.00100677
-0.538263 0.116561 0.588531 0.000214305
-0.568157 0.115746 0.571999 0.0026823
-0.541495 0.114543 0.621005 0.00158928
-0.57135 0.113959 0.604739 0.00112302
-0.286818 0.0102081 -0.538266 0.00253481
-0.283271 0.0445782 -0.533985 0.000167933
-0.31387 -0.00190457 -0.520485 0.000763776
-0.309088 0.0340386 -0.516906 0.00310045
-0.0663697 0.18451 -0.575568 0.000730079
-0.0626969 0.215254 -0.562922 0.00316103
-0.105355 0.194058 -0.569759 0.00316025
-0.0981005 0.224116 -0.559022 0.00283479
0.118201 0.402363 -0.885416 6.82568e-05
0.0822468 0.400149 -0.890839 0.000507151
0.0964355 0.433186 -0.875661 0.00236751
0.0638787 0.433692 -0.878645 0.0030792
-0.708576 -0.346493 -0.211519 0.00043715
-0.743851 -0.333031 -0.222145 0.000981148
-0.720666 -0.371687 -0.191593 0.00303075
-0.75693 -0.358993 -0.203198 7.35588e-05
0.299959 -0.621896 -0.142276 0.0173844
0.281304 -0.611677 -0.138823 0.0140683
0.27522 -0.615716 -0.122875 0.00178246
0.256903 -0.6127 -0.125135 0.000114671
-0.21428 0.227367 0.921438 0.00234913
-0.241441 0.238819 0.897474 0.0153182
-0.214545 0.193607 0.946304 0.0136392
-0.244436 0.207061 0.921605 0.000174857
-0.799784 -0.428002 0.364696 0.00212888
-0.821451 -0.400998 0.344482 0.00224535
-0.782595 -0.426418 0.400997 0.00186708
-0.806638 -0.400111 0.379582 0.0021401
0.904089 0.398751 -0.0580098 3.28426e-05
0.891583 0.423151 -0.0734914 0.000266786
0.900973 0.406359 -0.0245031 0.000893249
0.890012 0.432462 -0.0454263 0.00123181
-0.687197 -0.189298 0.665285 0.00132017
-0.708025 -0.158778 0.653562 0.0034012
-0.668771 -0.191382 0.686191 0.00291336
-0.689297 -0.157335 0.675602 0.00438154
-0.616882 -0.529513 0.54327 0.000852681
-0.640995 -0.512858 0.532303 0.0001746
-0.605601 -0.521147 0.56773 0.00152432
-0.62996 -0.505005 0.556556 0.00190167
0.14736 0.721902 0.578205 0.00869784
0.142274 0.751147 0.560726 0.00276275
0.141538 0.704114 0.604446 0.00505149
0.133869 0.730084 0.588248 0.00424028
0.204193 -0.577175 0.125825 0.00244869
0.177816 -0.58581 0.116718 0.00346955
0.187359 -0.574876 0.154678 0.00269223
0.161653 -0.582556 0.150827 0.00345811
-0.414109 -0.388338 0.228054 0.00143757
-0.435012 -0.364953 0.215991 0.00147106
-0.407308 -0.378013 0.261685 0.00405738
-0.42846 -0.354158 0.249015 0.000693299
0.254511 0.579761 -0.746914 0.000326636
0.217904 0.591929 -0.74936 0.000399412
0.267499 0.603939 -0.724598 0.000755542
0.23187 0.613731 -0.727463 0.000461222
0.869744 -0.288097 0.181975 0.00432695
0.864624 -0.245825 0.180082 0.00249477
0.866471 -0.318761 0.191632 0.00563544
0.867219 -0.281184 0.192476 0.00612538
0.209763 0.182614 0.939491 0.00189913
0.195088 0.211716 0.934506 0.00338346
0.197336 0.16619 0.955024 0.00761833
0.184061 0.195373 0.949671 0.00558357
0.860615 0.428797 -0.228164 0.00135348
0.844797 0.453099 -0.239369 0.000569896
0.870586 0.426834 -0.193036 0.000467977
0.856222 0.449791 -0.203551 0.000415428
-0.544596 -0.0701967 0.243507 0.00122269
-0.551481 -0.0162305 0.252275 0.00604365
-0.526336 -0.076214 0.276248 0.0027995
-0.5332 -0.0214228 0.285876 0.00393426
0.445451 0.856529 0.135782 0.00330551
0.430326 0.87506 0.12555 0.00527697
0.434639 0.847536 0.159764 0.00153118
0.420331 0.867746 0.151956 0.00183608
0.00793291 0.692993 -0.685692 0.000119669
-0.0229644 0.690992 -0.684632 0.0016553
0.000707227 0.720622 -0.660632 0.00282167
-0.028368 0.718905 -0.659357 0.00145191
-0.823533 -0.23222 -0.319876 0.000374799
-0.840558 -0.216842 -0.336531 0.0037569
-0.835179 -0.243308 -0.297041 0.00695098
-0.849516 -0.225857 -0.310435 0.0111685
0.470117 -0.0905035 -0.869742 0.00255744
0.434964 -0.0945661 -0.887641 0.00279363
0.478213 -0.113276 -0.850093 0.00869809
0.443254 -0.116962 -0.868211 0.00867342
0.0322063 0.730484 0.642876 0.000115043
0.0064307 0.746104 0.623325 0.000666338
0.0241112 0.713738 0.662014 0.000398079
-0.00249583 0.728966 0.642458 0.00121537
0.141517 0.468912 0.67212 0.00105822
0.137607 0.497709 0.659762 0.00124892
0.148313 0.472973 0.710702 0.00201756
0.143401 0.500328 0.698844 0.000580585
-0.225698 0.287214 -0.692455 0.000519291
-0.208602 0.31093 -0.703362 0.00159956
-0.231534 0.280514 -0.653678 0.000237596
-0.214426 0.304164 -0.664387 0.00218295
-0.131142 -0.199372 -0.865617 0.00300717
-0.167509 -0.194028 -0.864349 0.00684866
-0.14118 -0.189507 -0.833315 0.0035103
-0.17823 -0.184843 -0.831075 0.000698114
-0.085058 -0.000914324 0.975143 0.000618318
-0.0982802 0.036682 0.972205 0.0010551
-0.110476 -0.0291083 0.972074 0.000869154
-0.124618 0.00874992 0.969062 0.00195474
0.525996 0.83011 0.0598937 0.00483794
0.499778 0.847903 0.0366123 0.00573156
0.518409 0.813156 0.100852 0.0101127
0.49864 0.830926 0.0805998 0.00724034
-0.439245 -0.421257 -0.0507214 0.000106672
-0.459023 -0.395515 -0.0553598 0.00143483
-0.435767 -0.424816 -0.0263231 0.00214208
-0.458789 -0.399109 -0.032536 0.00108959
0.0554453 0.547794 0.235207 0.00473662
0.0323376 0.558709 0.227999 0.000981283
0.0370135 0.540838 0.261646 0.00190212
0.0154196 0.554073 0.251035 0.00550169
0.0320409 0.61221 -0.758947 0.00065476
0.00720743 0.606753 -0.762239 0.00196685
0.0169682 0.641871 -0.738644 0.00286907
-0.00939812 0.637398 -0.739861 0.00105738
-0.800479 -0.22524 0.511546 0.00339706
-0.809581 -0.197984 0.507832 0.00328921
-0.782773 -0.220475 0.539644 0.00272609
-0.793932 -0.192268 0.532607 0.00257535
0.709233 -0.464632 0.129032 0.000186313
0.716939 -0.411926 0.134782 0.00380022
0.679032 -0.498042 0.120349 0.00421769
0.684412 -0.449598 0.122918 0.00286522
0.163157 -0.975436 0.100441 9.86845e-06
0.128638 -0.9857 0.0883316 0.00365837
0.153342 -0.968496 0.140468 0.00409782
0.119312 -0.978739 0.13378 0.000743651
0.524015 -0.34896 0.00864836 0.000233926
0.540288 -0.324193 -0.00366927 1.78554e-05
0.516968 -0.353779 0.0388204 0.00248987
0.531982 -0.330348 0.0271595 0.00379397
0.154661 -0.29101 0.746428 0.000601951
0.155886 -0.242689 0.752378 0.000692571
0.165459 -0.302373 0.778973 0.000110368
0.168386 -0.250445 0.789209 0.000924635
0.371013 -0.876461 -0.188659 0.00543506
0.331745 -0.868524 -0.189943 4.09698e-05
0.326959 -0.865743 -0.185375 0.00249078
0.290356 -0.857772 -0.185207 0.00197985
0.0739512 -0.0191559 -0.613403 0.00156439
0.0464445 0.00050602 -0.613751 0.000374041
0.0283113 -0.0375064 -0.613458 0.000388637
0.0193 -0.00828422 -0.611229 0.00325055
-0.450965 -0.208339 0.349204 0.00128506
-0.469743 -0.187084 0.338077 0.00262596
-0.433628 -0.198975 0.375404 0.000845876
-0.450845 -0.175562 0.368021 0.00228699
0.446287 -0.474016 0.16398 0.00631402
0.422779 -0.464181 0.152528 0.0129584
0.421494 -0.490183 0.178632 0.0103284
0.402939 -0.479 0.169709 0.00624144
-0.0790642 -0.135192 -0.681014 0.00373209
-0.108037 -0.137295 -0.686595 0.00217405
-0.0822494 -0.137788 -0.656119 0.00184558
-0.106351 -0.133746 -0.655314 0.00213539
0.373635 0.903446 0.0206379 0.00129152
0.338028 0.914374 0.00199061 0.00114836
0.378783 0.899831 0.0540356 0.000980764
0.344935 0.911059 0.0400724 0.00175163
-0.0376908 0.661587 0.71186 0.000533621
-0.0579305 0.675792 0.694322 0.00222763
-0.0424307 0.63713 0.732585 0.00159965
-0.0563777 0.653855 0.715363 0.00218033
-0.271796 -0.132725 -0.584451 0.00212859
-0.302673 -0.136925 -0.588792 0.00208612
-0.286328 -0.125578 -0.551855 0.0129823
-0.319974 -0.129761 -0.557091 0.00775602
0.550265 0.411822 -0.705359 0.000810934
0.522255 0.43675 -0.711036 0.000581181
0.572677 0.423155 -0.684236 0.0017667
0.539242 0.449222 -0.690359 0.000757488
-0.594857 0.00395071 0.0237111 0.00444045
-0.59715 0.0286318 0.0128791 0.00143213
-0.598677 -0.00402714 0.0566366 0.00114646
-0.600874 0.0213298 0.0482498 0.00372767
0.654373 0.712322 -0.160514 0.00241643
0.631213 0.726551 -0.177462 0.0038489
0.666876 0.710504 -0.125951 0.000562644
0.644667 0.725568 -0.144118 0.00161654
0.0724358 0.301315 -0.521791 0.00348772
0.0342432 0.311437 -0.521947 0.000211331
0.0371646 0.324961 -0.510561 0.00232473
0.0129968 0.341822 -0.50707 0.00356725
0.574046 0.668626 -0.442805 0.0036195
0.539935 0.690253 -0.444707 0.000481037
0.581828 0.679529 -0.404004 0.00145127
0.549536 0.702105 -0.405185 0.00265371
0.422059 0.435972 -0.0672042 0.00361731
0.405599 0.452728 -0.0801937 0.000680456
0.427798 0.439187 -0.0309852 0.000753227
0.411676 0.45565 -0.0449391 0.00232479
-0.0755285 0.789701 -0.564853 0.00116719
-0.0787274 0.798405 -0.553915 0.00220001
-0.0918628 0.79807 -0.545853 0.00157136
-0.0917657 0.810717 -0.533134 0.0022353
-0.232116 -0.10208 0.944621 9.83323e-06
-0.269812 -0.0803728 0.934627 0.00225315
-0.250496 -0.120642 0.938935 0.00123944
-0.289756 -0.101554 0.92877 0.000717637
0.0826125 0.552779 0.798908 0.00077965
0.0439113 0.565931 0.79364 0.00061363
0.0658909 0.533161 0.81601 0.0010434
0.027491 0.546744 0.810319 0.00289602
0.743049 -0.043774 -0.658105 0.000277613
0.738853 -0.0195748 -0.666409 0.00208837
0.763586 -0.0496155 -0.63031 0.00231305
0.758377 -0.0252785 -0.639607 0.000872981
0.808129 0.263773 -0.506445 0.00120059
0.798418 0.286996 -0.505569 0.00261991
0.824288 0.271898 -0.475679 0.000697508
0.815684 0.295633 -0.474559 0.00130648
0.232531 0.0941118 -0.953019 0.000446918
0.197061 0.118372 -0.956509 0.000932678
0.198509 0.0575281 -0.965463 0.0022487
0.175724 0.0918094 -0.96546 0.00116794
0.598323 -0.691342 0.116176 0.00667983
0.591809 -0.664411 0.122385 0.000967595
0.573071 -0.700016 0.127653 0.0024208
0.567262 -0.674076 0.130534 0.00425881
0.0645179 -0.208591 0.579556 0.00236357
0.0409274 -0.18548 0.585269 0.000871865
0.0248501 -0.209644 0.577387 0.00173815
0.00361825 -0.180827 0.58372 0.00414382
-0.586479 -0.722804 0.314381 0.000685457
-0.612719 -0.708669 0.296225 0.0014343
-0.571757 -0.719513 0.346705 0.00046278
-0.597273 -0.705548 0.329544 5.5719e-05
-0.00322474 0.726916 -0.647767 0.000812138
-0.0293288 0.726807 -0.645906 0.00132432
-0.0154095 0.748457 -0.625152 0.00104977
-0.0321291 0.752628 -0.620968 0.00204459
-0.384667 0.169558 0.78871 0.00647323
-0.409658 0.155426 0.757672 0.00420068
-0.395413 0.146708 0.816703 0.009716
-0.416019 0.141573 0.790039 0.00619114
0.846465 0.49399 -0.109116 0.00203714
0.829089 0.518301 -0.13812 4.16369e-05
0.849525 0.492894 -0.0717474 0.00329198
0.832461 0.517913 -0.102714 0.00171697
0.2046 0.170668 0.852034 0.00513809
0.195718 0.199515 0.845065 0.000563408
0.212576 0.165134 0.876992 0.000864643
0.203049 0.192388 0.870878 0.00622763
-0.360965 0.0181302 -0.908018 0.000503484
-0.361835 0.0483552 -0.904893 0.00184356
-0.389207 0.00540469 -0.901529 0.00407851
-0.387647 0.0358591 -0.897732 0.00134759
-0.0451916 0.411874 0.884008 0.000744096
-0.0607976 0.439063 0.863746 0.00412014
-0.0616462 0.385478 0.898395 0.00382734
-0.077771 0.411864 0.877737 0.00255579
0.213585 0.607779 -0.736852 0.000119675
0.175581 0.613974 -0.740166 0.000733193
0.228022 0.630408 -0.714204 0.000734814
0.189508 0.634481 -0.717527 0.00167764
-0.369933 0.0471284 0.458036 0.0122445
-0.399797 0.0542088 0.445716 0.00084841
-0.349558 0.0616075 0.478577 0.00705903
-0.381319 0.0674024 0.465012 0.00201328
-0.0186603 0.10995 0.600923 0.00183319
-0.0424871 0.14197 0.593463 0.00313143
-0.0325223 0.0823507 0.600983 0.0026842
-0.0626448 0.112955 0.589995 0.00442288
-0.568993 0.113736 -0.620627 0.000389251
-0.599226 0.105667 -0.629815 0.00672604
-0.578518 0.115295 -0.577553 0.00263266
-0.611354 0.109583 -0.589262 0.0027024
0.329648 0.834638 -0.384975 0.000853815
0.299836 0.838566 -0.397684 0.00174629
0.34105 0.84802 -0.350436 0.00150076
0.311324 0.852087 -0.363284 9.7446e-05
0.771468 0.60216 -0.115638 0.000383769
0.756207 0.621335 -0.135082 0.0026277
0.771571 0.605041 -0.0803787 0.00202491
0.75677 0.624717 -0.0990655 0.000776443
0.927364 0.346785 -0.0124038 0.000351777
0.913938 0.376864 -0.0287929 0.00121479
0.929161 0.342665 0.0277181 0.000297867
0.916065 0.376461 0.0120489 0.000254995
0.225551 0.502857 0.251577 0.00281095
0.203936 0.513082 0.246046 0.00293582
0.215574 0.497399 0.284195 0.00385615
0.193114 0.508794 0.276416 0.00288893
-0.200353 -0.611055 -0.136542 0.0119691
-0.229716 -0.592755 -0.13343 0.0075496
-0.214652 -0.615409 -0.12208 0.00233057
-0.242369 -0.592957 -0.119499 0.00612811
-0.539186 -0.397641 -0.184538 0.00318433
-0.556319 -0.371438 -0.198285 0.00155755
-0.551243 -0.430477 -0.163654 0.00167148
-0.56863 -0.399774 -0.177646 0.00163527
-0.112308 0.618976 -0.689872 0.0018522
-0.103587 0.646258 -0.701099 0.00813484
-0.119944 0.615088 -0.659764 0.00969217
-0.111188 0.642782 -0.670854 1.8369e-07
-0.318347 -0.0561423 0.511903 0.000136008
-0.342234 -0.0306058 0.504325 0.00508828
-0.289938 -0.0644112 0.525271 0.00267648
-0.318395 -0.035678 0.516307 0.00308854
0.0050162 0.503965 0.312593 0.0100277
-0.0151839 0.521495 0.298824 0.00189249
0.00327644 0.491177 0.342818 0.00395028
-0.0162441 0.50928 0.329988 0.0043891
0.494929 -0.300173 -0.265663 0.0131942
0.503363 -0.269583 -0.264818 9.95535e-05
0.491995 -0.302467 -0.245704 0.00230987
0.504796 -0.266344 -0.240606 0.00994139
0.178516 0.946538 0.150012 0.00160989
0.146766 0.955308 0.132227 0.00232279
0.175794 0.937166 0.185172 0.00210793
0.142302 0.946968 0.166887 0.000760547
-0.930248 0.0625139 0.257086 0.00145701
-0.932735 0.0885756 0.238181 0.00116477
-0.923924 0.0617478 0.295243 0.00358438
-0.926681 0.0871159 0.276894 0.0029605
-0.574202 -0.197406 0.767995 0.00384441
-0.590749 -0.166559 0.759344 0.00170867
-0.542303 -0.193656 0.792598 0.00389377
-0.561664 -0.165381 0.781159 0.00119836
-0.169332 0.82863 0.112918 0.003906
-0.17863 0.851658 0.0939128 0.00124378
-0.171333 0.832035 0.144039 0.00441034
-0.181204 0.850011 0.125115 0.00415374
-0.429866 -0.0115122 0.423653 0.000958368
-0.449852 0.00135818 0.413435 0.00818823
-0.397527 -0.00189916 0.441377 0.00925916
-0.420869 0.0104858 0.430143 0.000403534
-0.709417 0.116032 0.650388 0.000783315
-0.721986 0.130469 0.630458 0.00291763
-0.69715 0.107295 0.680133 0.00919003
-0.712687 0.115638 0.659308 0.0074512
0.951787 0.232214 0.113137 0.00613539
0.942187 0.26977 0.103203 0.00623899
0.959015 0.226737 0.150648 0.00487119
0.949217 0.264405 0.141063 0.00375225
-0.399856 -0.157451 -0.771823 0.00230223
-0.431462 -0.156475 -0.777335 0.00484415
-0.401261 -0.151139 -0.742534 1.15475e-05
-0.436486 -0.149602 -0.748385 0.00311994
-0.268988 -0.690469 -0.12966 0.000196837
-0.288572 -0.663385 -0.124759 0.000990954
-0.302102 -0.703109 -0.129978 0.000768408
-0.320551 -0.677598 -0.126554 0.000390319
-0.131902 0.46954 0.760112 0.00335287
-0.121121 0.499473 0.747617 0.00027648
-0.127152 0.462165 0.806714 0.00306689
-0.116236 0.493376 0.793408 0.00604575
0.34481 0.743589 0.213042 0.00147868
0.342949 0.778878 0.209406 0.00260622
0.315009 0.73025 0.235205 0.000826139
0.315123 0.768058 0.231889 0.00202246
0.730614 -0.178334 0.133376 9.56227e-05
0.691902 -0.160836 0.123858 0.00291404
0.709456 -0.208664 0.13045 0.0018056
0.672099 -0.189841 0.121944 0.00254293
-0.186692 0.339797 -0.528438 0.000214995
-0.172985 0.365841 -0.534736 0.00124955
-0.186312 0.334246 -0.492719 0.00314978
-0.173279 0.359629 -0.49895 0.0016358
0.486533 -0.263478 -0.333459 0.0329547
0.495379 -0.229624 -0.333585 0.00502328
0.491975 -0.269623 -0.307393 0.0201659
0.50053 -0.236385 -0.309333 0.00356902
0.98637 0.0699545 0.103121 3.72531e-05
0.986792 0.10371 0.0941805 0.00268298
0.983537 0.0565644 0.130259 0.00100423
0.983798 0.089547 0.123764 0.00154098
0.141311 0.506081 0.673648 0.000829517
0.137702 0.535527 0.661743 0.00105275
0.146876 0.513897 0.715051 0.000291007
0.142234 0.541354 0.70237 0.00298156
0.810098 -0.051885 -0.575154 0.000607814
0.804681 -0.0276109 -0.584979 0.00135071
0.824759 -0.0470394 -0.546909 0.00352027
0.819042 -0.0235236 -0.561638 0.000751873
0.843456 0.501036 -0.0971768 0.00203613
0.826207 0.525538 -0.127262 6.55075e-05
0.845257 0.50086 -0.0611409 0.00349456
0.827966 0.525817 -0.0922468 0.00229684
0.13653 0.511092 -0.821603 0.00215138
0.103225 0.520514 -0.820669 0.00105371
0.129091 0.542917 -0.805359 0.00149933
0.0955414 0.553943 -0.803973 0.00273655
0.142505 -0.303293 0.622779 0.00547844
0.133358 -0.274401 0.618167 0.00340499
0.140606 -0.295642 0.657023 0.0017673
0.140151 -0.262366 0.651205 0.00212309
-0.16811 0.940252 0.151486 0.00201649
-0.185342 0.937875 0.135155 0.00329658
-0.168103 0.934879 0.174707 0.00307481
-0.185771 0.932849 0.15843 0.00456279
-0.906508 -0.0319715 0.345406 0.00110758
-0.913726 0.00236313 0.329182 0.0019888
-0.893512 -0.0321977 0.382153 0.00235903
-0.900819 0.00146997 0.366435 0.00334314
-0.234599 -0.701158 0.650925 0.00122705
-0.271141 -0.685606 0.653972 0.000422252
-0.228699 -0.676519 0.67529 0.00262414
-0.265642 -0.659774 0.678763 0.00173047
0.970912 -0.176888 -0.102788 0.00456681
0.980847 -0.140597 -0.107468 0.000403469
0.97657 -0.180891 -0.0691856 0.00201559
0.985081 -0.145707 -0.0753115 0.00207544
0.583813 -0.591036 0.117058 0.0078663
0.558998 -0.55289 0.126003 0.000892229
0.557376 -0.596149 0.12578 0.00121057
0.534585 -0.559425 0.133848 0.00239026
-0.399566 -0.256104 0.382992 0.00154668
-0.421531 -0.231099 0.375495 0.00291379
-0.375623 -0.24752 0.41491 0.00329378
-0.394031 -0.22335 0.408405 0.00168904
0.295926 -0.937826 0.223813 0.0125504
0.27448 -0.910955 0.246076 0.0131574
0.269921 -0.933671 0.245058 0.00674009
0.247577 -0.909245 0.265346 0.0163367
-0.289602 0.22318 0.757086 0.000280317
-0.314018 0.202415 0.72481 0.00174571
-0.301897 0.214692 0.793153 0.000658763
-0.328684 0.192855 0.761981 0.00132431
0.556196 -0.0873752 -0.275674 0.00106217
0.553739 -0.0599664 -0.286044 4.88832e-05
0.569849 -0.0952229 -0.243799 0.000225259
0.572055 -0.0655711 -0.251698 0.00206994
0.438387 -0.880045 0.0847913 0.0109249
0.411505 -0.898027 0.0858196 0.00591412
0.415199 -0.899031 0.105629 0.00146527
0.399272 -0.902859 0.112918 0.00354914
0.402901 -0.0512184 -0.904391 0.00238612
0.362986 -0.041029 -0.916546 0.00202456
0.391796 -0.0706056 -0.905741 0.000368378
0.357063 -0.0630105 -0.917834 0.00181696
-0.794004 -0.359463 -0.222532 0.0164763
-0.808214 -0.34383 -0.235077 0.018132
-0.807873 -0.370169 -0.192182 0.00335243
-0.821953 -0.355092 -0.203296 0.00228114
0.587719 0.197114 -0.0129945 0.00227961
0.578355 0.226642 -0.00998592 0.000328967
0.591301 0.206379 0.0199847 0.00455597
0.580055 0.237836 0.0216343 0.00551359
0.619436 0.0630087 0.0111763 0.00287755
0.612988 0.0921663 0.00466638 0.00468411
0.627763 0.0611869 0.048017 0.00738058
0.620854 0.0925537 0.0436223 0.00467129
-0.523433 -0.0541428 0.290823 0.000636328
-0.530574 -0.000931635 0.298057 0.00767991
-0.503358 -0.0528413 0.324134 0.00104319
-0.510204 -0.0083908 0.329368 0.00601429
0.0660914 -0.190467 -0.84864 0.00240791
0.0368702 -0.194267 -0.859787 0.00414408
0.0648319 -0.183833 -0.819132 0.00493281
0.0352186 -0.188456 -0.828643 0.00483214
0.087509 -0.972479 0.168735 0.00258562
0.0491994 -0.976183 0.168131 0.00124054
0.0720824 -0.963684 0.208311 0.005041
0.0350898 -0.968946 0.207857 0.00133253
0.849609 -0.0832239 -0.50802 0.00159728
0.843908 -0.0581464 -0.52444 0.000505664
0.863707 -0.087963 -0.478327 0.00411912
0.859951 -0.0613146 -0.492231 0.00201949
-0.0817152 0.208671 -0.95207 0.00115709
-0.073954 0.241892 -0.94118 0.00498771
-0.12538 0.207616 -0.950882 0.00222639
-0.115944 0.241937 -0.940181 0.00103389
-0.050011 -0.61772 0.0642146 0.000469972
-0.0786911 -0.616596 0.0584025 0.00229901
-0.0530499 -0.611463 0.0932293 0.00215339
-0.0829242 -0.610856 0.0863263 0.000743071
0.984032 -0.161481 -0.0161426 0.000309878
0.988067 -0.123497 -0.0225229 0.00079804
0.988792 -0.166342 0.0230739 0.00569424
0.990584 -0.124155 0.0173455 0.00176222
0.938562 -0.313374 -0.147792 0.00233386
0.95414 -0.27099 -0.162876 0.00701656
0.931462 -0.341237 -0.111005 0.000205638
0.948286 -0.297835 -0.126069 0.00396449
-0.0908953 -0.0552876 0.601811 0.000362343
-0.124093 -0.0373802 0.595656 0.000715784
-0.108268 -0.0801575 0.59459 0.00112102
-0.143955 -0.0648779 0.5892 4.4801e-05
-0.421504 -0.47983 -0.156612 0.00975008
-0.436102 -0.453936 -0.162452 0.00640418
-0.419636 -0.488154 -0.13612 0.00777274
-0.432206 -0.463383 -0.141291 0.00974278
-0.52535 -0.532852 0.631747 0.000546997
-0.548577 -0.512632 0.629945 0.000705039
-0.509429 -0.519927 0.658113 0.00136444
-0.53362 -0.496057 0.660385 0.00380866
-0.483552 -0.607546 -0.121353 0.00313486
-0.497295 -0.569135 -0.124301 0.00388258
-0.517454 -0.630878 -0.126629 0.00185903
-0.52969 -0.59162 -0.129307 0.0034653
-0.110164 0.608726 -0.545712 9.99963e-05
-0.109709 0.639843 -0.558532 0.00164842
-0.109675 0.606588 -0.509806 0.00034122
-0.109636 0.638558 -0.521891 0.00144896
-0.0730672 0.00382718 0.976372 0.000490709
-0.0862575 0.0382898 0.973165 0.00144453
-0.0996393 -0.0255785 0.97362 0.000784436
-0.113015 0.0121251 0.970618 0.00176861
0.236104 0.11962 0.943504 0.00278847
0.22855 0.151442 0.941266 0.00182785
0.226948 0.103982 0.960357 0.00970299
0.220003 0.136858 0.960828 0.0127629
-0.670274 -0.490573 -0.142253 0.000783482
-0.688265 -0.454204 -0.158176 0.00276607
-0.69412 -0.519388 -0.132859 0.00346115
-0.706932 -0.482055 -0.148162 0.00214462
0.336663 0.502406 -0.0735578 0.00191098
0.307314 0.51836 -0.0827778 0.00177047
0.347027 0.500857 -0.0334626 0.00123318
0.314836 0.518521 -0.0454827 0.0023389
-0.122503 0.710383 0.107795 0.000272246
-0.130604 0.737806 0.0908078 0.00170572
-0.123259 0.716867 0.154337 0.000250573
-0.129643 0.745034 0.139144 0.000996676
0.615191 -0.0760851 -0.108843 0.00139934
0.613231 -0.0517004 -0.12519 0.000387582
0.621495 -0.0727447 -0.0719536 0.00183915
0.618181 -0.0481529 -0.0877853 0.00131486
-0.181501 -0.173504 -0.961378 0.0110662
-0.208724 -0.15288 -0.959049 0.0113511
-0.198256 -0.171731 -0.940343 0.00612385
-0.231194 -0.152954 -0.938277 0.00332068
0.0486254 -0.668 0.721688 0.00456379
0.0207363 -0.667349 0.72979 0.000465831
0.034896 -0.639406 0.747453 0.00475729
0.00646014 -0.640329 0.752021 0.000439325
0.173335 0.512679 0.273786 0.000896798
0.145357 0.523822 0.26268 0.00247697
0.1642 0.500409 0.310969 0.00485016
0.137971 0.511416 0.300939 0.00335414
0.578299 0.472641 -0.6484 0.00380762
0.529727 0.508995 -0.654788 0.00013884
0.593558 0.486409 -0.620548 0.00158739
0.547482 0.521484 -0.628021 0.00129943
0.848764 0.0612749 0.170046 0.00383231
0.80931 0.0785081 0.152474 0.00465154
0.858756 0.0447379 0.180886 0.000725785
0.818666 0.061962 0.163119 0.00167659
-0.172125 0.933136 -0.191815 0.00140799
-0.188356 0.933204 -0.199031 0.00336442
-0.172803 0.937118 -0.152289 0.00455996
-0.195256 0.932245 -0.167685 0.00187103
0.383016 0.298377 -0.855896 0.000823759
0.361546 0.318089 -0.857803 0.000897205
0.402009 0.311818 -0.840505 0.00239442
0.380125 0.332472 -0.842768 0.00184452
0.516634 -0.138188 -0.690515 0.00152782
0.49489 -0.143144 -0.704032 0.00069816
0.52698 -0.140657 -0.65687 0.0044158
0.503441 -0.145247 -0.66585 0.00828351
0.336102 -0.510707 0.167382 0.00454863
0.310706 -0.512709 0.152279 0.00991135
0.324403 -0.521955 0.19102 0.0149567
0.294488 -0.527143 0.175069 0.000541832
0.701917 0.628571 -0.289288 0.00099145
0.683446 0.642951 -0.299637 0.000464293
0.707057 0.632792 -0.259588 0.00132463
0.688462 0.64717 -0.270551 0.00143514
-0.539992 -0.781943 0.247766 0.000973469
-0.563001 -0.76906 0.237961 0.000336937
-0.533738 -0.775217 0.283178 0.000309517
-0.556235 -0.76222 0.273179 0.000281341
-0.127015 0.476759 -0.435344 0.000220985
-0.124298 0.511645 -0.438767 0.00569837
-0.119053 0.472777 -0.392481 0.00848346
-0.117539 0.508349 -0.39671 0.00170876
0.221282 0.266677 -0.921386 0.00137913
0.176802 0.271107 -0.925048 0.0017572
0.187575 0.294398 -0.921157 0.00314179
0.146934 0.301265 -0.92208 0.00050343
0.375111 0.263179 -0.410976 0.00181076
0.339322 0.28875 -0.423815 0.00115422
0.396122 0.27526 -0.387308 0.00121282
0.363043 0.299932 -0.398184 5.35877e-05
0.489033 0.38674 0.137963 0.00427605
0.461282 0.404763 0.136671 0.0130281
0.488516 0.397034 0.16711 0.0236748
0.459518 0.414821 0.164509 0.0118638
-0.297209 0.103942 -0.517613 0.000242042
-0.289829 0.129943 -0.51538 0.000545832
-0.314032 0.0955259 -0.502486 0.00557293
-0.315308 0.119011 -0.503134 0.000681634
-0.305197 -0.530864 -0.02395 0.00348234
-0.331166 -0.51675 -0.0289646 0.000428081
-0.303507 -0.527429 0.00628794 0.00700773
-0.332145 -0.514495 -0.00333981 0.00268731
0.878147 0.462706 0.134011 0.0132041
0.857446 0.500026 0.132991 0.0136403
0.854263 0.444787 0.139721 0.0152647
0.82955 0.48413 0.147862 0.0158015
-0.427653 -0.14946 -0.409129 0.00338644
-0.431408 -0.123731 -0.421142 0.00851628
-0.434692 -0.156187 -0.378485 0.0100091
-0.439425 -0.129693 -0.392055 0.00322882
0.688124 -0.422164 -0.167945 0.001191
0.671301 -0.39834 -0.179179 0.000540136
0.671626 -0.461127 -0.166333 0.0132407
0.662355 -0.436356 -0.173803 0.0100137
0.688456 -0.297394 -0.249772 0.000797748
0.662576 -0.281319 -0.269201 0.00200243
0.675156 -0.331453 -0.229116 0.00498319
0.652685 -0.314864 -0.24729 0.00935259
0.267804 0.459233 -0.300506 0.00081961
0.228415 0.466619 -0.314043 0.00281171
0.28049 0.472784 -0.260758 0.00230729
0.244661 0.480668 -0.27293 0.00546581
0.477707 -0.407573 -0.0771849 0.00178346
0.498208 -0.38142 -0.0782755 0.00208763
