0.324521 -0.283856 -0.535655 0.00235329
0.307457 -0.280003 -0.549694 0.00257842
-0.931332 0.126486 0.0650437 0.000838837
-0.921223 0.145798 0.0584797 0.0036722
-0.921436 0.112463 0.0919783 0.00567638
-0.912918 0.13245 0.0850839 0.00281133
-0.0904177 0.290702 0.714856 0.000282193
-0.104812 0.296744 0.694925 0.00260428
-0.099834 0.273114 0.738266 0.000317665
-0.112976 0.278599 0.719986 0.00186432
0.404826 0.562423 0.0346859 0.00134955
0.39402 0.575691 0.0206695 0.000182889
0.403601 0.559258 0.0601113 0.000457283
0.392816 0.57281 0.0454139 0.00166256
-0.903177 0.0949197 0.141191 0.000434831
-0.898869 0.111824 0.133706 0.000525453
-0.897481 0.0760748 0.163302 0.0030131
-0.89206 0.0949991 0.157258 0.00209396
0.387163 0.183484 0.531578 0.000848756
0.37995 0.205254 0.524622 0.000426829
0.379395 0.175345 0.547153 0.00169588
0.370155 0.195295 0.543327 0.00012343
0.970748 -0.0278648 0.0819919 3.57832e-05
0.97243 -0.00331698 0.0838031 0.000172118
0.961254 -0.0286944 0.102218 0.00211183
0.96351 -0.004567 0.104211 0.00383739
-0.906055 -0.0863766 0.145538 0.000194245
-0.928808 -0.0650981 0.133676 0.00139868
-0.887225 -0.0850612 0.167393 0.00165936
-0.909801 -0.0622645 0.155763 0.00200019
0.823384 -0.114823 -0.208673 0.000560695
0.82649 -0.0914053 -0.214666 0.00106558
0.829391 -0.141779 -0.188286 0.00130463
0.841361 -0.114196 -0.19251 6.04518e-05
0.185499 0.149895 -0.820879 0.000277125
0.155682 0.167982 -0.832429 0.00083893
0.20408 0.15398 -0.793338 0.00158821
0.174449 0.1712 -0.806794 0.00347881
0.134429 0.858849 -0.161924 0.00105917
0.110293 0.869189 -0.166403 0.000994432
0.139353 0.874692 -0.138572 2.9322e-05
0.11676 0.885984 -0.143552 0.000808058
-0.703954 -0.278151 0.156335 0.00127302
-0.727728 -0.260543 0.146787 0.0024787
-0.695887 -0.268377 0.184359 0.00169421
-0.719798 -0.250354 0.174153 0.00284912
0.349622 0.0879771 -0.629429 0.000463425
0.333889 0.108764 -0.644506 3.53545e-05
0.36521 0.0927452 -0.607893 0.00173138
0.349167 0.11337 -0.620518 0.000419488
-0.847252 0.200399 -0.0866365 0.000270854
-0.82961 0.214417 -0.0861119 0.00031006
-0.8596 0.199177 -0.0613185 0.000526144
-0.841977 0.213293 -0.0613642 0.000753245
-0.213916 -0.776586 0.170791 0.00190431
-0.234429 -0.757357 0.161022 0.00057386
-0.200989 -0.768935 0.196851 0.0041663
-0.221478 -0.750133 0.190926 0.00255111
0.599631 0.373056 -0.0614128 3.77869e-05
0.579802 0.384827 -0.0750072 0.000766945
0.604661 0.375285 -0.028953 0.00208682
0.583874 0.387946 -0.0423023 0.000534335
0.0380171 0.518098 -0.439793 0.00109204
0.0107496 0.519401 -0.448016 0.00468105
0.0438589 0.53853 -0.422011 0.00162025
0.0155602 0.540005 -0.430796 0.00485241
0.272125 0.0252137 0.76182 0.000269781
0.26876 0.0530662 0.758201 0.0017379
0.253755 0.0120877 0.786643 0.00310065
0.252096 0.0403877 0.783029 0.00396315
0.0121567 -0.253788 -0.801611 0.00199958
-0.00161554 -0.243481 -0.816023 0.00102504
0.0110804 -0.268035 -0.781493 0.00297406
-0.00492112 -0.256962 -0.795531 0.00089055
0.366295 0.216176 -0.536615 6.59049e-05
0.347667 0.233019 -0.543961 0.00103333
0.378593 0.221232 -0.515642 0.00145303
0.359922 0.237528 -0.522388 0.00303424
0.325122 -0.423114 -0.392859 0.00249858
0.297182 -0.432582 -0.413434 0.00607841
0.333893 -0.439624 -0.367391 0.00183039
0.306117 -0.450087 -0.38772 0.00482593
0.168845 -0.0169559 -0.905407 0.00134476
0.157114 0.00359698 -0.91244 0.00274062
0.184265 -0.0155964 -0.887037 0.000152774
0.176014 0.00491691 -0.893858 0.00174318
0.485005 0.455483 -0.097665 0.0026273
0.464745 0.4733 -0.110208 0.00123048
0.497305 0.453712 -0.068981 3.2207e-05
0.477731 0.471404 -0.0813123 0.000720031
-0.246174 0.192657 -0.717108 0.0020725
-0.230543 0.213457 -0.713443 0.00120993
-0.268199 0.191157 -0.6936 0.00387237
-0.251979 0.212098 -0.690472 0.00154049
-0.474006 0.410891 0.231957 0.000464321
-0.503661 0.392288 0.211694 0.00290938
-0.473297 0.397266 0.252002 2.76675e-05
-0.498532 0.38388 0.233659 0.002548
0.368144 0.115197 0.592117 0.00154831
0.362771 0.133649 0.587377 0.000691088
0.357392 0.107861 0.61045 0.00127515
0.352104 0.126165 0.60902 0.000929447
-0.603229 -0.363746 -0.11387 5.09058e-05
-0.618902 -0.349878 -0.12023 0.0010026
-0.612336 -0.366284 -0.0902745 0.00208088
-0.626621 -0.353219 -0.0999036 0.00160748
-0.0563604 -0.696514 -0.313728 0.000193292
-0.0734098 -0.686485 -0.319235 0.00140581
-0.0694961 -0.714559 -0.300422 0.000170652
-0.0870509 -0.704617 -0.305983 0.00287094
-0.167321 -0.219948 0.770378 0.000467012
-0.190026 -0.209134 0.760064 0.000167775
-0.157621 -0.207737 0.791811 6.5242e-05
-0.181503 -0.197129 0.784151 0.00106114
0.315899 -0.606789 0.204207 0.00206085
0.330869 -0.582057 0.210121 0.00250545
0.295708 -0.612176 0.229203 0.00160068
0.31121 -0.588301 0.235872 0.000798902
-0.168444 -0.422317 -0.504679 0.000388728
-0.184386 -0.40747 -0.510201 0.00112715
-0.1819 -0.432641 -0.48493 0.000255527
-0.198383 -0.417671 -0.489777 0.00166045
-0.312679 -0.378787 -0.444418 0.00156135
-0.318968 -0.356774 -0.457639 0.0040148
-0.327281 -0.395912 -0.418695 0.00178941
-0.333066 -0.373064 -0.432687 0.0007176
-0.323256 -0.393938 -0.42186 0.000412495
-0.329041 -0.371091 -0.435851 0.00228542
-0.335556 -0.407143 -0.398551 0.0011173
-0.340501 -0.385235 -0.411942 0.00152746
-0.172243 0.215533 -0.769997 0.000903632
-0.157262 0.234206 -0.7595 0.000615497
-0.194341 0.216206 -0.746543 0.000228319
-0.179879 0.235027 -0.73812 0.000123446
0.410475 -0.517101 -0.164273 0.000287452
0.405431 -0.515016 -0.178004 0.000248317
0.407851 -0.532174 -0.140859 0.000757575
0.412497 -0.523343 -0.151415 0.00187786
0.781982 0.0417214 0.258246 0.00070391
0.784676 0.069723 0.252429 0.00189871
0.753783 0.0253831 0.273678 0.00324195
0.756576 0.0538416 0.267557 0.00362953
0.727621 -0.175458 -0.248968 0.0013307
0.707821 -0.179538 -0.263463 0.0027109
0.731811 -0.192615 -0.234828 0.00184462
0.711821 -0.197439 -0.249711 0.00369837
0.161485 -0.146396 0.844812 0.00234007
0.164476 -0.132652 0.863656 0.00469382
0.133379 -0.149714 0.861543 0.00522587
0.135796 -0.135146 0.879964 0.00072826
-0.236959 -0.284806 0.62478 0.000706732
-0.261441 -0.272566 0.612431 0.000485354
-0.228286 -0.271637 0.650887 0.00153347
-0.252319 -0.258735 0.64069 0.00156
-0.827301 0.162002 0.166494 0.00106068
-0.844404 0.1583 0.149789 0.00240587
-0.82263 0.138984 0.18882 0.00195003
-0.8369 0.140061 0.17315 0.0028452
0.833241 0.207682 0.095342 0.00172254
0.819489 0.223727 0.084966 0.00285204
0.823027 0.204419 0.113744 1.64476e-05
0.809718 0.219773 0.104429 0.000138654
0.162207 0.451503 -0.471835 0.000495729
0.133741 0.459409 -0.47415 0.000239614
0.16476 0.466916 -0.450505 0.00260951
0.136961 0.476266 -0.453282 0.00242315
0.385779 -0.50345 -0.236862 0.00198705
0.360507 -0.512122 -0.259672 0.000361289
0.394407 -0.514179 -0.209077 0.00291969
0.369024 -0.522715 -0.232529 0.0002426
0.876398 0.183731 -0.0506779 0.000957095
0.853052 0.197636 -0.0660345 0.00247893
0.88905 0.181775 -0.0216382 0.0022145
0.865932 0.195361 -0.0375324 0.000822677
-0.483045 0.465463 0.0879243 0.000238615
-0.460994 0.490766 0.0792817 0.00073426
-0.48737 0.450719 0.119995 0.00125838
-0.47137 0.472096 0.109092 0.000899173
-0.193039 -0.770142 0.199808 0.00172946
-0.213575 -0.751133 0.193677 9.13742e-05
-0.180923 -0.761629 0.22236 0.00487942
-0.200409 -0.74372 0.218052 0.00240506
0.763502 -0.118402 0.246179 0.00215199
0.766916 -0.094379 0.258332 0.00225748
0.734876 -0.11874 0.264136 0.00349915
0.737434 -0.0926772 0.278465 0.00229058
0.388515 0.584532 -0.0160903 0.000452946
0.374113 0.601405 -0.0255316 0.00164205
0.387104 0.585423 0.00752152 0.000555535
0.373449 0.601401 -0.00491991 0.00233053
-0.00787295 -0.702001 0.310056 0.00174645
-0.031293 -0.693481 0.318076 0.00161319
-0.0256123 -0.674779 0.326302 0.0020316
-0.0549726 -0.67152 0.328922 0.000954168
0.155976 0.774088 -0.220302 0.000867564
0.131418 0.780276 -0.229761 0.000837098
0.164876 0.7926 -0.200259 0.000577475
0.141248 0.80025 -0.208379 0.000897061
0.163207 -0.239743 0.741992 0.00189373
0.167466 -0.222894 0.75791 0.00301203
0.139286 -0.240435 0.760323 0.00157542
0.140055 -0.226561 0.777445 0.00156032
-0.54887 -0.0898785 -0.413254 0.0021169
-0.553478 -0.0667782 -0.412078 0.000209357
-0.569043 -0.0940015 -0.396724 0.00218353
-0.574147 -0.0708334 -0.39566 0.00047037
-0.185199 0.62833 -0.318462 0.00270891
-0.172249 0.647218 -0.310268 0.00187055
-0.213667 0.623055 -0.301931 0.000161697
-0.200887 0.641689 -0.29535 0.000384862
-0.274482 0.174975 -0.69626 0.00217661
-0.259845 0.195782 -0.69418 0.000598882
-0.292403 0.173333 -0.671379 0.00138097
-0.277732 0.195011 -0.668377 0.00113958
0.266905 -0.406735 0.451724 0.000559573
0.273511 -0.385792 0.466852 0.00158648
0.243913 -0.406328 0.469374 0.000787444
0.248544 -0.386602 0.48716 0.000605774
-0.133077 -0.273286 0.728566 0.00282238
-0.153982 -0.266056 0.722606 0.00181973
-0.120758 -0.25807 0.751898 0.000440664
-0.144086 -0.25093 0.746623 0.000228133
-0.0563503 0.0901852 -0.95698 0.00379753
-0.0476476 0.114867 -0.944515 0.0017896
-0.0807163 0.0962102 -0.950065 0.00256084
-0.0759107 0.11768 -0.93756 0.00212729
-0.0774065 0.913903 0.141535 0.00199308
-0.0963492 0.928538 0.112708 0.00282022
-0.0884591 0.889659 0.162073 0.00220326
-0.109974 0.900405 0.134436 0.000719913
-0.835556 0.211907 -0.0746139 0.00127963
-0.817412 0.227185 -0.0730649 0.000717523
-0.849219 0.20986 -0.0456881 0.000642886
-0.831738 0.225399 -0.0456887 0.00128753
0.36054 -0.290124 -0.487406 0.00142798
0.340633 -0.287976 -0.504222 0.00253961
0.364472 -0.308551 -0.466923 0.0019622
0.344048 -0.306702 -0.484121 0.00186911
0.434836 -0.479841 0.177932 0.000665519
0.454919 -0.459655 0.177395 0.000309158
0.412969 -0.484517 0.205793 0.00292381
0.432156 -0.464928 0.205679 0.00247452
-0.174304 -0.879849 0.076461 0.00227705
-0.20271 -0.864314 0.0613075 0.00446429
-0.167405 -0.872196 0.105802 0.00180159
-0.196628 -0.855193 0.0902473 0.00208894
0.430492 0.132747 0.505478 0.00125665
0.428627 0.159564 0.491011 0.00186137
0.410771 0.122596 0.527012 0.00279084
0.407938 0.147653 0.515414 0.00500135
0.491731 -0.466892 -0.0475205 0.00122889
0.501142 -0.454255 -0.0571146 0.000317325
0.487387 -0.476784 -0.021277 0.00430318
0.497426 -0.463157 -0.0309733 0.00159399
-0.126764 0.362472 -0.598873 0.00162985
-0.149422 0.36377 -0.593737 0.00598855
-0.137936 0.375725 -0.573242 0.000121905
-0.161573 0.376541 -0.569742 0.00569413
0.426916 0.275061 -0.423537 0.000194409
0.397887 0.283287 -0.441259 0.00395147
0.440679 0.28416 -0.402897 0.000660203
0.411718 0.291886 -0.420339 0.00323561
0.168172 -0.351045 0.583273 0.00355849
0.179142 -0.332458 0.60607 0.00068924
0.156929 -0.3426 0.605048 0.00163479
0.164276 -0.326731 0.627089 0.000968589
-0.577988 -0.249216 -0.312138 0.0019488
-0.590062 -0.228708 -0.318379 0.00100385
-0.591438 -0.26066 -0.29336 0.000656156
-0.603494 -0.239537 -0.300699 0.0006094
0.0186404 -0.776033 -0.269543 0.00131
0.0126884 -0.757061 -0.282534 0.002169
0.00582241 -0.79581 -0.256659 0.00121512
-0.000148896 -0.777608 -0.270017 0.00214527
-0.00861999 -0.115166 0.953232 0.00037832
-0.0309574 -0.10667 0.955277 0.000945039
-0.00556019 -0.0940982 0.969029 0.00162099
-0.0285841 -0.0866615 0.970508 0.000897112
-0.172019 0.479685 -0.441876 0.00120374
-0.160532 0.504594 -0.424633 0.00156817
-0.195517 0.48572 -0.422672 0.000172252
-0.183663 0.510475 -0.405891 0.000862709
-0.133746 0.215844 0.793415 0.00195104
-0.153627 0.214358 0.779629 0.00217163
-0.136023 0.199588 0.814412 0.000467306
-0.155095 0.198442 0.800304 0.00062864
-0.514118 -0.0380322 -0.44888 0.00151935
-0.515914 -0.0117623 -0.446716 1.24535e-06
-0.531121 -0.0427909 -0.432716 4.32086e-05
-0.533063 -0.0177532 -0.429866 0.00213461
-0.0633862 -0.987012 -0.0245213 0.00283701
-0.0859453 -0.977816 -0.0413258 0.00713286
-0.0628765 -0.983322 0.00568851 0.00230885
-0.085665 -0.972372 -0.0128212 0.00167542
0.264796 0.0782571 -0.759589 0.000865734
0.253616 0.105471 -0.767296 0.00140771
0.278814 0.0820439 -0.736765 0.000937856
0.265608 0.107145 -0.746398 0.000154372
0.29785 -0.650918 -0.187033 0.00039107
0.308733 -0.629639 -0.197023 0.00113496
0.302675 -0.665647 -0.154566 8.72517e-06
0.315915 -0.642902 -0.163072 0.000740464
-0.300971 0.421634 0.408349 0.000166093
-0.329233 0.412062 0.392201 4.96652e-05
-0.29885 0.400418 0.427626 0.00262443
-0.328656 0.390436 0.411494 0.00189647
-0.63182 -0.247872 0.269749 0.000762126
-0.654793 -0.232949 0.2623 0.000196107
-0.61747 -0.236991 0.289344 0.000468583
-0.638826 -0.222714 0.282431 0.000624806
-0.147205 -0.169421 -0.843467 0.000931322
-0.158868 -0.149635 -0.848678 0.00217565
-0.168588 -0.175102 -0.822981 0.00221993
-0.176717 -0.155581 -0.828616 0.000812304
0.0654245 -0.0147108 -0.982386 0.000709253
0.0426059 0.00216234 -0.989996 0.00226225
0.0655632 -0.0197223 -0.983031 0.000523965
0.0427447 -0.00284915 -0.990641 0.0021192
-0.511313 -0.416201 0.168953 0.00108308
-0.527611 -0.401976 0.165811 0.000193362
-0.509605 -0.407314 0.195596 0.00296635
-0.524187 -0.391206 0.194327 4.3477e-05
-0.503233 0.154947 -0.429276 0.00128731
-0.491143 0.17589 -0.427029 0.00116301
-0.522377 0.143477 -0.416132 0.000772552
-0.511796 0.16531 -0.413304 0.0013026
-0.777293 -0.250668 0.106407 0.00292221
-0.794213 -0.244413 0.0928631 0.00302588
-0.76383 -0.242465 0.132868 0.00187801
-0.781164 -0.236041 0.11956 0.00167303
0.501367 0.13934 -0.432116 2.062e-05
0.478728 0.16071 -0.444005 0.000815688
0.519275 0.13916 -0.413162 0.00326939
0.496456 0.161051 -0.425434 0.00219672
0.206003 0.0682771 0.85177 0.00432843
0.191785 0.0956623 0.852995 0.00231934
0.19047 0.0599769 0.871411 0.00288977
0.176007 0.0864693 0.873063 0.000853796
-0.339376 0.132571 0.62502 0.000297355
-0.340872 0.153014 0.61375 0.000907494
-0.330418 0.122658 0.64467 0.00087243
-0.327546 0.146582 0.634929 0.000171029
-0.335479 0.513176 0.287209 5.57084e-06
-0.364509 0.498853 0.265974 0.000181617
-0.331334 0.485902 0.313433 0.0034048
-0.361116 0.471862 0.292658 0.00452268
0.0812046 -0.74104 -0.279706 0.00018135
0.0619535 -0.733375 -0.289289 0.000197643
0.0758565 -0.761736 -0.268572 0.00113951
0.0594179 -0.752608 -0.278756 0.00120983
0.32398 0.0811237 -0.668785 0.000268718
0.308258 0.101513 -0.683811 0.00119459
0.343816 0.0812583 -0.642733 0.00187107
0.328619 0.102633 -0.657611 0.00137347
0.821269 -0.226789 -0.0519848 0.00358528
0.800736 -0.242304 -0.0817068 0.00270201
0.814491 -0.234272 -0.01789 0.00499691
0.791815 -0.252399 -0.0469749 0.000687319
0.570627 0.349663 -0.18921 0.00285966
0.551122 0.368399 -0.195977 0.0028012
0.579786 0.359236 -0.159975 0.00078576
0.559058 0.377293 -0.16786 0.00385988
0.367722 0.580783 0.13372 0.000817905
0.356833 0.600679 0.12516 0.00010204
0.363047 0.575516 0.160928 0.00108883
0.351991 0.595796 0.153584 0.00149118
-0.277281 0.146564 -0.715424 0.00365811
-0.265657 0.16789 -0.713108 0.0018011
-0.292479 0.139568 -0.691705 1.61281e-05
-0.280056 0.16311 -0.692058 0.00053685
-0.555457 0.305222 0.276965 0.000780015
-0.571707 0.302956 0.261611 0.00178556
-0.553874 0.289771 0.295693 0.000284609
-0.568762 0.289072 0.281814 0.000845762
0.295898 -0.28987 0.553677 0.000634204
0.304701 -0.272513 0.564871 0.00166694
0.269767 -0.296705 0.571796 0.00162812
0.278002 -0.279231 0.583494 0.000607872
-0.181227 -0.875402 -0.0887102 0.00222985
-0.193813 -0.860277 -0.0945701 0.00386953
-0.183158 -0.875744 -0.0588338 0.00398416
-0.19794 -0.859849 -0.064656 0.00138991
0.437017 -0.495656 -0.145682 0.000277378
0.432381 -0.494811 -0.158932 0.000164509
0.433115 -0.510852 -0.120977 0.001234
0.439544 -0.501885 -0.131035 0.00244693
0.936111 0.0605143 -0.120649 0.000725188
0.921365 0.0765955 -0.129183 0.0013377
0.947709 0.0639476 -0.101131 0.000951335
0.93345 0.0802295 -0.10777 0.00301289
-0.464045 0.240374 -0.417957 0.000922497
-0.450231 0.26295 -0.415421 0.00133648
-0.484984 0.231282 -0.400989 0.00149323
-0.470931 0.254799 -0.398923 0.000660076
-0.422219 -0.0288628 -0.53863 0.00405003
-0.417195 -0.00752081 -0.544322 0.00502535
-0.443511 -0.0389699 -0.519718 0.00131655
-0.439771 -0.0153712 -0.524627 0.000718558
-0.0779963 0.377271 0.589804 0.000229771
-0.099227 0.381668 0.572683 0.00301603
-0.0861931 0.363211 0.610622 0.00177201
-0.107767 0.366208 0.593113 0.00171982
0.520076 0.439031 0.0434885 0.00181032
0.504656 0.452402 0.0286409 0.000795366
0.521307 0.436211 0.0734779 0.00373519
0.506008 0.450515 0.0609611 0.00269814
-0.768581 -0.261123 -0.0950901 0.0023522
-0.780589 -0.249922 -0.107821 0.00363928
-0.766599 -0.265968 -0.0658295 0.00142004
-0.783359 -0.253665 -0.0820322 0.00119775
0.207087 0.797215 0.147854 0.00125679
0.193149 0.817806 0.139987 0.00017
0.195978 0.789085 0.17062 0.000741563
0.183424 0.809387 0.162003 0.000204533
0.568783 0.0723205 -0.393866 0.00155137
0.558959 0.095867 -0.400473 0.0015726
0.588795 0.0711756 -0.376243 0.00420858
0.579831 0.0961415 -0.383648 0.000467528
-0.453705 -0.0250707 0.509559 0.00247265
-0.460728 -0.00193232 0.501961 0.00216528
-0.441085 -0.0238828 0.523714 0.00250417
-0.447128 -0.000926968 0.51715 0.00257234
-0.318655 0.30063 0.514396 0.00231289
-0.337421 0.297798 0.496273 0.00236253
-0.311177 0.2834 0.538988 0.00283625
-0.329884 0.28093 0.52065 0.00264324
0.0823663 0.767216 0.257456 0.000238054
0.0684125 0.781312 0.250552 0.00143548
0.0715156 0.74802 0.273164 0.000139951
0.0565499 0.762175 0.266198 0.00106686
-0.353417 0.173808 0.579639 0.00167236
-0.366513 0.180494 0.56209 0.000951679
-0.336616 0.164411 0.607233 0.00214671
-0.346057 0.174088 0.591798 0.000393668
-0.0132694 -0.183364 0.889784 0.00139476
-0.0334024 -0.174954 0.895262 2.26688e-05
-0.0180681 -0.168119 0.902171 0.00114823
-0.0390388 -0.159646 0.906765 0.00191589
0.760695 -0.218693 -0.178866 0.000375041
0.735895 -0.228029 -0.198102 0.00325613
0.765362 -0.236165 -0.152045 0.00205132
0.740137 -0.246006 -0.172284 0.00429655
-0.513816 -0.361379 -0.26318 0.00221366
-0.523707 -0.3438 -0.271907 0.000640358
-0.518176 -0.375174 -0.238666 0.00236645
-0.530184 -0.357351 -0.2467 0.00101433
-0.491776 0.125116 -0.44925 0.000524503
-0.481675 0.144523 -0.448451 0.00172994
-0.513704 0.115413 -0.436747 0.00328478
-0.502612 0.133162 -0.436339 0.000271225
0.608211 -0.29455 -0.244814 0.00186907
0.604789 -0.280849 -0.26309 0.00133029
0.598839 -0.318444 -0.219567 0.000738282
0.594221 -0.307843 -0.237868 0.000121661
0.693996 -0.0123781 -0.315973 0.00146414
0.691314 0.0114578 -0.321596 0.00180554
0.720491 -0.0166555 -0.299344 0.0016693
0.705969 0.000749644 -0.309225 0.0010885
-0.0012272 -0.410183 -0.558785 0.00139817
-0.0330436 -0.39926 -0.573985 8.51866e-05
-0.0115461 -0.430739 -0.536164 0.00029281
-0.0355211 -0.415664 -0.55299 0.000267022
0.332186 0.640022 -0.114554 0.00134681
0.313395 0.656304 -0.13304 0.00216424
0.341485 0.642102 -0.0799916 0.000324802
0.324984 0.658048 -0.0976639 0.00136107
-0.390649 -0.364862 0.384818 0.000859395
-0.410831 -0.354697 0.376213 0.00200093
-0.376769 -0.349901 0.410866 0.00061434
-0.398524 -0.339136 0.401803 0.00137256
0.515254 -0.200175 -0.401448 0.00441607
0.481225 -0.210818 -0.420446 0.00140816
0.527009 -0.210015 -0.380076 8.64149e-05
0.489494 -0.224727 -0.400015 0.00138284
0.274687 -0.424488 0.426908 0.000322336
0.282667 -0.403782 0.440432 0.00149943
0.25462 -0.423783 0.443063 0.000733876
0.258591 -0.402743 0.460692 0.00173554
0.553434 0.410636 0.0110904 0.000527368
0.533371 0.425968 -0.00626335 0.00111707
0.561515 0.406055 0.0456324 0.00253163
0.540746 0.42239 0.0265768 0.00107996
-0.188379 -0.863877 0.0737458 0.00334882
-0.217231 -0.846715 0.0577619 0.00388171
-0.180354 -0.860161 0.10106 0.00278604
-0.210066 -0.842394 0.0853836 0.00262104
0.627153 0.243287 -0.27183 0.00159019
0.604526 0.265284 -0.273169 0.000445349
0.637611 0.258125 -0.247609 0.00152934
0.615579 0.280493 -0.247951 0.000488767
-0.406737 -0.562744 0.0371277 0.000240557
-0.425677 -0.546579 0.0143645 0.0032534
-0.394802 -0.566438 0.0685416 0.00428096
-0.415042 -0.549401 0.0470163 0.00143157
0.924479 0.11461 -0.086979 0.00313193
0.911663 0.130551 -0.0904844 0.00218584
0.93453 0.119998 -0.0589503 0.00172294
0.92197 0.136495 -0.0622943 3.2914e-05
-0.29074 -0.568862 -0.282609 0.00230157
-0.304752 -0.548418 -0.289259 0.000900134
-0.307963 -0.576391 -0.255637 0.00212801
-0.321881 -0.555676 -0.263029 0.000475199
-0.441597 0.441912 -0.225907 0.0028356
-0.427283 0.462001 -0.225867 0.000121739
-0.461574 0.437068 -0.200991 0.00333667
-0.446707 0.455843 -0.20167 0.000305878
-0.484229 0.246241 0.382638 0.00552269
-0.507099 0.246159 0.366405 0.00357334
-0.482412 0.228997 0.40228 0.00188646
-0.505456 0.227867 0.385997 0.000738394
0.69556 -0.172458 0.267695 0.00221763
0.69633 -0.146862 0.286827 0.00250939
0.671692 -0.174765 0.285192 0.00120642
0.674368 -0.150655 0.301574 0.00359055
0.167675 0.32246 -0.623703 0.00257316
0.147307 0.332423 -0.626587 0.000295348
0.174279 0.3378 -0.600484 0.00122441
0.153067 0.347866 -0.603975 0.00114481
0.460519 -0.458024 -0.177951 0.00217793
0.443805 -0.465649 -0.194863 0.0015891
0.45783 -0.472109 -0.153218 0.0014551
0.445722 -0.477263 -0.168948 0.00149137
0.460254 -0.279084 -0.39525 0.00253948
0.441531 -0.281525 -0.40982 0.00169783
0.455383 -0.297662 -0.378987 0.00149239
0.439448 -0.296086 -0.393278 0.00254513
0.227852 -0.657319 -0.27369 0.00610546
0.198201 -0.65673 -0.293171 0.00466282
0.217255 -0.675662 -0.256438 0.000654649
0.187702 -0.674999 -0.275756 0.00268493
-0.280194 -0.709872 -0.144719 0.00107541
-0.289282 -0.691017 -0.153156 0.000937562
-0.282929 -0.716 -0.122394 0.000777418
-0.292352 -0.698172 -0.12943 0.000857526
0.435808 -0.166571 -0.485577 0.000544812
0.443548 -0.141046 -0.487969 0.00114393
0.452216 -0.180198 -0.463607 0.00117532
0.455423 -0.159021 -0.467892 0.00126738
-0.328989 0.104876 -0.658954 0.00141018
-0.319339 0.135534 -0.658821 0.00196008
-0.343888 0.0952106 -0.637334 0.000105599
-0.336433 0.125961 -0.6334 0.00102679
-0.115184 -0.604992 0.362049 0.00203213
-0.147313 -0.593254 0.358809 0.00118455
-0.106635 -0.585396 0.378637 0.00211588
-0.140742 -0.572986 0.375268 7.81024e-06
0.44926 -0.511799 0.0062864 0.000542876
0.460453 -0.498149 -0.0025872 0.000729343
0.445085 -0.515838 0.0325772 0.00109869
0.459388 -0.501405 0.0269006 0.00193234
-0.440967 -0.493571 0.140526 0.000604108
-0.463678 -0.474634 0.131423 0.000676433
-0.438526 -0.488603 0.162133 0.000558269
-0.460272 -0.469901 0.15278 0.000639972
-0.282137 0.0589769 0.748915 0.00316379
-0.279815 0.0814952 0.74384 0.00299696
-0.263168 0.0530999 0.773612 0.000224
-0.260614 0.0773547 0.769101 6.78744e-05
0.227709 0.405911 0.484314 0.00319338
0.212705 0.422995 0.476799 0.00361008
0.204831 0.397491 0.506702 0.00137583
0.194606 0.414674 0.494723 0.0022321
-0.419946 -0.0378604 0.547052 0.00176357
-0.425816 -0.0166372 0.539974 0.000862565
-0.407775 -0.0403928 0.562971 0.00216817
-0.414073 -0.0202324 0.555071 0.00161212
0.0861786 -0.292521 0.712484 0.00252377
0.0728904 -0.291802 0.723989 0.000157743
0.0742072 -0.284972 0.733488 8.34968e-06
0.0576197 -0.286286 0.742762 0.00313599
0.331059 0.518236 -0.285739 0.000371001
0.306961 0.539418 -0.290581 0.00071726
0.33945 0.528055 -0.260036 0.00279244
0.314482 0.551006 -0.265287 0.00399323
-0.0217673 0.742401 -0.287288 7.52374e-05
-0.0364662 0.750881 -0.279448 0.000770033
-0.0399426 0.770052 -0.271917 0.00332879
-0.0573547 0.775508 -0.26613 0.00373032
-0.0951746 -0.961993 0.0428081 0.000947523
-0.117612 -0.951499 0.0228663 0.000181303
-0.0858048 -0.957987 0.0744772 0.00157979
-0.107728 -0.948741 0.0551142 0.00176235
-0.373124 -0.559474 0.160092 0.00462181
-0.400395 -0.536563 0.153248 0.000377355
-0.37132 -0.550942 0.184383 0.00224124
-0.394119 -0.529892 0.180496 0.00052726
-0.572935 0.0193503 0.402945 0.00371546
-0.578843 0.040241 0.392279 0.000138521
-0.547965 0.0149865 0.418937 0.00087608
-0.552439 0.0349904 0.409844 0.00260242
-0.140713 0.331492 -0.634804 0.00111375
-0.153036 0.337215 -0.62591 0.00446888
-0.14444 0.344279 -0.609375 0.00163867
-0.164873 0.346505 -0.602433 0.00250091
0.791287 -0.257827 0.0380779 0.00290831
0.772857 -0.26919 0.0209774 0.000620879
0.77893 -0.259438 0.066721 0.0016217
0.760434 -0.270927 0.0499298 0.00131089
0.111269 -0.949054 0.0288085 0.00349094
0.0864855 -0.967244 0.0111233 0.00455496
0.099398 -0.958372 0.0507011 0.00125318
0.082198 -0.967999 0.0409594 0.00145112
-0.902243 0.0241484 0.170118 0.000487467
-0.911498 0.0523551 0.162277 0.00596755
-0.879485 0.0173392 0.189997 3.16925e-05
-0.890429 0.0440977 0.18231 0.00463306
0.496847 0.460968 -0.0156642 0.00142479
0.482139 0.474547 -0.0267294 0.00127088
0.496349 0.462747 0.0139564 0.00219399
0.483578 0.475314 0.00253332 0.00227492
0.4967 -0.457593 -0.0879424 0.00303894
0.499768 -0.451647 -0.0996178 0.00272184
0.491268 -0.469733 -0.0631391 0.00495861
0.499092 -0.459091 -0.072744 0.00336953
-0.602767 0.176086 0.335361 0.000999427
-0.622077 0.173671 0.319925 0.00255032
-0.599183 0.156222 0.351656 0.00272602
-0.62065 0.15366 0.334949 0.000732164
-0.037254 0.173257 0.888648 0.00284597
-0.0585478 0.187564 0.871208 0.000340312
-0.0522131 0.148748 0.910238 0.00266914
-0.0708281 0.162362 0.892854 0.00115016
-0.597375 0.201503 0.32565 0.000779654
-0.61595 0.198912 0.310802 0.0026948
-0.591709 0.178943 0.344367 0.000619948
-0.610913 0.176762 0.328749 0.00114874
0.368505 -0.559651 0.180087 0.000927384
0.383273 -0.537678 0.182673 2.17597e-05
0.350428 -0.564094 0.207263 0.000445619
0.364793 -0.541539 0.212149 0.000134167
0.560237 -0.402938 0.0757192 7.51295e-05
0.583097 -0.38268 0.0792217 0.00164372
0.545624 -0.409096 0.0983437 0.000279394
0.567949 -0.387434 0.102446 0.00249716
-0.196761 0.590668 -0.338211 0.000924962
-0.184728 0.608888 -0.329955 0.00032646
-0.225647 0.586665 -0.324583 0.00150415
-0.213191 0.605337 -0.316624 0.000580513
-0.22408 0.429915 0.455536 0.00121528
-0.240232 0.435669 0.438473 0.00117204
-0.229454 0.412256 0.473342 0.000583925
-0.247658 0.41476 0.456196 0.000703158
0.0583802 0.937324 0.121194 0.000874435
0.0329294 0.948758 0.109134 0.0028057
0.0419241 0.922345 0.146558 0.00290293
0.0223919 0.933625 0.131964 0.00163822
-0.120895 0.184041 0.840652 0.00162847
-0.140403 0.183049 0.827873 0.00178808
-0.129494 0.163712 0.857719 0.00105329
-0.147206 0.164188 0.842166 0.0015453
0.148819 -0.526941 0.406098 0.00108389
0.152783 -0.51012 0.42075 0.000611038
0.126294 -0.516106 0.421158 0.0027247
0.129921 -0.499029 0.43701 0.000796874
0.246273 -0.804596 -0.0251273 1.11675e-05
0.265473 -0.7799 -0.0314239 0.00286513
0.237984 -0.814332 0.000278465 0.00236266
0.257721 -0.789547 -0.00428805 0.000302233
0.369478 0.327112 -0.437436 0.000529192
0.347605 0.343652 -0.440252 0.00289212
0.379537 0.34276 -0.412535 0.000458073
0.356639 0.358197 -0.417666 0.00215903
0.194442 -0.407744 0.49836 0.00239003
0.200479 -0.389379 0.520028 0.000500711
0.172058 -0.40253 0.519586 0.00103593
0.174262 -0.385865 0.541046 0.000828844
0.287091 -0.731614 -0.0528218 0.00226596
0.299676 -0.709078 -0.0618128 0.00216369
0.288091 -0.738646 -0.018934 0.000800954
0.301829 -0.716223 -0.027661 0.000560701
0.139796 0.246098 0.745685 0.00312683
0.121694 0.264264 0.736601 0.000422603
0.130869 0.231389 0.770962 0.00369127
0.113703 0.249341 0.762129 0.000740679
0.0841751 -0.37451 -0.600915 0.00170997
0.049171 -0.370533 -0.613549 0.00101632
0.0741927 -0.391643 -0.578615 0.000541004
0.0372504 -0.386686 -0.590487 0.0001802
-0.958415 0.105152 -0.0108574 0.00171381
-0.944384 0.127234 -0.0148992 0.000791107
-0.957702 0.114807 0.0193278 0.00366721
-0.943951 0.136759 0.0150697 0.00716661
0.361399 -0.423758 0.351436 2.19465e-05
0.377014 -0.401909 0.359553 0.00106799
0.337013 -0.427527 0.3698 0.000648111
0.35121 -0.406193 0.378159 0.000318283
-0.409434 0.105917 0.544828 0.00178097
-0.410392 0.13136 0.535339 0.00201228
-0.390004 0.0978578 0.568081 0.00105368
-0.389901 0.127218 0.558478 8.86367e-05
0.192792 0.230657 0.722476 0.00216593
0.176734 0.251383 0.711838 0.00206156
0.186713 0.217567 0.74556 0.00152217
0.168169 0.236853 0.736236 0.0029846
-0.132399 0.934918 -0.0430341 0.000797077
-0.141948 0.928989 -0.0617524 0.00701066
-0.128878 0.930829 -0.0017023 0.00849134
-0.140235 0.926352 -0.0250991 0.00269639
0.108509 -0.2647 -0.753671 0.00134993
0.0833211 -0.265737 -0.769964 0.00471041
0.107175 -0.278545 -0.727568 0.00220548
0.0805759 -0.279268 -0.743595 0.000420296
0.975111 0.031097 0.0684207 0.00172354
0.973483 0.0536967 0.0659892 0.00208209
0.963479 0.0277188 0.0918358 0.00064047
0.961544 0.0501786 0.0899181 0.000932851
-0.792496 0.243099 -0.0798224 0.000535719
-0.77637 0.257479 -0.0763539 0.00138936
-0.801773 0.242453 -0.0521553 0.00115066
-0.78522 0.257569 -0.0499307 0.00184993
-0.000931773 -0.496984 -0.463908 0.000787721
-0.0182187 -0.479873 -0.48184 0.00096865
-0.013606 -0.513091 -0.44915 0.000799631
-0.0314603 -0.498728 -0.464372 0.00169352
0.144348 -0.927192 0.0138046 0.000936674
0.138896 -0.933206 0.00244579 0.000435543
0.128261 -0.939291 0.0352911 0.000596298
0.133806 -0.934258 0.0353823 0.000780366
0.0762267 0.14701 -0.911317 0.002155
0.0524484 0.158258 -0.913578 0.00476745
0.0885801 0.158239 -0.890473 0.000586362
0.0650531 0.168153 -0.891732 0.000460294
0.980104 0.0595465 0.0368271 0.00101153
0.974792 0.0792803 0.0310036 0.0026491
0.971902 0.0537723 0.0606457 0.00114599
0.968471 0.0741608 0.0550123 0.00149017
0.703868 0.230311 -0.211766 0.0036343
0.681371 0.248839 -0.217425 0.00109519
0.722528 0.2384 -0.183241 0.00305053
0.698947 0.256662 -0.18967 0.000176119
0.667064 0.257605 -0.214351 0.00442249
0.64631 0.27917 -0.216012 0.00016524
0.680126 0.271539 -0.189228 0.000332806
0.658643 0.292402 -0.192143 0.00448828
-0.683367 0.313818 -0.0721458 0.00260172
-0.701133 0.303709 -0.0825671 0.000315704
-0.695819 0.311676 -0.0517953 0.000185682
-0.714291 0.301486 -0.0626546 0.00202227
-0.335217 0.415135 0.381836 0.00128066
-0.359528 0.408165 0.364773 0.00246132
-0.330187 0.394064 0.405237 0.00247462
-0.353442 0.388432 0.388738 0.00275916
-0.890251 -0.167828 -0.0720503 0.00223211
-0.903252 -0.153906 -0.0818415 3.67874e-05
-0.892508 -0.173785 -0.0499202 0.00157313
-0.905156 -0.160702 -0.0597163 4.81069e-05
-0.0362986 -0.251463 -0.800316 0.000924015
-0.0523444 -0.238333 -0.814737 0.000397531
-0.0473499 -0.265678 -0.777317 0.00124919
-0.0644515 -0.252599 -0.790842 0.000793852
0.446611 0.00880291 0.512311 0.000953311
0.448918 0.0391732 0.506795 0.000253676
0.432622 -0.00031563 0.532608 0.00310634
0.434133 0.0290096 0.525587 0.000547106
0.461021 -0.195763 0.441323 0.00167392
0.470142 -0.174031 0.4462 0.000267849
0.436398 -0.203894 0.459023 0.00319325
0.445875 -0.182002 0.463483 0.00142924
0.376499 0.581764 0.10438 0.000141881
0.366351 0.598827 0.09077 0.00140132
0.372954 0.574851 0.131788 0.00068265
0.362015 0.594786 0.124291 0.000587879
-0.469464 -0.396534 0.265712 0.00173925
-0.488066 -0.380567 0.259071 0.000743698
-0.457467 -0.392049 0.288505 0.00288854
-0.477018 -0.376635 0.279707 0.000342304
0.360968 0.258978 0.507583 0.000374917
0.353075 0.27773 0.500345 0.00037691
0.349956 0.247507 0.528736 0.000414822
0.340881 0.266632 0.521668 0.00112694
-0.559876 -0.166796 -0.371449 0.00415595
-0.571948 -0.143618 -0.374239 0.00212533
-0.581339 -0.178126 -0.351629 0.00275583
-0.59328 -0.155481 -0.355147 0.00128551
-0.705561 0.290907 -0.117909 0.000409348
-0.71007 0.289843 -0.119354 0.00232285
-0.713809 0.29141 -0.0958309 0.000207547
-0.725202 0.285567 -0.101945 0.00266548
-0.0497819 -0.43748 -0.52453 0.000298542
-0.0607492 -0.417705 -0.546905 2.39032e-05
-0.05501 -0.45701 -0.502178 0.000914642
-0.0658918 -0.436301 -0.522627 0.000375697
-0.21907 0.0677919 -0.835557 0.00123956
-0.209691 0.0872517 -0.838082 0.000895974
-0.230073 0.0591358 -0.820468 0.000823882
-0.220991 0.0791561 -0.826641 0.000168209
-0.147276 0.269226 0.714926 0.000403505
-0.164004 0.271661 0.695842 0.00239015
-0.149353 0.254481 0.73392 0.000378289
-0.16769 0.2544 0.716141 0.00254473
0.292771 0.380528 -0.459191 0.000326514
0.266351 0.397551 -0.463773 0.00115178
0.306408 0.387238 -0.436937 0.0011872
0.279247 0.404127 -0.442542 0.00107649
-0.387601 0.128061 -0.562256 0.000927174
-0.381741 0.14773 -0.562423 1.31146e-05
-0.40494 0.121956 -0.544383 0.000265096
-0.399763 0.141529 -0.54415 0.00116459
0.110518 0.151525 0.879973 0.00163809
0.0948564 0.169261 0.879684 0.00345728
0.0899583 0.139527 0.902477 0.00218446
0.0710414 0.157238 0.900596 0.0010304
-0.579433 -0.345446 0.203164 0.00198893
-0.597571 -0.335652 0.1911 0.000113714
-0.56828 -0.33871 0.231706 0.00363059
-0.587432 -0.326806 0.220836 0.000994681
-0.55059 -0.397001 -0.1369 0.00102361
-0.566575 -0.383617 -0.138149 0.000366616
-0.561058 -0.39599 -0.1088 0.000327194
-0.576668 -0.383109 -0.111248 0.000736096
0.118201 -0.526246 -0.425344 0.00287277
0.0913425 -0.525243 -0.436408 0.00529246
0.114894 -0.541445 -0.410534 0.000736206
0.0859274 -0.539908 -0.421555 0.00242753
0.470574 0.386528 0.266252 0.000191152
0.45419 0.400679 0.26159 0.00339176
0.463292 0.379595 0.291598 0.00334506
0.447632 0.393558 0.286626 0.000447047
-0.474991 -0.478474 0.0847781 0.001456
-0.49206 -0.464097 0.0820837 0.00263135
-0.471104 -0.474211 0.113202 0.000817658
-0.489094 -0.458912 0.109051 0.00164067
-0.020163 -0.221238 0.843164 0.00113889
-0.0407391 -0.212356 0.849199 1.4357e-06
-0.023786 -0.205354 0.860694 0.000727404
-0.0434132 -0.195526 0.866889 0.00166661
0.195014 -0.0466998 0.866453 0.000146373
0.206236 -0.0134598 0.864186 0.00367922
0.176351 -0.0588496 0.884049 0.000198929
0.187016 -0.0286803 0.881495 0.000876441
0.0972181 0.680611 0.308004 0.00256798
0.0635966 0.696363 0.306419 0.00144513
0.0863119 0.661382 0.325884 0.000564755
0.0495563 0.676229 0.325124 0.00141992
0.053875 -0.847587 -0.215102 0.00213008
0.0363105 -0.830504 -0.231783 0.00233021
0.0458871 -0.866613 -0.201282 0.00181489
0.0288391 -0.850775 -0.215775 0.00100329
-0.923182 -0.113434 -0.106456 0.00123351
-0.933601 -0.093572 -0.108706 0.00050528
-0.936118 -0.115456 -0.0858718 0.00235369
-0.945354 -0.0984238 -0.0875489 0.00165658
-0.770851 -0.153069 -0.230261 0.000623839
-0.780165 -0.130981 -0.235862 0.000841629
-0.790192 -0.159952 -0.208834 0.000468142
-0.801706 -0.138921 -0.213099 0.000304125
-0.557492 -0.309682 -0.276559 0.000132897
-0.570944 -0.292007 -0.283804 0.00054249
-0.566092 -0.315126 -0.255562 0.00311277
-0.580172 -0.297255 -0.261611 0.00384708
0.426363 0.434057 0.256223 0.00206046
0.415392 0.452036 0.24599 0.00270729
0.419084 0.424214 0.283107 0.000961945
0.407158 0.441552 0.274622 0.000603285
0.216112 -0.0867413 0.821956 0.00210372
0.223229 -0.0603682 0.829365 0.00159623
0.19505 -0.0947979 0.84469 0.00143163
0.203396 -0.0671986 0.849453 0.000241919
0.0152314 -0.9844 -0.0560564 0.00269266
-0.013213 -0.990454 -0.0636838 0.00498471
0.00563352 -0.993317 -0.0304377 0.00233034
-0.0199988 -0.997641 -0.0399468 0.00503949
-0.0534167 -0.538323 0.425068 0.00176084
-0.0843372 -0.528656 0.425 0.000594306
-0.0581847 -0.514181 0.439704 0.00187778
-0.0859769 -0.508043 0.439605 0.00252424
0.136953 -0.387682 0.554204 0.00199991
0.102926 -0.388793 0.564811 0.00336437
0.110751 -0.380203 0.576217 0.0016829
0.0799146 -0.380786 0.587323 0.000532315
-0.579141 -0.350026 -0.196168 0.00129587
-0.598062 -0.334991 -0.197197 0.00120569
-0.585265 -0.354046 -0.172386 0.000556166
-0.604004 -0.339574 -0.173061 0.00110908
-0.436305 0.357139 -0.343697 0.000735133
-0.421795 0.381244 -0.338038 0.00239882
-0.465921 0.353608 -0.320745 0.0017302
-0.449821 0.37842 -0.313915 0.00374384
-0.247876 0.729104 0.170545 0.000273168
-0.248328 0.741208 0.158674 0.00227982
-0.23762 0.717421 0.191931 0.00249881
-0.252228 0.716995 0.17689 0.000224962
-0.506795 0.0331924 -0.455496 0.00125055
-0.509782 0.0577032 -0.449389 0.000581158
-0.523382 0.032808 -0.440553 0.000647447
-0.524355 0.0582381 -0.436488 0.000789469
0.831377 0.216122 0.0670366 0.000512951
0.817785 0.231289 0.0558611 0.00137658
0.827566 0.21087 0.0924946 0.000237794
0.813628 0.226893 0.0821944 0.00109395
-0.812426 -0.154586 0.193548 0.00163945
-0.830413 -0.142075 0.18482 0.000270969
-0.800401 -0.14915 0.209743 0.00297759
-0.820065 -0.132279 0.20279 0.0022436
0.394646 -0.0312233 -0.573152 0.00261803
0.397972 0.00739423 -0.574561 0.000548489
0.412042 -0.0346178 -0.551548 0.00139211
0.416611 0.00374219 -0.551819 0.00108503
-0.771063 0.10719 -0.250307 0.000589906
-0.761653 0.131204 -0.247827 0.000357968
-0.800667 0.102487 -0.232705 0.00104703
-0.790967 0.126583 -0.230109 0.00185371
0.693448 -0.285309 0.147027 0.000951044
0.703636 -0.274668 0.155727 0.000125773
0.672976 -0.290548 0.169492 0.000381264
0.684498 -0.278549 0.178482 0.0015425
0.411609 -0.0964391 -0.541624 0.000759967
0.418877 -0.0636464 -0.541314 0.000264588
0.43107 -0.103169 -0.517246 6.09697e-05
0.439569 -0.0715446 -0.516928 0.00139506
0.645345 -0.145716 0.321165 0.00123788
0.657152 -0.122544 0.324291 0.00368319
0.619796 -0.156357 0.333153 0.000158136
0.632778 -0.132777 0.333972 0.000715701
0.208555 0.34459 0.565503 0.000662964
0.199734 0.364346 0.550297 0.00200742
0.196295 0.331513 0.58671 0.0034085
0.188583 0.35093 0.571814 0.000379921
-0.180406 -0.814131 0.165923 2.74049e-06
-0.204028 -0.79547 0.157227 0.000679963
-0.170745 -0.803105 0.192917 0.00406163
-0.192018 -0.784336 0.187074 0.00201501
0.843553 0.175173 0.132057 0.000176591
0.832069 0.190293 0.125294 0.000221354
0.831061 0.17085 0.153065 3.08019e-05
0.81894 0.185904 0.146865 0.000966847
-0.0802966 -0.318948 -0.683609 0.00104701
-0.103001 -0.311848 -0.688179 0.00202145
-0.0942922 -0.329452 -0.660507 7.22241e-05
-0.115565 -0.321354 -0.666234 0.00103786
-0.754609 0.276511 -0.0278105 0.0012818
-0.763946 0.26882 -0.0401806 0.00157137
-0.771403 0.269952 0.00246447 0.00111669
-0.783177 0.259182 -0.0154875 0.00156454
0.124927 -0.299519 0.685197 0.00143395
0.115485 -0.296562 0.698749 0.000821606
0.109567 -0.292927 0.706405 0.000360283
0.0986103 -0.28979 0.719426 0.00173376
-0.746459 0.273641 0.0905456 0.00209318
-0.762026 0.26624 0.0654819 0.000870705
-0.751413 0.254426 0.121203 0.00193658
-0.767598 0.249596 0.0966759 0.00382093
-0.476101 -0.41144 -0.231571 0.000943849
-0.490901 -0.394494 -0.242117 0.00149013
-0.486444 -0.416891 -0.203988 0.00182817
-0.502839 -0.401015 -0.213103 0.000579142
0.121532 0.479489 0.454262 0.001788
0.106931 0.50014 0.441345 0.000243333
0.113176 0.456325 0.475142 0.00492809
0.0971437 0.477126 0.462275 0.0028054
0.0276246 -0.191488 0.877967 0.00105908
0.00906318 -0.186832 0.884587 6.04808e-05
0.0257178 -0.178327 0.891658 0.000368879
0.00770679 -0.172205 0.899841 0.000682167
0.204742 0.661754 0.275729 0.00112999
0.195018 0.677263 0.26809 0.000456408
0.188525 0.645189 0.294287 0.00179387
0.174302 0.661447 0.288723 0.0032912
-0.117228 0.337465 0.639844 0.00348121
-0.139508 0.334756 0.618133 0.00467937
-0.120111 0.322175 0.658701 0.0022423
-0.142549 0.318923 0.63685 0.00569661
-0.172363 -0.773038 0.215904 0.00270543
-0.191773 -0.755717 0.211727 0.000315989
-0.161099 -0.758689 0.237001 0.00367742
-0.180028 -0.744592 0.232678 0.00171585
0.558815 0.384344 0.139459 0.00108545
0.54511 0.397121 0.128831 0.00050402
0.557755 0.377094 0.164669 0.00237665
0.543738 0.388932 0.153436 0.000346705
-0.68908 0.252945 0.208126 0.00101142
-0.704721 0.251898 0.186776 0.00194701
-0.685724 0.229845 0.22986 0.00345774
-0.707928 0.222388 0.212283 0.00568342
-0.113464 0.580001 -0.379312 0.000362845
-0.107934 0.597961 -0.363833 0.00294501
-0.146894 0.593585 -0.363794 0.0046888
-0.14062 0.611453 -0.349912 0.00251744
0.476711 0.448275 0.151569 6.96218e-05
0.45908 0.465309 0.155724 0.000958322
0.469682 0.445683 0.176536 0.00169435
0.452603 0.462237 0.179613 0.00230042
0.356575 -0.45852 -0.322361 0.000451317
0.333194 -0.466101 -0.341356 0.000801192
0.359549 -0.479833 -0.297833 0.000533752
0.336635 -0.486742 -0.317146 0.000901865
0.781073 0.0684528 -0.253242 0.00166603
0.761162 0.0884096 -0.259408 0.00264309
0.800519 0.0757686 -0.240459 0.000496453
0.781059 0.0946639 -0.246059 0.000434011
0.288884 0.110797 -0.708588 0.000718785
0.2708 0.131157 -0.721337 0.00201689
0.309973 0.112458 -0.68047 0.00123556
0.291359 0.131539 -0.694931 3.42202e-05
0.207869 -0.185142 -0.776061 0.00555982
0.190187 -0.181574 -0.795912 0.00383689
0.219849 -0.198859 -0.744556 0.00343941
0.196018 -0.200427 -0.763718 5.77636e-06
0.0707501 0.186325 -0.869572 7.49658e-05
0.0503746 0.191688 -0.865728 0.0029863
0.0726025 0.207347 -0.847282 0.00274822
0.0526675 0.212332 -0.842619 0.000519605
-0.204007 -0.105053 -0.837916 0.00107566
-0.210089 -0.0802322 -0.844277 0.00185187
-0.215674 -0.112717 -0.813397 0.00245003
-0.220823 -0.0873535 -0.820845 0.00201506
-0.27843 0.399209 0.446971 0.00196722
-0.309107 0.389332 0.431573 0.00168686
-0.277161 0.383332 0.46386 0.00245088
-0.305418 0.375513 0.447997 0.00257123
-0.227064 -0.520261 0.377071 0.00152665
-0.247665 -0.509146 0.36955 0.000988806
-0.214198 -0.506155 0.398028 0.00253612
-0.235255 -0.495799 0.390028 0.00040554
0.549003 0.355618 0.216239 0.00122983
0.534294 0.367041 0.206091 0.00370203
0.538149 0.349759 0.242855 0.00274157
0.523467 0.360794 0.232648 0.0029324
0.296988 0.631181 0.211902 0.00290189
0.29034 0.649792 0.199937 0.00299269
0.284114 0.624634 0.233687 0.00152941
0.276903 0.643474 0.219763 0.000130395
-0.565184 0.0744814 0.401882 0.00305286
-0.569513 0.0915695 0.393559 0.00215613
-0.546975 0.0639831 0.416311 0.00164259
-0.547583 0.0840974 0.410492 0.000128198
-0.00323906 0.698926 0.309498 0.00229084
-0.0204229 0.712218 0.300805 0.00231884
-0.00852977 0.680941 0.31966 0.00340487
-0.026448 0.694238 0.309464 0.00417461
0.219459 -0.462695 -0.434301 0.00219634
0.205257 -0.456839 -0.450786 0.00387391
0.210787 -0.48708 -0.411555 0.00190715
0.194137 -0.482232 -0.427916 0.000293084
-0.579589 -0.250582 0.312026 0.00176864
-0.59633 -0.235576 0.308466 0.000455001
-0.566637 -0.239325 0.331348 0.00152562
-0.582829 -0.222407 0.328103 0.00058571
-0.780641 0.0582183 0.257491 2.79011e-05
-0.778404 0.0874639 0.253867 0.00257156
-0.761758 0.0406994 0.27189 0.000396912
-0.761527 0.0684751 0.266812 0.000331992
0.714129 -0.278362 0.136155 0.000764685
0.713359 -0.277378 0.138787 0.000394306
0.687222 -0.287866 0.154129 0.000547817
0.697286 -0.276928 0.162771 0.00106108
-0.0231381 0.99335 0.011678 0.000335889
-0.0464299 0.982122 -0.00561998 0.00619687
-0.0367029 0.98543 0.051447 0.00283946
-0.0553049 0.977172 0.0339061 0.0042469
0.307586 0.677893 0.115004 9.72502e-05
0.297839 0.696385 0.103355 0.000754321
0.303231 0.668795 0.143523 0.000237238
0.29334 0.688363 0.135033 0.000304054
-0.847028 -0.0384086 0.215246 0.00126972
-0.856875 -0.0209925 0.208578 0.000415778
-0.830308 -0.0376088 0.23018 0.00297264
-0.838135 -0.0216863 0.224392 0.00104553
0.748563 -0.0962738 -0.272886 0.00254994
0.72076 -0.0995326 -0.289333 0.00189207
0.756344 -0.110191 -0.258663 0.00070162
0.731474 -0.113666 -0.272775 0.00204026
-0.00715845 -0.987689 0.0532355 0.00145643
-0.0303977 -0.985665 0.043586 0.00328018
-0.00842355 -0.974115 0.0772038 0.00309452
-0.0347633 -0.976388 0.0727172 0.000330414
-0.832195 -0.218453 -0.0734463 0.000452521
-0.847868 -0.206777 -0.0767098 0.000525273
-0.838335 -0.221651 -0.0490767 0.000373833
-0.855305 -0.209686 -0.050358 0.0012407
0.202856 0.180577 -0.772244 0.000418531
0.174057 0.20058 -0.780362 0.00121395
0.216751 0.188907 -0.750933 0.000816133
0.188353 0.210944 -0.756902 1.35519e-05
-0.261729 0.603145 -0.28217 0.000848545
-0.25031 0.622519 -0.274668 0.000343992
-0.291878 0.597418 -0.261562 0.00376818
-0.280246 0.617454 -0.25492 0.00368518
-0.955419 -0.0437887 -0.11076 0.00217498
-0.957242 -0.0225521 -0.111453 0.000363494
-0.970274 -0.0401152 -0.0881737 0.00196999
-0.973728 -0.019881 -0.0870353 0.000701846
0.0990425 -0.506617 0.43824 0.00174926
0.0999588 -0.490923 0.455146 4.7554e-05
0.0786786 -0.49158 0.455144 0.00311629
0.0760472 -0.478884 0.471783 0.000343187
-0.103636 0.453388 0.489105 0.000240177
-0.119286 0.465698 0.469037 0.00180774
-0.110957 0.433779 0.509312 0.000702177
-0.126312 0.445893 0.4892 0.000935096
0.24109 -0.798213 0.0748607 5.98362e-05
0.257356 -0.778725 0.0727212 0.00210662
0.225732 -0.80302 0.0969057 0.00358966
0.24091 -0.78447 0.0976643 0.0017467
-0.0364989 0.400758 0.565246 0.000418994
-0.0607089 0.405717 0.550468 0.00344495
-0.0382693 0.386437 0.585899 0.000788328
-0.0622969 0.390841 0.570766 0.00249403
0.00707257 -0.618964 0.364226 0.00132064
-0.0224068 -0.618406 0.364949 0.000551107
-0.0100949 -0.602185 0.376467 0.000592563
-0.0385742 -0.601586 0.376459 5.8328e-05
0.309177 -0.704339 -0.0221242 0.000863455
0.321374 -0.682932 -0.0314584 0.00149346
0.304901 -0.711761 0.0062843 0.000636076
0.317385 -0.690901 -0.00300739 0.00160924
0.167081 -0.0745355 -0.897544 0.00528741
0.149552 -0.0625275 -0.9131 0.000342501
0.17814 -0.0877312 -0.87506 0.00166256
0.160991 -0.0765643 -0.8917 0.00210204
0.113575 0.806299 -0.218554 0.00142796
0.089542 0.813602 -0.224409 0.000461272
0.126491 0.824822 -0.197774 0.000372036
0.101762 0.833605 -0.203091 0.000542732
0.55756 -0.121612 0.393403 0.00195451
0.565128 -0.0989377 0.392502 0.000728813
0.532061 -0.126143 0.410431 0.000167004
0.540461 -0.10587 0.409442 6.15306e-05
0.632418 -0.0310542 -0.355023 0.00132386
0.630866 -0.00785315 -0.358374 0.000284826
0.650754 -0.0403848 -0.339314 0.00393736
0.652437 -0.0133739 -0.342591 0.00121231
0.539146 -0.399163 -0.149367 0.000343188
0.52074 -0.406943 -0.170784 0.00155988
0.537934 -0.411709 -0.11938 0.00169611
0.523309 -0.418923 -0.13882 0.00256004
0.0281621 -0.79764 -0.254542 0.00145847
0.0208656 -0.779816 -0.268455 0.00246071
0.0133183 -0.816954 -0.242103 0.00116861
0.00397217 -0.799492 -0.256534 0.00316111
-0.246031 -0.807459 -0.0321595 1.16838e-05
-0.26381 -0.789366 -0.0388443 0.00548264
-0.244422 -0.804363 -0.000208665 0.00424857
-0.263129 -0.786832 -0.00782391 0.00175868
0.282253 0.679993 0.170518 0.00038736
0.272658 0.699727 0.162895 0.000834998
0.277734 0.672312 0.190783 0.00183719
0.268053 0.690929 0.183279 0.00125959
-0.135575 -0.612918 -0.350839 0.000546875
-0.147377 -0.586365 -0.364019 0.000809412
-0.148388 -0.632352 -0.335856 0.00354601
-0.160676 -0.606176 -0.348251 0.00234543
0.564566 0.393031 -0.0961833 0.000853853
0.546024 0.405016 -0.110339 0.00126135
0.568462 0.395831 -0.0639337 9.79688e-05
0.550769 0.40672 -0.0783723 0.000148708
-0.0735702 0.039312 -0.974218 0.00104351
-0.0645992 0.0663197 -0.963578 0.0061474
-0.0968042 0.042166 -0.965659 0.00281148
-0.0927702 0.0670431 -0.959159 0.00278115
-0.264686 -0.294735 -0.585395 0.000755459
-0.276254 -0.276607 -0.596561 0.000796665
-0.274512 -0.307642 -0.559325 0.00144202
-0.286225 -0.289002 -0.570357 5.32847e-05
0.142771 -0.414598 0.518727 0.00153026
0.117479 -0.412306 0.531397 0.00242192
0.123979 -0.40476 0.538918 0.00179925
0.090635 -0.405998 0.549901 0.00134503
-0.22465 -0.789869 -0.139033 0.00103752
-0.234561 -0.768366 -0.149993 0.0008206
-0.228263 -0.79836 -0.111208 0.00200569
-0.238308 -0.778215 -0.121964 0.00213634
-0.538415 0.388791 -0.169656 0.000669164
-0.518759 0.405723 -0.166561 0.00123668
-0.562486 0.38332 -0.140213 0.000698269
-0.54273 0.400586 -0.138522 0.00148922
-0.328646 -0.655299 -0.111501 9.57268e-06
-0.338771 -0.637899 -0.118764 0.000438325
-0.330111 -0.661318 -0.0882815 0.00030585
-0.341445 -0.642665 -0.0940331 0.000597725
-0.853137 0.18484 0.105872 9.84859e-05
-0.873327 0.176185 0.0874669 0.000248639
-0.847199 0.170333 0.13132 0.0022625
-0.865624 0.163442 0.113759 0.00303924
-0.338921 -0.341953 0.459959 0.00110636
-0.362141 -0.328517 0.450405 0.00174027
-0.325448 -0.328855 0.486218 0.000289672
-0.349802 -0.316087 0.47434 0.00114065
-0.313743 -0.161337 0.64817 0.000746764
-0.327009 -0.145999 0.640062 0.00132362
-0.300861 -0.151788 0.671359 9.54125e-05
-0.314738 -0.1367 0.66301 0.00146281
0.197598 0.306665 0.625618 0.0002444
0.188978 0.323194 0.611891 0.00151432
0.18769 0.292802 0.652241 0.000913985
0.17591 0.308817 0.640742 0.00107953
0.127877 -0.410775 0.530517 0.00131529
0.0957484 -0.411696 0.541622 0.00102729
0.108063 -0.398981 0.552097 0.00229258
0.0746049 -0.400421 0.562137 0.00107215
-0.175246 0.0986274 0.864168 0.00307622
-0.177883 0.11908 0.85531 0.00151295
-0.163771 0.0699324 0.887485 0.00496266
-0.164645 0.0925394 0.878637 0.00280657
0.881896 -0.0485229 0.182082 0.000598245
0.880212 -0.0202329 0.189721 0.00159965
0.855664 -0.0560082 0.204595 0.00245929
0.853078 -0.0278965 0.212051 0.00274791
-0.425619 -0.212612 0.471184 0.000915704
-0.443717 -0.196747 0.462684 2.90611e-05
-0.415379 -0.205644 0.491167 0.00199288
