-4.962956309318542480e-01 3.357250392436981201e-01 -1.667954772710800171e-01
-4.640684127807617188e-01 3.347554206848144531e-01 -1.618345826864242554e-01
-4.824337959289550781e-01 3.439593017101287842e-01 -1.490180492401123047e-01
-4.138989150524139404e-01 -1.287819743156433105e-01 -3.176740556955337524e-02
-4.314582943916320801e-01 -1.188367754220962524e-01 -1.763421297073364258e-02
-4.019866585731506348e-01 -1.267433762550354004e-01 -1.939420402050018311e-02
-4.200853109359741211e-01 -1.164106428623199463e-01 -5.242459010332822800e-03
5.987803339958190918e-01 2.793451398611068726e-02 1.034368872642517090e-01
5.946030616760253906e-01 9.706226177513599396e-03 1.020186096429824829e-01
6.139408946037292480e-01 2.991749718785285950e-02 1.052178889513015747e-01
6.088696122169494629e-01 1.114396099001169205e-02 1.033135503530502319e-01
8.005168437957763672e-01 9.084507077932357788e-02 -1.101735047996044159e-02
8.014288544654846191e-01 6.721533089876174927e-02 -2.168515697121620178e-03
8.101885914802551270e-01 8.804894238710403442e-02 3.790283575654029846e-03
8.110149502754211426e-01 6.375503540039062500e-02 1.351573131978511810e-02
-6.098313331604003906e-01 -1.303899437189102173e-01 3.176594525575637817e-02
-6.266721487045288086e-01 -1.242515593767166138e-01 4.022818803787231445e-02
-5.939190983772277832e-01 -1.300619691610336304e-01 4.143248870968818665e-02
-6.110888719558715820e-01 -1.237789243459701538e-01 4.890120029449462891e-02
-2.450437396764755249e-01 2.438303083181381226e-01 7.200642488896846771e-03
-2.521063387393951416e-01 2.253605872392654419e-01 1.388375274837017059e-02
-2.296858876943588257e-01 2.389934659004211426e-01 1.843558810651302338e-02
-2.365033179521560669e-01 2.244017124176025391e-01 2.430741675198078156e-02
-5.614570379257202148e-01 1.136547476053237915e-01 -1.903018504381179810e-01
-5.734020471572875977e-01 9.736007452011108398e-02 -1.875385344028472900e-01
-5.430346727371215820e-01 1.111694574356079102e-01 -1.851412951946258545e-01
-5.550738573074340820e-01 9.630534797906875610e-02 -1.826925128698348999e-01
-2.417810559272766113e-01 -1.227673590183258057e-01 -8.710061758756637573e-02
-2.542878389358520508e-01 -1.334580332040786743e-01 -7.161841541528701782e-02
-2.249831855297088623e-01 -1.279744803905487061e-01 -7.177428156137466431e-02
-2.360137552022933960e-01 -1.415508836507797241e-01 -5.490449070930480957e-02
6.099387407302856445e-01 2.269097417593002319e-01 1.135464906692504883e-01
5.880223512649536133e-01 2.260475009679794312e-01 1.235690191388130188e-01
6.286094784736633301e-01 2.309012711048126221e-01 1.245152205228805542e-01
6.073813438415527344e-01 2.302712053060531616e-01 1.342212855815887451e-01
3.048096001148223877e-01 1.866963058710098267e-01 1.106318160891532898e-01
3.021843731403350830e-01 1.654672771692276001e-01 1.094938218593597412e-01
3.232270777225494385e-01 1.952728778123855591e-01 1.125950515270233154e-01
3.205039799213409424e-01 1.740632206201553345e-01 1.108080223202705383e-01
1.732439398765563965e-01 1.139973253011703491e-01 -2.403125911951065063e-02
1.693161278963088989e-01 9.572542458772659302e-02 -1.354225259274244308e-02
1.829952895641326904e-01 1.121105104684829712e-01 -1.051659882068634033e-02
1.744981706142425537e-01 9.766801446676254272e-02 1.994669437408447266e-04
2.822090983390808105e-01 -1.825921088457107544e-01 2.499211207032203674e-02
2.721643447875976562e-01 -1.855570077896118164e-01 3.420957177877426147e-02
3.003880381584167480e-01 -1.836209893226623535e-01 3.330326080322265625e-02
2.899153530597686768e-01 -1.880227923393249512e-01 4.079321771860122681e-02
7.493802905082702637e-01 -2.461776733398437500e-01 -4.338059201836585999e-02
7.376323342323303223e-01 -2.567178308963775635e-01 -3.267440572381019592e-02
7.643495202064514160e-01 -2.427518069744110107e-01 -2.828534506261348724e-02
7.528069615364074707e-01 -2.537201642990112305e-01 -1.873414777219295502e-02
-1.574673205614089966e-01 3.178511857986450195e-01 7.138233631849288940e-02
-1.651680320501327515e-01 3.088908195495605469e-01 7.760889083147048950e-02
-1.400959640741348267e-01 3.095316886901855469e-01 8.032348752021789551e-02
-1.476331353187561035e-01 3.002929389476776123e-01 8.666364103555679321e-02
-4.304017722606658936e-01 -2.169026061892509460e-02 -1.345559060573577881e-01
-4.323360621929168701e-01 -4.093127325177192688e-02 -1.355692595243453979e-01
-4.240457713603973389e-01 -2.381717227399349213e-02 -1.204420030117034912e-01
-4.230366647243499756e-01 -4.332419857382774353e-02 -1.181706860661506653e-01
1.847724914550781250e-01 1.207134593278169632e-02 2.679477632045745850e-02
1.781240999698638916e-01 -3.257430391386151314e-03 3.211988508701324463e-02
1.948944777250289917e-01 1.145905070006847382e-02 4.353626817464828491e-02
1.895936578512191772e-01 -5.142177455127239227e-03 4.908142983913421631e-02
2.303633540868759155e-01 -5.492653697729110718e-03 6.525772064924240112e-02
2.251413762569427490e-01 -2.366307936608791351e-02 6.673213094472885132e-02
2.462027370929718018e-01 -7.609798572957515717e-03 6.844072043895721436e-02
2.410001754760742188e-01 -2.589113824069499969e-02 6.985055655241012573e-02
1.901924610137939453e-01 2.231501415371894836e-02 5.985845625400543213e-02
1.857632994651794434e-01 4.949052818119525909e-03 6.507497280836105347e-02
2.015132904052734375e-01 2.296599373221397400e-02 7.109653949737548828e-02
1.971787959337234497e-01 2.847155556082725525e-03 7.578274607658386230e-02
1.977393031120300293e-01 4.323745891451835632e-02 -1.613804250955581665e-01
1.891955733299255371e-01 2.847592532634735107e-02 -1.637708693742752075e-01
2.143908590078353882e-01 4.030317068099975586e-02 -1.554002314805984497e-01
2.064212858676910400e-01 2.367421425879001617e-02 -1.583865433931350708e-01
-5.074720829725265503e-02 2.112381160259246826e-02 -5.286122485995292664e-02
-6.805306673049926758e-02 1.878603920340538025e-02 -4.958633705973625183e-02
-3.583219274878501892e-02 3.047875687479972839e-02 -4.801293462514877319e-02
-4.865932837128639221e-02 2.389045059680938721e-02 -4.639448598027229309e-02
5.706912279129028320e-01 -1.570893824100494385e-02 8.253180235624313354e-02
5.616956353187561035e-01 -2.920066379010677338e-02 8.026547729969024658e-02
5.868273973464965820e-01 -1.233440078794956207e-02 8.647403866052627563e-02
5.770530104637145996e-01 -2.461938746273517609e-02 8.421900123357772827e-02
-6.858528256416320801e-01 2.830474376678466797e-01 1.634307764470577240e-02
-6.963992118835449219e-01 2.698580026626586914e-01 2.288873493671417236e-02
-6.802487373352050781e-01 2.991609275341033936e-01 2.854015678167343140e-02
-6.865639686584472656e-01 2.788980305194854736e-01 3.283346816897392273e-02
-3.932912945747375488e-01 3.185084462165832520e-01 -1.737203001976013184e-01
-4.062536656856536865e-01 3.272286653518676758e-01 -1.682708859443664551e-01
-3.788180947303771973e-01 3.234631717205047607e-01 -1.608802080154418945e-01
-3.929622769355773926e-01 3.328042924404144287e-01 -1.559995561838150024e-01
5.143457651138305664e-01 2.479740828275680542e-01 -9.330867975950241089e-02
5.086893439292907715e-01 2.281616479158401489e-01 -9.360565245151519775e-02
5.330426692962646484e-01 2.469539940357208252e-01 -8.254109323024749756e-02
5.284473299980163574e-01 2.249082773923873901e-01 -8.307453244924545288e-02
6.115502119064331055e-01 5.040674656629562378e-02 3.078826144337654114e-02
5.959903597831726074e-01 4.832877591252326965e-02 4.208493232727050781e-02
6.232685446739196777e-01 5.134164541959762573e-02 4.148845747113227844e-02
6.057707667350769043e-01 4.949141666293144226e-02 5.125209316611289978e-02
-6.779404282569885254e-01 3.365103900432586670e-01 -1.311133056879043579e-01
-6.958892941474914551e-01 3.284041285514831543e-01 -1.204006522893905640e-01
-6.563526988029479980e-01 3.347716033458709717e-01 -1.139888167381286621e-01
-6.737213730812072754e-01 3.254030346870422363e-01 -1.011594086885452271e-01
-1.518224179744720459e-01 3.100461363792419434e-01 -9.112219512462615967e-02
-1.683118343353271484e-01 3.096483647823333740e-01 -7.755380868911743164e-02
-1.443565785884857178e-01 3.148532509803771973e-01 -8.015242964029312134e-02
-1.590549200773239136e-01 3.124196827411651611e-01 -6.292670965194702148e-02
-4.121766984462738037e-01 1.952960044145584106e-01 -1.380882412195205688e-01
-4.183152019977569580e-01 1.785338670015335083e-01 -1.374587863683700562e-01
-3.963851332664489746e-01 1.964277029037475586e-01 -1.323444545269012451e-01
-4.016640186309814453e-01 1.791508197784423828e-01 -1.325706988573074341e-01
-5.490859150886535645e-01 -1.106110364198684692e-01 -1.412597000598907471e-01
-5.602512955665588379e-01 -1.145193874835968018e-01 -1.381205469369888306e-01
-5.310163497924804688e-01 -1.140852198004722595e-01 -1.350040137767791748e-01
-5.432550311088562012e-01 -1.164258718490600586e-01 -1.319085210561752319e-01
-1.511890888214111328e-01 -4.027651995420455933e-02 -2.446163445711135864e-02
-1.636063009500503540e-01 -3.486364707350730896e-02 -1.856379956007003784e-02
-1.416388303041458130e-01 -3.178696334362030029e-02 -9.858662262558937073e-03
-1.522026807069778442e-01 -3.453391417860984802e-02 -8.332987315952777863e-03
6.818355917930603027e-01 -1.752567142248153687e-01 -1.577825397253036499e-01
6.657139062881469727e-01 -1.692965775728225708e-01 -1.538695693016052246e-01
6.988018751144409180e-01 -1.761603802442550659e-01 -1.476224511861801147e-01
6.839994192123413086e-01 -1.711200773715972900e-01 -1.432411968708038330e-01
6.434168219566345215e-01 2.100027911365032196e-02 8.691994473338127136e-03
6.313424706459045410e-01 2.091305330395698547e-02 2.079040184617042542e-02
6.508881449699401855e-01 2.131430059671401978e-02 2.100681886076927185e-02
6.378176212310791016e-01 2.313337661325931549e-02 3.450353443622589111e-02
5.669130086898803711e-01 1.365555971860885620e-01 -1.275339871644973755e-01
5.577852725982666016e-01 1.154177039861679077e-01 -1.312148422002792358e-01
5.859658122062683105e-01 1.399960517883300781e-01 -1.217120140790939331e-01
5.767936706542968750e-01 1.194755062460899353e-01 -1.259538978338241577e-01
-1.585675030946731567e-01 2.665986120700836182e-02 -1.759113669395446777e-01
-1.613639146089553833e-01 6.599793210625648499e-03 -1.767715960741043091e-01
-1.416862010955810547e-01 3.587304800748825073e-02 -1.709744781255722046e-01
-1.449658274650573730e-01 1.624481007456779480e-02 -1.725462675094604492e-01
7.401409149169921875e-01 -1.527669131755828857e-01 -6.317644566297531128e-02
7.273313403129577637e-01 -1.523368060588836670e-01 -5.148802325129508972e-02
7.546718716621398926e-01 -1.442354619503021240e-01 -5.469684302806854248e-02
7.427682876586914062e-01 -1.467018574476242065e-01 -4.456776380538940430e-02
4.216626659035682678e-02 -1.546838134527206421e-01 3.824456408619880676e-02
2.159636467695236206e-02 -1.471249908208847046e-01 4.995555430650711060e-02
4.795587062835693359e-02 -1.403863579034805298e-01 4.582769423723220825e-02
2.635232172906398773e-02 -1.328234523534774780e-01 5.952114239335060120e-02
-4.412151873111724854e-01 -1.301868706941604614e-01 -2.039338052272796631e-01
-4.592131674289703369e-01 -1.294180452823638916e-01 -1.950566321611404419e-01
-4.253424108028411865e-01 -1.309838891029357910e-01 -1.950560957193374634e-01
-4.428604245185852051e-01 -1.319864243268966675e-01 -1.870889812707901001e-01
-2.148514986038208008e-01 3.208580613136291504e-01 -1.561413556337356567e-01
-2.357340753078460693e-01 3.240073025226593018e-01 -1.496397107839584351e-01
-1.990459859371185303e-01 3.325383365154266357e-01 -1.397593617439270020e-01
-2.200835496187210083e-01 3.336490988731384277e-01 -1.334962099790573120e-01
5.050097107887268066e-01 4.736007750034332275e-02 -6.389694660902023315e-02
4.992253780364990234e-01 3.681954368948936462e-02 -5.831639468669891357e-02
5.091822147369384766e-01 4.466087371110916138e-02 -4.832876473665237427e-02
5.047394037246704102e-01 3.322974964976310730e-02 -4.423499107360839844e-02
-4.626923799514770508e-01 1.694272458553314209e-01 -1.198701262474060059e-01
-4.804859757423400879e-01 1.724495589733123779e-01 -1.179889962077140808e-01
-4.485683143138885498e-01 1.752369850873947144e-01 -1.105724126100540161e-01
-4.647527039051055908e-01 1.743510067462921143e-01 -1.090571954846382141e-01
5.750681161880493164e-01 1.902976781129837036e-01 -6.943798810243606567e-02
5.665718913078308105e-01 1.698403060436248779e-01 -6.854942440986633301e-02
5.858813524246215820e-01 1.817069202661514282e-01 -6.067097932100296021e-02
5.730072259902954102e-01 1.776377856731414795e-01 -5.545572564005851746e-02
3.060035705566406250e-01 8.605513721704483032e-02 -7.957552373409271240e-02
2.924718260765075684e-01 9.069854766130447388e-02 -7.658782601356506348e-02
3.291240036487579346e-01 8.641646802425384521e-02 -6.996778398752212524e-02
3.163323104381561279e-01 8.948978781700134277e-02 -6.737612187862396240e-02
2.309909760951995850e-01 1.938187330961227417e-01 4.225942306220531464e-03
2.171491533517837524e-01 1.898286640644073486e-01 1.518623717129230499e-02
2.392209023237228394e-01 1.918264329433441162e-01 2.069311402738094330e-02
2.257597893476486206e-01 1.872766464948654175e-01 3.235328197479248047e-02
1.921990960836410522e-01 -1.826953142881393433e-01 7.493264973163604736e-02
1.838411390781402588e-01 -1.872743219137191772e-01 7.411561906337738037e-02
2.024095207452774048e-01 -1.680992990732192993e-01 8.296097815036773682e-02
1.971464753150939941e-01 -1.812617033720016479e-01 7.945995032787322998e-02
4.907555878162384033e-01 1.410726010799407959e-01 7.725965231657028198e-02
4.836011826992034912e-01 1.223652288317680359e-01 7.601682841777801514e-02
5.128403306007385254e-01 1.380948126316070557e-01 7.882484793663024902e-02
5.060728192329406738e-01 1.197661533951759338e-01 7.807158678770065308e-02
6.770970225334167480e-01 -2.148615121841430664e-01 -1.040821447968482971e-01
6.657659411430358887e-01 -2.181430608034133911e-01 -9.189453721046447754e-02
6.887750029563903809e-01 -2.214217185974121094e-01 -8.977203071117401123e-02
6.797248721122741699e-01 -2.283735424280166626e-01 -7.698153704404830933e-02
-1.310237497091293335e-01 -1.608665436506271362e-01 -1.676134392619132996e-02
-1.484190225601196289e-01 -1.664244830608367920e-01 -1.744978129863739014e-03
-1.158413738012313843e-01 -1.773235052824020386e-01 -1.002323068678379059e-02
-1.330175697803497314e-01 -1.801210641860961914e-01 4.808022174984216690e-03
8.146001398563385010e-02 5.045227706432342529e-03 -1.663246154785156250e-01
7.781144231557846069e-02 -1.655424386262893677e-02 -1.664272397756576538e-01
1.009605005383491516e-01 3.748187795281410217e-03 -1.563670784235000610e-01
9.675411880016326904e-02 -1.581035181879997253e-02 -1.585814207792282104e-01
-2.998721301555633545e-01 2.164535820484161377e-01 -1.210615783929824829e-01
-3.102762401103973389e-01 2.002270966768264771e-01 -1.229840666055679321e-01
-2.749345600605010986e-01 2.217855304479598999e-01 -1.199188083410263062e-01
-2.834135890007019043e-01 2.028986662626266479e-01 -1.214218065142631531e-01
3.041620925068855286e-02 2.504064440727233887e-01 7.962633669376373291e-02
2.016001939773559570e-02 2.364099770784378052e-01 8.269975334405899048e-02
5.007921159267425537e-02 2.515363097190856934e-01 8.224852383136749268e-02
4.023069143295288086e-02 2.369227260351181030e-01 8.552922308444976807e-02
-6.808611750602722168e-01 3.239717781543731689e-01 -9.608548134565353394e-02
-6.961323022842407227e-01 3.092391490936279297e-01 -8.293332904577255249e-02
-6.671037077903747559e-01 3.225589990615844727e-01 -7.749684154987335205e-02
-6.817026138305664062e-01 3.064417839050292969e-01 -6.419924646615982056e-02
-4.881409406661987305e-01 1.612451858818531036e-02 -1.903954595327377319e-01
-4.919353723526000977e-01 -5.612409207969903946e-03 -1.943493485450744629e-01
-4.710372984409332275e-01 2.259275317192077637e-02 -1.813156008720397949e-01
-4.749863743782043457e-01 1.309139188379049301e-03 -1.844533830881118774e-01
-1.066232919692993164e-01 7.653547078371047974e-02 -9.570736438035964966e-02
-1.232118010520935059e-01 7.728330790996551514e-02 -8.902367204427719116e-02
-9.881506860256195068e-02 8.183781057596206665e-02 -8.656877279281616211e-02
-1.135921180248260498e-01 7.817472517490386963e-02 -7.969650626182556152e-02
1.196495220065116882e-01 2.776999771595001221e-01 6.051055714488029480e-02
1.032317429780960083e-01 2.713571786880493164e-01 7.472500205039978027e-02
1.424462944269180298e-01 2.833350002765655518e-01 7.263394445180892944e-02
1.243136003613471985e-01 2.739429771900177002e-01 8.607524633407592773e-02
-7.176741957664489746e-01 -1.087328493595123291e-01 -3.155862540006637573e-02
-7.257986068725585938e-01 -1.065924689173698425e-01 -1.292446721345186234e-02
-7.097954750061035156e-01 -1.124988570809364319e-01 -1.362202968448400497e-02
-7.187095880508422852e-01 -1.092386096715927124e-01 4.514671862125396729e-03
-4.667954146862030029e-01 1.204562708735466003e-01 -1.907186806201934814e-01
-4.781148135662078857e-01 1.104148179292678833e-01 -1.911296099424362183e-01
-4.535664319992065430e-01 1.244778707623481750e-01 -1.840685456991195679e-01
-4.638113677501678467e-01 1.129327490925788879e-01 -1.847554445266723633e-01
6.724119782447814941e-01 -2.165949046611785889e-01 -1.625307053327560425e-01
6.564391851425170898e-01 -2.303347140550613403e-01 -1.617039144039154053e-01
6.927155852317810059e-01 -2.225104421377182007e-01 -1.568467170000076294e-01
6.770985722541809082e-01 -2.347468286752700806e-01 -1.559177935123443604e-01
8.717116117477416992e-01 -1.001122146844863892e-01 -1.508804261684417725e-01
8.653717041015625000e-01 -1.279810816049575806e-01 -1.502337455749511719e-01
8.927396535873413086e-01 -9.823782742023468018e-02 -1.470325887203216553e-01
8.858495950698852539e-01 -1.255307942628860474e-01 -1.466100215911865234e-01
-1.529938727617263794e-01 -3.507637232542037964e-02 3.314594551920890808e-02
-1.602790355682373047e-01 -4.918820410966873169e-02 2.890730835497379303e-02
-1.430626958608627319e-01 -2.213290333747863770e-02 4.072499647736549377e-02
-1.477006226778030396e-01 -4.021311923861503601e-02 3.573786467313766479e-02
-2.612155377864837646e-01 -1.345226727426052094e-02 6.384562700986862183e-02
-2.658820748329162598e-01 -3.839774429798126221e-02 5.784592404961585999e-02
-2.399108707904815674e-01 -5.903162993490695953e-03 7.255497574806213379e-02
-2.444315701723098755e-01 -2.899985946714878082e-02 6.544348597526550293e-02
-1.434129476547241211e-01 -4.645978659391403198e-02 -1.513739526271820068e-01
-1.515949815511703491e-01 -6.567822396755218506e-02 -1.499778926372528076e-01
-1.256447136402130127e-01 -4.519302770495414734e-02 -1.452591121196746826e-01
-1.353345513343811035e-01 -6.010559573769569397e-02 -1.433739513158798218e-01
-6.819767951965332031e-01 3.417154252529144287e-01 7.989302277565002441e-03
-6.881533265113830566e-01 3.227113783359527588e-01 2.020694501698017120e-02
-6.698697805404663086e-01 3.471564054489135742e-01 2.571718022227287292e-02
-6.755406260490417480e-01 3.258157372474670410e-01 3.785762190818786621e-02
1.886750906705856323e-01 2.429728358983993530e-01 -9.982384741306304932e-02
1.757378876209259033e-01 2.502663433551788330e-01 -9.278123080730438232e-02
2.003904581069946289e-01 2.451970130205154419e-01 -8.655195683240890503e-02
1.878463029861450195e-01 2.507266104221343994e-01 -7.832577079534530640e-02
-1.441472768783569336e-01 2.764548957347869873e-01 -2.784037590026855469e-02
-1.563817113637924194e-01 2.687519788742065430e-01 -1.456054300069808960e-02
-1.331048011779785156e-01 2.726750671863555908e-01 -1.096831075847148895e-02
-1.450633257627487183e-01 2.643544375896453857e-01 1.766207627952098846e-03
8.068201690912246704e-02 3.719608113169670105e-02 -1.302200853824615479e-01
7.453865557909011841e-02 2.091423049569129944e-02 -1.176014766097068787e-01
9.465816617012023926e-02 3.105743974447250366e-02 -1.187694817781448364e-01
8.952849358320236206e-02 1.480191294103860855e-02 -1.036786809563636780e-01
-9.859828650951385498e-02 -1.974260807037353516e-02 7.677505165338516235e-02
-1.023391112685203552e-01 -3.515571355819702148e-02 7.575522363185882568e-02
-8.285021036863327026e-02 -2.092062309384346008e-02 7.969946414232254028e-02
-8.707686513662338257e-02 -3.727136552333831787e-02 7.915634661912918091e-02
-4.581376016139984131e-01 2.513514161109924316e-01 -1.724512428045272827e-01
-4.635975658893585205e-01 2.324636429548263550e-01 -1.779664009809494019e-01
-4.400903582572937012e-01 2.625880837440490723e-01 -1.664832383394241333e-01
-4.453990459442138672e-01 2.418528944253921509e-01 -1.722005307674407959e-01
2.759613394737243652e-01 8.243277668952941895e-02 -4.768653586506843567e-02
2.746739685535430908e-01 5.999692156910896301e-02 -3.954263776540756226e-02
2.866482734680175781e-01 7.714059948921203613e-02 -3.143415600061416626e-02
2.835313379764556885e-01 5.556511878967285156e-02 -2.271774969995021820e-02
-2.565765082836151123e-01 -4.545827955007553101e-02 -6.935131549835205078e-02
-2.659884393215179443e-01 -4.559310525655746460e-02 -5.241848155856132507e-02
-2.501370906829833984e-01 -4.261592030525207520e-02 -5.709166079759597778e-02
-2.594107985496520996e-01 -4.274800419807434082e-02 -3.992329537868499756e-02
2.447609901428222656e-01 2.607807517051696777e-01 -2.717739157378673553e-02
2.314605861902236938e-01 2.628870606422424316e-01 -1.070829480886459351e-02
2.588879466056823730e-01 2.530971467494964600e-01 -1.050374284386634827e-02
2.438964694738388062e-01 2.561333775520324707e-01 6.657210178673267365e-03
1.410166323184967041e-01 1.873212307691574097e-01 7.512316852807998657e-02
1.333459466695785522e-01 1.709728986024856567e-01 7.923354208469390869e-02
1.563016921281814575e-01 1.791867911815643311e-01 7.827786356210708618e-02
1.466839760541915894e-01 1.661318838596343994e-01 8.355156332254409790e-02
-4.907654523849487305e-01 -9.346149861812591553e-02 -1.406822819262742996e-02
-5.058193206787109375e-01 -9.838788956403732300e-02 -1.013545412570238113e-02
-4.732578396797180176e-01 -9.493725746870040894e-02 -9.373194188810884953e-05
-4.896957874298095703e-01 -9.811292588710784912e-02 1.375230844132602215e-03
8.521173149347305298e-03 -1.695251166820526123e-01 -1.600601971149444580e-01
-5.856393836438655853e-03 -1.757173836231231689e-01 -1.534311324357986450e-01
1.865520514547824860e-02 -1.769206970930099487e-01 -1.459488272666931152e-01
5.684413015842437744e-03 -1.826720684766769409e-01 -1.371033191680908203e-01
5.710859298706054688e-01 -2.267716825008392334e-01 7.980637997388839722e-02
5.525754094123840332e-01 -2.180655300617218018e-01 8.949112892150878906e-02
5.894111394882202148e-01 -2.253868132829666138e-01 8.487620949745178223e-02
5.736906528472900391e-01 -2.256100624799728394e-01 9.167925268411636353e-02
-2.614137344062328339e-02 2.206931263208389282e-01 6.962486356496810913e-02
-3.318288922309875488e-02 2.045540064573287964e-01 7.154446095228195190e-02
-1.038636825978755951e-02 2.232885658740997314e-01 7.763264328241348267e-02
-1.703249290585517883e-02 2.053993195295333862e-01 7.651686668395996094e-02
5.326031148433685303e-02 -1.017936393618583679e-01 -1.359279900789260864e-01
3.886573016643524170e-02 -1.100900694727897644e-01 -1.233044341206550598e-01
5.926769226789474487e-02 -9.724632650613784790e-02 -1.188460737466812134e-01
4.813252761960029602e-02 -1.088516488671302795e-01 -1.088764220476150513e-01
-4.704266190528869629e-01 1.314898431301116943e-01 -1.574155092239379883e-01
-4.901753962039947510e-01 1.351838409900665283e-01 -1.538774669170379639e-01
-4.552916288375854492e-01 1.392005234956741333e-01 -1.495477706193923950e-01
-4.738686680793762207e-01 1.411554962396621704e-01 -1.448479443788528442e-01
-3.279146850109100342e-01 2.576677501201629639e-01 7.509496808052062988e-02
-3.391216397285461426e-01 2.474626004695892334e-01 7.559569925069808960e-02
-3.054900467395782471e-01 2.575885057449340820e-01 7.782827317714691162e-02
-3.163118362426757812e-01 2.463313043117523193e-01 7.808782905340194702e-02
7.403647899627685547e-01 2.414812296628952026e-01 -4.617471992969512939e-02
7.289960980415344238e-01 2.429788261651992798e-01 -3.337484970688819885e-02
7.528239488601684570e-01 2.376114577054977417e-01 -3.243656828999519348e-02
7.421198487281799316e-01 2.391782402992248535e-01 -2.022914588451385498e-02
4.639962017536163330e-01 2.109725773334503174e-01 -1.081533953547477722e-01
4.579186737537384033e-01 1.941842585802078247e-01 -1.123825013637542725e-01
4.744913280010223389e-01 2.119051069021224976e-01 -9.874803572893142700e-02
4.680946767330169678e-01 1.932671219110488892e-01 -1.023723483085632324e-01
1.979681849479675293e-02 -1.344041153788566589e-02 -1.593524217605590820e-01
1.586092449724674225e-02 -3.860656544566154480e-02 -1.560659855604171753e-01
2.874501608312129974e-02 -1.205867994576692581e-02 -1.441962271928787231e-01
2.581477165222167969e-02 -3.634459525346755981e-02 -1.409052610397338867e-01
8.217826485633850098e-03 -1.793140769004821777e-01 6.576428562402725220e-02
-8.976379409432411194e-03 -1.743619143962860107e-01 7.423193752765655518e-02
2.060816064476966858e-02 -1.722880899906158447e-01 7.354743778705596924e-02
2.600320614874362946e-03 -1.669362336397171021e-01 8.232755213975906372e-02
-2.995158433914184570e-01 -1.471666246652603149e-01 -1.046539563685655594e-02
-3.159165680408477783e-01 -1.406629234552383423e-01 -6.662070751190185547e-03
-2.869380414485931396e-01 -1.334193646907806396e-01 5.515685770660638809e-04
-3.011648952960968018e-01 -1.355337053537368774e-01 2.279402688145637512e-03
-2.103106081485748291e-01 4.214470088481903076e-02 3.907494992017745972e-02
-2.177372872829437256e-01 2.257642894983291626e-02 3.313453868031501770e-02
-1.895571053028106689e-01 5.329631641507148743e-02 4.736874252557754517e-02
-1.986079663038253784e-01 3.578118979930877686e-02 4.188346117734909058e-02
7.905094325542449951e-02 1.415579020977020264e-01 3.872001543641090393e-02
6.777526438236236572e-02 1.290173232555389404e-01 3.766359016299247742e-02
9.651629626750946045e-02 1.388508528470993042e-01 4.592882096767425537e-02
8.741783350706100464e-02 1.267589926719665527e-01 4.548931121826171875e-02
2.199068367481231689e-01 2.773000597953796387e-01 -8.284381777048110962e-02
2.067924141883850098e-01 2.797578275203704834e-01 -7.086347043514251709e-02
2.323981523513793945e-01 2.692494392395019531e-01 -6.753040105104446411e-02
2.193269431591033936e-01 2.715275287628173828e-01 -5.493550747632980347e-02
-6.375660300254821777e-01 -1.341636925935745239e-01 3.535225614905357361e-02
-6.552101373672485352e-01 -1.279066503047943115e-01 4.392810910940170288e-02
-6.240596771240234375e-01 -1.297811716794967651e-01 4.464112222194671631e-02
-6.420195102691650391e-01 -1.232629418373107910e-01 5.336957052350044250e-02
4.318793416023254395e-01 8.964296430349349976e-02 -8.712820708751678467e-02
4.130692183971405029e-01 9.332235157489776611e-02 -8.614905178546905518e-02
4.418047666549682617e-01 9.768199175596237183e-02 -7.658176869153976440e-02
4.231000244617462158e-01 1.032816991209983826e-01 -7.525132596492767334e-02
3.115131705999374390e-02 -1.615028381347656250e-01 6.606813520193099976e-02
1.181375700980424881e-02 -1.554453074932098389e-01 7.728592306375503540e-02
4.632561653852462769e-02 -1.492937654256820679e-01 7.127641141414642334e-02
2.367793768644332886e-02 -1.414217501878738403e-01 8.444067835807800293e-02
2.984130680561065674e-01 1.083962023258209229e-01 -4.612479358911514282e-02
2.927434444427490234e-01 9.095443040132522583e-02 -4.179953411221504211e-02
3.188623785972595215e-01 1.110012158751487732e-01 -3.585423529148101807e-02
3.120413124561309814e-01 9.058181941509246826e-02 -3.205622360110282898e-02
8.027096986770629883e-01 -1.445939391851425171e-01 -1.240021064877510071e-01
7.944915890693664551e-01 -1.607237905263900757e-01 -1.159480214118957520e-01
8.082183003425598145e-01 -1.387765705585479736e-01 -1.098761633038520813e-01
7.989218831062316895e-01 -1.521438658237457275e-01 -1.010020300745964050e-01
-4.175645112991333008e-01 6.901570409536361694e-02 -2.083295434713363647e-01
-4.293322861194610596e-01 5.672208964824676514e-02 -2.000754326581954956e-01
-4.050855636596679688e-01 6.844465434551239014e-02 -1.982405185699462891e-01
-4.166719019412994385e-01 5.609845370054244995e-02 -1.898295879364013672e-01
5.024957656860351562e-01 -3.302265703678131104e-02 1.011865511536598206e-01
4.951671659946441650e-01 -4.980481415987014771e-02 1.050683110952377319e-01
5.181792378425598145e-01 -3.875946998596191406e-02 1.034250259399414062e-01
5.086743831634521484e-01 -5.304264277219772339e-02 1.089802086353302002e-01
-4.675643444061279297e-01 -9.112705290317535400e-02 4.588213562965393066e-02
-4.823686480522155762e-01 -9.870964288711547852e-02 4.448527097702026367e-02
-4.513957500457763672e-01 -8.035539835691452026e-02 5.163164809346199036e-02
-4.594047665596008301e-01 -9.680185467004776001e-02 4.692630097270011902e-02
-1.117966026067733765e-01 9.464104473590850830e-02 -1.307656615972518921e-01
-1.199525445699691772e-01 7.988076657056808472e-02 -1.332409232854843140e-01
-9.549094736576080322e-02 9.787645936012268066e-02 -1.265282481908798218e-01
-1.027862280607223511e-01 8.062084019184112549e-02 -1.284192204475402832e-01
8.379222154617309570e-01 2.320773452520370483e-01 -1.148498207330703735e-01
8.163738250732421875e-01 2.372269183397293091e-01 -1.101221367716789246e-01
8.579916954040527344e-01 2.331848144531250000e-01 -1.045829355716705322e-01
8.345426917076110840e-01 2.401206791400909424e-01 -9.980764240026473999e-02
7.880357503890991211e-01 8.747076988220214844e-02 -9.107936918735504150e-02
7.861731648445129395e-01 6.571321189403533936e-02 -8.595877140760421753e-02
7.959607243537902832e-01 9.059401601552963257e-02 -7.707983255386352539e-02
7.950563430786132812e-01 6.857061386108398438e-02 -7.005745172500610352e-02
-5.468829274177551270e-01 6.200718134641647339e-02 -2.662550657987594604e-02
-5.461949110031127930e-01 3.582958877086639404e-02 -2.690265513956546783e-02
-5.315342545509338379e-01 5.884359776973724365e-02 -1.202719472348690033e-02
-5.324738025665283203e-01 3.309367597103118896e-02 -1.304034143686294556e-02
-1.670283637940883636e-02 1.980916857719421387e-01 -1.147176772356033325e-01
-2.635328099131584167e-02 1.771632581949234009e-01 -1.126283034682273865e-01
-8.657086640596389771e-03 1.945689171552658081e-01 -1.039796397089958191e-01
-1.789358630776405334e-02 1.741011440753936768e-01 -1.000549122691154480e-01
-3.571898639202117920e-01 1.125591099262237549e-01 -8.586525917053222656e-03
-3.693092763423919678e-01 1.055586189031600952e-01 4.734466783702373505e-03
-3.486893773078918457e-01 1.168150901794433594e-01 7.427048869431018829e-03
-3.592865169048309326e-01 1.068107187747955322e-01 1.864156313240528107e-02
4.893667399883270264e-01 1.942446976900100708e-01 -7.305289804935455322e-02
4.836679995059967041e-01 1.732030957937240601e-01 -7.516809552907943726e-02
5.039850473403930664e-01 1.942016333341598511e-01 -5.783832445740699768e-02
4.968871772289276123e-01 1.748011708259582520e-01 -5.638052895665168762e-02
-6.539829969406127930e-01 -1.566227078437805176e-01 3.577692061662673950e-02
-6.701879501342773438e-01 -1.493282914161682129e-01 4.479589313268661499e-02
-6.394031047821044922e-01 -1.521402150392532349e-01 4.496473446488380432e-02
-6.567871570587158203e-01 -1.460540443658828735e-01 5.417709797620773315e-02
1.681773662567138672e-01 8.390511572360992432e-02 -4.472966305911540985e-03
1.525425016880035400e-01 7.551914453506469727e-02 4.754736088216304779e-03
1.870546340942382812e-01 8.528651297092437744e-02 6.153731141239404678e-03
1.646953374147415161e-01 8.247140049934387207e-02 1.559419184923171997e-02
1.402438580989837646e-01 7.482248544692993164e-02 -8.310943841934204102e-02
1.337145268917083740e-01 5.580740049481391907e-02 -7.339686155319213867e-02
1.492824554443359375e-01 8.087193965911865234e-02 -6.921875476837158203e-02
1.431172937154769897e-01 5.877233669161796570e-02 -6.109817326068878174e-02
1.203797236084938049e-01 -1.780104339122772217e-01 -1.037017703056335449e-01
1.081474721431732178e-01 -1.871450245380401611e-01 -9.656576067209243774e-02
1.322018057107925415e-01 -1.837901771068572998e-01 -9.000018239021301270e-02
1.214248090982437134e-01 -1.913872212171554565e-01 -8.419561386108398438e-02
-2.978180907666683197e-02 -6.833639927208423615e-03 -1.543697863817214966e-01
-3.689723089337348938e-02 -2.293967455625534058e-02 -1.545548439025878906e-01
-9.730977937579154968e-03 -2.080317586660385132e-03 -1.514113694429397583e-01
-1.732617430388927460e-02 -1.751024462282657623e-02 -1.514214128255844116e-01
6.168628334999084473e-01 -2.469973564147949219e-01 2.843763679265975952e-03
6.030316948890686035e-01 -2.461787909269332886e-01 1.916840486228466034e-02
6.265951991081237793e-01 -2.468886822462081909e-01 1.784161105751991272e-02
6.122360825538635254e-01 -2.450465112924575806e-01 3.426902368664741516e-02
-1.160840038210153580e-02 2.963967621326446533e-01 -1.651798784732818604e-01
-2.773819491267204285e-02 2.884642779827117920e-01 -1.635974645614624023e-01
9.735435247421264648e-03 2.993274033069610596e-01 -1.576424837112426758e-01
-8.134074509143829346e-03 2.963380217552185059e-01 -1.549073606729507446e-01
-6.459215283393859863e-01 -1.495845764875411987e-01 8.846355602145195007e-03
-6.612409949302673340e-01 -1.450590193271636963e-01 1.886530406773090363e-02
-6.301159262657165527e-01 -1.491236090660095215e-01 2.052902802824974060e-02
-6.477911472320556641e-01 -1.432390064001083374e-01 2.981522865593433380e-02
1.962185800075531006e-01 -1.509971618652343750e-01 8.512445539236068726e-02
1.914643496274948120e-01 -1.656274497509002686e-01 8.127252757549285889e-02
2.062329351902008057e-01 -1.374964267015457153e-01 9.061181545257568359e-02
2.028943300247192383e-01 -1.545504033565521240e-01 8.766277134418487549e-02
9.236533045768737793e-01 -2.390874028205871582e-01 -1.297419071197509766e-01
8.985965251922607422e-01 -2.478062063455581665e-01 -1.192437857389450073e-01
9.527219533920288086e-01 -2.560404837131500244e-01 -1.139106079936027527e-01
9.233967661857604980e-01 -2.628094553947448730e-01 -1.022208929061889648e-01
-3.486944735050201416e-01 -1.732505261898040771e-01 -1.970432884991168976e-02
-3.679527044296264648e-01 -1.662161797285079956e-01 -1.257841661572456360e-02
-3.305316567420959473e-01 -1.665902435779571533e-01 -9.338997304439544678e-03
-3.486863374710083008e-01 -1.596691012382507324e-01 -5.223134066909551620e-03
1.018522500991821289e+00 4.687982797622680664e-02 -7.480560988187789917e-02
1.018014073371887207e+00 1.423882134258747101e-02 -6.978549063205718994e-02
1.024653196334838867e+00 5.218764394521713257e-02 -5.492664501070976257e-02
1.024467945098876953e+00 1.884754747152328491e-02 -4.985891282558441162e-02
-1.718704588711261749e-03 5.754168704152107239e-02 -1.234925463795661926e-01
-1.227179728448390961e-02 3.691555932164192200e-02 -1.246946901082992554e-01
1.341559365391731262e-02 6.149489432573318481e-02 -1.117414236068725586e-01
2.879443578422069550e-03 4.057710617780685425e-02 -1.128902435302734375e-01
-4.310087561607360840e-01 2.774620354175567627e-01 3.105177544057369232e-02
-4.520477950572967529e-01 2.818713486194610596e-01 3.601338714361190796e-02
-4.181262552738189697e-01 2.863732278347015381e-01 3.930237144231796265e-02
-4.396971762180328369e-01 2.915292084217071533e-01 4.455018788576126099e-02
1.902543157339096069e-01 4.917194694280624390e-02 -1.592413336038589478e-01
1.817561686038970947e-01 3.484106063842773438e-02 -1.614588350057601929e-01
2.064612805843353271e-01 4.778830707073211670e-02 -1.555919945240020752e-01
1.983392983675003052e-01 3.255593776702880859e-02 -1.586685776710510254e-01
5.174576044082641602e-01 8.134864270687103271e-02 -1.341720372438430786e-01
5.111603140830993652e-01 6.096398830413818359e-02 -1.371140033006668091e-01
5.374104976654052734e-01 9.189632534980773926e-02 -1.312917768955230713e-01
5.306848883628845215e-01 6.854047626256942749e-02 -1.343402862548828125e-01
-2.848285734653472900e-01 3.033331930637359619e-01 -1.232957690954208374e-01
-3.005026876926422119e-01 3.134267926216125488e-01 -1.129336729645729065e-01
-2.757224738597869873e-01 3.061130046844482422e-01 -1.106323376297950745e-01
-2.896223962306976318e-01 3.138033151626586914e-01 -9.759094566106796265e-02
4.187266826629638672e-01 2.782773375511169434e-01 -1.377059370279312134e-01
3.938923478126525879e-01 2.723143398761749268e-01 -1.341460496187210083e-01
4.406609833240509033e-01 2.789132595062255859e-01 -1.280369907617568970e-01
4.169674217700958252e-01 2.727487683296203613e-01 -1.249252930283546448e-01
4.200770556926727295e-01 7.117836177349090576e-02 9.958128444850444794e-03
4.134228229522705078e-01 5.407571792602539062e-02 9.573142975568771362e-03
4.360606372356414795e-01 7.647542655467987061e-02 2.319325879216194153e-02
4.285076856613159180e-01 5.895736068487167358e-02 2.473608218133449554e-02
-6.212772801518440247e-02 2.476337365806102753e-03 -1.282098442316055298e-01
-7.405519485473632812e-02 -1.118695922195911407e-02 -1.278764158487319946e-01
-4.106886684894561768e-02 1.208830997347831726e-02 -1.241354197263717651e-01
-5.254244431853294373e-02 -2.766123507171869278e-03 -1.256909817457199097e-01
2.533445358276367188e-01 -1.350225210189819336e-01 4.682238772511482239e-02
2.466446012258529663e-01 -1.516787111759185791e-01 4.768045246601104736e-02
2.683895230293273926e-01 -1.318873316049575806e-01 4.838750883936882019e-02
2.611880302429199219e-01 -1.481591016054153442e-01 4.875792935490608215e-02
1.021166563034057617e+00 -1.260828077793121338e-01 -1.034521088004112244e-01
1.014681816101074219e+00 -1.507155895233154297e-01 -1.013471335172653198e-01
1.027883529663085938e+00 -1.129311248660087585e-01 -7.052924484014511108e-02
1.023420929908752441e+00 -1.406779736280441284e-01 -6.900807470083236694e-02
-4.849988222122192383e-01 -1.261408179998397827e-01 -1.884222924709320068e-01
-5.019552707672119141e-01 -1.152499616146087646e-01 -1.772135198116302490e-01
-4.705937206745147705e-01 -1.276352554559707642e-01 -1.800480484962463379e-01
-4.885087311267852783e-01 -1.162876784801483154e-01 -1.703983396291732788e-01
2.971447110176086426e-01 -6.388671696186065674e-02 -1.456366777420043945e-01
2.900602519512176514e-01 -8.220311254262924194e-02 -1.491870731115341187e-01
3.193988800048828125e-01 -6.200864911079406738e-02 -1.362893879413604736e-01
3.120492696762084961e-01 -7.964855432510375977e-02 -1.414507180452346802e-01
-4.994707703590393066e-01 1.569958329200744629e-01 -1.203732788562774658e-01
-5.165421962738037109e-01 1.639375239610671997e-01 -1.169396340847015381e-01
-4.816752374172210693e-01 1.619657427072525024e-01 -1.084751784801483154e-01
-4.986711442470550537e-01 1.661100983619689941e-01 -1.060322225093841553e-01
2.022112160921096802e-01 -7.894039154052734375e-02 1.388386916369199753e-02
2.045903652906417847e-01 -1.017001718282699585e-01 2.151030674576759338e-02
2.141234129667282104e-01 -7.388260960578918457e-02 2.270012721419334412e-02
2.157156318426132202e-01 -9.501861035823822021e-02 2.801167964935302734e-02
7.031255364418029785e-01 -2.305649220943450928e-01 -1.055963560938835144e-01
6.936520338058471680e-01 -2.390527576208114624e-01 -9.427651762962341309e-02
7.135480642318725586e-01 -2.438517510890960693e-01 -9.200406819581985474e-02
7.042779326438903809e-01 -2.531150579452514648e-01 -7.773559540510177612e-02
6.520911455154418945e-01 -2.048942446708679199e-01 -6.751129776239395142e-02
6.393555402755737305e-01 -2.062463015317916870e-01 -5.547703802585601807e-02
6.633912920951843262e-01 -2.056735306978225708e-01 -5.802783370018005371e-02
6.511114835739135742e-01 -2.084556072950363159e-01 -4.496238008141517639e-02
-3.274353146553039551e-01 -1.328624784946441650e-01 -5.824793595820665359e-03
-3.427780866622924805e-01 -1.213471964001655579e-01 -1.293679815717041492e-03
-3.144461214542388916e-01 -1.219643950462341309e-01 2.634427743032574654e-03
-3.297485113143920898e-01 -1.116801649332046509e-01 6.503733340650796890e-03
9.854635596275329590e-02 -9.864117205142974854e-02 -9.620717912912368774e-02
9.192091971635818481e-02 -1.150591447949409485e-01 -8.928257226943969727e-02
1.110420674085617065e-01 -1.058147177100181580e-01 -8.600428700447082520e-02
1.050927117466926575e-01 -1.222197189927101135e-01 -7.926080375909805298e-02
2.941874861717224121e-01 6.017828360199928284e-03 -8.333939313888549805e-02
2.897490561008453369e-01 -1.436895877122879028e-02 -7.892318069934844971e-02
3.054538667201995850e-01 5.384866148233413696e-03 -7.510048896074295044e-02
2.989210188388824463e-01 -1.569754257798194885e-02 -7.056181132793426514e-02
6.279650926589965820e-01 1.488430052995681763e-01 -4.618360847234725952e-02
6.111431121826171875e-01 1.626275777816772461e-01 -4.033876210451126099e-02
6.351225376129150391e-01 1.537140905857086182e-01 -2.840407937765121460e-02
6.185919046401977539e-01 1.659212559461593628e-01 -2.337462641298770905e-02
8.031418323516845703e-01 8.457972854375839233e-02 5.100467801094055176e-02
7.990042567253112793e-01 6.819200515747070312e-02 5.395391955971717834e-02
8.191288113594055176e-01 7.358416914939880371e-02 5.994743108749389648e-02
8.140190243721008301e-01 5.809367075562477112e-02 6.109296530485153198e-02
7.433806061744689941e-01 -1.261987090110778809e-01 4.968186095356941223e-02
7.290100455284118652e-01 -1.310086995363235474e-01 5.508668720722198486e-02
7.505837678909301758e-01 -1.186921969056129456e-01 6.257219612598419189e-02
7.379176020622253418e-01 -1.273916661739349365e-01 6.894650310277938843e-02
-7.187690734863281250e-01 -7.946394383907318115e-02 2.290036901831626892e-02
-7.245617508888244629e-01 -9.027521312236785889e-02 3.327896445989608765e-02
-7.077471017837524414e-01 -6.690645217895507812e-02 3.980145230889320374e-02
-7.136644124984741211e-01 -8.575743436813354492e-02 4.385017603635787964e-02
-6.443992257118225098e-02 2.692186459898948669e-02 -1.763446480035781860e-01
-7.088422030210494995e-02 1.095025800168514252e-02 -1.762180477380752563e-01
-4.345571249723434448e-02 2.565541863441467285e-02 -1.737034171819686890e-01
-5.044180154800415039e-02 1.125285215675830841e-02 -1.730905175209045410e-01
5.365622043609619141e-01 7.603238523006439209e-02 -6.870782375335693359e-02
5.289995074272155762e-01 6.568443030118942261e-02 -5.875573679804801941e-02
5.397268533706665039e-01 7.798473536968231201e-02 -5.360023304820060730e-02
5.339648127555847168e-01 6.673449277877807617e-02 -4.338715597987174988e-02
4.315454959869384766e-01 1.688206791877746582e-01 -5.443137139081954956e-03
4.203143715858459473e-01 1.678359806537628174e-01 8.519090712070465088e-03
4.414665102958679199e-01 1.674370318651199341e-01 5.179393105208873749e-03
4.302597045898437500e-01 1.665941327810287476e-01 1.853075250983238220e-02
5.597869679331779480e-02 1.820238232612609863e-01 7.888317853212356567e-02
4.490482807159423828e-02 1.662633419036865234e-01 7.862046360969543457e-02
7.505504786968231201e-02 1.822133958339691162e-01 8.246232569217681885e-02
6.546463817358016968e-02 1.668530851602554321e-01 8.281181752681732178e-02
-2.174404710531234741e-01 2.769933342933654785e-01 6.549003720283508301e-02
-2.251822948455810547e-01 2.642117738723754883e-01 6.906559318304061890e-02
-2.019169926643371582e-01 2.767862677574157715e-01 6.969821453094482422e-02
-2.088521122932434082e-01 2.627842724323272705e-01 7.332591712474822998e-02
7.393314242362976074e-01 6.132910028100013733e-03 6.550171226263046265e-02
7.371229529380798340e-01 -1.168931275606155396e-02 6.960998475551605225e-02
7.571403384208679199e-01 1.486844755709171295e-02 7.580754905939102173e-02
7.538074851036071777e-01 -7.835961878299713135e-03 7.477064430713653564e-02
7.655761837959289551e-01 2.168323844671249390e-01 -8.911169320344924927e-02
7.523459792137145996e-01 2.147657126188278198e-01 -8.043961226940155029e-02
7.823184728622436523e-01 2.164193838834762573e-01 -7.561152428388595581e-02
7.690950632095336914e-01 2.143062204122543335e-01 -6.807643920183181763e-02
-2.320670783519744873e-01 -7.404135540127754211e-04 -5.363675951957702637e-02
-2.462063878774642944e-01 -3.720222739502787590e-03 -3.516345471143722534e-02
-2.163464874029159546e-01 -8.946097455918788910e-03 -4.136234894394874573e-02
-2.312862724065780640e-01 -1.108171045780181885e-02 -2.334133535623550415e-02
-3.403605818748474121e-01 1.832343786954879761e-01 3.849741071462631226e-02
-3.442328572273254395e-01 1.542644351720809937e-01 3.224379196763038635e-02
-3.217100501060485840e-01 1.903620809316635132e-01 4.770145192742347717e-02
-3.266901671886444092e-01 1.590877026319503784e-01 3.887130320072174072e-02
-2.094197273254394531e-02 1.741904020309448242e-01 -3.775481507182121277e-02
-3.047126159071922302e-02 1.533447504043579102e-01 -3.229863569140434265e-02
-3.958436660468578339e-03 1.743531823158264160e-01 -2.500503323972225189e-02
-1.483789924532175064e-02 1.546756178140640259e-01 -2.025223895907402039e-02
4.960029721260070801e-01 -6.027160584926605225e-02 -9.878747165203094482e-02
4.827376902103424072e-01 -5.920001491904258728e-02 -8.931626379489898682e-02
5.096660256385803223e-01 -6.831321120262145996e-02 -9.037554264068603516e-02
4.956443309783935547e-01 -6.403718143701553345e-02 -8.210249245166778564e-02
2.721900343894958496e-01 5.599531531333923340e-02 -1.332878600805997849e-02
2.652187049388885498e-01 3.861612454056739807e-02 -5.091643892228603363e-03
2.912613451480865479e-01 4.658833518624305725e-02 1.797236269339919090e-03
2.806809544563293457e-01 3.305468708276748657e-02 8.044387213885784149e-03
-1.154637932777404785e-01 -2.708113193511962891e-02 7.831512391567230225e-02
-1.195829957723617554e-01 -4.239245504140853882e-02 7.659415900707244873e-02
-9.833289682865142822e-02 -3.035946562886238098e-02 8.080606907606124878e-02
-1.027663499116897583e-01 -4.548275470733642578e-02 7.982055842876434326e-02
-4.929541945457458496e-01 -5.500900745391845703e-02 -9.584221243858337402e-02
-4.940633773803710938e-01 -7.283290475606918335e-02 -8.317148685455322266e-02
-4.855017066001892090e-01 -5.938396975398063660e-02 -8.028746396303176880e-02
-4.850852787494659424e-01 -7.588762789964675903e-02 -6.341426819562911987e-02
-6.548272371292114258e-01 2.640995979309082031e-01 -1.544611304998397827e-01
-6.615049839019775391e-01 2.409293502569198608e-01 -1.505681425333023071e-01
-6.414414644241333008e-01 2.652378380298614502e-01 -1.369482725858688354e-01
-6.517094969749450684e-01 2.515452504158020020e-01 -1.352338045835494995e-01
-6.191876530647277832e-02 2.911792397499084473e-01 -1.622745543718338013e-01
-7.786013185977935791e-02 2.781607806682586670e-01 -1.612319946289062500e-01
-4.099965468049049377e-02 2.975502014160156250e-01 -1.587075293064117432e-01
-5.483171716332435608e-02 2.846253812313079834e-01 -1.577420234680175781e-01
-5.086710304021835327e-02 2.045433968305587769e-01 6.299728900194168091e-02
-5.879530310630798340e-02 1.864836961030960083e-01 6.823210418224334717e-02
-3.772559762001037598e-02 2.082519680261611938e-01 7.140558212995529175e-02
-4.435671120882034302e-02 1.911531388759613037e-01 7.352524250745773315e-02
-4.547225832939147949e-01 4.190177097916603088e-02 3.161828219890594482e-02
-4.607975184917449951e-01 2.631797827780246735e-02 3.416935354471206665e-02
-4.404748082160949707e-01 3.728951886296272278e-02 3.436933457851409912e-02
-4.464987814426422119e-01 2.165184915065765381e-02 3.716798126697540283e-02
4.560173153877258301e-01 -1.930798441171646118e-01 -1.454340815544128418e-01
4.426367878913879395e-01 -2.034511864185333252e-01 -1.366708874702453613e-01
4.686030447483062744e-01 -1.955526024103164673e-01 -1.349667310714721680e-01
4.552532434463500977e-01 -2.032995373010635376e-01 -1.256714314222335815e-01
3.236274123191833496e-01 -1.235832944512367249e-01 -9.478584676980972290e-02
3.097767233848571777e-01 -1.284696310758590698e-01 -8.393997699022293091e-02
3.350059390068054199e-01 -1.246153861284255981e-01 -8.445061743259429932e-02
3.188721835613250732e-01 -1.285226345062255859e-01 -7.410089671611785889e-02
9.609700739383697510e-02 2.529486119747161865e-01 5.111049860715866089e-03
8.314854651689529419e-02 2.550574839115142822e-01 1.617279648780822754e-02
1.077813357114791870e-01 2.488824129104614258e-01 2.075782045722007751e-02
9.340447187423706055e-02 2.502211034297943115e-01 3.196543827652931213e-02
