7.639089999999999492e-01 -7.317500000000000393e-02 -1.742430000000000090e-01
6.302240000000000064e-01 -2.797239999999999727e-01 1.347699999999999940e-02
-5.626989999999999492e-01 -1.287300000000000076e-02 3.093060000000000254e-01
7.874649999999999705e-01 -3.723100000000000021e-02 2.128909999999999969e-01
6.418089999999999629e-01 4.413020000000000276e-01 1.547409999999999897e-01
8.309889999999999777e-01 -3.036119999999999930e-01 1.027170000000000027e-01
-5.376260000000000483e-01 -2.592979999999999730e-01 3.209700000000000053e-02
7.253129999999999855e-01 3.364559999999999773e-01 9.171999999999999598e-03
-5.305339999999999501e-01 -3.026630000000000154e-01 -4.259799999999999698e-02
7.392279999999999962e-01 2.989060000000000050e-01 3.176899999999999724e-01
8.160730000000000484e-01 -2.114989999999999926e-01 1.567759999999999987e-01
-5.244619999999999838e-01 1.783900000000000069e-02 -1.020380000000000037e-01
9.243200000000000305e-01 -1.746040000000000092e-01 1.506180000000000019e-01
-6.398200000000000554e-01 -3.346890000000000143e-01 -3.214859999999999940e-01
7.381889999999999841e-01 2.664170000000000149e-01 3.082460000000000200e-01
1.160100000000000020e-02 3.403539999999999899e-01 1.504330000000000112e-01
-4.323480000000000101e-01 2.114860000000000073e-01 2.256259999999999932e-01
8.940040000000000209e-01 8.056999999999999926e-03 -1.476949999999999930e-01
5.720969999999999667e-01 -5.087610000000000188e-01 1.599629999999999941e-01
8.250790000000000068e-01 2.596089999999999787e-01 3.940469999999999806e-01
9.428060000000000329e-01 -4.616299999999999848e-01 3.602799999999999753e-02
7.471579999999999888e-01 -2.855630000000000113e-01 3.231200000000000044e-02
3.386649999999999938e-01 2.624380000000000046e-01 3.052119999999999833e-01
-5.627569999999999517e-01 -1.070480000000000043e-01 -6.708699999999999386e-02
7.176709999999999479e-01 -9.030699999999999839e-02 -1.664950000000000041e-01
-1.640040000000000109e-01 -1.301150000000000084e-01 -2.524739999999999762e-01
-6.318129999999999580e-01 -3.816899999999999737e-01 -2.898859999999999770e-01
2.917120000000000268e-01 -1.181719999999999993e-01 1.263980000000000103e-01
8.602109999999999479e-01 -6.258040000000000269e-01 1.931110000000000049e-01
9.679000000000000103e-02 2.262149999999999994e-01 3.010590000000000210e-01
6.997330000000000494e-01 -4.238310000000000133e-01 1.182969999999999994e-01
8.247940000000000271e-01 -6.195209999999999884e-01 1.788869999999999905e-01
4.666429999999999745e-01 3.275589999999999891e-01 2.607550000000000145e-01
3.962319999999999731e-01 -1.655799999999999980e-02 2.012089999999999990e-01
-6.872420000000000195e-01 -1.878499999999999961e-02 -1.010729999999999962e-01
8.897950000000000026e-01 -2.932699999999999890e-02 -3.154669999999999974e-01
-6.740380000000000260e-01 9.799199999999999577e-02 -2.074499999999999955e-02
8.240100000000000202e-01 -2.281150000000000122e-01 2.109739999999999949e-01
7.199109999999999676e-01 3.726869999999999905e-01 9.622500000000000497e-02
7.782440000000000468e-01 1.740299999999999833e-02 -4.251300000000000218e-02
8.782600000000000406e-01 1.062489999999999962e-01 2.906929999999999792e-01
1.045399999999999940e-01 -5.360749999999999682e-01 1.282109999999999916e-01
-2.508839999999999959e-01 -3.275120000000000253e-01 -7.799499999999999489e-02
7.659559999999999702e-01 9.224799999999999667e-02 -1.976699999999999985e-02
-5.905709999999999571e-01 6.271699999999999497e-02 2.550899999999999834e-01
8.932369999999999477e-01 1.475800000000000028e-02 2.153249999999999886e-01
-5.813549999999999551e-01 6.864000000000000309e-03 7.992399999999999505e-02
6.254690000000000527e-01 2.046930000000000138e-01 -1.048899999999999971e-01
7.602039999999999909e-01 1.270090000000000108e-01 -1.515009999999999968e-01
1.152379999999999932e-01 -7.060199999999999809e-01 2.313560000000000061e-01
3.688770000000000104e-01 -3.935420000000000029e-01 -1.286249999999999893e-01
8.685880000000000267e-01 4.103899999999999909e-02 4.247460000000000124e-01
7.838570000000000260e-01 -3.210600000000000259e-02 -1.621039999999999981e-01
-2.378899999999999904e-01 -2.692970000000000086e-01 -3.547799999999999843e-01
7.343680000000000208e-01 1.176019999999999982e-01 2.484560000000000102e-01
-4.827319999999999944e-01 -3.708460000000000090e-01 -8.179999999999999771e-03
-4.792379999999999973e-01 -5.424600000000000533e-01 -1.182519999999999960e-01
6.843329999999999691e-01 3.042889999999999762e-01 3.161939999999999751e-01
-5.574909999999999588e-01 -1.386139999999999872e-01 1.334800000000000049e-02
-6.102130000000000054e-01 -1.741030000000000078e-01 -2.394429999999999892e-01
-6.237840000000000051e-01 -4.342889999999999806e-01 2.299760000000000137e-01
3.748850000000000238e-01 -2.135499999999999898e-01 -3.105220000000000202e-01
1.847040000000000071e-01 -3.213289999999999758e-01 -1.230499999999999997e-02
-3.688509999999999844e-01 -4.809910000000000019e-01 4.169300000000000089e-02
-5.852859999999999729e-01 -2.845650000000000124e-01 -3.280120000000000258e-01
-6.473290000000000433e-01 -2.889220000000000121e-01 -2.443029999999999924e-01
-6.461400000000000476e-01 -1.908050000000000024e-01 4.239220000000000210e-01
-5.700570000000000359e-01 -6.050200000000000022e-02 3.548700000000000188e-01
-1.693469999999999975e-01 -1.140049999999999952e-01 1.980820000000000081e-01
7.318050000000000388e-01 -5.590699999999999559e-01 9.996199999999999530e-02
4.073010000000000241e-01 2.941759999999999931e-01 2.854140000000000010e-01
-6.101140000000000452e-01 -5.137549999999999617e-01 1.460999999999999972e-02
-3.210959999999999925e-01 -1.069799999999999918e-02 2.992369999999999752e-01
5.193010000000000126e-01 -5.129479999999999595e-01 1.571069999999999967e-01
4.969919999999999893e-01 -5.506760000000000543e-01 1.789100000000000135e-01
5.775839999999999863e-01 2.077700000000000033e-02 2.049410000000000120e-01
9.289100000000000135e-01 -2.144000000000000072e-01 1.983330000000000093e-01
5.899050000000000127e-01 -1.556150000000000033e-01 -1.068439999999999945e-01
-3.198759999999999937e-01 2.434520000000000017e-01 2.096659999999999913e-01
2.726899999999999880e-01 -1.690649999999999931e-01 8.412100000000000133e-02
2.837459999999999982e-01 1.007809999999999956e-01 -1.414509999999999934e-01
-3.589890000000000025e-01 -6.523449999999999527e-01 1.338800000000000059e-02
-1.399549999999999961e-01 -7.864600000000000479e-01 2.189270000000000105e-01
-1.185419999999999946e-01 -1.094659999999999939e-01 1.948880000000000057e-01
-5.780020000000000158e-01 2.194119999999999959e-01 6.237399999999999889e-02
2.810309999999999753e-01 -7.970299999999999607e-02 -2.805730000000000168e-01
-8.355500000000000427e-02 -4.103760000000000185e-01 -1.867099999999999871e-01
-5.767090000000000272e-01 -1.966100000000000139e-02 -9.845199999999999785e-02
4.623100000000000126e-02 1.499200000000000012e-02 2.731399999999999939e-01
-1.438840000000000119e-01 -2.894700000000000051e-01 -9.295699999999999796e-02
6.532869999999999511e-01 -4.447539999999999827e-01 1.270030000000000048e-01
-4.012859999999999761e-01 -9.044499999999999762e-02 -2.012909999999999977e-01
4.177299999999999902e-01 3.227300000000000307e-02 2.407900000000000040e-01
8.262119999999999465e-01 -2.845059999999999811e-01 5.190399999999999875e-02
7.885039999999999827e-01 2.631589999999999763e-01 -8.055700000000000360e-02
5.899579999999999824e-01 1.627379999999999938e-01 3.224389999999999756e-01
8.827800000000000091e-01 5.575100000000000194e-02 4.193769999999999998e-01
-3.718029999999999946e-01 -4.856170000000000209e-01 -1.581579999999999930e-01
5.921469999999999789e-01 -3.502290000000000125e-01 -1.355320000000000136e-01
-6.288909999999999778e-01 1.214699999999999981e-02 -9.307699999999999307e-02
6.728499999999999481e-01 3.898780000000000023e-01 2.283699999999999897e-01
7.495849999999999458e-01 -5.001400000000000290e-02 -2.009730000000000127e-01
4.893109999999999959e-01 -1.044490000000000002e-01 1.095119999999999982e-01
-1.360709999999999975e-01 -2.728880000000000194e-01 -3.351399999999999935e-01
2.106699999999999892e-02 -7.063749999999999751e-01 1.318090000000000095e-01
-6.932949999999999946e-01 3.478000000000000189e-03 -7.849100000000000521e-02
8.201920000000000321e-01 -2.367350000000000010e-01 1.309849999999999903e-01
2.584659999999999735e-01 -1.557659999999999878e-01 -3.364900000000000113e-01
-6.492390000000000105e-01 -2.753900000000000237e-01 9.772799999999999543e-02
2.512139999999999929e-01 -4.383380000000000054e-01 -1.026610000000000023e-01
8.609890000000000043e-01 7.799999999999999859e-04 3.972129999999999828e-01
1.560290000000000010e-01 -2.731720000000000259e-01 -4.930000000000000354e-03
8.359309999999999796e-01 -3.457000000000000073e-01 8.923200000000000576e-02
7.345319999999999627e-01 2.653809999999999780e-01 3.031400000000000206e-01
8.289180000000000437e-01 4.044200000000000017e-01 5.609999999999999709e-02
6.632390000000000230e-01 -4.540989999999999749e-01 -1.817200000000000065e-02
-6.171100000000000196e-02 -2.464550000000000074e-01 7.339500000000000191e-02
3.591199999999999948e-01 -6.579490000000000061e-01 2.279789999999999872e-01
4.909379999999999855e-01 -6.630960000000000187e-01 1.668959999999999888e-01
7.665170000000000039e-01 8.873100000000000431e-02 -3.867099999999999704e-02
-5.843660000000000521e-01 -4.985249999999999959e-01 1.954859999999999931e-01
-9.614899999999999836e-02 2.696120000000000183e-01 3.793300000000000144e-02
8.478229999999999933e-01 2.900429999999999953e-01 6.276400000000000035e-02
-6.230590000000000295e-01 -4.347509999999999986e-01 6.604200000000000348e-02
4.137179999999999747e-01 -2.669520000000000226e-01 -2.723300000000000026e-02
-7.936100000000000099e-02 -1.356569999999999998e-01 -2.776669999999999972e-01
-6.661139999999999839e-01 -1.038899999999999962e-01 4.677479999999999971e-01
-1.369549999999999934e-01 -6.932869999999999866e-01 9.193099999999999883e-02
-4.820420000000000260e-01 2.227159999999999973e-01 2.030270000000000130e-01
-3.436009999999999898e-01 -4.156599999999999739e-01 -2.245570000000000066e-01
8.548559999999999492e-01 2.471760000000000068e-01 3.256419999999999870e-01
-3.796050000000000257e-01 -1.110769999999999952e-01 2.256640000000000035e-01
3.606449999999999934e-01 -1.551309999999999911e-01 -1.600260000000000016e-01
-3.656150000000000233e-01 -4.397050000000000125e-01 1.131199999999999914e-02
-1.925600000000000089e-01 -3.608000000000000096e-02 2.624210000000000154e-01
3.232920000000000238e-01 -3.708239999999999870e-01 -1.592860000000000109e-01
6.825379999999999781e-01 -2.343339999999999868e-01 -1.727300000000000016e-02
-6.070680000000000520e-01 -5.312580000000000080e-01 1.209159999999999957e-01
6.536619999999999653e-01 -2.842999999999999972e-01 1.985500000000000112e-02
4.792219999999999813e-01 3.575940000000000230e-01 2.297430000000000028e-01
1.843140000000000056e-01 1.086109999999999992e-01 3.342289999999999983e-01
-2.434129999999999905e-01 -1.746550000000000047e-01 -2.259400000000000019e-01
-5.950199999999999934e-01 -6.053060000000000107e-01 5.330900000000000222e-02
-3.854440000000000088e-01 -5.393710000000000448e-01 -1.058039999999999953e-01
-1.879250000000000087e-01 -3.307809999999999917e-01 -2.849340000000000206e-01
6.868929999999999758e-01 -1.691560000000000008e-01 -8.602100000000000024e-02
-6.592540000000000067e-01 -1.181470000000000020e-01 4.819060000000000010e-01
5.292519999999999447e-01 -6.050929999999999920e-01 2.152979999999999894e-01
-2.897699999999999929e-02 -5.216460000000000541e-01 1.046470000000000039e-01
-3.437509999999999732e-01 -6.821760000000000046e-01 1.753800000000000081e-01
-4.900990000000000069e-01 -3.767280000000000073e-01 -1.984899999999999859e-02
-5.650309999999999500e-01 -9.085699999999999332e-02 3.863079999999999847e-01
-4.945749999999999869e-01 -5.464800000000000213e-02 -1.619140000000000024e-01
4.148620000000000085e-01 -2.140690000000000093e-01 -3.033509999999999818e-01
9.115510000000000002e-01 -9.672200000000000242e-02 1.929899999999999949e-01
-5.938369999999999482e-01 2.321139999999999870e-01 7.730299999999999672e-02
-5.166720000000000201e-01 -3.426379999999999981e-01 -3.275190000000000046e-01
-5.699629999999999974e-01 -6.250600000000000600e-02 6.246499999999999969e-02
2.136369999999999936e-01 -7.025409999999999711e-01 1.606400000000000050e-01
-5.974969999999999448e-01 -5.080609999999999848e-01 1.849880000000000135e-01
-5.557269999999999710e-01 -1.529830000000000079e-01 -2.063039999999999874e-01
1.119580000000000020e-01 -6.383800000000000585e-02 -2.428740000000000065e-01
6.652339999999999920e-01 2.463629999999999987e-01 -7.775899999999999479e-02
-3.459220000000000073e-01 -6.196600000000000025e-02 -1.865709999999999869e-01
-1.938560000000000005e-01 3.162329999999999863e-01 1.254000000000000115e-01
1.876710000000000045e-01 -2.376610000000000111e-01 -3.171350000000000002e-01
6.005499999999999727e-02 -3.185149999999999926e-01 -3.288499999999999757e-02
7.828060000000000018e-01 -8.991000000000000728e-03 1.969069999999999987e-01
8.461100000000000287e-01 3.010129999999999750e-01 1.842999999999999916e-01
-3.280989999999999740e-01 -6.493599999999999373e-02 -1.911160000000000081e-01
2.489339999999999886e-01 3.084899999999999864e-01 2.427189999999999903e-01
3.608970000000000233e-01 3.306950000000000167e-01 2.383210000000000051e-01
2.182749999999999968e-01 -6.758450000000000291e-01 1.335999999999999965e-01
5.205490000000000395e-01 -1.237079999999999985e-01 -1.653820000000000012e-01
8.306040000000000090e-01 3.090660000000000074e-01 3.224099999999999744e-01
-5.255800000000000055e-02 -3.511650000000000049e-01 -2.017199999999999896e-02
5.501089999999999591e-01 -1.526899999999999959e-02 -2.608940000000000148e-01
3.692750000000000199e-01 3.814500000000000113e-01 6.703000000000000624e-02
-6.014639999999999986e-01 1.290739999999999943e-01 4.121999999999999970e-02
8.300140000000000295e-01 -2.086290000000000089e-01 2.342359999999999998e-01
9.190420000000000256e-01 -1.443889999999999896e-01 -1.841969999999999996e-01
7.866800000000000459e-01 -3.323299999999999865e-02 7.474699999999999400e-02
-8.790000000000000591e-02 -7.143439999999999790e-01 1.216829999999999995e-01
5.280850000000000266e-01 -6.841030000000000166e-01 2.107559999999999989e-01
-5.736980000000000413e-01 1.710000000000000062e-02 3.206709999999999838e-01
-5.112250000000000405e-01 -4.738740000000000174e-01 1.972829999999999862e-01
2.988569999999999838e-01 -5.906390000000000251e-01 1.837820000000000009e-01
-7.014200000000000434e-01 4.389099999999999946e-02 -3.596400000000000291e-02
2.572539999999999827e-01 1.735289999999999888e-01 -8.183400000000000396e-02
7.677629999999999733e-01 8.224700000000000066e-02 1.557979999999999920e-01
1.525040000000000007e-01 -2.065440000000000054e-01 -3.540150000000000241e-01
-5.400319999999999565e-01 -8.223500000000000254e-02 -1.768260000000000109e-01
3.883139999999999925e-01 -1.274969999999999992e-01 -1.688709999999999933e-01
-5.789600000000000302e-01 -6.791000000000000161e-03 2.417960000000000109e-01
-4.476700000000000124e-01 -2.933029999999999804e-01 -1.392919999999999991e-01
6.853799999999999892e-01 -2.649999999999999903e-04 -2.705520000000000147e-01
3.564820000000000211e-01 -6.547089999999999854e-01 1.351239999999999941e-01
4.506390000000000118e-01 -2.388679999999999970e-01 -2.722049999999999748e-01
-2.324529999999999930e-01 1.007519999999999943e-01 3.418169999999999820e-01
7.671200000000000241e-01 6.011400000000000077e-02 1.501669999999999949e-01
-3.464349999999999929e-01 -5.224189999999999667e-01 -1.165469999999999978e-01
-2.638409999999999922e-01 -7.234549999999999592e-01 2.089050000000000074e-01
8.954560000000000297e-01 -1.043550000000000033e-01 2.931840000000000002e-01
1.157549999999999968e-01 -2.986690000000000178e-01 -2.670950000000000268e-01
3.636059999999999848e-01 -3.115149999999999864e-01 -2.128510000000000124e-01
-4.459409999999999763e-01 -6.299109999999999987e-01 -2.385800000000000073e-02
3.111889999999999934e-01 -5.777219999999999578e-01 4.893800000000000233e-02
2.089999999999999913e-01 1.743020000000000125e-01 3.505599999999999827e-01
-6.566469999999999807e-01 -2.319620000000000015e-01 -2.418039999999999912e-01
-5.889619999999999855e-01 5.403700000000000170e-02 1.896160000000000068e-01
6.278620000000000312e-01 -2.754249999999999754e-01 -2.056070000000000120e-01
-2.348119999999999929e-01 -1.545839999999999992e-01 1.739539999999999975e-01
3.071720000000000006e-01 -3.786180000000000101e-01 -1.540439999999999865e-01
5.323120000000000074e-01 -6.735219999999999541e-01 2.202250000000000041e-01
1.496319999999999872e-01 -1.672510000000000108e-01 -3.314340000000000064e-01
4.881469999999999976e-01 -4.343899999999999845e-02 -2.790560000000000263e-01
-3.589300000000000268e-01 1.355889999999999873e-01 -3.226699999999999707e-02
4.350199999999999900e-02 1.536160000000000025e-01 -6.985800000000000343e-02
7.504600000000000160e-01 1.863110000000000044e-01 -4.963499999999999857e-02
-6.718999999999999972e-02 2.781440000000000023e-01 4.087899999999999867e-02
7.072619999999999463e-01 -4.514800000000000063e-02 1.232300000000000062e-01
7.482619999999999827e-01 2.002579999999999916e-01 5.476500000000000118e-02
3.358599999999999919e-01 -6.302309999999999857e-01 2.115410000000000068e-01
-6.318200000000000205e-02 8.429699999999999693e-02 -1.097739999999999966e-01
-5.954500000000000348e-01 9.173299999999999510e-02 -2.126999999999999984e-03
-6.615879999999999539e-01 -1.989259999999999917e-01 3.429749999999999743e-01
-4.078439999999999843e-01 -6.612479999999999469e-01 1.431400000000000033e-02
-6.318949999999999845e-01 -3.136599999999999944e-01 -3.835009999999999808e-01
-5.148570000000000091e-01 -3.970360000000000000e-01 1.578600000000000003e-01
9.620419999999999527e-01 -4.047279999999999767e-01 2.189100000000000074e-02
9.084309999999999885e-01 -9.139500000000000401e-02 2.758880000000000221e-01
4.883170000000000011e-01 -2.866600000000000051e-02 -2.666370000000000129e-01
7.562640000000000473e-01 -6.628299999999999470e-02 9.049599999999999311e-02
-5.983840000000000270e-01 1.101349999999999968e-01 3.161599999999999827e-02
-3.172260000000000080e-01 -7.552680000000000504e-01 2.219089999999999951e-01
-5.849539999999999740e-01 -5.722829999999999862e-01 1.351739999999999886e-01
-7.539800000000000668e-02 -5.662479999999999736e-01 1.287550000000000083e-01
8.983389999999999986e-01 -1.763500000000000137e-02 -2.967300000000000146e-02
-1.505620000000000014e-01 -1.658280000000000032e-01 1.542250000000000010e-01
6.158730000000000038e-01 3.316950000000000176e-01 -5.505999999999999610e-03
-6.477549999999999697e-01 -1.328550000000000009e-01 -2.018419999999999936e-01
-4.956000000000000336e-03 3.603499999999999759e-02 2.961880000000000068e-01
7.107430000000000136e-01 4.469500000000000139e-01 1.132660000000000056e-01
-5.524259999999999726e-01 -1.695069999999999910e-01 -3.196000000000000056e-03
-6.285100000000000131e-01 -4.004469999999999974e-01 2.196410000000000029e-01
7.267329999999999623e-01 -1.346169999999999867e-01 4.052000000000000046e-02
7.531710000000000349e-01 -4.183910000000000129e-01 1.204299999999999954e-01
1.200330000000000008e-01 1.085399999999999976e-01 3.390230000000000188e-01
-3.884960000000000080e-01 -7.760679999999999801e-01 2.266430000000000111e-01
-6.044150000000000356e-01 -4.358810000000000184e-01 2.043059999999999876e-01
-4.485500000000000043e-01 -6.923259999999999970e-01 3.912899999999999712e-02
1.945429999999999937e-01 -1.710049999999999903e-01 -1.714749999999999885e-01
4.887659999999999783e-01 2.313399999999999831e-02 -2.264760000000000106e-01
9.591000000000000567e-03 -1.662679999999999991e-01 -1.924150000000000027e-01
6.426589999999999803e-01 -2.253130000000000133e-01 -3.098400000000000112e-02
-4.702859999999999818e-01 2.250169999999999948e-01 2.025599999999999901e-01
2.882250000000000090e-01 2.240689999999999904e-01 -4.673900000000000277e-02
-2.459800000000000042e-01 -7.736690000000000511e-01 1.563489999999999880e-01
-5.504850000000000021e-01 -1.810509999999999897e-01 -1.280789999999999984e-01
3.134890000000000176e-01 -5.198890000000000455e-01 -9.445999999999999536e-03
4.032569999999999766e-01 -4.445500000000000007e-01 -7.108000000000000429e-02
5.222710000000000408e-01 -4.267300000000000260e-02 -2.828490000000000171e-01
4.327210000000000223e-01 -1.138099999999999945e-01 -1.900360000000000105e-01
-5.513489999999999780e-01 -1.723030000000000117e-01 5.827899999999999747e-02
-5.651610000000000245e-01 -9.155699999999999950e-02 8.729199999999999460e-02
7.725319999999999965e-01 -3.678100000000000119e-02 -1.956189999999999873e-01
7.700369999999999715e-01 -2.456240000000000090e-01 -2.122600000000000042e-01
8.837089999999999668e-01 7.234200000000000352e-02 1.522270000000000012e-01
8.086160000000000014e-01 -1.659670000000000034e-01 1.900060000000000082e-01
5.103320000000000078e-01 -5.186340000000000394e-01 1.598350000000000048e-01
8.212840000000000140e-01 3.206829999999999958e-01 -3.885299999999999865e-02
8.216700000000000115e-01 -2.472650000000000126e-01 6.499199999999999422e-02
5.995629999999999571e-01 -1.213130000000000042e-01 -1.546839999999999882e-01
-5.179470000000000462e-01 -3.790189999999999948e-01 2.325589999999999880e-01
7.479829999999999535e-01 3.293499999999999900e-02 1.744989999999999875e-01
7.310050000000000159e-01 1.188109999999999999e-01 -1.843420000000000059e-01
5.981659999999999755e-01 3.099609999999999865e-01 -2.003699999999999926e-02
8.556500000000000217e-01 2.434070000000000122e-01 2.620160000000000267e-01
-2.770859999999999990e-01 -8.140680000000000138e-01 1.956960000000000088e-01
3.835540000000000060e-01 -7.255399999999999350e-02 1.536210000000000075e-01
9.075499999999999678e-01 -7.409499999999999420e-02 -1.098959999999999937e-01
4.189470000000000138e-01 3.692509999999999959e-01 4.942099999999999965e-02
-3.985839999999999939e-01 -2.504319999999999879e-01 -1.747279999999999944e-01
-6.405800000000000383e-01 -3.298800000000000066e-01 -2.301259999999999972e-01
5.452339999999999964e-01 -2.619719999999999827e-01 -1.269400000000000042e-02
5.068160000000000442e-01 -2.001410000000000133e-01 -7.601800000000000224e-02
-5.748649999999999594e-01 -3.351799999999999918e-02 -8.379999999999999949e-02
8.585190000000000321e-01 -1.885429999999999884e-01 -2.555569999999999786e-01
-6.643000000000000294e-02 -4.263370000000000215e-01 -1.676449999999999885e-01
-5.229880000000000084e-01 -3.563439999999999941e-01 2.707040000000000002e-01
-4.342900000000000232e-02 -6.640110000000000179e-01 7.769199999999999717e-02
3.236459999999999892e-01 -1.813859999999999917e-01 -1.394249999999999934e-01
-5.395849999999999813e-01 -4.801929999999999810e-01 -1.915540000000000020e-01
7.327080000000000259e-01 2.949629999999999752e-01 7.737900000000000333e-02
2.346669999999999867e-01 -2.138049999999999951e-01 -1.067530000000000007e-01
6.235500000000000487e-01 4.047300000000000203e-02 2.135779999999999901e-01
-6.715950000000000530e-01 -1.406789999999999985e-01 -1.205949999999999939e-01
-6.264239999999999808e-01 -3.117809999999999748e-01 3.279219999999999913e-01
1.831270000000000120e-01 -8.488199999999999912e-02 1.708459999999999979e-01
8.948199999999999488e-01 -8.166500000000000148e-02 -3.558549999999999769e-01
1.225060000000000038e-01 -4.195269999999999833e-01 5.454300000000000120e-02
-5.739109999999999490e-01 -6.685299999999999576e-01 1.324249999999999872e-01
8.106149999999999745e-01 -1.786339999999999872e-01 9.917299999999999727e-02
-4.217000000000000262e-03 -4.709749999999999770e-01 7.468099999999999739e-02
-7.254499999999999837e-02 3.272590000000000221e-01 1.491200000000000025e-01
-3.667540000000000244e-01 -6.324239999999999862e-01 1.409189999999999887e-01
7.302290000000000170e-01 -3.986810000000000076e-01 1.051710000000000006e-01
4.123339999999999783e-01 2.082710000000000117e-01 3.510769999999999724e-01
-5.135180000000000300e-01 -3.537049999999999916e-01 -4.658999999999999947e-03
-5.826369999999999605e-01 -6.624970000000000026e-01 9.095300000000000606e-02
1.923479999999999912e-01 -5.147620000000000529e-01 -3.478699999999999848e-02
1.889929999999999943e-01 -7.191349999999999687e-01 1.739980000000000138e-01
-3.217949999999999977e-01 -5.637680000000000469e-01 -7.043599999999999861e-02
4.929330000000000100e-01 -6.787940000000000085e-01 2.211930000000000007e-01
-3.618179999999999730e-01 -4.835329999999999906e-01 -1.586170000000000080e-01
1.771989999999999954e-01 2.078470000000000040e-01 -4.506099999999999689e-02
7.881190000000000140e-01 -4.324800000000000172e-02 -1.017330000000000040e-01
-5.388000000000000428e-03 9.093800000000000494e-02 -1.120410000000000017e-01
-2.386989999999999945e-01 -2.368629999999999902e-01 -1.764310000000000045e-01
-5.460990000000000011e-01 -2.075929999999999997e-01 -9.851999999999999647e-02
1.939629999999999965e-01 -2.705899999999999972e-02 2.194139999999999979e-01
-3.448220000000000174e-01 -7.562199999999999478e-02 -1.971350000000000047e-01
-6.663120000000000154e-01 -1.720430000000000015e-01 1.396999999999999978e-02
2.465819999999999956e-01 1.035070000000000018e-01 3.245449999999999724e-01
4.161830000000000251e-01 -1.390899999999999914e-01 -1.524600000000000122e-01
-1.060539999999999955e-01 1.316920000000000035e-01 3.396290000000000142e-01
9.380849999999999467e-01 -2.604429999999999801e-01 -1.479270000000000029e-01
-5.675759999999999694e-01 -6.778800000000000103e-02 1.792880000000000029e-01
-4.987559999999999771e-01 -4.633539999999999881e-01 -2.018780000000000019e-01
-4.712040000000000117e-01 -3.015209999999999835e-01 -1.492489999999999928e-01
8.500539999999999763e-01 2.655009999999999870e-01 3.654249999999999998e-01
-7.600300000000000111e-02 -6.139259999999999717e-01 1.596420000000000061e-01
-9.489799999999999625e-02 -3.105209999999999915e-01 -6.436699999999999366e-02
-1.440049999999999941e-01 -1.854200000000000015e-01 -2.131020000000000136e-01
6.397389999999999466e-01 -9.276600000000000124e-02 -1.623789999999999956e-01
-2.157509999999999983e-01 -6.974900000000000544e-01 1.980290000000000106e-01
4.519909999999999761e-01 -2.851460000000000106e-01 -2.249569999999999903e-01
-4.423650000000000082e-01 -3.449409999999999976e-01 -8.627899999999999459e-02
-6.764029999999999765e-01 -1.084100000000000064e-01 3.864159999999999817e-01
1.668270000000000031e-01 -3.223659999999999859e-01 -1.396400000000000072e-02
5.965709999999999624e-01 -4.305740000000000123e-01 -5.315500000000000086e-02
2.302279999999999882e-01 3.265699999999999853e-02 2.666250000000000009e-01
-4.083899999999999753e-01 -1.216750000000000054e-01 -2.236480000000000135e-01
2.244919999999999971e-01 -3.211700000000000110e-01 -6.720000000000000279e-03
-6.162279999999999980e-01 -4.765320000000000111e-01 2.279700000000000129e-02
1.138289999999999996e-01 -6.372919999999999696e-01 1.940080000000000138e-01
4.309200000000000252e-01 7.526099999999999457e-02 2.761580000000000146e-01
2.828510000000000191e-01 3.002739999999999854e-01 2.577559999999999851e-01
8.740189999999999904e-01 -1.305100000000000010e-02 3.832690000000000263e-01
7.818819999999999659e-01 -2.965000000000000187e-03 2.693079999999999918e-01
1.319900000000000066e-02 -3.482950000000000212e-01 -2.337120000000000031e-01
1.923219999999999930e-01 -2.677550000000000208e-01 -6.550000000000000266e-03
5.272790000000000532e-01 -3.901310000000000056e-01 -1.057659999999999989e-01
9.729799999999999560e-02 -1.882880000000000109e-01 -3.409920000000000173e-01
-1.107770000000000005e-01 3.319199999999999928e-02 -1.431769999999999987e-01
5.438799999999999885e-02 -2.539589999999999903e-01 -3.227249999999999841e-01
8.390929999999999778e-01 -6.321699999999999542e-02 3.510750000000000259e-01
5.033570000000000544e-01 1.244040000000000007e-01 -1.513089999999999991e-01
1.740999999999999839e-02 -4.073100000000000054e-01 -1.730450000000000044e-01
-5.751159999999999606e-01 -3.124899999999999900e-02 3.847430000000000017e-01
-2.400059999999999971e-01 2.650299999999999878e-01 5.346800000000000164e-02
-4.364709999999999979e-01 -3.628310000000000146e-01 -7.001300000000000578e-02
-2.629349999999999743e-01 -4.223350000000000160e-01 -2.043679999999999941e-01
5.668499999999999928e-02 -2.459050000000000125e-01 -1.037219999999999948e-01
-5.473550000000000360e-01 -2.007569999999999910e-01 -7.761700000000000543e-02
7.761160000000000281e-01 3.042960000000000109e-01 3.287269999999999914e-01
-5.746569999999999734e-01 -3.329900000000000221e-02 1.802650000000000086e-01
-3.330960000000000032e-01 -7.177599999999999536e-01 1.987389999999999990e-01
7.282579999999999609e-01 3.237269999999999870e-01 -7.460000000000000268e-04
-1.907379999999999909e-01 -2.541220000000000145e-01 -1.506649999999999934e-01
1.898340000000000027e-01 -1.162559999999999982e-01 -2.971679999999999877e-01
-4.929900000000000254e-02 -2.224829999999999863e-01 -1.450809999999999877e-01
5.984169999999999767e-01 -6.727840000000000487e-01 2.103210000000000079e-01
-2.169689999999999952e-01 2.615750000000000020e-01 4.744500000000000106e-02
-7.224739999999999496e-01 1.764820000000000000e-01 6.371799999999999686e-02
7.446359999999999646e-01 2.224649999999999961e-01 8.270299999999999874e-02
6.930209999999999981e-01 3.816419999999999813e-01 2.397249999999999936e-01
2.263999999999999953e-03 -1.188410000000000022e-01 -2.750449999999999839e-01
-2.711099999999999968e-02 4.207299999999999929e-02 -1.470259999999999900e-01
8.771240000000000148e-01 -1.114200000000000086e-02 -4.636739999999999751e-01
-2.460479999999999889e-01 -2.446909999999999918e-01 1.009550000000000031e-01
-6.512130000000000418e-01 -2.651729999999999920e-01 -2.673400000000000221e-01
6.224129999999999940e-01 1.559089999999999920e-01 -1.422029999999999961e-01
-5.375599999999999823e-02 -6.747899999999999732e-02 2.193259999999999932e-01
-5.570850000000000524e-01 -5.686849999999999961e-01 -1.045220000000000038e-01
-5.909119999999999928e-01 6.289100000000000246e-02 2.870969999999999911e-01
2.442020000000000024e-01 -1.087380000000000013e-01 1.414130000000000109e-01
5.719859999999999944e-01 -1.704420000000000102e-01 -9.491199999999999637e-02
4.120779999999999998e-01 -6.514900000000000135e-01 1.412150000000000072e-01
4.399359999999999937e-01 -4.522510000000000141e-01 -5.716000000000000247e-02
5.968299999999999716e-01 -4.694059999999999899e-01 1.370689999999999964e-01
8.974910000000000387e-01 -1.301700000000000079e-02 -1.242670000000000025e-01
5.916989999999999750e-01 -5.077019999999999866e-01 2.440700000000000161e-02
-5.815019999999999634e-01 8.613000000000000864e-03 2.748079999999999967e-01
-3.412519999999999998e-01 -6.648749999999999938e-01 2.906800000000000009e-02
1.166399999999999937e-01 -5.072999999999999732e-01 -5.495200000000000085e-02
-5.735209999999999475e-01 -4.115900000000000114e-02 1.047299999999999967e-02
-5.129329999999999723e-01 2.020430000000000004e-01 2.216849999999999932e-01
7.580850000000000088e-01 1.363810000000000022e-01 1.445299999999999918e-01
7.687300000000000244e-01 -1.627599999999999880e-01 -7.043000000000000649e-02
8.066710000000000269e-01 -1.549959999999999949e-01 5.329600000000000309e-02
-2.006189999999999918e-01 -3.276330000000000076e-01 -2.902420000000000000e-01
3.351549999999999807e-01 -5.218300000000000022e-02 -2.539399999999999991e-01
-5.911579999999999613e-01 -5.081890000000000018e-01 1.502499999999999947e-01
3.728259999999999907e-01 -5.771319999999999784e-01 1.828649999999999998e-01
9.294480000000000519e-01 -2.068989999999999996e-01 -4.772699999999999859e-02
2.615830000000000100e-01 1.933269999999999988e-01 -6.708699999999999386e-02
-5.290930000000000355e-01 -3.113099999999999756e-01 -7.622999999999999568e-03
-1.709299999999999986e-01 -1.544599999999999966e-02 2.757999999999999896e-01
7.385150000000000325e-01 -5.742620000000000502e-01 1.166409999999999947e-01
-6.359900000000000553e-01 -3.019470000000000209e-01 3.108199999999999852e-01
-2.804800000000000001e-02 -5.665599999999999525e-01 1.339909999999999990e-01
-2.684289999999999732e-01 2.819909999999999917e-01 7.260300000000000087e-02
6.835309999999999997e-01 -1.894589999999999885e-01 -1.633799999999999836e-02
4.920309999999999961e-01 -6.579999999999999911e-03 -2.461409999999999987e-01
3.756450000000000067e-01 3.474829999999999863e-01 3.771900000000000253e-02
-4.361269999999999869e-01 -6.940089999999999870e-01 1.733280000000000098e-01
8.132310000000000372e-01 -6.311670000000000336e-01 1.901909999999999989e-01
-4.590330000000000243e-01 6.874500000000000055e-02 -7.111299999999999566e-02
4.137970000000000259e-01 -4.291710000000000247e-01 -8.495600000000000374e-02
-6.422670000000000323e-01 -3.196559999999999957e-01 -3.165950000000000153e-01
-3.158299999999999996e-02 -2.419739999999999946e-01 -3.490329999999999822e-01
-6.082119999999999749e-01 1.976920000000000066e-01 1.855390000000000095e-01
3.390989999999999838e-01 -5.765970000000000262e-01 5.243300000000000044e-02
7.519169999999999465e-01 -9.515600000000000447e-02 6.818499999999999561e-02
5.979680000000000550e-01 -2.289499999999999869e-01 -2.577999999999999736e-01
2.246029999999999971e-01 -4.138919999999999821e-01 6.189399999999999763e-02
-3.127199999999999980e-01 -6.979560000000000208e-01 6.742499999999999882e-02
8.320619999999999683e-01 -3.095280000000000253e-01 1.105980000000000019e-01
5.098699999999999760e-02 -2.149610000000000132e-01 8.077499999999999958e-02
4.694150000000000267e-01 -3.255689999999999973e-01 2.827299999999999952e-02
7.231360000000000010e-01 1.888509999999999911e-01 3.091880000000000184e-01
-2.514689999999999981e-01 -2.136359999999999926e-01 -3.159310000000000174e-01
-2.351729999999999932e-01 1.468460000000000043e-01 -3.941200000000000259e-02
9.248429999999999707e-01 -1.779999999999999916e-01 1.128939999999999944e-01
9.107079999999999620e-01 -9.265900000000000525e-02 4.222000000000000058e-03
-4.122520000000000073e-01 -9.850599999999999634e-02 -2.060389999999999999e-01
3.545059999999999878e-01 -2.238860000000000017e-01 1.797800000000000092e-02
7.544229999999999547e-01 1.626529999999999920e-01 2.969000000000000111e-02
8.341659999999999631e-01 2.654070000000000040e-01 -8.265200000000000324e-02
-1.950530000000000042e-01 -4.710779999999999967e-01 -1.435589999999999922e-01
-3.508959999999999857e-01 1.840819999999999956e-01 4.184000000000000219e-03
9.434810000000000141e-01 -5.012619999999999854e-01 7.638100000000000445e-02
-5.204889999999999795e-01 -1.907369999999999899e-01 1.632869999999999877e-01
-2.883510000000000240e-01 -1.182819999999999983e-01 -2.351250000000000007e-01
7.889570000000000194e-01 -5.242999999999999744e-02 -9.120499999999999441e-02
-5.811800000000000299e-01 5.311999999999999882e-03 -6.958999999999999908e-03
7.907370000000000232e-01 4.677169999999999939e-01 1.247930000000000011e-01
6.122229999999999617e-01 -3.618709999999999982e-01 6.912699999999999401e-02
-3.175970000000000182e-01 2.966199999999999948e-01 1.194960000000000050e-01
5.150630000000000486e-01 -4.924160000000000204e-01 1.433709999999999984e-01
-8.574299999999999977e-02 -1.709769999999999901e-01 -2.034729999999999872e-01
-6.439679999999999849e-01 1.227079999999999976e-01 -5.642999999999999579e-03
6.342400000000000260e-01 -1.992800000000000127e-02 1.595630000000000104e-01
9.205659999999999954e-01 -1.523879999999999957e-01 4.205600000000000310e-02
6.624250000000000416e-01 -1.204419999999999935e-01 6.696299999999999475e-02
4.668550000000000200e-01 -6.868000000000000493e-02 1.445990000000000053e-01
-5.299190000000000289e-01 6.888800000000000479e-02 -6.188899999999999957e-02
2.520109999999999850e-01 -4.613459999999999783e-01 -7.914999999999999813e-02
7.350200000000000067e-01 2.813519999999999910e-01 1.573610000000000009e-01
2.168779999999999875e-01 2.323860000000000092e-01 3.143000000000000238e-01
-5.125089999999999923e-01 -1.238680000000000059e-01 -2.125239999999999907e-01
-2.000810000000000088e-01 7.407999999999999308e-02 -1.001429999999999959e-01
5.080339999999999856e-01 -6.541900000000000492e-02 1.410829999999999862e-01
7.501210000000000377e-01 1.885469999999999924e-01 -1.785799999999999887e-02
-4.654849999999999821e-01 2.078389999999999960e-01 3.746100000000000124e-02
-6.060240000000000071e-01 -5.021830000000000460e-01 1.831740000000000035e-01
8.067109999999999559e-01 3.467790000000000039e-01 -1.779199999999999879e-02
-7.155820000000000514e-01 1.281410000000000049e-01 3.870200000000000029e-02
-6.017120000000000246e-01 1.306140000000000079e-01 3.854400000000000187e-02
3.498820000000000263e-01 2.801400000000000071e-02 -2.058450000000000002e-01
-1.264550000000000118e-01 -2.220320000000000071e-01 -1.728000000000000091e-01
-6.385100000000000220e-01 -3.399449999999999972e-01 2.187399999999999900e-01
-6.906930000000000014e-01 -2.292999999999999899e-02 1.681970000000000132e-01
8.530720000000000525e-01 -6.269190000000000040e-01 2.145890000000000020e-01
-6.835670000000000357e-01 4.897000000000000311e-03 -8.812399999999999400e-02
3.586610000000000076e-01 -1.696439999999999892e-01 7.082099999999999507e-02
7.371779999999999999e-01 3.493140000000000134e-01 -4.314000000000000126e-03
9.014480000000000270e-01 -1.578579999999999983e-01 -2.524440000000000017e-01
9.230260000000000131e-01 -1.671989999999999865e-01 6.865000000000000269e-02
2.361429999999999918e-01 -6.133399999999999963e-02 1.840430000000000121e-01
3.688600000000000212e-02 7.934499999999999886e-02 3.254219999999999891e-01
-4.494299999999999684e-02 -5.259040000000000381e-01 1.057150000000000034e-01
7.466099999999999959e-01 2.043419999999999959e-01 2.163829999999999920e-01
5.661850000000000493e-01 -2.080600000000000158e-02 -2.712970000000000104e-01
6.131849999999999801e-01 -3.511799999999999922e-01 -1.310689999999999911e-01
-6.343779999999999974e-01 -3.742650000000000143e-01 -2.934809999999999919e-01
9.395780000000000243e-01 -2.686479999999999979e-01 -7.490399999999999836e-02
-1.915040000000000076e-01 -1.747370000000000034e-01 -2.935450000000000004e-01
6.450700000000000323e-01 3.683899999999999952e-01 2.479240000000000055e-01
9.573960000000000248e-01 -3.764810000000000101e-01 1.529699999999999983e-02
-6.089130000000000376e-01 2.419149999999999912e-01 9.742499999999999771e-02
6.710760000000000058e-01 -5.514620000000000077e-01 8.207499999999999518e-02
-5.845219999999999860e-01 2.685500000000000040e-02 2.281759999999999899e-01
-5.561490000000000045e-01 -1.472549999999999970e-01 -7.899000000000000465e-02
8.657749999999999613e-01 1.813889999999999947e-01 1.517479999999999940e-01
3.176140000000000074e-01 -4.719199999999999784e-02 1.854230000000000045e-01
1.923700000000000132e-01 -2.725759999999999850e-01 -2.213400000000000090e-02
-3.518169999999999908e-01 -3.572540000000000160e-01 -5.449299999999999977e-02
6.314950000000000285e-01 -6.158329999999999638e-01 1.414559999999999984e-01
-2.822699999999999862e-02 -2.684110000000000107e-01 -3.217690000000000272e-01
7.212380000000000457e-01 3.615300000000000180e-01 2.953499999999999875e-02
4.180590000000000139e-01 -2.896329999999999738e-01 -2.260369999999999879e-01
-5.939729999999999732e-01 1.062629999999999963e-01 2.814780000000000060e-01
-4.495270000000000099e-01 2.170279999999999987e-01 4.262099999999999916e-02
9.115299999999999514e-01 -9.794799999999999340e-02 -4.712899999999999728e-02
8.959340000000000082e-01 -8.879399999999999793e-02 -3.497299999999999853e-01
2.130479999999999874e-01 -2.990189999999999793e-01 -2.786999999999999894e-02
-1.476939999999999920e-01 2.409090000000000120e-01 2.440380000000000049e-01
1.236700000000000021e-01 -2.022879999999999956e-01 7.863900000000000057e-02
6.926280000000000214e-01 -5.479509999999999659e-01 8.208899999999999531e-02
-2.855399999999999952e-02 -4.691980000000000040e-01 7.097599999999999743e-02
5.973000000000000011e-03 -1.955280000000000074e-01 -3.348970000000000002e-01
5.312170000000000503e-01 -1.148529999999999968e-01 9.384199999999999486e-02
-3.888099999999999890e-02 -3.889290000000000247e-01 -2.010780000000000067e-01
-5.315670000000000117e-01 -2.239089999999999969e-01 1.204950000000000049e-01
8.162909999999999888e-01 -4.202409999999999757e-01 -2.714000000000000093e-02
8.556570000000000009e-01 2.427110000000000101e-01 1.165599999999999969e-01
6.577030000000000376e-01 -3.935179999999999789e-01 -8.064999999999999947e-02
-8.013699999999999990e-02 -6.124100000000000099e-01 1.915100000000000136e-02
7.973860000000000392e-01 5.799969999999999848e-01 -3.680599999999999844e-02
-5.211540000000000061e-01 -3.587420000000000053e-01 1.585950000000000137e-01
7.704530000000000545e-01 6.037300000000000305e-02 8.505200000000000260e-02
4.369199999999999751e-01 2.263519999999999976e-01 3.446790000000000131e-01
5.966529999999999889e-01 -5.423649999999999860e-01 1.839419999999999944e-01
-4.919100000000000139e-01 -5.320219999999999949e-01 8.384600000000000386e-02
-5.694679999999999742e-01 -6.033000000000000168e-02 1.631009999999999960e-01
2.550540000000000029e-01 1.222479999999999956e-01 -1.211860000000000021e-01
8.917260000000000186e-01 7.924999999999999753e-03 -4.775679999999999925e-01
-1.492380000000000095e-01 2.812149999999999928e-01 1.980339999999999878e-01
-6.957130000000000258e-01 9.629999999999999671e-03 3.011220000000000008e-01
7.729200000000000514e-01 -6.412630000000000274e-01 2.134179999999999966e-01
5.646560000000000468e-01 1.086970000000000020e-01 2.827270000000000061e-01
-3.876899999999999791e-02 -5.526240000000000041e-01 -3.472499999999999892e-02
-6.649969999999999493e-01 -5.750099999999999656e-02 4.550600000000000200e-01
2.198410000000000086e-01 -5.626449999999999507e-01 1.576730000000000076e-01
-5.171139999999999626e-01 -6.153600000000000042e-02 2.787689999999999890e-01
4.002200000000000202e-01 -3.826749999999999874e-01 6.017299999999999732e-02
-1.010619999999999991e-01 -8.243300000000000627e-02 -2.319170000000000120e-01
-5.677320000000000144e-01 -7.454399999999999915e-02 3.894279999999999964e-01
-5.166110000000000424e-01 -3.868219999999999992e-01 5.684499999999999970e-02
6.738760000000000305e-01 -1.098250000000000060e-01 -1.393679999999999919e-01
3.003790000000000071e-01 -3.961129999999999929e-01 5.827600000000000141e-02
7.655659999999999688e-01 9.415199999999999958e-02 -1.035490000000000022e-01
7.281050000000000022e-01 -1.870149999999999868e-01 -2.787830000000000030e-01
7.420210000000000417e-01 2.394989999999999897e-01 2.499790000000000068e-01
5.509939999999999838e-01 -3.965699999999999781e-01 8.502300000000000135e-02
7.760029999999999983e-01 3.065700000000000022e-02 -1.084279999999999966e-01
7.425599999999999978e-01 -8.296599999999999808e-02 -1.696130000000000138e-01
7.266610000000000014e-01 -1.834909999999999874e-01 -2.826040000000000219e-01
7.493300000000000516e-01 3.473089999999999788e-01 2.676299999999999790e-01
-3.902519999999999878e-01 -5.276549999999999851e-01 -1.185080000000000022e-01
-6.647600000000000176e-01 2.109689999999999899e-01 6.530199999999999894e-02
8.420330000000000314e-01 -1.473540000000000127e-01 2.852430000000000243e-01
5.312379999999999880e-01 1.205719999999999986e-01 -1.578410000000000091e-01
1.525110000000000077e-01 -1.417539999999999911e-01 -1.935729999999999951e-01
8.689470000000000249e-01 1.604059999999999930e-01 -1.285199999999999954e-01
-4.675690000000000124e-01 -8.239399999999999502e-02 2.582340000000000191e-01
-4.356289999999999885e-01 5.751599999999999768e-02 -8.278800000000000048e-02
4.610699999999999799e-01 -1.616650000000000031e-01 -1.365949999999999942e-01
8.953879999999999617e-01 5.140000000000000254e-04 7.596999999999999587e-03
2.462280000000000024e-01 -2.295329999999999870e-01 3.232600000000000057e-02
-6.182250000000000245e-01 -1.249299999999999994e-01 -2.004140000000000088e-01
8.748850000000000238e-01 1.265769999999999951e-01 2.559359999999999968e-01
8.015959999999999752e-01 5.434800000000000048e-02 -2.430219999999999880e-01
-6.175990000000000091e-01 7.572900000000000464e-02 -4.445999999999999952e-02
5.303860000000000241e-01 3.635700000000000043e-01 3.019600000000000062e-02
-3.094230000000000036e-01 -1.507000000000000006e-01 1.856150000000000022e-01
-5.797689999999999788e-01 -1.933620000000000061e-01 4.312219999999999942e-01
9.196159999999999890e-01 -4.769289999999999918e-01 1.758129999999999971e-01
2.517349999999999866e-01 1.706739999999999924e-01 -8.333400000000000529e-02
4.476680000000000104e-01 2.884829999999999894e-01 -1.736899999999999902e-02
-4.265289999999999915e-01 -2.156140000000000001e-01 -2.147429999999999894e-01
-3.270640000000000214e-01 -7.011680000000000135e-01 1.890640000000000098e-01
-6.067529999999999868e-01 1.545960000000000112e-01 1.880809999999999982e-01
3.564910000000000023e-01 -3.741769999999999818e-01 -1.503609999999999947e-01
7.261030000000000539e-01 3.347740000000000160e-01 3.436499999999999971e-02
-6.692230000000000123e-01 -1.535330000000000028e-01 1.588380000000000070e-01
7.056740000000000235e-01 2.120350000000000013e-01 -1.092459999999999959e-01
-5.814209999999999656e-01 -5.687740000000000018e-01 -9.523299999999999821e-02
-4.973090000000000011e-01 -3.518749999999999933e-01 -9.608300000000000174e-02
2.043359999999999899e-01 7.828400000000000636e-02 -1.486709999999999976e-01
6.398970000000000491e-01 -5.248599999999999793e-02 -3.055030000000000245e-01
5.017559999999999798e-01 -4.582629999999999759e-01 1.197010000000000018e-01
5.833880000000000177e-01 -1.109679999999999972e-01 8.889600000000000279e-02
6.800829999999999931e-01 -3.897390000000000021e-01 -8.077099999999999558e-02
-7.129579999999999806e-01 1.133849999999999997e-01 1.641960000000000086e-01
8.529219999999999580e-01 2.584239999999999871e-01 -4.665400000000000102e-02
8.039899999999999824e-01 -1.386519999999999975e-01 5.217499999999999916e-02
-5.272850000000000037e-01 -2.867939999999999934e-01 4.657200000000000228e-02
-6.193260000000000431e-01 -4.636199999999999766e-01 -1.927329999999999877e-01
4.239939999999999820e-01 -4.633220000000000116e-01 -4.855999999999999900e-02
-4.585779999999999856e-01 2.403309999999999891e-01 1.854540000000000077e-01
8.999000000000000055e-02 2.603150000000000186e-01 2.663179999999999992e-01
-4.442299999999999721e-02 -2.426349999999999896e-01 -1.237930000000000003e-01
6.583320000000000283e-01 -1.052619999999999945e-01 -3.486250000000000182e-01
7.029689999999999550e-01 1.821260000000000101e-01 -1.321360000000000035e-01
-6.719110000000000360e-01 -1.355889999999999873e-01 4.143740000000000201e-01
7.550270000000000037e-01 1.589500000000000079e-01 2.416599999999999998e-02
4.032240000000000268e-01 3.480409999999999893e-01 3.455799999999999844e-02
-5.615560000000000551e-01 -1.130919999999999981e-01 1.564780000000000060e-01
4.910640000000000005e-01 -4.024329999999999852e-01 -9.928399999999999725e-02
7.954839999999999689e-01 -8.598500000000000587e-02 2.138239999999999863e-01
8.124219999999999775e-01 -1.877070000000000127e-01 2.105930000000000024e-01
7.322870000000000212e-01 3.278610000000000135e-01 2.767180000000000195e-01
-3.841609999999999747e-01 -6.607420000000000515e-01 1.574309999999999876e-01
8.752229999999999732e-01 1.236209999999999948e-01 9.546999999999999931e-02
-4.748419999999999863e-01 -2.465650000000000064e-01 -3.127820000000000045e-01
4.180099999999999788e-02 3.066030000000000144e-01 2.053319999999999868e-01
4.057479999999999976e-01 -1.672389999999999988e-01 -1.255910000000000082e-01
-3.449829999999999841e-01 -2.492479999999999973e-01 1.073309999999999959e-01
8.903149999999999675e-01 3.131500000000000256e-02 -6.149999999999999868e-04
6.964360000000000550e-01 -4.052100000000000146e-01 -6.233299999999999952e-02
6.573870000000000546e-01 -2.302559999999999885e-01 -2.465970000000000106e-01
2.353079999999999894e-01 -1.325240000000000029e-01 -2.038250000000000062e-01
1.297310000000000130e-01 -1.161859999999999976e-01 -2.233390000000000097e-01
-2.228849999999999998e-01 -8.894100000000000616e-02 2.247480000000000033e-01
-3.813639999999999808e-01 2.663519999999999777e-01 1.665179999999999993e-01
7.722219999999999640e-01 2.914100000000000024e-02 -2.373999999999999999e-01
2.395970000000000044e-01 -1.106499999999999984e-01 1.403969999999999940e-01
1.867209999999999981e-01 3.774449999999999750e-01 1.308799999999999963e-01
1.098299999999999971e-02 -4.819660000000000055e-01 8.333000000000000129e-02
7.898370000000000113e-01 -1.306410000000000071e-01 -3.258070000000000133e-01
-5.749069999999999458e-01 -3.135299999999999893e-02 2.560080000000000133e-01
8.767500000000000293e-02 -3.930919999999999970e-01 -1.758160000000000001e-01
-2.364449999999999885e-01 -4.014499999999999735e-01 -2.635000000000000189e-03
9.421760000000000135e-01 -4.031319999999999903e-01 7.960000000000000495e-04
