8.870728611946105957e-01 -1.391677856445312500e-01 -3.234303891658782959e-01
8.937907218933105469e-01 -1.190977841615676880e-01 -3.082917928695678711e-01
8.907610774040222168e-01 -1.346747577190399170e-01 -3.073068261146545410e-01
-6.129585504531860352e-01 -5.056297779083251953e-01 3.309109807014465332e-02
-6.034519672393798828e-01 -5.322871208190917969e-01 3.226352483034133911e-02
-6.132623553276062012e-01 -4.980247020721435547e-01 5.378685519099235535e-02
-6.048766970634460449e-01 -5.234696269035339355e-01 5.324018746614456177e-02
6.339503824710845947e-02 3.460318148136138916e-01 1.454128175973892212e-01
5.565989390015602112e-02 3.401787877082824707e-01 1.590767800807952881e-01
7.968699932098388672e-02 3.490220308303833008e-01 1.591874510049819946e-01
7.169090211391448975e-02 3.418402075767517090e-01 1.720973849296569824e-01
-6.659061908721923828e-01 -1.877482682466506958e-01 -5.921939760446548462e-02
-6.630777120590209961e-01 -2.062413096427917480e-01 -5.397244915366172791e-02
-6.662284731864929199e-01 -1.850976198911666870e-01 -4.282346740365028381e-02
-6.627339124679565430e-01 -2.036383450031280518e-01 -3.462853655219078064e-02
-2.506980895996093750e-01 -2.765031158924102783e-01 7.324668765068054199e-02
-2.748802304267883301e-01 -2.622132003307342529e-01 8.662560582160949707e-02
-2.328089326620101929e-01 -2.565377652645111084e-01 9.155295044183731079e-02
-2.568988204002380371e-01 -2.445358037948608398e-01 1.028973832726478577e-01
1.344320476055145264e-01 3.618019521236419678e-01 1.391860842704772949e-01
1.198951005935668945e-01 3.598641753196716309e-01 1.504908055067062378e-01
1.454001665115356445e-01 3.642665445804595947e-01 1.552061736583709717e-01
1.316799670457839966e-01 3.621638119220733643e-01 1.668495982885360718e-01
1.892061829566955566e-01 3.172533810138702393e-01 3.410281240940093994e-02
1.660112142562866211e-01 3.176466822624206543e-01 3.786917030811309814e-02
2.027373015880584717e-01 3.328040242195129395e-01 4.868589341640472412e-02
1.800939738750457764e-01 3.330324888229370117e-01 5.246720463037490845e-02
7.968399524688720703e-01 -9.466253966093063354e-02 -8.441051840782165527e-02
7.986579537391662598e-01 -1.075850948691368103e-01 -7.873006165027618408e-02
7.974114418029785156e-01 -9.297782927751541138e-02 -6.718523800373077393e-02
7.993193268775939941e-01 -1.063677221536636353e-01 -6.113901361823081970e-02
-3.616891503334045410e-01 1.315636336803436279e-01 -3.696097433567047119e-02
-3.845713436603546143e-01 1.426884680986404419e-01 -2.633764222264289856e-02
-3.401560187339782715e-01 1.486417949199676514e-01 -2.568609267473220825e-02
-3.632260560989379883e-01 1.578245162963867188e-01 -1.358818821609020233e-02
6.080543994903564453e-02 -5.374805927276611328e-01 1.240881532430648804e-01
4.994403943419456482e-02 -5.522066950798034668e-01 1.335739195346832275e-01
7.877454161643981934e-02 -5.545834302902221680e-01 1.350945979356765747e-01
6.741553544998168945e-02 -5.689784884452819824e-01 1.443733572959899902e-01
6.610687375068664551e-01 -1.812476068735122681e-01 -2.947376668453216553e-01
6.508804559707641602e-01 -1.950234770774841309e-01 -2.847024500370025635e-01
6.841446161270141602e-01 -1.877245604991912842e-01 -2.857833206653594971e-01
6.735563874244689941e-01 -2.015416920185089111e-01 -2.762700617313385010e-01
-6.313773393630981445e-01 -4.016401767730712891e-01 2.102351561188697815e-02
-6.233426332473754883e-01 -4.305231869220733643e-01 3.192562237381935120e-02
-6.301978230476379395e-01 -4.000384807586669922e-01 5.408705398440361023e-02
-6.215431690216064453e-01 -4.267788529396057129e-01 6.546166539192199707e-02
-4.989219009876251221e-01 -3.550582826137542725e-01 -8.456239849328994751e-02
-5.048542022705078125e-01 -3.603920936584472656e-01 -7.573954761028289795e-02
-4.880656599998474121e-01 -3.622416555881500244e-01 -7.812081277370452881e-02
-4.938520789146423340e-01 -3.675915300846099854e-01 -6.934134662151336670e-02
5.505130290985107422e-01 -6.966689825057983398e-01 1.884184181690216064e-01
5.349727272987365723e-01 -6.784699559211730957e-01 2.054203897714614868e-01
5.594365000724792480e-01 -6.828914284706115723e-01 2.037300616502761841e-01
5.449975132942199707e-01 -6.658333539962768555e-01 2.186302542686462402e-01
5.867065787315368652e-01 -6.775478124618530273e-01 2.050219625234603882e-01
5.735484957695007324e-01 -6.663310527801513672e-01 2.155272364616394043e-01
5.971089601516723633e-01 -6.657181382179260254e-01 2.182309627532958984e-01
5.849282145500183105e-01 -6.537380218505859375e-01 2.284083962440490723e-01
-8.915673941373825073e-02 3.103663623332977295e-01 1.648689061403274536e-01
-9.848806262016296387e-02 3.033310174942016602e-01 1.810989081859588623e-01
-6.854581832885742188e-02 3.052564263343811035e-01 1.833929419517517090e-01
-7.711879163980484009e-02 2.979624569416046143e-01 1.995446532964706421e-01
-5.253010988235473633e-01 -3.133271932601928711e-01 2.262640446424484253e-01
-5.246793031692504883e-01 -3.316935896873474121e-01 2.312192767858505249e-01
-5.308811068534851074e-01 -3.050982654094696045e-01 2.469933032989501953e-01
-5.306318402290344238e-01 -3.226731717586517334e-01 2.532944679260253906e-01
9.503176212310791016e-01 -3.170792162418365479e-01 9.872552752494812012e-02
9.479808807373046875e-01 -3.283143937587738037e-01 1.088032945990562439e-01
9.479790925979614258e-01 -3.167999386787414551e-01 1.108867004513740540e-01
9.454044103622436523e-01 -3.283468484878540039e-01 1.219674199819564819e-01
7.576799988746643066e-01 2.578069865703582764e-01 -7.213990390300750732e-02
7.438377737998962402e-01 2.658642530441284180e-01 -6.794228404760360718e-02
7.670370340347290039e-01 2.685963809490203857e-01 -6.336217373609542847e-02
7.521401643753051758e-01 2.770162522792816162e-01 -5.888146907091140747e-02
-6.962634921073913574e-01 8.613066747784614563e-03 8.733060210943222046e-02
-6.907801032066345215e-01 -2.304529584944248199e-02 9.006283432245254517e-02
-6.973806023597717285e-01 1.011430006474256516e-02 1.061987280845642090e-01
-6.920128464698791504e-01 -1.808412373065948486e-02 1.082846894860267639e-01
6.871767342090606689e-02 -1.585605144500732422e-01 -1.912927925586700439e-01
5.818594247102737427e-02 -1.686688065528869629e-01 -1.841611266136169434e-01
8.786709606647491455e-02 -1.620899140834808350e-01 -1.844427436590194702e-01
7.683087885379791260e-02 -1.730083078145980835e-01 -1.764217466115951538e-01
5.900098085403442383e-01 2.046753168106079102e-01 -1.013729348778724670e-01
5.669381022453308105e-01 2.083536535501480103e-01 -9.777512401342391968e-02
6.063652634620666504e-01 2.204159796237945557e-01 -8.952283114194869995e-02
5.844926238059997559e-01 2.257351428270339966e-01 -8.523995429277420044e-02
-5.444408655166625977e-01 -1.969490200281143188e-01 1.225000619888305664e-01
-5.366919040679931641e-01 -2.083949297666549683e-01 1.285720467567443848e-01
-5.410634279251098633e-01 -1.969191730022430420e-01 1.361697316169738770e-01
-5.333365797996520996e-01 -2.089638561010360718e-01 1.422598659992218018e-01
6.614922881126403809e-01 -4.484799802303314209e-01 -2.327953465282917023e-02
6.562071442604064941e-01 -4.643779695034027100e-01 -1.056271698325872421e-02
6.794518232345581055e-01 -4.584595859050750732e-01 -8.427741006016731262e-03
6.739653944969177246e-01 -4.743396043777465820e-01 3.785053966566920280e-03
2.834359109401702881e-01 -2.239512503147125244e-01 -3.134695291519165039e-01
2.665835916996002197e-01 -2.386928647756576538e-01 -3.063730299472808838e-01
3.017561733722686768e-01 -2.289028018712997437e-01 -3.059197962284088135e-01
2.864242494106292725e-01 -2.433212250471115112e-01 -2.981067299842834473e-01
8.199535012245178223e-01 3.565969467163085938e-01 2.622314989566802979e-01
8.233301043510437012e-01 3.421513140201568604e-01 2.672408223152160645e-01
8.181900978088378906e-01 3.497560620307922363e-01 2.777625024318695068e-01
8.212708830833435059e-01 3.354853391647338867e-01 2.835987210273742676e-01
-6.585805416107177734e-01 -2.271902114152908325e-01 -1.205059960484504700e-01
-6.552253365516662598e-01 -2.471440136432647705e-01 -1.202194914221763611e-01
-6.590234041213989258e-01 -2.194333225488662720e-01 -1.020414307713508606e-01
-6.556364893913269043e-01 -2.392113655805587769e-01 -1.015593782067298889e-01
4.488575160503387451e-01 3.249099552631378174e-01 1.024027541279792786e-02
4.305389821529388428e-01 3.277680873870849609e-01 1.382434554398059845e-02
4.567512273788452148e-01 3.366816043853759766e-01 1.975432783365249634e-02
4.385940134525299072e-01 3.396082520484924316e-01 2.345945313572883606e-02
4.696896970272064209e-01 -2.965984642505645752e-01 4.686995875090360641e-03
4.493172168731689453e-01 -3.041597604751586914e-01 1.241454109549522400e-02
4.944371283054351807e-01 -3.056951761245727539e-01 1.254306826740503311e-02
4.724483489990234375e-01 -3.129883706569671631e-01 2.005107142031192780e-02
1.432509422302246094e-01 -6.635525822639465332e-01 1.085634455084800720e-01
1.271190494298934937e-01 -6.758098602294921875e-01 1.187685877084732056e-01
1.620067209005355835e-01 -6.742075085639953613e-01 1.190187036991119385e-01
1.464582383632659912e-01 -6.860345005989074707e-01 1.299297362565994263e-01
5.038361251354217529e-02 -6.445634961128234863e-01 7.413519918918609619e-02
3.702291846275329590e-02 -6.593014001846313477e-01 8.611411601305007935e-02
7.326844334602355957e-02 -6.497808098793029785e-01 8.244471997022628784e-02
5.709135159850120544e-02 -6.629958152770996094e-01 9.163252264261245728e-02
6.564966589212417603e-02 -6.293333768844604492e-01 1.880172640085220337e-01
5.521806702017784119e-02 -6.507970690727233887e-01 1.974711269140243530e-01
8.551460504531860352e-02 -6.505687236785888672e-01 1.964220851659774780e-01
7.543254643678665161e-02 -6.731544137001037598e-01 2.071244120597839355e-01
-4.579806029796600342e-01 -6.472300291061401367e-01 -1.038637571036815643e-02
-4.695044755935668945e-01 -6.616729497909545898e-01 2.737689763307571411e-03
-4.324989318847656250e-01 -6.597058773040771484e-01 5.580039229243993759e-03
-4.447298347949981689e-01 -6.745415329933166504e-01 1.861065253615379333e-02
-5.524537563323974609e-01 -1.671350598335266113e-01 -1.188490837812423706e-01
-5.509360432624816895e-01 -1.785795539617538452e-01 -1.116826087236404419e-01
-5.517776012420654297e-01 -1.697174608707427979e-01 -1.028562933206558228e-01
-5.503520965576171875e-01 -1.801647692918777466e-01 -9.755840897560119629e-02
-6.907319426536560059e-01 -2.093085274100303650e-02 2.760014832019805908e-01
-6.885499358177185059e-01 -3.959898650646209717e-02 2.827974855899810791e-01
-6.897337436676025391e-01 -2.589725144207477570e-02 2.929053604602813721e-01
-6.877744197845458984e-01 -4.425242170691490173e-02 3.000037968158721924e-01
-3.702932596206665039e-01 8.652508258819580078e-02 -7.045153528451919556e-02
-3.921619951725006104e-01 9.587108343839645386e-02 -6.350757181644439697e-02
-3.517278134822845459e-01 9.813620150089263916e-02 -5.990352481603622437e-02
-3.735668361186981201e-01 1.075115948915481567e-01 -5.254800617694854736e-02
-4.985328316688537598e-01 2.587459683418273926e-01 1.345882862806320190e-01
-5.163503885269165039e-01 2.518326640129089355e-01 1.475221812725067139e-01
-4.845431447029113770e-01 2.631494104862213135e-01 1.449891477823257446e-01
-5.009991526603698730e-01 2.545211017131805420e-01 1.588176935911178589e-01
2.261947095394134521e-01 -6.790800094604492188e-01 2.165601104497909546e-01
2.064849883317947388e-01 -6.949863433837890625e-01 2.270623594522476196e-01
2.597400844097137451e-01 -6.788442134857177734e-01 2.251483052968978882e-01
2.383836805820465088e-01 -6.962602138519287109e-01 2.357617914676666260e-01
6.706047058105468750e-02 -2.178949415683746338e-01 -3.554358780384063721e-01
4.974415525794029236e-02 -2.285168319940567017e-01 -3.510461151599884033e-01
8.520305901765823364e-02 -2.225729823112487793e-01 -3.495477437973022461e-01
6.733041256666183472e-02 -2.314433604478836060e-01 -3.453242778778076172e-01
7.522420883178710938e-01 1.665599197149276733e-01 2.075537443161010742e-01
7.549949288368225098e-01 1.535957902669906616e-01 2.138823270797729492e-01
7.510142326354980469e-01 1.656953394412994385e-01 2.262296676635742188e-01
7.535709142684936523e-01 1.524391323328018188e-01 2.317861169576644897e-01
-5.539700388908386230e-01 -1.612622588872909546e-01 -3.335321322083473206e-02
-5.518144369125366211e-01 -1.719425320625305176e-01 -3.133157268166542053e-02
-5.549262166023254395e-01 -1.579532325267791748e-01 -2.090318500995635986e-02
-5.524657964706420898e-01 -1.689280122518539429e-01 -1.776304841041564941e-02
1.259371638298034668e-01 -4.905912280082702637e-01 9.805223345756530762e-02
1.138607710599899292e-01 -5.063784718513488770e-01 1.095689982175827026e-01
1.477451920509338379e-01 -5.071591734886169434e-01 1.108846962451934814e-01
1.358036845922470093e-01 -5.231027603149414062e-01 1.219045072793960571e-01
7.018295526504516602e-01 -9.000379592180252075e-02 8.640986680984497070e-02
6.841799020767211914e-01 -7.491853833198547363e-02 1.011081188917160034e-01
7.057638764381408691e-01 -7.426055520772933960e-02 1.003416255116462708e-01
6.880438327789306641e-01 -5.936472117900848389e-02 1.142141371965408325e-01
6.776022166013717651e-02 -1.321071833372116089e-01 -2.179799377918243408e-01
5.924617871642112732e-02 -1.392046064138412476e-01 -2.144687324762344360e-01
8.522484451532363892e-02 -1.408032178878784180e-01 -2.085198014974594116e-01
7.636605203151702881e-02 -1.480399817228317261e-01 -2.045672535896301270e-01
-7.067710161209106445e-02 -6.087338924407958984e-01 1.553789377212524414e-01
-8.966697007417678833e-02 -6.172688007354736328e-01 1.624288558959960938e-01
-4.773891717195510864e-02 -6.130259037017822266e-01 1.607768833637237549e-01
-6.671398878097534180e-02 -6.215342879295349121e-01 1.677302122116088867e-01
1.667825728654861450e-01 2.635574638843536377e-01 2.759261131286621094e-01
1.561315655708312988e-01 2.512010037899017334e-01 2.850951254367828369e-01
1.831627637147903442e-01 2.571427226066589355e-01 2.852918207645416260e-01
1.724810153245925903e-01 2.447246760129928589e-01 2.938888072967529297e-01
-2.132328748703002930e-01 -1.607357561588287354e-01 -2.581479549407958984e-01
-2.281449586153030396e-01 -1.574425101280212402e-01 -2.537145614624023438e-01
-2.050595581531524658e-01 -1.533848196268081665e-01 -2.511506676673889160e-01
-2.199503481388092041e-01 -1.517014354467391968e-01 -2.461903095245361328e-01
4.296155273914337158e-01 -2.321704179048538208e-01 -4.987972602248191833e-02
4.109404087066650391e-01 -2.357970625162124634e-01 -4.317080974578857422e-02
4.437658786773681641e-01 -2.412690967321395874e-01 -4.016193374991416931e-02
4.244969785213470459e-01 -2.446370571851730347e-01 -3.345126286149024963e-02
7.899464964866638184e-01 -4.070292115211486816e-01 -4.206138104200363159e-02
7.873232364654541016e-01 -4.316231310367584229e-01 -2.101936377584934235e-02
8.079384565353393555e-01 -4.199812710285186768e-01 -2.923184819519519806e-02
8.047605752944946289e-01 -4.451803565025329590e-01 -8.655697107315063477e-03
-6.848973035812377930e-01 1.067085657268762589e-02 3.582036495208740234e-01
-6.852728128433227539e-01 -1.143590174615383148e-02 3.688767850399017334e-01
-6.766284108161926270e-01 1.058298256248235703e-02 3.716847598552703857e-01
-6.768549680709838867e-01 -1.186719909310340881e-02 3.816388547420501709e-01
-5.188951492309570312e-01 -3.800666928291320801e-01 -2.815452814102172852e-01
-5.366668701171875000e-01 -3.902379572391510010e-01 -2.720444500446319580e-01
-5.018443465232849121e-01 -4.008206725120544434e-01 -2.686849832534790039e-01
-5.191332101821899414e-01 -4.115636348724365234e-01 -2.583943605422973633e-01
-2.120176702737808228e-01 2.059973627328872681e-01 2.750577926635742188e-01
-2.258304804563522339e-01 1.887514889240264893e-01 2.852722704410552979e-01
-1.929223239421844482e-01 1.968821287155151367e-01 2.830692231655120850e-01
-2.079813182353973389e-01 1.781100332736968994e-01 2.930051684379577637e-01
-6.052933335304260254e-01 -4.364275038242340088e-01 2.377824634313583374e-01
-6.045700907707214355e-01 -4.505878388881683350e-01 2.350084632635116577e-01
-5.965387225151062012e-01 -4.433624148368835449e-01 2.487822026014328003e-01
-5.952669978141784668e-01 -4.581828415393829346e-01 2.471544891595840454e-01
6.936901211738586426e-01 -1.772051006555557251e-01 -5.107164848595857620e-03
6.779235005378723145e-01 -1.799195855855941772e-01 4.053812474012374878e-03
7.074861526489257812e-01 -1.768078655004501343e-01 8.714330382645130157e-03
6.896452903747558594e-01 -1.776524037122726440e-01 1.678604818880558014e-02
3.908289968967437744e-01 -5.222619771957397461e-01 1.520475596189498901e-01
3.738473653793334961e-01 -5.398223400115966797e-01 1.623399406671524048e-01
4.149725437164306641e-01 -5.316970944404602051e-01 1.560812741518020630e-01
3.987403213977813721e-01 -5.483692288398742676e-01 1.661928892135620117e-01
-4.757407009601593018e-01 1.104450076818466187e-01 3.220154345035552979e-01
-4.932357966899871826e-01 9.278655797243118286e-02 3.284881114959716797e-01
-4.507533609867095947e-01 1.006636694073677063e-01 3.290165960788726807e-01
-4.690612554550170898e-01 8.572246134281158447e-02 3.347654342651367188e-01
8.449491113424301147e-02 -2.837859988212585449e-01 -1.269410923123359680e-02
6.932858377695083618e-02 -2.860514819622039795e-01 -5.251690745353698730e-04
9.831361472606658936e-02 -2.853259444236755371e-01 3.146161325275897980e-04
8.112045377492904663e-02 -2.856948673725128174e-01 1.163309626281261444e-02
4.322830140590667725e-01 8.025495707988739014e-02 2.817437052726745605e-01
4.117168486118316650e-01 8.594062924385070801e-02 2.872147858142852783e-01
4.470852315425872803e-01 1.006579324603080750e-01 2.954920530319213867e-01
4.270715117454528809e-01 1.090206950902938843e-01 3.025736212730407715e-01
5.027016401290893555e-01 -6.882451176643371582e-01 1.723802685737609863e-01
4.867428541183471680e-01 -6.800903677940368652e-01 1.896685659885406494e-01
5.138526558876037598e-01 -6.859316825866699219e-01 1.895844638347625732e-01
4.977151155471801758e-01 -6.693723797798156738e-01 2.087091654539108276e-01
-2.552289068698883057e-01 -1.610067635774612427e-01 -2.765853703022003174e-01
-2.706652283668518066e-01 -1.535208225250244141e-01 -2.678396701812744141e-01
-2.437849193811416626e-01 -1.498733460903167725e-01 -2.665076255798339844e-01
-2.589092850685119629e-01 -1.415262222290039062e-01 -2.591643333435058594e-01
8.195146322250366211e-01 -3.381056487560272217e-01 7.776906341314315796e-02
8.158274292945861816e-01 -3.608046174049377441e-01 7.814776897430419922e-02
8.306974768638610840e-01 -3.413166105747222900e-01 9.190263599157333374e-02
8.274661302566528320e-01 -3.646743297576904297e-01 9.248208254575729370e-02
-4.667727351188659668e-01 -2.015524506568908691e-01 -2.597720623016357422e-01
-4.800422787666320801e-01 -2.014060616493225098e-01 -2.522103786468505859e-01
-4.530094861984252930e-01 -1.984180212020874023e-01 -2.497902661561965942e-01
-4.669046401977539062e-01 -1.978203803300857544e-01 -2.428252696990966797e-01
-3.325114846229553223e-01 2.418784499168395996e-01 2.089304924011230469e-01
-3.427164554595947266e-01 2.271704226732254028e-01 2.243065685033798218e-01
-3.109991252422332764e-01 2.372987717390060425e-01 2.190858572721481323e-01
-3.214955329895019531e-01 2.221891433000564575e-01 2.340145558118820190e-01
6.974931359291076660e-01 -7.456870377063751221e-02 -3.310061395168304443e-01
6.790937185287475586e-01 -6.626008450984954834e-02 -3.237178027629852295e-01
7.167665362358093262e-01 -7.057203352451324463e-02 -3.269399404525756836e-01
6.972017884254455566e-01 -5.814551562070846558e-02 -3.189901411533355713e-01
9.273130893707275391e-01 -4.912245273590087891e-01 1.785136312246322632e-01
9.093090295791625977e-01 -5.028223991394042969e-01 1.944426149129867554e-01
9.346725344657897949e-01 -5.040460824966430664e-01 1.930900812149047852e-01
9.184099435806274414e-01 -5.177818536758422852e-01 2.052176445722579956e-01
7.997770309448242188e-01 -1.192130669951438904e-01 1.288901716470718384e-01
8.036652803421020508e-01 -1.402871757745742798e-01 1.297756135463714600e-01
7.981622219085693359e-01 -1.112183183431625366e-01 1.512897610664367676e-01
8.027074933052062988e-01 -1.323599219322204590e-01 1.515883654356002808e-01
6.425116658210754395e-01 7.521826773881912231e-02 2.416109144687652588e-01
6.238548755645751953e-01 8.329427987337112427e-02 2.496897876262664795e-01
6.559364795684814453e-01 9.646048396825790405e-02 2.551316618919372559e-01
6.365445256233215332e-01 1.046630889177322388e-01 2.622608542442321777e-01
7.078371644020080566e-01 -3.060098290443420410e-01 4.148825630545616150e-02
7.002196907997131348e-01 -3.190870881080627441e-01 4.855410009622573853e-02
7.241988182067871094e-01 -3.149322569370269775e-01 5.195679888129234314e-02
7.158654332160949707e-01 -3.271460533142089844e-01 5.835533514618873596e-02
-4.967355728149414062e-01 -4.658199548721313477e-01 4.340035095810890198e-02
-5.142942667007446289e-01 -4.527086615562438965e-01 5.960384011268615723e-02
-4.868586957454681396e-01 -4.723789095878601074e-01 5.312953889369964600e-02
-5.045917034149169922e-01 -4.604893326759338379e-01 6.869336962699890137e-02
-8.953873813152313232e-02 -1.566440761089324951e-01 -2.277877628803253174e-01
-1.011306345462799072e-01 -1.629265993833541870e-01 -2.178215980529785156e-01
-8.069454878568649292e-02 -1.577031314373016357e-01 -2.189085334539413452e-01
-8.724961429834365845e-02 -1.678138226270675659e-01 -2.090743631124496460e-01
-4.321625828742980957e-02 -1.611731201410293579e-01 1.455711126327514648e-01
-6.338935345411300659e-02 -1.512969583272933960e-01 1.527536809444427490e-01
-3.092559427022933960e-02 -1.412812322378158569e-01 1.589373648166656494e-01
-5.057038366794586182e-02 -1.320049166679382324e-01 1.658653765916824341e-01
-6.936442852020263672e-01 2.818110771477222443e-02 -6.344670057296752930e-02
-7.081434726715087891e-01 4.140795022249221802e-02 -4.704971611499786377e-02
-6.884846687316894531e-01 4.776915907859802246e-02 -4.849750548601150513e-02
-7.022190093994140625e-01 6.064633652567863464e-02 -3.188224881887435913e-02
-2.740739285945892334e-01 -3.537572920322418213e-01 -4.917470365762710571e-02
-2.853513658046722412e-01 -3.613017797470092773e-01 -4.114313423633575439e-02
-2.621797919273376465e-01 -3.605395257472991943e-01 -3.533300384879112244e-02
-2.725234925746917725e-01 -3.688243031501770020e-01 -2.626506984233856201e-02
5.213391184806823730e-01 1.914023458957672119e-01 3.490224182605743408e-01
5.030460953712463379e-01 1.842640340328216553e-01 3.527086675167083740e-01
5.424831509590148926e-01 2.017557471990585327e-01 3.489516973495483398e-01
5.248168110847473145e-01 1.944649964570999146e-01 3.529086112976074219e-01
7.588621377944946289e-01 -4.791486635804176331e-02 -3.160371482372283936e-01
7.391463518142700195e-01 -3.358672559261322021e-02 -3.085841834545135498e-01
7.792251706123352051e-01 -4.028975963592529297e-02 -3.092454075813293457e-01
7.595732212066650391e-01 -2.632549777626991272e-02 -3.023954629898071289e-01
7.616393566131591797e-01 1.129442378878593445e-01 3.234214186668395996e-01
7.661473751068115234e-01 9.186121821403503418e-02 3.335965275764465332e-01
7.599571347236633301e-01 1.138810291886329651e-01 3.427024185657501221e-01
7.648214697837829590e-01 9.278152883052825928e-02 3.527239561080932617e-01
9.210832715034484863e-01 -1.505912840366363525e-01 2.203050851821899414e-01
9.177885651588439941e-01 -1.658856123685836792e-01 2.246646881103515625e-01
9.220010042190551758e-01 -1.387556344270706177e-01 2.316790819168090820e-01
9.171688556671142578e-01 -1.517193019390106201e-01 2.364920079708099365e-01
3.373458683490753174e-01 -2.713477313518524170e-01 -2.577270269393920898e-01
3.231261372566223145e-01 -2.839622795581817627e-01 -2.490154653787612915e-01
3.603680729866027832e-01 -2.774826586246490479e-01 -2.484016269445419312e-01
3.446963429450988770e-01 -2.892481982707977295e-01 -2.398205399513244629e-01
-5.183443427085876465e-01 -2.756979167461395264e-01 -1.746470183134078979e-01
-5.247686505317687988e-01 -2.845297753810882568e-01 -1.628301143646240234e-01
-5.074700713157653809e-01 -2.814709544181823730e-01 -1.702483296394348145e-01
-5.146441459655761719e-01 -2.899031937122344971e-01 -1.576175540685653687e-01
-5.864127278327941895e-01 -4.456412512809038162e-03 4.173787236213684082e-01
-5.947705507278442383e-01 -1.407913863658905029e-02 4.252152442932128906e-01
-5.772633552551269531e-01 -2.462705597281455994e-02 4.321318864822387695e-01
-5.834270715713500977e-01 -3.569256514310836792e-02 4.393974542617797852e-01
8.928617835044860840e-01 -8.864812552928924561e-02 2.975182533264160156e-01
8.801602125167846680e-01 -9.510692209005355835e-02 3.053705990314483643e-01
8.991267681121826172e-01 -7.309082895517349243e-02 3.046106994152069092e-01
8.869416713714599609e-01 -7.923726737499237061e-02 3.114997148513793945e-01
3.463967144489288330e-01 1.904536336660385132e-01 -7.961570471525192261e-02
3.247230052947998047e-01 1.979786008596420288e-01 -7.421947270631790161e-02
3.618258833885192871e-01 2.044223845005035400e-01 -6.911226361989974976e-02
3.404740095138549805e-01 2.133952528238296509e-01 -6.263978779315948486e-02
2.011181265115737915e-01 3.521855175495147705e-01 6.279712915420532227e-02
1.801538914442062378e-01 3.534604310989379883e-01 6.781625747680664062e-02
2.138350307941436768e-01 3.639287352561950684e-01 7.749876379966735840e-02
1.938433498144149780e-01 3.655190467834472656e-01 8.287560194730758667e-02
9.409759640693664551e-01 -2.709797322750091553e-01 -1.150170639157295227e-01
9.384769797325134277e-01 -2.873806357383728027e-01 -1.161597222089767456e-01
9.472413063049316406e-01 -2.669118344783782959e-01 -1.028920561075210571e-01
9.449124336242675781e-01 -2.825971245765686035e-01 -1.039377450942993164e-01
-6.968641877174377441e-01 1.530361361801624298e-03 4.311734810471534729e-02
-6.914132237434387207e-01 -3.013267926871776581e-02 4.648001492023468018e-02
-6.985565423965454102e-01 4.325845278799533844e-03 6.703922152519226074e-02
-6.928139925003051758e-01 -2.768255770206451416e-02 6.995743513107299805e-02
-1.944254040718078613e-01 -7.272256016731262207e-01 2.152024507522583008e-01
-2.128942161798477173e-01 -7.468243837356567383e-01 2.226363122463226318e-01
-1.676547527313232422e-01 -7.302680611610412598e-01 2.179533988237380981e-01
-1.868489235639572144e-01 -7.504819035530090332e-01 2.249753624200820923e-01
7.718386054039001465e-01 -4.240623414516448975e-01 1.260533481836318970e-01
7.621989846229553223e-01 -4.399231672286987305e-01 1.347232460975646973e-01
7.911750674247741699e-01 -4.358698129653930664e-01 1.354388594627380371e-01
7.804597020149230957e-01 -4.522075057029724121e-01 1.443226188421249390e-01
-3.554376661777496338e-01 -5.617225766181945801e-01 9.309700876474380493e-02
-3.739347755908966064e-01 -5.800361633300781250e-01 1.034577265381813049e-01
-3.260444700717926025e-01 -5.633922815322875977e-01 9.920156747102737427e-02
-3.453117609024047852e-01 -5.804072618484497070e-01 1.080260798335075378e-01
-4.449028670787811279e-01 -3.290112018585205078e-01 4.188612475991249084e-02
-4.568874239921569824e-01 -3.178371787071228027e-01 4.929248616099357605e-02
-4.370776712894439697e-01 -3.211409449577331543e-01 5.333639308810234070e-02
-4.498464167118072510e-01 -3.100503683090209961e-01 6.166058778762817383e-02
-5.727773308753967285e-01 -6.015675887465476990e-02 -2.007019519805908203e-02
-5.692494511604309082e-01 -7.241089642047882080e-02 -1.455968897789716721e-02
-5.716832280158996582e-01 -6.271230429410934448e-02 -2.590468851849436760e-03
-5.684292316436767578e-01 -7.472702115774154663e-02 2.177420305088162422e-03
-6.339744329452514648e-01 -3.833868503570556641e-01 -5.083863437175750732e-02
-6.260809898376464844e-01 -4.131779074668884277e-01 -4.081937670707702637e-02
-6.342470645904541016e-01 -3.797957301139831543e-01 -9.847467765212059021e-03
-6.273502111434936523e-01 -4.085430204868316650e-01 7.654204964637756348e-04
-2.881948649883270264e-01 -8.705979585647583008e-02 2.367749810218811035e-01
-3.055647015571594238e-01 -7.910113781690597534e-02 2.451940476894378662e-01
-2.741641700267791748e-01 -6.077880039811134338e-02 2.521731257438659668e-01
-2.918193340301513672e-01 -5.286100879311561584e-02 2.602265179157257080e-01
2.579913139343261719e-01 -5.764412283897399902e-01 1.668635904788970947e-01
2.323086708784103394e-01 -5.948955416679382324e-01 1.793193370103836060e-01
2.907002568244934082e-01 -5.762396454811096191e-01 1.697130948305130005e-01
2.643084526062011719e-01 -5.945091843605041504e-01 1.820921301841735840e-01
3.587041050195693970e-02 3.188445270061492920e-01 1.901509612798690796e-01
3.186500445008277893e-02 3.030938506126403809e-01 2.064778208732604980e-01
5.244615674018859863e-02 3.121530711650848389e-01 2.001209110021591187e-01
4.835028946399688721e-02 2.957163155078887939e-01 2.164435982704162598e-01
-4.704339504241943359e-01 -8.183665573596954346e-03 3.207345306873321533e-01
-4.885375499725341797e-01 2.751152962446212769e-03 3.265988826751708984e-01
-4.553036689758300781e-01 1.241618208587169647e-02 3.316124677658081055e-01
-4.742808043956756592e-01 2.167900651693344116e-02 3.372367620468139648e-01
-6.126952767372131348e-01 -3.588521480560302734e-01 2.990704476833343506e-01
-6.168307065963745117e-01 -3.675518929958343506e-01 3.005738258361816406e-01
-5.961786508560180664e-01 -3.595380187034606934e-01 3.085046112537384033e-01
-6.047371625900268555e-01 -3.569451272487640381e-01 3.117988407611846924e-01
7.661003470420837402e-01 9.577339887619018555e-02 1.550730168819427490e-01
7.670477628707885742e-01 8.351536095142364502e-02 1.603603959083557129e-01
7.649549245834350586e-01 9.513644874095916748e-02 1.706101000308990479e-01
7.662519812583923340e-01 8.291602879762649536e-02 1.767605096101760864e-01
-5.437202453613281250e-01 -2.244881540536880493e-01 -2.156031131744384766e-02
-5.408385992050170898e-01 -2.382518500089645386e-01 -1.778680086135864258e-02
-5.443052053451538086e-01 -2.246054261922836304e-01 -4.733768291771411896e-03
-5.416309237480163574e-01 -2.377166599035263062e-01 -4.696610849350690842e-04
6.168464422225952148e-01 4.488163590431213379e-01 1.191550195217132568e-01
6.065666079521179199e-01 4.455933272838592529e-01 1.316304206848144531e-01
6.308955550193786621e-01 4.488002955913543701e-01 1.343488991260528564e-01
6.210443973541259766e-01 4.447560608386993408e-01 1.470969170331954956e-01
-4.971765279769897461e-01 2.336695492267608643e-01 1.853456795215606689e-01
-5.059486627578735352e-01 2.213038951158523560e-01 2.019968330860137939e-01
-4.814939498901367188e-01 2.215122282505035400e-01 2.028339505195617676e-01
-4.891829490661621094e-01 2.080835103988647461e-01 2.207709103822708130e-01
1.040177941322326660e-01 -3.614476323127746582e-01 -2.043817490339279175e-01
8.522164076566696167e-02 -3.748351037502288818e-01 -1.938542276620864868e-01
1.272008121013641357e-01 -3.694435954093933105e-01 -1.952599287033081055e-01
1.071967408061027527e-01 -3.823314011096954346e-01 -1.833383888006210327e-01
4.451981186866760254e-02 -1.770680844783782959e-01 -1.882195770740509033e-01
3.542169928550720215e-02 -1.882345378398895264e-01 -1.799638271331787109e-01
6.015470251441001892e-02 -1.821201443672180176e-01 -1.802569627761840820e-01
4.957627505064010620e-02 -1.935059428215026855e-01 -1.721547544002532959e-01
3.048138022422790527e-01 9.946434199810028076e-02 3.214011192321777344e-01
2.871646881103515625e-01 1.161434501409530640e-01 3.316273987293243408e-01
3.149381279945373535e-01 1.172341629862785339e-01 3.277435302734375000e-01
2.988805174827575684e-01 1.297541856765747070e-01 3.370521962642669678e-01
8.477988094091415405e-02 -1.876174062490463257e-01 -3.382250070571899414e-01
6.350163370370864868e-02 -1.849200874567031860e-01 -3.336640894412994385e-01
1.039264872670173645e-01 -1.790880709886550903e-01 -3.333765864372253418e-01
8.124616742134094238e-02 -1.756202131509780884e-01 -3.291038572788238525e-01
-6.182851195335388184e-01 -4.458946883678436279e-01 -2.279588431119918823e-01
-6.323022246360778809e-01 -4.436090588569641113e-01 -2.128987312316894531e-01
-6.074315309524536133e-01 -4.601075053215026855e-01 -2.184385061264038086e-01
-6.221934556961059570e-01 -4.557793736457824707e-01 -2.038893103599548340e-01
1.103161722421646118e-01 -2.268527746200561523e-01 -1.150722131133079529e-01
9.985356032848358154e-02 -2.350850254297256470e-01 -1.068665087223052979e-01
1.239887475967407227e-01 -2.322691231966018677e-01 -1.075846850872039795e-01
1.135635823011398315e-01 -2.401270866394042969e-01 -9.858608990907669067e-02
7.474374771118164062e-01 1.811401993036270142e-01 2.313079684972763062e-01
7.498317360877990723e-01 1.677072346210479736e-01 2.367944866418838501e-01
7.460179924964904785e-01 1.835197359323501587e-01 2.492062002420425415e-01
7.487759590148925781e-01 1.691330671310424805e-01 2.549723088741302490e-01
2.143947333097457886e-01 -5.758485198020935059e-01 3.172194212675094604e-02
2.117619365453720093e-01 -5.957151055335998535e-01 4.855696856975555420e-02
2.309302389621734619e-01 -5.876091718673706055e-01 4.717191308736801147e-02
2.284502238035202026e-01 -6.084046363830566406e-01 6.430930644273757935e-02
4.608825445175170898e-01 -1.316553950309753418e-01 -1.496072560548782349e-01
4.542995691299438477e-01 -1.417033672332763672e-01 -1.422019898891448975e-01
4.752746224403381348e-01 -1.448558568954467773e-01 -1.396880894899368286e-01
4.691272974014282227e-01 -1.557542234659194946e-01 -1.315786242485046387e-01
3.452030420303344727e-01 1.753539592027664185e-01 -9.265806525945663452e-02
3.254677653312683105e-01 1.829146742820739746e-01 -8.658536523580551147e-02
3.614323735237121582e-01 1.900735199451446533e-01 -8.122701197862625122e-02
3.410764336585998535e-01 1.989459246397018433e-01 -7.467183470726013184e-02
-6.109715700149536133e-01 -3.680023849010467529e-01 -3.148226737976074219e-01
-6.234478950500488281e-01 -3.591549098491668701e-01 -3.031149804592132568e-01
-6.077141761779785156e-01 -3.735011219978332520e-01 -2.977027893066406250e-01
-6.216020584106445312e-01 -3.621523380279541016e-01 -2.854943275451660156e-01
-5.229065418243408203e-01 -8.171541690826416016e-01 1.622601449489593506e-01
-5.362707972526550293e-01 -8.162307143211364746e-01 1.701124459505081177e-01
-5.084016919136047363e-01 -8.225678801536560059e-01 1.760069131851196289e-01
-5.205402970314025879e-01 -8.217923045158386230e-01 1.849292516708374023e-01
1.144610196352005005e-01 -1.076432988047599792e-01 -2.342226654291152954e-01
1.088943630456924438e-01 -1.181080043315887451e-01 -2.238568365573883057e-01
1.254092305898666382e-01 -1.139876842498779297e-01 -2.266790270805358887e-01
1.186118423938751221e-01 -1.243296563625335693e-01 -2.171631008386611938e-01
4.880544543266296387e-01 1.013718768954277039e-01 -1.677670329809188843e-01
4.596423208713531494e-01 1.066192537546157837e-01 -1.631335616111755371e-01
5.049220919609069824e-01 1.162410750985145569e-01 -1.544787883758544922e-01
4.765658974647521973e-01 1.220143288373947144e-01 -1.496787071228027344e-01
7.397694587707519531e-01 2.522346377372741699e-01 4.218439012765884399e-02
7.434206008911132812e-01 2.370550483465194702e-01 5.227159708738327026e-02
7.380722761154174805e-01 2.429979741573333740e-01 6.419020146131515503e-02
7.417336106300354004e-01 2.269682735204696655e-01 7.702050358057022095e-02
8.544238805770874023e-01 2.555354237556457520e-01 2.373618185520172119e-01
8.594036102294921875e-01 2.352423816919326782e-01 2.482579201459884644e-01
8.534897565841674805e-01 2.513735890388488770e-01 2.636623084545135498e-01
8.588371872901916504e-01 2.305290102958679199e-01 2.745600640773773193e-01
5.320444703102111816e-01 -2.105883061885833740e-01 -5.045558512210845947e-02
5.278581380844116211e-01 -2.258708626031875610e-01 -3.495963290333747864e-02
5.451456904411315918e-01 -2.158403247594833374e-01 -3.993261978030204773e-02
5.404504537582397461e-01 -2.310138195753097534e-01 -2.535165101289749146e-02
6.386702060699462891e-01 -1.852263361215591431e-01 -2.958548069000244141e-01
6.288567781448364258e-01 -1.990337818861007690e-01 -2.852968871593475342e-01
6.597353816032409668e-01 -1.926356852054595947e-01 -2.847335636615753174e-01
6.498591899871826172e-01 -2.063203901052474976e-01 -2.742779254913330078e-01
2.042647898197174072e-01 6.018344312906265259e-02 -1.649118661880493164e-01
1.886889785528182983e-01 7.082515209913253784e-02 -1.554573178291320801e-01
2.137821316719055176e-01 7.025877386331558228e-02 -1.544128954410552979e-01
1.983382403850555420e-01 8.303687721490859985e-02 -1.448299735784530640e-01
-1.631215065717697144e-01 -9.697575867176055908e-02 2.094668149948120117e-01
-1.776444315910339355e-01 -9.090539067983627319e-02 2.173016965389251709e-01
-1.505405604839324951e-01 -8.343432098627090454e-02 2.200455069541931152e-01
-1.650683581829071045e-01 -7.714105397462844849e-02 2.265988141298294067e-01
1.062818467617034912e-01 1.139857694506645203e-01 3.410407304763793945e-01
8.837232738733291626e-02 1.104163974523544312e-01 3.440186679363250732e-01
1.272358894348144531e-01 1.162913069128990173e-01 3.447988927364349365e-01
1.085369884967803955e-01 1.142084449529647827e-01 3.486835658550262451e-01
-2.005778998136520386e-01 -6.236710548400878906e-01 1.305700279772281647e-02
-2.134139388799667358e-01 -6.407716274261474609e-01 2.538538351655006409e-02
-1.745550483465194702e-01 -6.361643671989440918e-01 2.500796131789684296e-02
-1.863327771425247192e-01 -6.525143980979919434e-01 3.740572929382324219e-02
2.603323161602020264e-01 -1.232411041855812073e-01 -1.924587339162826538e-01
2.546454668045043945e-01 -1.373310089111328125e-01 -1.816470175981521606e-01
2.761845886707305908e-01 -1.361271440982818604e-01 -1.803456395864486694e-01
2.701171636581420898e-01 -1.496703177690505981e-01 -1.695527136325836182e-01
3.122814595699310303e-01 1.269121766090393066e-01 -1.270629614591598511e-01
2.945478558540344238e-01 1.358769834041595459e-01 -1.197925806045532227e-01
3.272491991519927979e-01 1.390993297100067139e-01 -1.161079555749893188e-01
3.093077242374420166e-01 1.467512845993041992e-01 -1.098252832889556885e-01
2.664694786071777344e-01 2.943913638591766357e-01 2.618997097015380859e-01
2.581720948219299316e-01 2.738064527511596680e-01 2.807757854461669922e-01
2.848766148090362549e-01 2.846441566944122314e-01 2.727064192295074463e-01
2.759219706058502197e-01 2.630142271518707275e-01 2.927498221397399902e-01
6.075807213783264160e-01 -1.188891753554344177e-01 -3.497528135776519775e-01
5.880329608917236328e-01 -1.192988976836204529e-01 -3.480521440505981445e-01
6.286225318908691406e-01 -1.052680835127830505e-01 -3.448345959186553955e-01
6.090092658996582031e-01 -1.053894236683845520e-01 -3.427127301692962646e-01
-5.019784905016422272e-03 -9.080125950276851654e-03 -1.876859366893768311e-01
-2.924546971917152405e-02 4.249322228133678436e-03 -1.794929504394531250e-01
8.681943640112876892e-03 1.120289601385593414e-02 -1.727989614009857178e-01
-1.611579582095146179e-02 2.081875503063201904e-02 -1.662145256996154785e-01
9.428637027740478516e-01 -4.981242120265960693e-01 7.897100597620010376e-02
9.320565462112426758e-01 -5.104345679283142090e-01 8.419644832611083984e-02
9.522574543952941895e-01 -5.051472783088684082e-01 9.239550679922103882e-02
9.417812228202819824e-01 -5.174584388732910156e-01 9.775646775960922241e-02
5.361794233322143555e-01 1.905293017625808716e-01 -1.057653278112411499e-01
5.123097300529479980e-01 1.929651051759719849e-01 -1.024996638298034668e-01
5.502626895904541016e-01 2.105151563882827759e-01 -9.125892817974090576e-02
5.275216102600097656e-01 2.146861851215362549e-01 -8.687128871679306030e-02
8.651610612869262695e-01 4.685350880026817322e-02 -2.747630178928375244e-01
8.730151653289794922e-01 2.201190218329429626e-02 -2.794798016548156738e-01
8.711902499198913574e-01 5.604192987084388733e-02 -2.601278126239776611e-01
8.794977068901062012e-01 3.057362511754035950e-02 -2.636989057064056396e-01
2.554302811622619629e-01 -5.873169302940368652e-01 5.015895888209342957e-02
2.524799704551696777e-01 -6.091251373291015625e-01 6.773327291011810303e-02
2.730479836463928223e-01 -5.982350111007690430e-01 6.459686160087585449e-02
2.694610357284545898e-01 -6.207816004753112793e-01 8.305229246616363525e-02
-1.228262186050415039e-01 -1.380559206008911133e-01 -2.511840760707855225e-01
-1.365483403205871582e-01 -1.445165723562240601e-01 -2.417528033256530762e-01
-1.050272881984710693e-01 -1.458821296691894531e-01 -2.415205389261245728e-01
-1.202179342508316040e-01 -1.493238210678100586e-01 -2.314254939556121826e-01
1.762585490942001343e-01 -3.796604275703430176e-02 -2.307220846414566040e-01
1.617852896451950073e-01 -2.674339339137077332e-02 -2.208855450153350830e-01
1.857737451791763306e-01 -2.146629616618156433e-02 -2.220348119735717773e-01
1.708028018474578857e-01 -9.570015594363212585e-03 -2.124423384666442871e-01
9.189312458038330078e-01 -1.510123014450073242e-01 -3.065852820873260498e-02
9.238756895065307617e-01 -1.710842549800872803e-01 -2.623166702687740326e-02
9.180777072906494141e-01 -1.524661183357238770e-01 -6.458488758653402328e-03
9.220801591873168945e-01 -1.715343445539474487e-01 -3.338789334520697594e-03
-4.293138384819030762e-01 -3.649098277091979980e-01 -5.994895845651626587e-02
-4.380710721015930176e-01 -3.709021508693695068e-01 -4.870496690273284912e-02
-4.174714684486389160e-01 -3.707745671272277832e-01 -4.908011108636856079e-02
-4.258825480937957764e-01 -3.780961334705352783e-01 -3.715898841619491577e-02
-6.573377251625061035e-01 -2.342571467161178589e-01 -1.243308335542678833e-01
-6.541117429733276367e-01 -2.543538212776184082e-01 -1.241695955395698547e-01
-6.580187678337097168e-01 -2.270757704973220825e-01 -1.060625761747360229e-01
-6.546318531036376953e-01 -2.468538135290145874e-01 -1.055805236101150513e-01
9.085588455200195312e-01 -7.940634340047836304e-02 7.111423462629318237e-02
9.103409647941589355e-01 -9.473938494920730591e-02 7.546760886907577515e-02
9.080877900123596191e-01 -7.963751256465911865e-02 9.196160733699798584e-02
9.102835655212402344e-01 -9.396523237228393555e-02 9.651197493076324463e-02
5.327482223510742188e-01 -1.960701942443847656e-01 -8.009552955627441406e-02
5.285229682922363281e-01 -2.077928781509399414e-01 -6.717965751886367798e-02
5.421610474586486816e-01 -2.038323730230331421e-01 -6.776466965675354004e-02
5.382834672927856445e-01 -2.176483869552612305e-01 -5.311728641390800476e-02
-2.334466017782688141e-02 -2.856648266315460205e-01 -8.170818537473678589e-02
-3.088023886084556580e-02 -2.981798052787780762e-01 -6.334453821182250977e-02
-1.923096925020217896e-02 -2.973048388957977295e-01 -6.212472170591354370e-02
-2.687534503638744354e-02 -3.091753721237182617e-01 -4.409142956137657166e-02
-5.777474641799926758e-01 -1.929936185479164124e-02 1.333524733781814575e-01
-5.745187401771545410e-01 -3.423404693603515625e-02 1.333889961242675781e-01
-5.782153010368347168e-01 -1.506159827113151550e-02 1.500987261533737183e-01
-5.750123858451843262e-01 -3.006460145115852356e-02 1.501293629407882690e-01
7.939152717590332031e-01 -1.840009242296218872e-01 -4.895520955324172974e-02
7.906647324562072754e-01 -1.983253359794616699e-01 -4.239363595843315125e-02
8.003948926925659180e-01 -1.875171959400177002e-01 -3.290783613920211792e-02
7.967641949653625488e-01 -2.012039422988891602e-01 -2.700464800000190735e-02
3.854970037937164307e-01 -1.189244315028190613e-01 -3.276286125183105469e-01
3.665184378623962402e-01 -1.161424070596694946e-01 -3.186531960964202881e-01
4.068382680416107178e-01 -1.117904186248779297e-01 -3.162478506565093994e-01
3.846959173679351807e-01 -1.020011007785797119e-01 -3.086311221122741699e-01
7.624686956405639648e-01 1.081880331039428711e-01 1.518287956714630127e-01
7.633583545684814453e-01 9.604845196008682251e-02 1.579297184944152832e-01
7.612032890319824219e-01 1.078856289386749268e-01 1.677603572607040405e-01
7.621329426765441895e-01 9.532889723777770996e-02 1.743331253528594971e-01
5.526128411293029785e-01 -5.919225811958312988e-01 2.055104821920394897e-01
5.374104976654052734e-01 -5.992647409439086914e-01 2.104259133338928223e-01
5.699131488800048828e-01 -5.910856127738952637e-01 2.105890512466430664e-01
5.549266934394836426e-01 -5.954791307449340820e-01 2.156742811203002930e-01
7.312474846839904785e-01 -4.625486731529235840e-01 3.113579470664262772e-03
7.198702096939086914e-01 -4.774977564811706543e-01 1.350606139749288559e-02
7.547463178634643555e-01 -4.701243937015533447e-01 1.394373923540115356e-02
7.396056652069091797e-01 -4.837898015975952148e-01 2.322086691856384277e-02
-1.853490620851516724e-01 -2.309883683919906616e-01 -3.444425165653228760e-01
-2.037183344364166260e-01 -2.314000725746154785e-01 -3.413988649845123291e-01
-1.689552664756774902e-01 -2.287188172340393066e-01 -3.409939706325531006e-01
-1.875890195369720459e-01 -2.309551388025283813e-01 -3.384634852409362793e-01
-5.869989991188049316e-01 4.140561819076538086e-02 2.134176641702651978e-01
-5.848607420921325684e-01 2.724129334092140198e-02 2.177987992763519287e-01
-5.862372517585754395e-01 4.285085946321487427e-02 2.266080081462860107e-01
-5.839567780494689941e-01 2.836873941123485565e-02 2.308719158172607422e-01
7.233779430389404297e-01 7.233124226331710815e-02 -2.274980843067169189e-01
7.176716327667236328e-01 6.031406298279762268e-02 -2.284122109413146973e-01
7.272056341171264648e-01 7.143808156251907349e-02 -2.172483503818511963e-01
7.231225371360778809e-01 5.869366973638534546e-02 -2.161531001329421997e-01
-5.242341160774230957e-01 -3.714165985584259033e-01 -2.967071235179901123e-01
-5.427168607711791992e-01 -3.778291940689086914e-01 -2.870359420776367188e-01
-5.013485550880432129e-01 -3.837818503379821777e-01 -2.848080396652221680e-01
-5.192734599113464355e-01 -3.941595256328582764e-01 -2.750059366226196289e-01
-1.291341781616210938e-01 2.208567112684249878e-01 3.737651277333498001e-03
-1.505670398473739624e-01 2.280215024948120117e-01 1.158115454018115997e-02
-1.153160035610198975e-01 2.382376492023468018e-01 1.529343985021114349e-02
-1.371948421001434326e-01 2.473103851079940796e-01 2.439096570014953613e-02
5.861477255821228027e-01 3.121667914092540741e-02 2.092770636081695557e-01
5.658654570579528809e-01 3.326736018061637878e-02 2.148110419511795044e-01
5.984608530998229980e-01 3.818941116333007812e-02 2.182156443595886230e-01
5.792770385742187500e-01 4.289799183607101440e-02 2.247287333011627197e-01
3.631953299045562744e-01 -6.489294767379760742e-02 -2.339456379413604736e-01
3.540311455726623535e-01 -7.631348818540573120e-02 -2.281242609024047852e-01
3.744884133338928223e-01 -7.113633304834365845e-02 -2.241350710391998291e-01
3.654078245162963867e-01 -8.248613774776458740e-02 -2.179667800664901733e-01
3.991438746452331543e-01 -4.789260327816009521e-01 -3.762879222631454468e-02
3.876610696315765381e-01 -4.899267554283142090e-01 -2.925908565521240234e-02
4.222898483276367188e-01 -4.878849089145660400e-01 -2.557479403913021088e-02
4.105179607868194580e-01 -4.986436665058135986e-01 -1.762535423040390015e-02
-7.654353231191635132e-02 6.379415094852447510e-02 -1.250555366277694702e-01
-1.010951995849609375e-01 7.061996310949325562e-02 -1.184090375900268555e-01
-6.423044204711914062e-02 8.227173238992691040e-02 -1.111141592264175415e-01
-8.779811859130859375e-02 9.077110886573791504e-02 -1.033735796809196472e-01
4.685902595520019531e-01 -1.775274276733398438e-01 -3.309707939624786377e-01
4.542747139930725098e-01 -1.864847540855407715e-01 -3.237170875072479248e-01
4.890908896923065186e-01 -1.799199283123016357e-01 -3.242568075656890869e-01
4.739966094493865967e-01 -1.887436956167221069e-01 -3.177502751350402832e-01
8.928192257881164551e-01 -4.331876039505004883e-01 -3.464972833171486855e-03
8.887938857078552246e-01 -4.513469040393829346e-01 9.970178827643394470e-03
9.021486639976501465e-01 -4.363730549812316895e-01 1.077216584235429764e-02
8.982669711112976074e-01 -4.531502425670623779e-01 2.233972959220409393e-02
7.499180436134338379e-01 -4.745915532112121582e-02 1.074944585561752319e-01
7.377921938896179199e-01 -4.536968097090721130e-02 1.165582239627838135e-01
7.465638518333435059e-01 -3.341227397322654724e-02 1.200146228075027466e-01
7.367554903030395508e-01 -3.267757967114448547e-02 1.310979127883911133e-01
