1.176874804687500000e+04 -1.105821289062500000e+04 7.340730957031250000e+03
1.176978906250000000e+04 -1.106079687500000000e+04 7.341173828125000000e+03
1.176995605468750000e+04 -1.105947460937500000e+04 7.344139160156250000e+03
1.177063671875000000e+04 -1.106015722656250000e+04 7.346263671875000000e+03
1.175470507812500000e+04 -1.110300683593750000e+04 7.256985839843750000e+03
1.175504492187500000e+04 -1.110584277343750000e+04 7.258508300781250000e+03
1.175476464843750000e+04 -1.110317480468750000e+04 7.260566894531250000e+03
1.175527832031250000e+04 -1.110595214843750000e+04 7.262166992187500000e+03
1.164227929687500000e+04 -1.107109765625000000e+04 7.460874511718750000e+03
1.164013378906250000e+04 -1.107373242187500000e+04 7.459827636718750000e+03
1.164524121093750000e+04 -1.107052734375000000e+04 7.462941894531250000e+03
1.164312890625000000e+04 -1.107317968750000000e+04 7.461930175781250000e+03
1.163770898437500000e+04 -1.100872949218750000e+04 7.403083984375000000e+03
1.163652734375000000e+04 -1.101029687500000000e+04 7.404511230468750000e+03
1.163893750000000000e+04 -1.100777539062500000e+04 7.405938476562500000e+03
1.163765039062500000e+04 -1.100945117187500000e+04 7.407442871093750000e+03
1.174095800781250000e+04 -1.116424609375000000e+04 7.284849121093750000e+03
1.174020312500000000e+04 -1.116685058593750000e+04 7.285131347656250000e+03
1.174271875000000000e+04 -1.116566503906250000e+04 7.287192382812500000e+03
1.174199316406250000e+04 -1.116817285156250000e+04 7.287416503906250000e+03
1.169576562500000000e+04 -1.097930859375000000e+04 7.377602539062500000e+03
1.169339843750000000e+04 -1.097930761718750000e+04 7.379374023437500000e+03
1.169871582031250000e+04 -1.097963183593750000e+04 7.380676269531250000e+03
1.169629492187500000e+04 -1.097954296875000000e+04 7.382151855468750000e+03
1.169692285156250000e+04 -1.119011328125000000e+04 7.270825683593750000e+03
1.169481054687500000e+04 -1.119225878906250000e+04 7.271796386718750000e+03
1.169998730468750000e+04 -1.119134082031250000e+04 7.271770019531250000e+03
1.169785253906250000e+04 -1.119353027343750000e+04 7.272705078125000000e+03
1.163796582031250000e+04 -1.112940820312500000e+04 7.274115722656250000e+03
1.163687207031250000e+04 -1.112768457031250000e+04 7.275872558593750000e+03
1.163821875000000000e+04 -1.113052148437500000e+04 7.276331542968750000e+03
1.163705664062500000e+04 -1.112869433593750000e+04 7.278108398437500000e+03
1.163252929687500000e+04 -1.104518164062500000e+04 7.439024414062500000e+03
1.163190332031250000e+04 -1.104777343750000000e+04 7.439663574218750000e+03
1.163428125000000000e+04 -1.104477050781250000e+04 7.441995605468750000e+03
1.163357421875000000e+04 -1.104740039062500000e+04 7.442650878906250000e+03
1.172438085937500000e+04 -1.101025781250000000e+04 7.445269042968750000e+03
1.172208203125000000e+04 -1.101203710937500000e+04 7.447730957031250000e+03
1.172682324218750000e+04 -1.101342480468750000e+04 7.446692382812500000e+03
1.172460156250000000e+04 -1.101521289062500000e+04 7.449088867187500000e+03
1.168274511718750000e+04 -1.115585156250000000e+04 7.203296875000000000e+03
1.167916406250000000e+04 -1.115580273437500000e+04 7.206283203125000000e+03
1.168497265625000000e+04 -1.115644042968750000e+04 7.205728027343750000e+03
1.168146777343750000e+04 -1.115654785156250000e+04 7.208669433593750000e+03
1.163661132812500000e+04 -1.117412402343750000e+04 7.368622070312500000e+03
1.163531640625000000e+04 -1.117160058593750000e+04 7.370917968750000000e+03
1.163710449218750000e+04 -1.117377929687500000e+04 7.372146972656250000e+03
1.163575878906250000e+04 -1.117099902343750000e+04 7.374342285156250000e+03
1.174926074218750000e+04 -1.108636523437500000e+04 7.264571289062500000e+03
1.174866992187500000e+04 -1.108497753906250000e+04 7.266966308593750000e+03
1.174881738281250000e+04 -1.108646484375000000e+04 7.268048339843750000e+03
1.174871875000000000e+04 -1.108611425781250000e+04 7.270588867187500000e+03
1.170558496093750000e+04 -1.106302832031250000e+04 7.477800781250000000e+03
1.170371972656250000e+04 -1.106605468750000000e+04 7.479045898437500000e+03
1.170831738281250000e+04 -1.106524316406250000e+04 7.477457031250000000e+03
1.170640527343750000e+04 -1.106824707031250000e+04 7.478693359375000000e+03
1.165028906250000000e+04 -1.101663476562500000e+04 7.321495117187500000e+03
1.164735058593750000e+04 -1.101715722656250000e+04 7.322934082031250000e+03
1.165153417968750000e+04 -1.101358300781250000e+04 7.323629882812500000e+03
1.164870605468750000e+04 -1.101455859375000000e+04 7.324854003906250000e+03
1.168960839843750000e+04 -1.101216015625000000e+04 7.310770507812500000e+03
1.168611230468750000e+04 -1.101045507812500000e+04 7.311861816406250000e+03
1.169200781250000000e+04 -1.100933300781250000e+04 7.313073242187500000e+03
1.168849414062500000e+04 -1.100745214843750000e+04 7.314278808593750000e+03
1.163572558593750000e+04 -1.108120214843750000e+04 7.254237304687500000e+03
1.163481542968750000e+04 -1.108376953125000000e+04 7.256693847656250000e+03
1.163703613281250000e+04 -1.107979394531250000e+04 7.256969238281250000e+03
1.163614257812500000e+04 -1.108232128906250000e+04 7.259559082031250000e+03
1.173627929687500000e+04 -1.115076367187500000e+04 7.275242187500000000e+03
1.173555468750000000e+04 -1.115349023437500000e+04 7.276530273437500000e+03
1.173752539062500000e+04 -1.115200097656250000e+04 7.277907226562500000e+03
1.173679882812500000e+04 -1.115475195312500000e+04 7.279220214843750000e+03
1.166076171875000000e+04 -1.115185058593750000e+04 7.251328613281250000e+03
1.165945312500000000e+04 -1.115154296875000000e+04 7.254240722656250000e+03
1.166129003906250000e+04 -1.115268652343750000e+04 7.254295410156250000e+03
1.165990722656250000e+04 -1.115232324218750000e+04 7.257239746093750000e+03
1.162059765625000000e+04 -1.113795214843750000e+04 7.347065429687500000e+03
1.162163183593750000e+04 -1.114089941406250000e+04 7.347291015625000000e+03
1.162074511718750000e+04 -1.113862011718750000e+04 7.349757324218750000e+03
1.162176855468750000e+04 -1.114162695312500000e+04 7.349989257812500000e+03
1.162263476562500000e+04 -1.114985351562500000e+04 7.359452148437500000e+03
1.162179003906250000e+04 -1.114774316406250000e+04 7.361839355468750000e+03
1.162292871093750000e+04 -1.115057519531250000e+04 7.363099121093750000e+03
1.162208984375000000e+04 -1.114825781250000000e+04 7.365642089843750000e+03
1.166721191406250000e+04 -1.116509570312500000e+04 7.264420410156250000e+03
1.166504589843750000e+04 -1.116527050781250000e+04 7.266522460937500000e+03
1.166848242187500000e+04 -1.116746972656250000e+04 7.265318847656250000e+03
1.166635156250000000e+04 -1.116770800781250000e+04 7.267430664062500000e+03
1.168494628906250000e+04 -1.116933007812500000e+04 7.247208496093750000e+03
1.168344531250000000e+04 -1.116935449218750000e+04 7.249734375000000000e+03
1.168685742187500000e+04 -1.117055761718750000e+04 7.249709472656250000e+03
1.168536132812500000e+04 -1.117054589843750000e+04 7.252191406250000000e+03
1.168584375000000000e+04 -1.115545703125000000e+04 7.459657714843750000e+03
1.168336230468750000e+04 -1.115362890625000000e+04 7.460725097656250000e+03
1.168736328125000000e+04 -1.115349316406250000e+04 7.461497070312500000e+03
1.168494726562500000e+04 -1.115150683593750000e+04 7.462562011718750000e+03
1.168185156250000000e+04 -1.102581933593750000e+04 7.301209960937500000e+03
1.167820703125000000e+04 -1.102507910156250000e+04 7.302269531250000000e+03
1.168398437500000000e+04 -1.102180078125000000e+04 7.303707519531250000e+03
1.168035253906250000e+04 -1.102130175781250000e+04 7.304583496093750000e+03
1.170718359375000000e+04 -1.120323535156250000e+04 7.373275390625000000e+03
1.170576367187500000e+04 -1.120511523437500000e+04 7.374220214843750000e+03
1.170699218750000000e+04 -1.120097558593750000e+04 7.375852050781250000e+03
1.170556250000000000e+04 -1.120278417968750000e+04 7.376587890625000000e+03
1.166372851562500000e+04 -1.112137011718750000e+04 7.472798339843750000e+03
1.166294824218750000e+04 -1.112513183593750000e+04 7.471763671875000000e+03
1.166737890625000000e+04 -1.112043652343750000e+04 7.474307128906250000e+03
1.166664843750000000e+04 -1.112401464843750000e+04 7.473373046875000000e+03
1.174685253906250000e+04 -1.116582910156250000e+04 7.293603515625000000e+03
1.174604101562500000e+04 -1.116777832031250000e+04 7.295004394531250000e+03
1.174800292968750000e+04 -1.116604589843750000e+04 7.295601074218750000e+03
1.174720312500000000e+04 -1.116799804687500000e+04 7.297020507812500000e+03
1.175645800781250000e+04 -1.101607714843750000e+04 7.400687011718750000e+03
1.175484765625000000e+04 -1.101459667968750000e+04 7.403113769531250000e+03
1.175626074218750000e+04 -1.101754785156250000e+04 7.404096679687500000e+03
1.175469628906250000e+04 -1.101617773437500000e+04 7.406357910156250000e+03
1.167016210937500000e+04 -1.116961523437500000e+04 7.264609863281250000e+03
1.166827246093750000e+04 -1.117007519531250000e+04 7.266570800781250000e+03
1.167089257812500000e+04 -1.117205078125000000e+04 7.265429687500000000e+03
1.166936425781250000e+04 -1.117293554687500000e+04 7.267236328125000000e+03
1.178287207031250000e+04 -1.108315527343750000e+04 7.369456542968750000e+03
1.178224902343750000e+04 -1.108665722656250000e+04 7.371772460937500000e+03
1.178233300781250000e+04 -1.108194726562500000e+04 7.372959472656250000e+03
1.178181933593750000e+04 -1.108571582031250000e+04 7.375177246093750000e+03
1.162462500000000000e+04 -1.110346093750000000e+04 7.300956542968750000e+03
1.162380859375000000e+04 -1.110579589843750000e+04 7.302307128906250000e+03
1.162375488281250000e+04 -1.110238085937500000e+04 7.304723632812500000e+03
1.162288378906250000e+04 -1.110464160156250000e+04 7.305908691406250000e+03
1.162714257812500000e+04 -1.115320214843750000e+04 7.327479492187500000e+03
1.162582519531250000e+04 -1.115107324218750000e+04 7.329842773437500000e+03
1.162692968750000000e+04 -1.115378710937500000e+04 7.331588378906250000e+03
1.162572460937500000e+04 -1.115167089843750000e+04 7.334003417968750000e+03
1.162606445312500000e+04 -1.110544433593750000e+04 7.441061523437500000e+03
1.162559765625000000e+04 -1.110885644531250000e+04 7.439444335937500000e+03
1.162789550781250000e+04 -1.110477929687500000e+04 7.444792480468750000e+03
1.162724804687500000e+04 -1.110819335937500000e+04 7.443128417968750000e+03
1.169300488281250000e+04 -1.100141601562500000e+04 7.317569824218750000e+03
1.168933593750000000e+04 -1.100010449218750000e+04 7.318844726562500000e+03
1.169588574218750000e+04 -1.099943652343750000e+04 7.319594238281250000e+03
1.169226562500000000e+04 -1.099845019531250000e+04 7.320564453125000000e+03
1.163524023437500000e+04 -1.108661523437500000e+04 7.271873046875000000e+03
1.163424707031250000e+04 -1.108899316406250000e+04 7.273163574218750000e+03
1.163643359375000000e+04 -1.108409863281250000e+04 7.274310546875000000e+03
1.163512792968750000e+04 -1.108676074218750000e+04 7.275402832031250000e+03
1.164893261718750000e+04 -1.117457031250000000e+04 7.381247558593750000e+03
1.164745410156250000e+04 -1.117274902343750000e+04 7.382586914062500000e+03
1.165001953125000000e+04 -1.117367089843750000e+04 7.383850585937500000e+03
1.164856250000000000e+04 -1.117209667968750000e+04 7.385015625000000000e+03
1.170156152343750000e+04 -1.117621582031250000e+04 7.263143066406250000e+03
1.170083886718750000e+04 -1.117828320312500000e+04 7.264339843750000000e+03
1.170382812500000000e+04 -1.117772851562500000e+04 7.264816406250000000e+03
1.170308691406250000e+04 -1.117996582031250000e+04 7.265962402343750000e+03
1.160664257812500000e+04 -1.109107617187500000e+04 7.331198242187500000e+03
1.160662011718750000e+04 -1.109270605468750000e+04 7.333031738281250000e+03
1.160711035156250000e+04 -1.109241601562500000e+04 7.334395996093750000e+03
1.160684472656250000e+04 -1.109258984375000000e+04 7.336733398437500000e+03
1.168250585937500000e+04 -1.113449316406250000e+04 7.472130859375000000e+03
1.167948535156250000e+04 -1.113132812500000000e+04 7.472825683593750000e+03
1.168528125000000000e+04 -1.113197070312500000e+04 7.473095214843750000e+03
1.168213378906250000e+04 -1.112890917968750000e+04 7.473935546875000000e+03
1.172578808593750000e+04 -1.103553417968750000e+04 7.296612792968750000e+03
1.172383886718750000e+04 -1.103337890625000000e+04 7.297807617187500000e+03
1.172748046875000000e+04 -1.103503808593750000e+04 7.299513183593750000e+03
1.172547851562500000e+04 -1.103281445312500000e+04 7.300555664062500000e+03
1.162602636718750000e+04 -1.112494042968750000e+04 7.301631835937500000e+03
1.162672851562500000e+04 -1.112835253906250000e+04 7.302773437500000000e+03
1.162464746093750000e+04 -1.112548046875000000e+04 7.306029785156250000e+03
1.162543261718750000e+04 -1.112887109375000000e+04 7.307038574218750000e+03
1.171929003906250000e+04 -1.116042675781250000e+04 7.401429687500000000e+03
1.171617578125000000e+04 -1.116072851562500000e+04 7.402337890625000000e+03
1.172222949218750000e+04 -1.116057910156250000e+04 7.403527832031250000e+03
1.171893457031250000e+04 -1.116097167968750000e+04 7.404039062500000000e+03
1.170392773437500000e+04 -1.118380859375000000e+04 7.421200683593750000e+03
1.170090136718750000e+04 -1.118395996093750000e+04 7.422392578125000000e+03
1.170518359375000000e+04 -1.118367773437500000e+04 7.423402343750000000e+03
1.170237890625000000e+04 -1.118342773437500000e+04 7.424525878906250000e+03
1.167539746093750000e+04 -1.098215234375000000e+04 7.365779296875000000e+03
1.167281054687500000e+04 -1.098291992187500000e+04 7.367566894531250000e+03
1.167748925781250000e+04 -1.098160839843750000e+04 7.369193847656250000e+03
1.167498339843750000e+04 -1.098234667968750000e+04 7.371214843750000000e+03
1.169371777343750000e+04 -1.101508398437500000e+04 7.308948730468750000e+03
1.169016894531250000e+04 -1.101296972656250000e+04 7.310152343750000000e+03
1.169624707031250000e+04 -1.101199218750000000e+04 7.311451171875000000e+03
1.169262304687500000e+04 -1.100957812500000000e+04 7.312729003906250000e+03
1.162621484375000000e+04 -1.103861718750000000e+04 7.421316894531250000e+03
1.162600000000000000e+04 -1.104187011718750000e+04 7.422969238281250000e+03
1.162775683593750000e+04 -1.103880664062500000e+04 7.424449707031250000e+03
1.162755371093750000e+04 -1.104207910156250000e+04 7.426066894531250000e+03
1.169585156250000000e+04 -1.117182714843750000e+04 7.249291992187500000e+03
1.169476464843750000e+04 -1.117227050781250000e+04 7.251849609375000000e+03
1.169702734375000000e+04 -1.117205273437500000e+04 7.251457031250000000e+03
1.169603710937500000e+04 -1.117268457031250000e+04 7.253958984375000000e+03
1.171796972656250000e+04 -1.117287011718750000e+04 7.392606933593750000e+03
1.171536523437500000e+04 -1.117327734375000000e+04 7.392972167968750000e+03
1.172038378906250000e+04 -1.117167773437500000e+04 7.393922851562500000e+03
1.171779003906250000e+04 -1.117205078125000000e+04 7.394309570312500000e+03
1.163699121093750000e+04 -1.116496582031250000e+04 7.293410156250000000e+03
1.163484277343750000e+04 -1.116312402343750000e+04 7.295837402343750000e+03
1.163624804687500000e+04 -1.116611914062500000e+04 7.296945800781250000e+03
1.163425585937500000e+04 -1.116454199218750000e+04 7.299301757812500000e+03
1.172736035156250000e+04 -1.106611035156250000e+04 7.471340820312500000e+03
1.172535449218750000e+04 -1.106862792968750000e+04 7.472356445312500000e+03
1.172962402343750000e+04 -1.106885546875000000e+04 7.470274414062500000e+03
1.172749414062500000e+04 -1.107101562500000000e+04 7.471359375000000000e+03
1.162917382812500000e+04 -1.110119531250000000e+04 7.265357910156250000e+03
1.162908593750000000e+04 -1.110378710937500000e+04 7.265350097656250000e+03
1.162949316406250000e+04 -1.109966992187500000e+04 7.268290527343750000e+03
1.162936523437500000e+04 -1.110236328125000000e+04 7.268250488281250000e+03
1.172501757812500000e+04 -1.104526074218750000e+04 7.467296386718750000e+03
1.172257226562500000e+04 -1.104699804687500000e+04 7.469623046875000000e+03
1.172757714843750000e+04 -1.104768847656250000e+04 7.466771972656250000e+03
1.172497656250000000e+04 -1.104919531250000000e+04 7.469051269531250000e+03
1.161105273437500000e+04 -1.110534375000000000e+04 7.319795410156250000e+03
1.160886132812500000e+04 -1.110420019531250000e+04 7.321933593750000000e+03
1.161093066406250000e+04 -1.110734667968750000e+04 7.322815429687500000e+03
1.160861328125000000e+04 -1.110575195312500000e+04 7.325009277343750000e+03
1.166516210937500000e+04 -1.115500000000000000e+04 7.246036132812500000e+03
1.166382324218750000e+04 -1.115448535156250000e+04 7.248767578125000000e+03
1.166588574218750000e+04 -1.115584863281250000e+04 7.248901367187500000e+03
1.166429785156250000e+04 -1.115521875000000000e+04 7.251604003906250000e+03
1.174478417968750000e+04 -1.105149414062500000e+04 7.304886230468750000e+03
1.174496289062500000e+04 -1.105313769531250000e+04 7.303933593750000000e+03
1.174680078125000000e+04 -1.105154003906250000e+04 7.308217285156250000e+03
1.174657031250000000e+04 -1.105243652343750000e+04 7.307194824218750000e+03
1.165883203125000000e+04 -1.116076562500000000e+04 7.268772460937500000e+03
1.165711328125000000e+04 -1.116166796875000000e+04 7.270763183593750000e+03
1.165927734375000000e+04 -1.116414746093750000e+04 7.269598144531250000e+03
1.165760351562500000e+04 -1.116528027343750000e+04 7.271523437500000000e+03
1.162353808593750000e+04 -1.111204101562500000e+04 7.435739257812500000e+03
1.162371484375000000e+04 -1.111529980468750000e+04 7.434855957031250000e+03
1.162589941406250000e+04 -1.111181835937500000e+04 7.439206054687500000e+03
1.162557812500000000e+04 -1.111524316406250000e+04 7.437666015625000000e+03
1.172943554687500000e+04 -1.117063378906250000e+04 7.400616699218750000e+03
1.172735742187500000e+04 -1.117125195312500000e+04 7.402260253906250000e+03
1.173073339843750000e+04 -1.116963183593750000e+04 7.402312988281250000e+03
1.172892089843750000e+04 -1.117041308593750000e+04 7.404312011718750000e+03
1.171864550781250000e+04 -1.099806835937500000e+04 7.434119140625000000e+03
1.171689550781250000e+04 -1.099989355468750000e+04 7.437252929687500000e+03
1.172082519531250000e+04 -1.100122167968750000e+04 7.436550781250000000e+03
1.171893359375000000e+04 -1.100276367187500000e+04 7.439492675781250000e+03
1.161863183593750000e+04 -1.112082714843750000e+04 7.399647949218750000e+03
1.161908398437500000e+04 -1.112102734375000000e+04 7.401454101562500000e+03
1.161899121093750000e+04 -1.112185351562500000e+04 7.403291503906250000e+03
1.161884765625000000e+04 -1.112084375000000000e+04 7.405709960937500000e+03
1.169155957031250000e+04 -1.118476660156250000e+04 7.413335937500000000e+03
1.168918652343750000e+04 -1.118463964843750000e+04 7.415128417968750000e+03
1.169380273437500000e+04 -1.118455957031250000e+04 7.416446289062500000e+03
1.169130566406250000e+04 -1.118454980468750000e+04 7.418181152343750000e+03
1.163525097656250000e+04 -1.108115332031250000e+04 7.248116210937500000e+03
1.163426269531250000e+04 -1.108382324218750000e+04 7.249818847656250000e+03
1.163650488281250000e+04 -1.108014160156250000e+04 7.250409179687500000e+03
1.163552246093750000e+04 -1.108284179687500000e+04 7.252309082031250000e+03
1.164038574218750000e+04 -1.117924218750000000e+04 7.325433105468750000e+03
1.163912890625000000e+04 -1.117758203125000000e+04 7.327406250000000000e+03
1.164088476562500000e+04 -1.118031347656250000e+04 7.328500000000000000e+03
1.163959960937500000e+04 -1.117855468750000000e+04 7.330452148437500000e+03
1.176323632812500000e+04 -1.104580566406250000e+04 7.417789062500000000e+03
1.176179492187500000e+04 -1.104448925781250000e+04 7.419902832031250000e+03
1.176300390625000000e+04 -1.104749218750000000e+04 7.420334472656250000e+03
1.176155371093750000e+04 -1.104617968750000000e+04 7.422479492187500000e+03
1.163138281250000000e+04 -1.101730468750000000e+04 7.405959472656250000e+03
1.163047265625000000e+04 -1.101905859375000000e+04 7.406887207031250000e+03
1.163272363281250000e+04 -1.101589746093750000e+04 7.407709960937500000e+03
1.163180957031250000e+04 -1.101755761718750000e+04 7.408661132812500000e+03
1.176249023437500000e+04 -1.107364648437500000e+04 7.436709960937500000e+03
1.176250878906250000e+04 -1.107724707031250000e+04 7.437671875000000000e+03
1.176000390625000000e+04 -1.107209863281250000e+04 7.440469238281250000e+03
1.175996972656250000e+04 -1.107583105468750000e+04 7.441363769531250000e+03
1.161794824218750000e+04 -1.113106738281250000e+04 7.349481933593750000e+03
1.161910253906250000e+04 -1.113324609375000000e+04 7.350619628906250000e+03
1.161800292968750000e+04 -1.113098730468750000e+04 7.353081542968750000e+03
1.161916210937500000e+04 -1.113315820312500000e+04 7.354209960937500000e+03
1.163075488281250000e+04 -1.101715429687500000e+04 7.401687011718750000e+03
1.162970312500000000e+04 -1.101899511718750000e+04 7.402416503906250000e+03
1.163220019531250000e+04 -1.101575195312500000e+04 7.403795898437500000e+03
1.163126269531250000e+04 -1.101749804687500000e+04 7.404660156250000000e+03
1.176065625000000000e+04 -1.102052246093750000e+04 7.378611328125000000e+03
1.175994335937500000e+04 -1.101948730468750000e+04 7.381265136718750000e+03
1.176104003906250000e+04 -1.102166308593750000e+04 7.382057617187500000e+03
1.176037792968750000e+04 -1.102070019531250000e+04 7.384635742187500000e+03
1.171094140625000000e+04 -1.099390039062500000e+04 7.432388671875000000e+03
1.170961328125000000e+04 -1.099600390625000000e+04 7.435596191406250000e+03
1.171212500000000000e+04 -1.099703515625000000e+04 7.435394042968750000e+03
1.171075878906250000e+04 -1.099937695312500000e+04 7.438654785156250000e+03
1.163866406250000000e+04 -1.117220410156250000e+04 7.297521972656250000e+03
1.163717578125000000e+04 -1.117130468750000000e+04 7.299590332031250000e+03
1.163822558593750000e+04 -1.117392089843750000e+04 7.301267089843750000e+03
1.163677929687500000e+04 -1.117298730468750000e+04 7.303346191406250000e+03
1.177326855468750000e+04 -1.110018457031250000e+04 7.330262207031250000e+03
1.177244140625000000e+04 -1.110290136718750000e+04 7.331258300781250000e+03
1.177338183593750000e+04 -1.109891308593750000e+04 7.332517578125000000e+03
1.177248535156250000e+04 -1.110159570312500000e+04 7.333692871093750000e+03
1.163469531250000000e+04 -1.100918847656250000e+04 7.389758300781250000e+03
1.163324804687500000e+04 -1.101107519531250000e+04 7.390793945312500000e+03
1.163563378906250000e+04 -1.100786914062500000e+04 7.392084472656250000e+03
1.163425390625000000e+04 -1.100962988281250000e+04 7.393074707031250000e+03
1.177116406250000000e+04 -1.110921679687500000e+04 7.373084960937500000e+03
1.177083300781250000e+04 -1.111167187500000000e+04 7.375699218750000000e+03
1.177157324218750000e+04 -1.110949707031250000e+04 7.376902832031250000e+03
1.177122363281250000e+04 -1.111194824218750000e+04 7.379600585937500000e+03
1.177312988281250000e+04 -1.108311523437500000e+04 7.396480957031250000e+03
1.177283496093750000e+04 -1.108555664062500000e+04 7.397260253906250000e+03
1.177272949218750000e+04 -1.108255175781250000e+04 7.399893066406250000e+03
1.177241894531250000e+04 -1.108506835937500000e+04 7.400671875000000000e+03
1.176233886718750000e+04 -1.102389453125000000e+04 7.374565429687500000e+03
1.176153515625000000e+04 -1.102253710937500000e+04 7.377016601562500000e+03
1.176263867187500000e+04 -1.102500097656250000e+04 7.378166992187500000e+03
1.176192968750000000e+04 -1.102392382812500000e+04 7.380747070312500000e+03
1.164166308593750000e+04 -1.106665625000000000e+04 7.290458496093750000e+03
1.163953906250000000e+04 -1.106872851562500000e+04 7.292977050781250000e+03
1.164101464843750000e+04 -1.106553906250000000e+04 7.294014648437500000e+03
1.163882128906250000e+04 -1.106760058593750000e+04 7.296625976562500000e+03
1.166162890625000000e+04 -1.103709667968750000e+04 7.463368164062500000e+03
1.165908789062500000e+04 -1.104013964843750000e+04 7.463435546875000000e+03
1.166560253906250000e+04 -1.103562988281250000e+04 7.465081542968750000e+03
1.166293652343750000e+04 -1.103845019531250000e+04 7.465231445312500000e+03
1.163781640625000000e+04 -1.100596777343750000e+04 7.372518554687500000e+03
1.163660253906250000e+04 -1.100732324218750000e+04 7.373596679687500000e+03
1.163822851562500000e+04 -1.100482128906250000e+04 7.375317382812500000e+03
1.163697753906250000e+04 -1.100620703125000000e+04 7.376208007812500000e+03
1.167506250000000000e+04 -1.099965527343750000e+04 7.439298339843750000e+03
1.167351171875000000e+04 -1.100208300781250000e+04 7.441040039062500000e+03
1.167752441406250000e+04 -1.100197753906250000e+04 7.441926757812500000e+03
1.167609863281250000e+04 -1.100445019531250000e+04 7.443735351562500000e+03
1.173065722656250000e+04 -1.115569238281250000e+04 7.270914062500000000e+03
1.172997656250000000e+04 -1.115802343750000000e+04 7.271616210937500000e+03
1.173232812500000000e+04 -1.115654101562500000e+04 7.273352050781250000e+03
1.173162500000000000e+04 -1.115893554687500000e+04 7.274126464843750000e+03
1.175546777343750000e+04 -1.115886328125000000e+04 7.374683105468750000e+03
1.175370410156250000e+04 -1.116065625000000000e+04 7.375209472656250000e+03
1.175605175781250000e+04 -1.115627734375000000e+04 7.377133300781250000e+03
1.175438378906250000e+04 -1.115797167968750000e+04 7.377976562500000000e+03
1.170305371093750000e+04 -1.118318554687500000e+04 7.412319335937500000e+03
1.170011523437500000e+04 -1.118334375000000000e+04 7.413642089843750000e+03
1.170539257812500000e+04 -1.118270312500000000e+04 7.415140625000000000e+03
1.170230078125000000e+04 -1.118298925781250000e+04 7.416294921875000000e+03
1.171234277343750000e+04 -1.121416796875000000e+04 7.288703125000000000e+03
1.171106250000000000e+04 -1.121563281250000000e+04 7.289266601562500000e+03
1.171412500000000000e+04 -1.121433203125000000e+04 7.290535644531250000e+03
1.171279492187500000e+04 -1.121580761718750000e+04 7.291081542968750000e+03
1.170509863281250000e+04 -1.104569042968750000e+04 7.258211914062500000e+03
1.170171289062500000e+04 -1.104533496093750000e+04 7.259584960937500000e+03
1.170891992187500000e+04 -1.104588574218750000e+04 7.261252441406250000e+03
1.170523828125000000e+04 -1.104541699218750000e+04 7.262236816406250000e+03
1.162362988281250000e+04 -1.110839648437500000e+04 7.436437988281250000e+03
1.162363281250000000e+04 -1.111177343750000000e+04 7.435336914062500000e+03
1.162572265625000000e+04 -1.110799316406250000e+04 7.440651855468750000e+03
1.162530175781250000e+04 -1.111140527343750000e+04 7.439012695312500000e+03
1.165395996093750000e+04 -1.105384375000000000e+04 7.280152343750000000e+03
1.165146289062500000e+04 -1.105588867187500000e+04 7.281232910156250000e+03
1.165559863281250000e+04 -1.105145605468750000e+04 7.282835937500000000e+03
1.165307519531250000e+04 -1.105304003906250000e+04 7.284158691406250000e+03
1.169481152343750000e+04 -1.098703027343750000e+04 7.425788574218750000e+03
1.169350683593750000e+04 -1.098837988281250000e+04 7.428241210937500000e+03
1.169679003906250000e+04 -1.098820605468750000e+04 7.427600097656250000e+03
1.169564257812500000e+04 -1.098968066406250000e+04 7.430118164062500000e+03
1.173475488281250000e+04 -1.111542285156250000e+04 7.465523437500000000e+03
1.173193457031250000e+04 -1.111568750000000000e+04 7.467258300781250000e+03
1.173586914062500000e+04 -1.111229589843750000e+04 7.465331542968750000e+03
1.173316406250000000e+04 -1.111280761718750000e+04 7.466954101562500000e+03
1.165702734375000000e+04 -1.105399316406250000e+04 7.261949218750000000e+03
1.165460937500000000e+04 -1.105601464843750000e+04 7.263663574218750000e+03
1.165843945312500000e+04 -1.105299609375000000e+04 7.265438476562500000e+03
1.165612304687500000e+04 -1.105458691406250000e+04 7.267432128906250000e+03
1.168071289062500000e+04 -1.119538281250000000e+04 7.274297363281250000e+03
1.167736718750000000e+04 -1.119658105468750000e+04 7.276071289062500000e+03
1.168312207031250000e+04 -1.119636914062500000e+04 7.274103515625000000e+03
1.167979394531250000e+04 -1.119761132812500000e+04 7.275839843750000000e+03
1.175244238281250000e+04 -1.111732812500000000e+04 7.280813964843750000e+03
1.175193457031250000e+04 -1.112015234375000000e+04 7.281540039062500000e+03
1.175366796875000000e+04 -1.111750976562500000e+04 7.284574218750000000e+03
1.175317871093750000e+04 -1.112034082031250000e+04 7.285148437500000000e+03
1.174737011718750000e+04 -1.116093261718750000e+04 7.416019531250000000e+03
1.174530468750000000e+04 -1.116292480468750000e+04 7.416941406250000000e+03
1.174828710937500000e+04 -1.115909277343750000e+04 7.418418945312500000e+03
1.174608398437500000e+04 -1.116116601562500000e+04 7.419021972656250000e+03
1.169503125000000000e+04 -1.122300390625000000e+04 7.374968750000000000e+03
1.169242089843750000e+04 -1.122273828125000000e+04 7.376572265625000000e+03
1.169663183593750000e+04 -1.122234082031250000e+04 7.377929687500000000e+03
1.169417285156250000e+04 -1.122223828125000000e+04 7.379269531250000000e+03
1.172123144531250000e+04 -1.107228125000000000e+04 7.475920898437500000e+03
1.172010546875000000e+04 -1.107696679687500000e+04 7.476296875000000000e+03
1.172498535156250000e+04 -1.107356445312500000e+04 7.473903320312500000e+03
1.172372460937500000e+04 -1.107804003906250000e+04 7.474199218750000000e+03
1.163041699218750000e+04 -1.116906542968750000e+04 7.361122558593750000e+03
1.162923828125000000e+04 -1.116691015625000000e+04 7.363323242187500000e+03
1.163075976562500000e+04 -1.116941406250000000e+04 7.364273925781250000e+03
1.162956152343750000e+04 -1.116704785156250000e+04 7.366442382812500000e+03
1.167690917968750000e+04 -1.117524023437500000e+04 7.435983886718750000e+03
1.167456250000000000e+04 -1.117348828125000000e+04 7.437817871093750000e+03
1.167940234375000000e+04 -1.117367285156250000e+04 7.439066406250000000e+03
1.167688867187500000e+04 -1.117221484375000000e+04 7.440401367187500000e+03
1.165694726562500000e+04 -1.114619335937500000e+04 7.240709472656250000e+03
1.165566894531250000e+04 -1.114535058593750000e+04 7.243155273437500000e+03
1.165775292968750000e+04 -1.114714941406250000e+04 7.243588378906250000e+03
1.165655371093750000e+04 -1.114654296875000000e+04 7.246065429687500000e+03
1.168124023437500000e+04 -1.110311718750000000e+04 7.480282226562500000e+03
1.168006250000000000e+04 -1.110568554687500000e+04 7.479904785156250000e+03
1.168459277343750000e+04 -1.110333984375000000e+04 7.480534667968750000e+03
1.168340039062500000e+04 -1.110595605468750000e+04 7.480207031250000000e+03
1.165553320312500000e+04 -1.099570214843750000e+04 7.418761718750000000e+03
1.165415722656250000e+04 -1.099752050781250000e+04 7.420059082031250000e+03
1.165848632812500000e+04 -1.099528125000000000e+04 7.421114746093750000e+03
1.165712792968750000e+04 -1.099709472656250000e+04 7.422522460937500000e+03
1.162216992187500000e+04 -1.110251269531250000e+04 7.434787597656250000e+03
1.162209570312500000e+04 -1.110542578125000000e+04 7.434066406250000000e+03
1.162402929687500000e+04 -1.110167285156250000e+04 7.439368164062500000e+03
1.162367773437500000e+04 -1.110494628906250000e+04 7.438028808593750000e+03
1.166266113281250000e+04 -1.101559863281250000e+04 7.451193847656250000e+03
1.166185253906250000e+04 -1.101938281250000000e+04 7.453321289062500000e+03
1.166595117187500000e+04 -1.101761816406250000e+04 7.454374023437500000e+03
1.166537011718750000e+04 -1.102148632812500000e+04 7.456620117187500000e+03
1.168149609375000000e+04 -1.114343750000000000e+04 7.467588867187500000e+03
1.167890332031250000e+04 -1.114121191406250000e+04 7.468238281250000000e+03
1.168356250000000000e+04 -1.114095019531250000e+04 7.469178222656250000e+03
1.168087988281250000e+04 -1.113866699218750000e+04 7.469875976562500000e+03
1.171584667968750000e+04 -1.102347851562500000e+04 7.458840332031250000e+03
1.171359765625000000e+04 -1.102570117187500000e+04 7.460789550781250000e+03
1.171826269531250000e+04 -1.102482519531250000e+04 7.459025390625000000e+03
1.171599316406250000e+04 -1.102698046875000000e+04 7.460916992187500000e+03
1.166591308593750000e+04 -1.118302539062500000e+04 7.274999511718750000e+03
1.166497070312500000e+04 -1.118457324218750000e+04 7.276667968750000000e+03
1.166764062500000000e+04 -1.118531542968750000e+04 7.275077148437500000e+03
1.166671777343750000e+04 -1.118685546875000000e+04 7.276631835937500000e+03
1.172710839843750000e+04 -1.110818652343750000e+04 7.471625000000000000e+03
1.172386425781250000e+04 -1.110741015625000000e+04 7.473432617187500000e+03
1.172826171875000000e+04 -1.110338671875000000e+04 7.471109863281250000e+03
1.172519824218750000e+04 -1.110339355468750000e+04 7.473036132812500000e+03
1.173789453125000000e+04 -1.103913574218750000e+04 7.303668457031250000e+03
1.173565136718750000e+04 -1.103568066406250000e+04 7.304433593750000000e+03
1.173912207031250000e+04 -1.103741210937500000e+04 7.307187011718750000e+03
1.173686621093750000e+04 -1.103381933593750000e+04 7.307999511718750000e+03
1.170058984375000000e+04 -1.097943066406250000e+04 7.372928222656250000e+03
1.169838964843750000e+04 -1.097910058593750000e+04 7.374489257812500000e+03
1.170243750000000000e+04 -1.097966308593750000e+04 7.376437011718750000e+03
1.170002636718750000e+04 -1.097950781250000000e+04 7.377976562500000000e+03
1.165384472656250000e+04 -1.115415527343750000e+04 7.450556152343750000e+03
1.165161230468750000e+04 -1.114954394531250000e+04 7.451891601562500000e+03
1.165598632812500000e+04 -1.115230371093750000e+04 7.454249511718750000e+03
1.165363378906250000e+04 -1.114817089843750000e+04 7.455532714843750000e+03
1.167176660156250000e+04 -1.120988964843750000e+04 7.282211425781250000e+03
1.166943945312500000e+04 -1.120961718750000000e+04 7.285086425781250000e+03
1.167259960937500000e+04 -1.121240527343750000e+04 7.284895019531250000e+03
1.167031347656250000e+04 -1.121210742187500000e+04 7.287760253906250000e+03
1.161216015625000000e+04 -1.108184570312500000e+04 7.379117675781250000e+03
1.161248828125000000e+04 -1.108523730468750000e+04 7.380603027343750000e+03
1.161270214843750000e+04 -1.108200097656250000e+04 7.382136718750000000e+03
1.161302441406250000e+04 -1.108527050781250000e+04 7.383470703125000000e+03
1.162070800781250000e+04 -1.113788281250000000e+04 7.344416503906250000e+03
1.162174609375000000e+04 -1.114078320312500000e+04 7.344674316406250000e+03
1.162074023437500000e+04 -1.113830566406250000e+04 7.347318359375000000e+03
1.162177441406250000e+04 -1.114125292968750000e+04 7.347543945312500000e+03
1.171211132812500000e+04 -1.117175390625000000e+04 7.263603027343750000e+03
1.171125976562500000e+04 -1.117371386718750000e+04 7.264895019531250000e+03
1.171391308593750000e+04 -1.117216992187500000e+04 7.265661132812500000e+03
1.171310937500000000e+04 -1.117429492187500000e+04 7.266793945312500000e+03
1.164310742187500000e+04 -1.116403906250000000e+04 7.389684570312500000e+03
1.164118847656250000e+04 -1.116334082031250000e+04 7.391349609375000000e+03
1.164437500000000000e+04 -1.116473925781250000e+04 7.391633789062500000e+03
1.164248925781250000e+04 -1.116415722656250000e+04 7.393407226562500000e+03
1.165863085937500000e+04 -1.119704492187500000e+04 7.287408691406250000e+03
1.165708789062500000e+04 -1.119810644531250000e+04 7.289887695312500000e+03
1.165957812500000000e+04 -1.119997167968750000e+04 7.288522460937500000e+03
1.165803808593750000e+04 -1.120099023437500000e+04 7.290989257812500000e+03
1.169172656250000000e+04 -1.117160351562500000e+04 7.247965820312500000e+03
1.169049218750000000e+04 -1.117187890625000000e+04 7.250520507812500000e+03
1.169334863281250000e+04 -1.117238671875000000e+04 7.250285156250000000e+03
1.169221289062500000e+04 -1.117276269531250000e+04 7.252754394531250000e+03
1.163137597656250000e+04 -1.111580664062500000e+04 7.263839355468750000e+03
1.163060058593750000e+04 -1.111463769531250000e+04 7.265883300781250000e+03
1.163157714843750000e+04 -1.111689355468750000e+04 7.266361328125000000e+03
1.163087792968750000e+04 -1.111574902343750000e+04 7.268348144531250000e+03
1.172599121093750000e+04 -1.116999316406250000e+04 7.432286621093750000e+03
1.172320703125000000e+04 -1.116992382812500000e+04 7.434284667968750000e+03
1.172701660156250000e+04 -1.116723144531250000e+04 7.435886718750000000e+03
1.172408203125000000e+04 -1.116740332031250000e+04 7.437770507812500000e+03
1.162174316406250000e+04 -1.112386816406250000e+04 7.317162109375000000e+03
1.162251367187500000e+04 -1.112643261718750000e+04 7.317969726562500000e+03
1.162121679687500000e+04 -1.112341894531250000e+04 7.320494628906250000e+03
1.162201269531250000e+04 -1.112593066406250000e+04 7.321325683593750000e+03
1.165744824218750000e+04 -1.100924804687500000e+04 7.438709472656250000e+03
1.165509960937500000e+04 -1.101191015625000000e+04 7.439575683593750000e+03
1.166039062500000000e+04 -1.100945507812500000e+04 7.441266601562500000e+03
1.165807128906250000e+04 -1.101215429687500000e+04 7.442234863281250000e+03
1.171202343750000000e+04 -1.119652929687500000e+04 7.278140625000000000e+03
1.171070019531250000e+04 -1.119874414062500000e+04 7.278546386718750000e+03
1.171472851562500000e+04 -1.119667480468750000e+04 7.279831054687500000e+03
1.171346191406250000e+04 -1.119878710937500000e+04 7.280104003906250000e+03
1.171481542968750000e+04 -1.121557910156250000e+04 7.295803222656250000e+03
1.171346386718750000e+04 -1.121701074218750000e+04 7.296486328125000000e+03
1.171615527343750000e+04 -1.121495800781250000e+04 7.297564941406250000e+03
1.171485644531250000e+04 -1.121639160156250000e+04 7.298378906250000000e+03
1.175080078125000000e+04 -1.100935546875000000e+04 7.403842773437500000e+03
1.174926953125000000e+04 -1.100899609375000000e+04 7.406095703125000000e+03
1.175020214843750000e+04 -1.101111621093750000e+04 7.407254394531250000e+03
1.174869531250000000e+04 -1.101081152343750000e+04 7.409460937500000000e+03
1.163036523437500000e+04 -1.116262402343750000e+04 7.373000976562500000e+03
1.162917968750000000e+04 -1.115967773437500000e+04 7.375118164062500000e+03
1.163182714843750000e+04 -1.116306054687500000e+04 7.376425781250000000e+03
1.163060937500000000e+04 -1.116012011718750000e+04 7.378674804687500000e+03
1.162781250000000000e+04 -1.110738867187500000e+04 7.282519042968750000e+03
1.162824609375000000e+04 -1.111021972656250000e+04 7.283478515625000000e+03
1.162674511718750000e+04 -1.110801953125000000e+04 7.286725097656250000e+03
1.162710253906250000e+04 -1.111128222656250000e+04 7.287500488281250000e+03
1.163037500000000000e+04 -1.101656054687500000e+04 7.397699218750000000e+03
1.162921191406250000e+04 -1.101848144531250000e+04 7.398561035156250000e+03
1.163133203125000000e+04 -1.101556835937500000e+04 7.399644531250000000e+03
1.163015234375000000e+04 -1.101747460937500000e+04 7.400439941406250000e+03
1.172338964843750000e+04 -1.114642871093750000e+04 7.211264160156250000e+03
1.172092773437500000e+04 -1.114902929687500000e+04 7.212797363281250000e+03
1.172603710937500000e+04 -1.114532714843750000e+04 7.212927734375000000e+03
1.172368750000000000e+04 -1.114765039062500000e+04 7.214576171875000000e+03
1.165177050781250000e+04 -1.099298925781250000e+04 7.373033691406250000e+03
1.164975585937500000e+04 -1.099426367187500000e+04 7.374887695312500000e+03
1.165397265625000000e+04 -1.099094628906250000e+04 7.376240234375000000e+03
1.165184667968750000e+04 -1.099225390625000000e+04 7.378118652343750000e+03
1.177308496093750000e+04 -1.110521191406250000e+04 7.321602050781250000e+03
1.177251367187500000e+04 -1.110819140625000000e+04 7.322902832031250000e+03
1.177434765625000000e+04 -1.110537988281250000e+04 7.323785644531250000e+03
1.177367871093750000e+04 -1.110830078125000000e+04 7.324738769531250000e+03
1.168031445312500000e+04 -1.116461132812500000e+04 7.233451660156250000e+03
1.167770996093750000e+04 -1.116420605468750000e+04 7.236335937500000000e+03
1.168142871093750000e+04 -1.116608496093750000e+04 7.236382812500000000e+03
1.167916601562500000e+04 -1.116587988281250000e+04 7.239323730468750000e+03
1.176309277343750000e+04 -1.111317285156250000e+04 7.311929199218750000e+03
1.176321386718750000e+04 -1.111631445312500000e+04 7.312704589843750000e+03
1.176439843750000000e+04 -1.111296093750000000e+04 7.315493652343750000e+03
1.176450683593750000e+04 -1.111606152343750000e+04 7.316346679687500000e+03
1.166116699218750000e+04 -1.119395996093750000e+04 7.343622558593750000e+03
1.165943261718750000e+04 -1.119276074218750000e+04 7.345358886718750000e+03
1.166231542968750000e+04 -1.119425097656250000e+04 7.346850585937500000e+03
1.166045410156250000e+04 -1.119294433593750000e+04 7.348640625000000000e+03
1.174017675781250000e+04 -1.106470117187500000e+04 7.284769042968750000e+03
1.173959765625000000e+04 -1.106206445312500000e+04 7.286756347656250000e+03
1.174133984375000000e+04 -1.106456054687500000e+04 7.288032226562500000e+03
1.174102734375000000e+04 -1.106274218750000000e+04 7.289659179687500000e+03
1.175561523437500000e+04 -1.110005761718750000e+04 7.231770019531250000e+03
1.175582031250000000e+04 -1.110303515625000000e+04 7.232690917968750000e+03
1.175537109375000000e+04 -1.109940332031250000e+04 7.235594726562500000e+03
1.175564746093750000e+04 -1.110247558593750000e+04 7.236429199218750000e+03
1.167362207031250000e+04 -1.104291503906250000e+04 7.279706542968750000e+03
1.167063574218750000e+04 -1.104246777343750000e+04 7.282126953125000000e+03
1.167642968750000000e+04 -1.104129882812500000e+04 7.282436035156250000e+03
1.167327343750000000e+04 -1.104072656250000000e+04 7.284672851562500000e+03
1.160304980468750000e+04 -1.108260937500000000e+04 7.362553710937500000e+03
1.160353417968750000e+04 -1.108561132812500000e+04 7.364412597656250000e+03
1.160365527343750000e+04 -1.108382519531250000e+04 7.365483398437500000e+03
1.160395800781250000e+04 -1.108692089843750000e+04 7.367250000000000000e+03
1.169815625000000000e+04 -1.120694726562500000e+04 7.386661621093750000e+03
1.169619140625000000e+04 -1.120714062500000000e+04 7.388032714843750000e+03
1.169805468750000000e+04 -1.120385449218750000e+04 7.388655761718750000e+03
1.169613281250000000e+04 -1.120409960937500000e+04 7.390097656250000000e+03
1.174519531250000000e+04 -1.106271875000000000e+04 7.457536132812500000e+03
1.174275195312500000e+04 -1.106199218750000000e+04 7.459119140625000000e+03
1.174443164062500000e+04 -1.106511914062500000e+04 7.458812988281250000e+03
1.174171386718750000e+04 -1.106453710937500000e+04 7.460586914062500000e+03
1.174169824218750000e+04 -1.117120410156250000e+04 7.379211914062500000e+03
1.173947460937500000e+04 -1.117201367187500000e+04 7.379917480468750000e+03
1.174269335937500000e+04 -1.116927343750000000e+04 7.381703125000000000e+03
1.174077832031250000e+04 -1.117009082031250000e+04 7.382473144531250000e+03
1.165752246093750000e+04 -1.119107031250000000e+04 7.345582031250000000e+03
1.165561816406250000e+04 -1.118990625000000000e+04 7.347283203125000000e+03
1.165861035156250000e+04 -1.119159277343750000e+04 7.348168457031250000e+03
1.165674316406250000e+04 -1.119053613281250000e+04 7.349829101562500000e+03
1.163687304687500000e+04 -1.117369824218750000e+04 7.328533691406250000e+03
1.163525976562500000e+04 -1.117217871093750000e+04 7.330547363281250000e+03
1.163754687500000000e+04 -1.117514257812500000e+04 7.331966796875000000e+03
1.163557910156250000e+04 -1.117350000000000000e+04 7.333921386718750000e+03
1.174313574218750000e+04 -1.117972265625000000e+04 7.327743164062500000e+03
1.174112890625000000e+04 -1.118186914062500000e+04 7.328755859375000000e+03
1.174377734375000000e+04 -1.117876562500000000e+04 7.330296386718750000e+03
1.174207617187500000e+04 -1.118060839843750000e+04 7.331479980468750000e+03
1.166472363281250000e+04 -1.100949902343750000e+04 7.318482910156250000e+03
1.166212304687500000e+04 -1.100866113281250000e+04 7.320247558593750000e+03
1.166561914062500000e+04 -1.100700585937500000e+04 7.320529296875000000e+03
1.166280761718750000e+04 -1.100565625000000000e+04 7.322874023437500000e+03
1.171748925781250000e+04 -1.117440136718750000e+04 7.270145996093750000e+03
1.171650683593750000e+04 -1.117678320312500000e+04 7.270845214843750000e+03
1.171933886718750000e+04 -1.117513769531250000e+04 7.272061523437500000e+03
1.171831738281250000e+04 -1.117769238281250000e+04 7.272591796875000000e+03
1.168148925781250000e+04 -1.103615722656250000e+04 7.468293457031250000e+03
1.167943847656250000e+04 -1.103807910156250000e+04 7.469578125000000000e+03
1.168394238281250000e+04 -1.103856542968750000e+04 7.469548339843750000e+03
1.168200097656250000e+04 -1.104046484375000000e+04 7.470905273437500000e+03
1.161809863281250000e+04 -1.108535253906250000e+04 7.428505371093750000e+03
1.161844921875000000e+04 -1.108852539062500000e+04 7.429335937500000000e+03
1.161947070312500000e+04 -1.108430078125000000e+04 7.432244628906250000e+03
1.161982031250000000e+04 -1.108757226562500000e+04 7.432970703125000000e+03
1.174868750000000000e+04 -1.100669531250000000e+04 7.401791015625000000e+03
1.174718652343750000e+04 -1.100634082031250000e+04 7.404017578125000000e+03
1.174889160156250000e+04 -1.100812988281250000e+04 7.404800292968750000e+03
1.174735839843750000e+04 -1.100795703125000000e+04 7.407100097656250000e+03
1.166542773437500000e+04 -1.120549218750000000e+04 7.308321289062500000e+03
1.166236718750000000e+04 -1.120243945312500000e+04 7.309680664062500000e+03
1.166792382812500000e+04 -1.120688671875000000e+04 7.310698730468750000e+03
1.166484082031250000e+04 -1.120393750000000000e+04 7.312034179687500000e+03
1.176234960937500000e+04 -1.112552539062500000e+04 7.316573242187500000e+03
1.176209667968750000e+04 -1.112828125000000000e+04 7.317618652343750000e+03
1.176344433593750000e+04 -1.112590234375000000e+04 7.319759277343750000e+03
1.176307812500000000e+04 -1.112872265625000000e+04 7.321106445312500000e+03
1.174268945312500000e+04 -1.118041210937500000e+04 7.324549804687500000e+03
1.174056054687500000e+04 -1.118274023437500000e+04 7.325403320312500000e+03
1.174387109375000000e+04 -1.117869726562500000e+04 7.327214355468750000e+03
1.174183496093750000e+04 -1.118090234375000000e+04 7.328185546875000000e+03
1.168108300781250000e+04 -1.098498632812500000e+04 7.346931640625000000e+03
1.167827929687500000e+04 -1.098551269531250000e+04 7.348989257812500000e+03
1.168254003906250000e+04 -1.098436718750000000e+04 7.350574707031250000e+03
1.167972167968750000e+04 -1.098488964843750000e+04 7.352664550781250000e+03
1.174606250000000000e+04 -1.116952929687500000e+04 7.295116699218750000e+03
1.174522460937500000e+04 -1.117154199218750000e+04 7.296583984375000000e+03
1.174736816406250000e+04 -1.116925781250000000e+04 7.297125000000000000e+03
1.174657128906250000e+04 -1.117125195312500000e+04 7.298614746093750000e+03
1.170287695312500000e+04 -1.098402148437500000e+04 7.352177246093750000e+03
1.170054785156250000e+04 -1.098328808593750000e+04 7.353978515625000000e+03
1.170434765625000000e+04 -1.098361230468750000e+04 7.355434570312500000e+03
1.170211132812500000e+04 -1.098283007812500000e+04 7.357367187500000000e+03
1.176223730468750000e+04 -1.113761523437500000e+04 7.387444335937500000e+03
1.176113671875000000e+04 -1.113943945312500000e+04 7.389097167968750000e+03
1.176237304687500000e+04 -1.113561816406250000e+04 7.390031250000000000e+03
1.176133398437500000e+04 -1.113747070312500000e+04 7.391551757812500000e+03
1.176556054687500000e+04 -1.103484179687500000e+04 7.390324218750000000e+03
1.176440917968750000e+04 -1.103302734375000000e+04 7.392763183593750000e+03
1.176606445312500000e+04 -1.103643457031250000e+04 7.393384765625000000e+03
1.176468261718750000e+04 -1.103452343750000000e+04 7.395575683593750000e+03
1.164287792968750000e+04 -1.118480468750000000e+04 7.347223632812500000e+03
1.164147753906250000e+04 -1.118407910156250000e+04 7.349638671875000000e+03
1.164334570312500000e+04 -1.118467187500000000e+04 7.349935546875000000e+03
1.164185839843750000e+04 -1.118397753906250000e+04 7.352332031250000000e+03
1.165856640625000000e+04 -1.117960839843750000e+04 7.420706542968750000e+03
1.165668554687500000e+04 -1.117823339843750000e+04 7.422550292968750000e+03
1.166001367187500000e+04 -1.117945898437500000e+04 7.423530273437500000e+03
