-2.466723024845123291e-01 2.586339712142944336e-01 -3.327921330928802490e-01
-2.247192561626434326e-01 2.677390575408935547e-01 -3.297590315341949463e-01
-2.343059629201889038e-01 2.593030929565429688e-01 -3.277265131473541260e-01
2.527430951595306396e-01 9.421008825302124023e-02 -3.643622100353240967e-01
2.463590502738952637e-01 7.587501406669616699e-02 -3.621642589569091797e-01
2.686289250850677490e-01 9.036768972873687744e-02 -3.632087409496307373e-01
2.622288167476654053e-01 7.123241573572158813e-02 -3.614312410354614258e-01
4.920533001422882080e-01 -7.172808796167373657e-02 4.277573898434638977e-03
4.787524342536926270e-01 -8.404535800218582153e-02 1.645745709538459778e-02
5.017009973526000977e-01 -6.866863369941711426e-02 2.222025953233242035e-02
4.881584346294403076e-01 -8.096428960561752319e-02 3.442028909921646118e-02
6.063171476125717163e-02 -2.774996161460876465e-01 -2.875869870185852051e-01
5.343208834528923035e-02 -2.926452457904815674e-01 -2.835214436054229736e-01
7.389156520366668701e-02 -2.770974338054656982e-01 -2.890415191650390625e-01
6.662964075803756714e-02 -2.920495569705963135e-01 -2.852399647235870361e-01
2.112524025142192841e-02 4.491884112358093262e-01 4.829134047031402588e-02
7.418339140713214874e-03 4.614648520946502686e-01 5.566698685288429260e-02
3.288517519831657410e-02 4.451246261596679688e-01 6.723337620496749878e-02
1.853319630026817322e-02 4.571110606193542480e-01 7.374795526266098022e-02
-5.164505243301391602e-01 -2.649750113487243652e-01 2.174471467733383179e-01
-5.312150716781616211e-01 -2.471582740545272827e-01 2.266806364059448242e-01
-5.046898126602172852e-01 -2.641645669937133789e-01 2.341645210981369019e-01
-5.198349356651306152e-01 -2.460684925317764282e-01 2.442134171724319458e-01
4.828568100929260254e-01 -1.852731779217720032e-02 1.299047172069549561e-01
4.702309966087341309e-01 -2.416521310806274414e-02 1.375505626201629639e-01
5.045230984687805176e-01 -2.830906584858894348e-02 1.293970495462417603e-01
4.895708262920379639e-01 -2.755887992680072784e-02 1.385650187730789185e-01
3.204501271247863770e-01 -9.686373174190521240e-02 -1.139946356415748596e-01
3.113838434219360352e-01 -1.211245879530906677e-01 -1.095408499240875244e-01
3.427979052066802979e-01 -9.564071893692016602e-02 -1.151026710867881775e-01
3.331983089447021484e-01 -1.179352104663848877e-01 -1.098209843039512634e-01
-5.718785524368286133e-01 2.575934827327728271e-01 -3.103458881378173828e-01
-5.862143039703369141e-01 2.433665543794631958e-01 -3.025598526000976562e-01
-5.539159178733825684e-01 2.569155693054199219e-01 -3.128401935100555420e-01
-5.653862953186035156e-01 2.438023090362548828e-01 -3.063208162784576416e-01
1.309680938720703125e-01 -4.218116700649261475e-01 -3.479387983679771423e-02
1.230192333459854126e-01 -4.325887560844421387e-01 -3.184233233332633972e-02
1.381328254938125610e-01 -4.135037064552307129e-01 -1.911193318665027618e-02
1.307710558176040649e-01 -4.228444993495941162e-01 -1.472830772399902344e-02
-1.465059667825698853e-01 3.300746679306030273e-01 -2.894446849822998047e-01
-1.501623988151550293e-01 3.173986077308654785e-01 -2.751024663448333740e-01
-1.386248767375946045e-01 3.273152410984039307e-01 -2.701309323310852051e-01
-1.420127898454666138e-01 3.141825199127197266e-01 -2.558402717113494873e-01
-5.272552371025085449e-02 -7.027250528335571289e-01 3.133733272552490234e-01
-7.632758468389511108e-02 -6.966443061828613281e-01 3.295025825500488281e-01
-4.673721641302108765e-02 -6.956863403320312500e-01 3.196328878402709961e-01
-7.057172060012817383e-02 -6.894978284835815430e-01 3.358496427536010742e-01
4.304946959018707275e-02 2.718447744846343994e-01 -3.987281918525695801e-01
3.397347033023834229e-02 2.529666423797607422e-01 -3.912423849105834961e-01
5.720135569572448730e-02 2.658928036689758301e-01 -4.003217816352844238e-01
4.863668978214263916e-02 2.470585405826568604e-01 -3.936355710029602051e-01
-6.724889874458312988e-01 -1.072966530919075012e-01 1.524833738803863525e-01
-6.778410673141479492e-01 -1.049551814794540405e-01 1.674812287092208862e-01
-6.626342535018920898e-01 -1.090763285756111145e-01 1.672722697257995605e-01
-6.680961847305297852e-01 -1.071543693542480469e-01 1.827742457389831543e-01
-2.897447943687438965e-01 -1.911894232034683228e-01 -2.575496733188629150e-01
-2.964853644371032715e-01 -2.023712247610092163e-01 -2.550422847270965576e-01
-2.744018137454986572e-01 -1.890606135129928589e-01 -2.624641954898834229e-01
-2.812747359275817871e-01 -2.005872875452041626e-01 -2.601531147956848145e-01
2.647623717784881592e-01 -1.442796736955642700e-01 -3.569099009037017822e-01
2.530309557914733887e-01 -1.623806059360504150e-01 -3.501455187797546387e-01
2.821250259876251221e-01 -1.479216367006301880e-01 -3.594209849834442139e-01
2.700341939926147461e-01 -1.641764640808105469e-01 -3.535110652446746826e-01
3.933788239955902100e-01 -1.559951603412628174e-01 -4.329194501042366028e-02
3.834250569343566895e-01 -1.716275215148925781e-01 -2.978423982858657837e-02
4.058704674243927002e-01 -1.507705599069595337e-01 -2.040450647473335266e-02
3.961661458015441895e-01 -1.674925982952117920e-01 -5.800744518637657166e-03
-1.038331463932991028e-01 -2.457045018672943115e-01 -2.811414599418640137e-01
-1.150145232677459717e-01 -2.587604522705078125e-01 -2.749646306037902832e-01
-9.110111743211746216e-02 -2.578001320362091064e-01 -2.828357219696044922e-01
-1.014145538210868835e-01 -2.709776461124420166e-01 -2.766882479190826416e-01
-7.279065251350402832e-01 2.297268062829971313e-02 -2.471310496330261230e-01
-7.403032779693603516e-01 1.014822907745838165e-02 -2.422717362642288208e-01
-7.109112739562988281e-01 2.097752131521701813e-02 -2.481146603822708130e-01
-7.224262356758117676e-01 8.439620956778526306e-03 -2.432723939418792725e-01
1.436168998479843140e-01 6.318283081054687500e-02 2.233043015003204346e-01
1.311222314834594727e-01 4.539676383137702942e-02 2.289206236600875854e-01
1.670867800712585449e-01 6.379862874746322632e-02 2.135807126760482788e-01
1.550020724534988403e-01 4.579010605812072754e-02 2.189080268144607544e-01
-2.951757907867431641e-01 3.495848774909973145e-01 3.271770775318145752e-01
-3.069445490837097168e-01 3.196699023246765137e-01 3.347975611686706543e-01
-2.697145044803619385e-01 3.383433818817138672e-01 3.181374967098236084e-01
-2.821604907512664795e-01 3.093351423740386963e-01 3.254325091838836670e-01
-3.503006324172019958e-02 -5.548841953277587891e-01 -1.001245155930519104e-01
-4.170230031013488770e-02 -5.715246200561523438e-01 -8.816683292388916016e-02
-2.346453443169593811e-02 -5.500110983848571777e-01 -8.628439903259277344e-02
-3.117063082754611969e-02 -5.653791427612304688e-01 -7.661031186580657959e-02
-5.885024666786193848e-01 -3.483660221099853516e-01 -2.062723487615585327e-01
-5.949789881706237793e-01 -3.620854914188385010e-01 -2.004940360784530640e-01
-5.788438916206359863e-01 -3.594250977039337158e-01 -2.052717804908752441e-01
-5.843303203582763672e-01 -3.737846016883850098e-01 -2.000787556171417236e-01
1.509894728660583496e-01 2.534016072750091553e-01 -2.166389375925064087e-01
1.383555531501770020e-01 2.702366709709167480e-01 -1.976148039102554321e-01
1.680664271116256714e-01 2.491877526044845581e-01 -1.984115689992904663e-01
1.562194973230361938e-01 2.603098154067993164e-01 -1.836478859186172485e-01
-7.601226866245269775e-02 -1.478818356990814209e-01 2.943739295005798340e-01
-7.808622717857360840e-02 -1.687431335449218750e-01 2.946494817733764648e-01
-5.646989122033119202e-02 -1.476795971393585205e-01 2.890770733356475830e-01
-5.744935572147369385e-02 -1.682662218809127808e-01 2.891826331615447998e-01
-1.242389455437660217e-01 4.989555105566978455e-02 2.968522012233734131e-01
-1.351295858621597290e-01 3.414247184991836548e-02 3.020592331886291504e-01
-1.065879762172698975e-01 4.395949468016624451e-02 2.900672852993011475e-01
-1.175315156579017639e-01 2.785001881420612335e-02 2.953332662582397461e-01
-3.851037621498107910e-01 1.214065477252006531e-01 3.654967546463012695e-01
-3.975014090538024902e-01 1.000948548316955566e-01 3.713541924953460693e-01
-3.656555414199829102e-01 1.106482967734336853e-01 3.597911000251770020e-01
-3.769100308418273926e-01 8.922433108091354370e-02 3.652659058570861816e-01
-1.261116415262222290e-01 -7.800737768411636353e-02 -3.087892830371856689e-01
-1.340095549821853638e-01 -9.147629141807556152e-02 -3.037608861923217773e-01
-1.104430556297302246e-01 -9.271191060543060303e-02 -3.084273338317871094e-01
-1.187729984521865845e-01 -1.068702191114425659e-01 -3.035792708396911621e-01
-4.803953766822814941e-01 -7.445003092288970947e-02 -2.391247451305389404e-02
-4.940019845962524414e-01 -8.663111180067062378e-02 -1.486901752650737762e-02
-4.695100188255310059e-01 -6.909877061843872070e-02 6.690779700875282288e-04
-4.832409918308258057e-01 -8.158458024263381958e-02 8.348892442882061005e-03
-2.015417665243148804e-01 -1.211620867252349854e-01 -2.978473007678985596e-01
-2.119140475988388062e-01 -1.357047557830810547e-01 -2.922108769416809082e-01
-1.882995963096618652e-01 -1.205810904502868652e-01 -2.998546957969665527e-01
-1.986093670129776001e-01 -1.351596713066101074e-01 -2.942034304141998291e-01
-4.009948968887329102e-01 5.714203119277954102e-01 3.463780879974365234e-01
-4.076562225818634033e-01 5.337319374084472656e-01 3.479895293712615967e-01
-3.665711879730224609e-01 5.496407151222229004e-01 3.319696784019470215e-01
-3.741758763790130615e-01 5.136143565177917480e-01 3.357302546501159668e-01
-3.795199990272521973e-01 3.045666515827178955e-01 -3.405059278011322021e-01
-3.896909058094024658e-01 2.881695926189422607e-01 -3.368649482727050781e-01
-3.648037314414978027e-01 3.035224080085754395e-01 -3.360435366630554199e-01
-3.759222328662872314e-01 2.872385680675506592e-01 -3.336981832981109619e-01
-2.502024769783020020e-01 2.274168431758880615e-01 3.214985132217407227e-01
-2.576480805873870850e-01 2.035509943962097168e-01 3.263949453830718994e-01
-2.278332412242889404e-01 2.200500667095184326e-01 3.138695359230041504e-01
-2.352517247200012207e-01 1.969714760780334473e-01 3.183639347553253174e-01
-5.207709595561027527e-02 3.623321056365966797e-01 -6.179556716233491898e-03
-6.781303882598876953e-02 3.539300858974456787e-01 2.842165529727935791e-03
-3.969405591487884521e-02 3.656310737133026123e-01 3.924039658159017563e-03
-5.574950575828552246e-02 3.560993075370788574e-01 1.155621558427810669e-02
3.754212334752082825e-02 2.725558280944824219e-01 -5.250448361039161682e-02
2.266344428062438965e-02 2.517072558403015137e-01 -4.586473479866981506e-02
6.451960653066635132e-02 2.707619369029998779e-01 -5.991566181182861328e-02
4.908352345228195190e-02 2.502208948135375977e-01 -5.525455996394157410e-02
-5.779432877898216248e-02 3.180064260959625244e-02 -2.513590082526206970e-02
-7.187865674495697021e-02 1.428628060966730118e-02 -2.058317698538303375e-02
-3.161237016320228577e-02 3.507617861032485962e-02 -3.648134693503379822e-02
-4.544054716825485229e-02 1.758475601673126221e-02 -3.201266750693321228e-02
-2.491516321897506714e-01 -1.527000665664672852e-01 3.421781063079833984e-01
-2.637056708335876465e-01 -1.701231151819229126e-01 3.472579121589660645e-01
-2.226627469062805176e-01 -1.542357951402664185e-01 3.322640061378479004e-01
-2.362508624792098999e-01 -1.699807345867156982e-01 3.382102847099304199e-01
4.411915540695190430e-01 -9.282173961400985718e-02 -1.928367651998996735e-02
4.294153749942779541e-01 -1.069856062531471252e-01 -6.393840536475181580e-03
4.571403861045837402e-01 -8.259686827659606934e-02 1.667317468672990799e-03
4.447230696678161621e-01 -9.655603021383285522e-02 1.455944497138261795e-02
-3.605406880378723145e-01 -2.116955518722534180e-01 -2.611755132675170898e-01
-3.679133057594299316e-01 -2.308421581983566284e-01 -2.558057606220245361e-01
-3.466370403766632080e-01 -2.156851738691329956e-01 -2.626367509365081787e-01
-3.535671532154083252e-01 -2.342518717050552368e-01 -2.574712038040161133e-01
-5.009145140647888184e-01 -3.534091413021087646e-01 -3.930645063519477844e-02
-5.166342854499816895e-01 -3.329201042652130127e-01 -2.420761808753013611e-02
-4.925640821456909180e-01 -3.527620136737823486e-01 -1.271054521203041077e-02
-5.076190829277038574e-01 -3.345195055007934570e-01 2.063130959868431091e-03
-6.186351180076599121e-01 -3.793450891971588135e-01 -1.958015859127044678e-01
-6.276942491531372070e-01 -3.909854292869567871e-01 -1.904789209365844727e-01
-6.055220365524291992e-01 -3.865243792533874512e-01 -1.954295635223388672e-01
-6.135079264640808105e-01 -4.005815684795379639e-01 -1.894078850746154785e-01
-1.678581833839416504e-01 2.020746320486068726e-01 -1.277963351458311081e-02
-1.730894297361373901e-01 1.945773065090179443e-01 -7.631551474332809448e-03
-1.578688174486160278e-01 2.055185437202453613e-01 -4.749958403408527374e-03
-1.641338020563125610e-01 1.970611661672592163e-01 -5.451875040307641029e-04
-3.880442082881927490e-01 4.360118210315704346e-01 -3.756420910358428955e-01
-3.970604538917541504e-01 4.244550764560699463e-01 -3.707433938980102539e-01
-3.736210763454437256e-01 4.266231358051300049e-01 -3.784298300743103027e-01
-3.827868402004241943e-01 4.147677719593048096e-01 -3.729454874992370605e-01
1.660273075103759766e-01 -1.852932870388031006e-01 -3.321581184864044189e-01
1.583322733640670776e-01 -2.020500451326370239e-01 -3.255314826965332031e-01
1.812659949064254761e-01 -1.887815445661544800e-01 -3.328530490398406982e-01
1.728280484676361084e-01 -2.048915624618530273e-01 -3.267787396907806396e-01
5.135188344866037369e-03 -2.134969830513000488e-02 2.658388614654541016e-01
-6.381307262927293777e-03 -3.252412006258964539e-02 2.718089520931243896e-01
2.617745101451873779e-02 -2.853602916002273560e-02 2.604174911975860596e-01
1.552553847432136536e-02 -4.161243885755538940e-02 2.663844227790832520e-01
-3.909342586994171143e-01 4.121901094913482666e-02 -2.993746697902679443e-01
-3.964633643627166748e-01 2.687573991715908051e-02 -2.929201722145080566e-01
-3.787174820899963379e-01 2.930013276636600494e-02 -2.991669178009033203e-01
-3.843014240264892578e-01 1.505917962640523911e-02 -2.930116355419158936e-01
-3.527121245861053467e-01 8.886684477329254150e-02 -3.202392458915710449e-01
-3.595327734947204590e-01 7.914775609970092773e-02 -3.154458403587341309e-01
-3.402581214904785156e-01 8.026982098817825317e-02 -3.226664960384368896e-01
-3.477784991264343262e-01 7.313085347414016724e-02 -3.179267048835754395e-01
-4.376959055662155151e-02 1.340929716825485229e-01 -3.617170155048370361e-01
-5.221906676888465881e-02 1.189273521304130554e-01 -3.560901880264282227e-01
-3.302794694900512695e-02 1.241065859794616699e-01 -3.634123206138610840e-01
-4.150786995887756348e-02 1.079717129468917847e-01 -3.577878773212432861e-01
-6.375887393951416016e-01 -2.049129605293273926e-01 1.149924658238887787e-02
-6.398462653160095215e-01 -2.102124989032745361e-01 2.517082169651985168e-02
-6.327039003372192383e-01 -2.111172378063201904e-01 2.371451072394847870e-02
-6.358681917190551758e-01 -2.102629244327545166e-01 3.908370435237884521e-02
-4.326765835285186768e-01 -3.524969220161437988e-01 1.592049300670623779e-01
-4.475748836994171143e-01 -3.330035209655761719e-01 1.727267354726791382e-01
-4.159055948257446289e-01 -3.580850958824157715e-01 1.834848523139953613e-01
-4.313445985317230225e-01 -3.346941471099853516e-01 2.011425495147705078e-01
-2.561204433441162109e-01 3.586433231830596924e-01 -2.920898422598838806e-02
-2.648803889751434326e-01 3.487112224102020264e-01 -1.997329108417034149e-02
-2.506829500198364258e-01 3.608579039573669434e-01 -1.510625518858432770e-02
-2.581915557384490967e-01 3.514616489410400391e-01 -6.523650139570236206e-03
-1.210311651229858398e-01 -4.584504365921020508e-01 3.361701220273971558e-02
-1.331425607204437256e-01 -4.812418222427368164e-01 3.871230036020278931e-02
-9.619605541229248047e-02 -4.587761759757995605e-01 2.748938649892807007e-02
-1.098399758338928223e-01 -4.831515550613403320e-01 3.388545662164688110e-02
1.955105364322662354e-01 -3.944092690944671631e-01 1.136259287595748901e-01
1.854805052280426025e-01 -4.033146500587463379e-01 1.253943294286727905e-01
2.060535997152328491e-01 -3.905274271965026855e-01 1.316960752010345459e-01
1.935467720031738281e-01 -3.945004343986511230e-01 1.433421820402145386e-01
1.960894018411636353e-01 -1.500270962715148926e-01 2.215891927480697632e-01
1.867580562829971313e-01 -1.696055531501770020e-01 2.271574437618255615e-01
2.195736169815063477e-01 -1.615419685840606689e-01 2.125963568687438965e-01
2.092433869838714600e-01 -1.797055155038833618e-01 2.187816351652145386e-01
-2.640161514282226562e-01 -3.584780097007751465e-01 5.600734800100326538e-02
-2.759801745414733887e-01 -3.804949820041656494e-01 6.323418766260147095e-02
-2.405937165021896362e-01 -3.603302240371704102e-01 4.849001392722129822e-02
-2.526173889636993408e-01 -3.804417550563812256e-01 5.433977395296096802e-02
4.940031170845031738e-01 -6.995764374732971191e-02 5.763744469732046127e-03
4.807022511959075928e-01 -8.227491378784179688e-02 1.794362813234329224e-02
5.046029090881347656e-01 -6.906853616237640381e-02 2.269285172224044800e-02
4.918352961540222168e-01 -7.681905478239059448e-02 3.428151458501815796e-02
-7.787320762872695923e-02 1.179008483886718750e-01 -1.190674491226673126e-02
-9.270568192005157471e-02 9.826773405075073242e-02 -6.276551634073257446e-03
-5.093864351511001587e-02 1.186240538954734802e-01 -2.257472835481166840e-02
-6.488519161939620972e-02 1.005688682198524475e-01 -1.789646409451961517e-02
-2.358594089746475220e-01 2.676717340946197510e-01 -3.623281121253967285e-01
-2.420039474964141846e-01 2.523759305477142334e-01 -3.580047488212585449e-01
-2.191882431507110596e-01 2.676347494125366211e-01 -3.623757064342498779e-01
-2.253558486700057983e-01 2.522512078285217285e-01 -3.575121164321899414e-01
-5.879008397459983826e-02 -3.228056728839874268e-01 2.877955138683319092e-01
-6.778062880039215088e-02 -3.380396068096160889e-01 2.908505797386169434e-01
-3.761652857065200806e-02 -3.209560811519622803e-01 2.822918295860290527e-01
-4.668591544032096863e-02 -3.361424207687377930e-01 2.848434448242187500e-01
-3.199971616268157959e-01 4.149704053997993469e-02 2.274648696184158325e-01
-3.279109001159667969e-01 2.913819067180156708e-02 2.355316430330276489e-01
-3.100951910018920898e-01 4.366506636142730713e-02 2.407043427228927612e-01
-3.192068338394165039e-01 3.129521757364273071e-02 2.458222508430480957e-01
-7.889539003372192383e-03 2.649555206298828125e-01 -5.434190481901168823e-02
-1.961881294846534729e-02 2.432651519775390625e-01 -4.878799244761466980e-02
1.861532218754291534e-02 2.597729265689849854e-01 -6.186093762516975403e-02
4.086836241185665131e-03 2.371144294738769531e-01 -5.502553656697273254e-02
-1.503749936819076538e-01 7.369538545608520508e-01 2.629323601722717285e-01
-1.782832443714141846e-01 6.985763311386108398e-01 2.789345085620880127e-01
-1.093706414103507996e-01 7.267294526100158691e-01 2.520176768302917480e-01
-1.366318464279174805e-01 6.909582018852233887e-01 2.667165696620941162e-01
-9.935061633586883545e-02 -6.096603274345397949e-01 1.007724553346633911e-02
-1.154947057366371155e-01 -6.189320087432861328e-01 2.841816097497940063e-02
-9.236714243888854980e-02 -6.217161417007446289e-01 2.677414938807487488e-02
-1.097384542226791382e-01 -6.268177032470703125e-01 4.491296038031578064e-02
-4.103845655918121338e-01 -4.686202704906463623e-01 -1.166729182004928589e-01
-4.202690422534942627e-01 -4.715135097503662109e-01 -1.104458868503570557e-01
-3.921475708484649658e-01 -4.756259024143218994e-01 -1.084205508232116699e-01
-4.002771675586700439e-01 -4.824993014335632324e-01 -1.019705384969711304e-01
2.432651352137327194e-03 4.010390937328338623e-01 -2.058342397212982178e-01
-8.861044421792030334e-03 4.101000726222991943e-01 -2.011539787054061890e-01
1.387522649019956589e-02 3.972877860069274902e-01 -1.820474863052368164e-01
2.199487760663032532e-03 4.076132178306579590e-01 -1.763129830360412598e-01
3.738654777407646179e-04 -6.958398222923278809e-02 2.704407572746276855e-01
-6.004339084029197693e-03 -8.610256016254425049e-02 2.748217880725860596e-01
1.974728703498840332e-02 -7.497588545083999634e-02 2.626174390316009521e-01
1.322904415428638458e-02 -9.449151903390884399e-02 2.677045464515686035e-01
-5.712952092289924622e-02 -1.915637217462062836e-02 -3.223865628242492676e-01
-6.179505586624145508e-02 -2.992828562855720520e-02 -3.190555572509765625e-01
-4.615417495369911194e-02 -2.037819288671016693e-02 -3.236918449401855469e-01
-5.070555210113525391e-02 -3.057292476296424866e-02 -3.199661672115325928e-01
-1.475165784358978271e-01 8.780543506145477295e-02 -3.405850529670715332e-01
-1.532607078552246094e-01 7.524576783180236816e-02 -3.371936678886413574e-01
-1.343105584383010864e-01 8.141353726387023926e-02 -3.429435491561889648e-01
-1.392668634653091431e-01 6.842417269945144653e-02 -3.395068049430847168e-01
2.069046497344970703e-01 -3.508230745792388916e-01 -1.714020594954490662e-02
2.013625502586364746e-01 -3.597923517227172852e-01 -6.577606778591871262e-03
2.134579122066497803e-01 -3.448366820812225342e-01 -4.145472310483455658e-03
2.078705579042434692e-01 -3.537813723087310791e-01 6.452763918787240982e-03
3.422664999961853027e-01 -1.864967644214630127e-01 -3.491591513156890869e-01
3.313153684139251709e-01 -1.990469992160797119e-01 -3.442607522010803223e-01
3.565297722816467285e-01 -1.942976564168930054e-01 -3.485757112503051758e-01
3.460956215858459473e-01 -2.080772370100021362e-01 -3.436176478862762451e-01
-4.164999127388000488e-01 -1.863397099077701569e-02 8.391282707452774048e-02
-4.239885807037353516e-01 -1.318244822323322296e-02 9.065371006727218628e-02
-4.086029827594757080e-01 -1.789886690676212311e-02 9.075059741735458374e-02
-4.162006974220275879e-01 -1.202779076993465424e-02 9.787924587726593018e-02
-4.634379744529724121e-01 -1.220229342579841614e-01 3.031789362430572510e-01
-4.716891944408416748e-01 -1.281975358724594116e-01 3.097152411937713623e-01
-4.555898904800415039e-01 -1.171193346381187439e-01 3.128164708614349365e-01
-4.636478126049041748e-01 -1.229896321892738342e-01 3.188232779502868652e-01
-4.005035161972045898e-01 1.602517366409301758e-01 4.774211719632148743e-02
-4.056025743484497070e-01 1.347532719373703003e-01 5.706002563238143921e-02
-3.872905969619750977e-01 1.630427092313766479e-01 6.005814671516418457e-02
-3.922610282897949219e-01 1.374905705451965332e-01 6.921673566102981567e-02
-4.889253973960876465e-01 -2.390985786914825439e-01 -2.328963130712509155e-01
-5.038790106773376465e-01 -2.464591413736343384e-01 -2.286475002765655518e-01
-4.725082218647003174e-01 -2.414919734001159668e-01 -2.356181591749191284e-01
-4.861076474189758301e-01 -2.513461709022521973e-01 -2.313855886459350586e-01
-1.292851120233535767e-01 3.191460669040679932e-02 2.984522879123687744e-01
-1.403451263904571533e-01 1.522157620638608932e-02 3.041138052940368652e-01
-1.093574613332748413e-01 2.708505280315876007e-02 2.911039292812347412e-01
-1.198102980852127075e-01 1.024365797638893127e-02 2.961125373840332031e-01
-2.814273536205291748e-01 -3.366984426975250244e-01 3.609985411167144775e-01
-2.898117303848266602e-01 -3.543420732021331787e-01 3.648187518119812012e-01
-2.620021998882293701e-01 -3.386317789554595947e-01 3.575669527053833008e-01
-2.705584168434143066e-01 -3.561843335628509521e-01 3.611260652542114258e-01
-3.075417876243591309e-01 3.915987610816955566e-01 -3.689441680908203125e-01
-3.188227713108062744e-01 3.792503178119659424e-01 -3.645160794258117676e-01
-2.933480441570281982e-01 3.872244656085968018e-01 -3.668234944343566895e-01
-3.036103844642639160e-01 3.753459453582763672e-01 -3.621166944503784180e-01
5.241600275039672852e-01 -9.069764986634254456e-03 9.939087927341461182e-02
5.084629654884338379e-01 2.020908053964376450e-03 1.108875423669815063e-01
5.427990555763244629e-01 -2.086848020553588867e-02 1.120030730962753296e-01
5.263345241546630859e-01 -1.212027482688426971e-02 1.242648363113403320e-01
-2.879516184329986572e-01 -6.495881825685501099e-02 -2.835679650306701660e-01
-2.978752851486206055e-01 -8.369222283363342285e-02 -2.766684889793395996e-01
-2.751376032829284668e-01 -6.953884661197662354e-02 -2.871931195259094238e-01
-2.855553328990936279e-01 -8.846088498830795288e-02 -2.805057764053344727e-01
-2.964499890804290771e-01 -1.847607642412185669e-01 5.483749508857727051e-02
-3.131728768348693848e-01 -1.964637339115142822e-01 6.043024361133575439e-02
-2.669946849346160889e-01 -1.843552142381668091e-01 4.665381461381912231e-02
-2.822159230709075928e-01 -2.027043551206588745e-01 5.098037794232368469e-02
-3.106610178947448730e-01 2.756111510097980499e-02 -3.116874098777770996e-01
-3.201712071895599365e-01 1.945438981056213379e-02 -3.063598871231079102e-01
-3.024091422557830811e-01 2.161088399589061737e-02 -3.130354285240173340e-01
-3.116215765476226807e-01 1.411670073866844177e-02 -3.081411123275756836e-01
-1.323367208242416382e-01 4.917505681514739990e-01 -5.154661834239959717e-02
-1.400131583213806152e-01 4.842484295368194580e-01 -4.419548809528350830e-02
-1.217920407652854919e-01 4.933489263057708740e-01 -3.806663677096366882e-02
-1.284299939870834351e-01 4.868000149726867676e-01 -2.992366254329681396e-02
-3.193295598030090332e-01 4.332213401794433594e-01 -3.882050812244415283e-01
-3.297256231307983398e-01 4.186701476573944092e-01 -3.823089003562927246e-01
-3.023391962051391602e-01 4.317702949047088623e-01 -3.891573250293731689e-01
-3.119856715202331543e-01 4.180524945259094238e-01 -3.830732703208923340e-01
6.160041689872741699e-02 1.932121664285659790e-01 2.363500297069549561e-01
5.022039264440536499e-02 1.762936860322952271e-01 2.407164424657821655e-01
8.546331524848937988e-02 1.887584477663040161e-01 2.300474047660827637e-01
7.294638454914093018e-02 1.716117113828659058e-01 2.341083288192749023e-01
-2.343116998672485352e-01 -8.803372830152511597e-02 -2.929729819297790527e-01
-2.477598488330841064e-01 -1.057601124048233032e-01 -2.858229875564575195e-01
-2.186170369386672974e-01 -8.856147527694702148e-02 -2.952602505683898926e-01
-2.322118282318115234e-01 -1.061278432607650757e-01 -2.881670296192169189e-01
-7.193512916564941406e-01 1.421591266989707947e-03 4.645420610904693604e-01
-7.218888401985168457e-01 -4.135354235768318176e-02 4.655163586139678955e-01
-6.906428337097167969e-01 -1.342994160950183868e-02 4.573686420917510986e-01
-6.941280961036682129e-01 -5.513492599129676819e-02 4.611901640892028809e-01
2.096690833568572998e-01 -2.293730974197387695e-01 2.238113731145858765e-01
2.018702179193496704e-01 -2.510033249855041504e-01 2.269344180822372437e-01
2.285629659891128540e-01 -2.248618006706237793e-01 2.165953963994979858e-01
2.219225019216537476e-01 -2.462312728166580200e-01 2.195773273706436157e-01
-4.194446206092834473e-01 -3.607703745365142822e-01 -2.172897607088088989e-01
-4.266215860843658447e-01 -3.748985826969146729e-01 -2.125077843666076660e-01
-4.040535688400268555e-01 -3.694215714931488037e-01 -2.167516499757766724e-01
-4.128814339637756348e-01 -3.808198869228363037e-01 -2.125906497240066528e-01
-1.178574860095977783e-01 -5.243363976478576660e-02 -3.154115080833435059e-01
-1.248350813984870911e-01 -6.649012863636016846e-02 -3.112538456916809082e-01
-1.039660647511482239e-01 -6.275752186775207520e-02 -3.147156238555908203e-01
-1.108593046665191650e-01 -7.782001048326492310e-02 -3.108188807964324951e-01
-2.799358367919921875e-01 -3.853673040866851807e-01 -2.326587587594985962e-01
-2.873643636703491211e-01 -4.006319344043731689e-01 -2.270840108394622803e-01
-2.690703272819519043e-01 -3.905014991760253906e-01 -2.338740080595016479e-01
-2.766335010528564453e-01 -4.058693945407867432e-01 -2.278529405593872070e-01
-5.397902727127075195e-01 -1.281220912933349609e-01 -1.574208214879035950e-02
-5.485029816627502441e-01 -1.388901621103286743e-01 -4.972777795046567917e-03
-5.316587686538696289e-01 -1.231249645352363586e-01 2.648572903126478195e-03
-5.406576991081237793e-01 -1.335890442132949829e-01 1.394515112042427063e-02
-4.887981414794921875e-01 1.871347054839134216e-02 9.422553330659866333e-02
-4.941715300083160400e-01 7.820723578333854675e-03 1.048369258642196655e-01
-4.874833226203918457e-01 2.381382137537002563e-02 1.109006330370903015e-01
-4.924427270889282227e-01 1.249979995191097260e-02 1.214226707816123962e-01
-1.041134893894195557e-01 -5.485535264015197754e-01 -2.218609601259231567e-01
-1.143728494644165039e-01 -5.613907575607299805e-01 -2.168289422988891602e-01
-8.520678430795669556e-02 -5.508338809013366699e-01 -2.266096472740173340e-01
-9.541377425193786621e-02 -5.642332434654235840e-01 -2.207731753587722778e-01
7.909623533487319946e-02 -3.011312782764434814e-01 -2.951374948024749756e-01
7.167779654264450073e-02 -3.151550590991973877e-01 -2.913010418415069580e-01
9.257061034440994263e-02 -3.029798567295074463e-01 -2.960722148418426514e-01
8.525806665420532227e-02 -3.165779709815979004e-01 -2.925232350826263428e-01
-8.242608606815338135e-02 -5.744647979736328125e-02 2.913349270820617676e-01
-8.938167244195938110e-02 -7.573610544204711914e-02 2.955930829048156738e-01
-6.536308676004409790e-02 -5.707104876637458801e-02 2.860252559185028076e-01
-7.158882915973663330e-02 -7.454332709312438965e-02 2.906140983104705811e-01
-1.475112438201904297e-01 -6.484326720237731934e-01 6.221812218427658081e-02
-1.629635542631149292e-01 -6.544644832611083984e-01 8.176262676715850830e-02
-1.287605166435241699e-01 -6.568394899368286133e-01 7.629962265491485596e-02
-1.466320604085922241e-01 -6.573097109794616699e-01 9.463351219892501831e-02
-4.199883937835693359e-01 -5.867009609937667847e-02 2.349863201379776001e-01
-4.326178729534149170e-01 -7.098272442817687988e-02 2.512069344520568848e-01
-4.090153276920318604e-01 -5.483712255954742432e-02 2.558058798313140869e-01
-4.210517108440399170e-01 -6.681160628795623779e-02 2.706779539585113525e-01
-6.336641311645507812e-01 2.092819660902023315e-01 -2.951729893684387207e-01
-6.464549899101257324e-01 1.943031996488571167e-01 -2.874548435211181641e-01
-6.133460402488708496e-01 2.055828869342803955e-01 -2.966410517692565918e-01
-6.254306435585021973e-01 1.914087682962417603e-01 -2.891102433204650879e-01
-7.743808627128601074e-01 1.896341294050216675e-01 4.671519398689270020e-01
-7.759133577346801758e-01 1.523403972387313843e-01 4.708794951438903809e-01
-7.447890639305114746e-01 1.603524684906005859e-01 4.631607830524444580e-01
-7.471646666526794434e-01 1.214065626263618469e-01 4.666134715080261230e-01
-1.581870466470718384e-01 4.995264112949371338e-01 -3.246794342994689941e-01
-1.671257168054580688e-01 4.906544685363769531e-01 -3.150245249271392822e-01
-1.532667577266693115e-01 5.015915036201477051e-01 -3.109989464282989502e-01
-1.622135192155838013e-01 4.921501278877258301e-01 -3.006040751934051514e-01
-2.627809643745422363e-01 4.003142714500427246e-01 -3.002806305885314941e-01
-2.706140875816345215e-01 3.850700259208679199e-01 -2.951126992702484131e-01
-2.514664530754089355e-01 3.984285593032836914e-01 -2.855675816535949707e-01
-2.596546113491058350e-01 3.835522830486297607e-01 -2.793561816215515137e-01
-2.483694553375244141e-01 -1.972175836563110352e-01 -2.667872607707977295e-01
-2.549773454666137695e-01 -2.099021226167678833e-01 -2.647901475429534912e-01
-2.364253103733062744e-01 -1.961398869752883911e-01 -2.693409025669097900e-01
-2.430585026741027832e-01 -2.105769813060760498e-01 -2.668737769126892090e-01
-2.441214919090270996e-01 -3.129563331604003906e-01 3.509384393692016602e-01
-2.542068362236022949e-01 -3.299999237060546875e-01 3.549761474132537842e-01
-2.240744531154632568e-01 -3.190595805644989014e-01 3.473758101463317871e-01
-2.340991646051406860e-01 -3.360487818717956543e-01 3.511457443237304688e-01
-6.193614602088928223e-01 -6.953536719083786011e-02 -2.243541330099105835e-01
-6.309543251991271973e-01 -8.053845912218093872e-02 -2.204142361879348755e-01
-5.965121984481811523e-01 -7.508996129035949707e-02 -2.209657430648803711e-01
-6.064621806144714355e-01 -8.660769462585449219e-02 -2.163348346948623657e-01
-1.965253613889217377e-02 4.363464117050170898e-01 -1.103453412652015686e-01
-3.266974538564682007e-02 4.452828168869018555e-01 -1.021402105689048767e-01
-6.103759165853261948e-03 4.304170608520507812e-01 -9.732400625944137573e-02
-2.015665173530578613e-02 4.391403198242187500e-01 -8.981876820325851440e-02
-5.324744582176208496e-01 -1.691700071096420288e-01 -2.407963573932647705e-01
-5.409411191940307617e-01 -1.826122105121612549e-01 -2.358862608671188354e-01
-5.205941200256347656e-01 -1.718500554561614990e-01 -2.414845675230026245e-01
-5.301126241683959961e-01 -1.838180571794509888e-01 -2.370640337467193604e-01
-2.751723527908325195e-01 -3.488274514675140381e-01 7.038676738739013672e-02
-2.864809930324554443e-01 -3.711003959178924561e-01 7.748876512050628662e-02
-2.496749609708786011e-01 -3.494135737419128418e-01 6.111839413642883301e-02
-2.616502940654754639e-01 -3.706606924533843994e-01 6.753868609666824341e-02
-3.333344161510467529e-01 -3.108174800872802734e-01 -2.351390570402145386e-01
-3.361783921718597412e-01 -3.249990344047546387e-01 -2.341600209474563599e-01
-3.211398422718048096e-01 -3.166759908199310303e-01 -2.378638684749603271e-01
-3.253339827060699463e-01 -3.297004699707031250e-01 -2.362370193004608154e-01
-7.861801385879516602e-01 -1.242078095674514771e-01 -1.898235231637954712e-01
-7.913886308670043945e-01 -1.369606852531433105e-01 -1.825642138719558716e-01
-7.748680710792541504e-01 -1.206019148230552673e-01 -1.789604425430297852e-01
-7.793923020362854004e-01 -1.325233429670333862e-01 -1.710122972726821899e-01
-1.428861543536186218e-02 3.650309145450592041e-01 2.134327292442321777e-01
-2.211902849376201630e-02 3.550526797771453857e-01 2.209133803844451904e-01
-5.608845036476850510e-03 3.638014495372772217e-01 2.282800674438476562e-01
-1.366626378148794174e-02 3.535116910934448242e-01 2.353698760271072388e-01
1.034717112779617310e-01 3.953923881053924561e-01 7.434758543968200684e-02
9.083648771047592163e-02 4.080516695976257324e-01 8.366096764802932739e-02
1.149371415376663208e-01 3.879667222499847412e-01 9.433248639106750488e-02
1.022574156522750854e-01 4.007894396781921387e-01 1.030268669128417969e-01
-1.500877737998962402e-01 9.642178565263748169e-02 -3.326067626476287842e-01
-1.563665866851806641e-01 8.535573631525039673e-02 -3.291129469871520996e-01
-1.376855969429016113e-01 9.196162968873977661e-02 -3.357971310615539551e-01
-1.427712440490722656e-01 7.892829179763793945e-02 -3.322775661945343018e-01
-4.315161108970642090e-01 -8.620425313711166382e-02 3.720047473907470703e-01
-4.394758045673370361e-01 -1.008171066641807556e-01 3.777727186679840088e-01
-4.175817072391510010e-01 -8.793370425701141357e-02 3.736091256141662598e-01
-4.255492687225341797e-01 -1.026103273034095764e-01 3.786522448062896729e-01
-7.704181969165802002e-02 3.576208949089050293e-01 -1.199030429124832153e-01
-8.386909216642379761e-02 3.501057922840118408e-01 -1.145207658410072327e-01
-6.467123329639434814e-02 3.622457981109619141e-01 -1.119513809680938721e-01
-7.453393936157226562e-02 3.567194938659667969e-01 -1.067067086696624756e-01
3.251111507415771484e-01 4.371391981840133667e-02 1.606785655021667480e-01
3.157890141010284424e-01 2.671274170279502869e-02 1.650567948818206787e-01
3.444884121417999268e-01 3.756374865770339966e-02 1.556264907121658325e-01
3.344179987907409668e-01 1.941447891294956207e-02 1.603513956069946289e-01
-3.997537195682525635e-01 4.867018163204193115e-01 3.484226465225219727e-01
-4.059700965881347656e-01 4.473932087421417236e-01 3.551017045974731445e-01
-3.680756986141204834e-01 4.639352560043334961e-01 3.387224972248077393e-01
-3.754934370517730713e-01 4.252023994922637939e-01 3.462083935737609863e-01
-2.234577238559722900e-01 4.560162127017974854e-01 -3.209879398345947266e-01
-2.296008765697479248e-01 4.409369826316833496e-01 -3.098030388355255127e-01
-2.121746689081192017e-01 4.623252153396606445e-01 -3.085187971591949463e-01
-2.191735506057739258e-01 4.494328498840332031e-01 -2.967624366283416748e-01
-3.934673592448234558e-02 -1.664545685052871704e-01 -1.658922061324119568e-02
-5.237765982747077942e-02 -1.840025335550308228e-01 -1.212293002754449844e-02
-1.388708967715501785e-02 -1.686573028564453125e-01 -2.489407733082771301e-02
-2.675526216626167297e-02 -1.865562796592712402e-01 -2.030508965253829956e-02
3.563013970851898193e-01 -1.875243708491325378e-02 -3.867101073265075684e-01
3.484301567077636719e-01 -2.880916930735111237e-02 -3.822626471519470215e-01
3.674090802669525146e-01 -2.398139424622058868e-02 -3.846881985664367676e-01
3.595684468746185303e-01 -3.483194857835769653e-02 -3.798269033432006836e-01
-2.210874557495117188e-01 1.539841145277023315e-01 -3.474968671798706055e-01
-2.269479334354400635e-01 1.395119875669479370e-01 -3.419884443283081055e-01
-2.087391316890716553e-01 1.443598717451095581e-01 -3.475257456302642822e-01
-2.151706218719482422e-01 1.317149251699447632e-01 -3.426731526851654053e-01
-6.008930504322052002e-02 4.628736376762390137e-01 -1.233841255307197571e-01
-7.150908559560775757e-02 4.677357673645019531e-01 -1.125988066196441650e-01
-4.820419847965240479e-02 4.644985496997833252e-01 -1.127899885177612305e-01
-5.883925408124923706e-02 4.713035821914672852e-01 -1.004039049148559570e-01
-1.570908427238464355e-01 2.618812620639801025e-01 -3.371646255254745483e-02
-1.672637313604354858e-01 2.528288662433624268e-01 -2.801817096769809723e-02
-1.437003612518310547e-01 2.627541720867156982e-01 -2.827759459614753723e-02
-1.538572609424591064e-01 2.524216771125793457e-01 -2.334858104586601257e-02
-6.047368422150611877e-02 -3.863583207130432129e-01 3.047263622283935547e-01
-6.757003813982009888e-02 -3.993690311908721924e-01 3.087577521800994873e-01
-4.707526415586471558e-02 -3.946348726749420166e-01 3.008564114570617676e-01
-5.442003905773162842e-02 -4.084945321083068848e-01 3.048517704010009766e-01
-1.847570240497589111e-01 2.073747068643569946e-01 7.004354894161224365e-02
-1.907356232404708862e-01 1.999063640832901001e-01 7.442399859428405762e-02
-1.777354329824447632e-01 2.116222679615020752e-01 7.714581489562988281e-02
-1.826611608266830444e-01 2.014140337705612183e-01 8.361755311489105225e-02
3.624863624572753906e-01 3.750294446945190430e-02 -3.999520242214202881e-01
3.519581556320190430e-01 2.900539152324199677e-02 -3.948247432708740234e-01
3.765220940113067627e-01 3.359634056687355042e-02 -4.018455743789672852e-01
3.661639392375946045e-01 2.506362460553646088e-02 -3.970282673835754395e-01
-9.493473917245864868e-02 -6.307692527770996094e-01 -1.963789165019989014e-01
-1.026128679513931274e-01 -6.470873355865478516e-01 -1.905155777931213379e-01
-7.332002371549606323e-02 -6.441794037818908691e-01 -1.978969722986221313e-01
-8.063165843486785889e-02 -6.606702804565429688e-01 -1.920949220657348633e-01
-3.973001241683959961e-01 -1.998594030737876892e-02 8.003821223974227905e-02
-4.055036008358001709e-01 -1.421417668461799622e-02 8.691850304603576660e-02
-3.905819654464721680e-01 -1.890238374471664429e-02 8.779902011156082153e-02
-3.998536169528961182e-01 -1.248276047408580780e-02 9.526597708463668823e-02
-2.138701379299163818e-01 4.931820631027221680e-01 -4.015519917011260986e-01
-2.278255224227905273e-01 4.799891114234924316e-01 -3.975034952163696289e-01
-1.992304921150207520e-01 4.945154190063476562e-01 -4.031129479408264160e-01
-2.126736789941787720e-01 4.812937378883361816e-01 -3.989146649837493896e-01
-4.929135441780090332e-01 1.526857167482376099e-01 -2.226850688457489014e-01
-4.974687695503234863e-01 1.451849937438964844e-01 -2.177358120679855347e-01
-4.854069948196411133e-01 1.553123742341995239e-01 -2.106153368949890137e-01
-4.897172152996063232e-01 1.484523415565490723e-01 -2.052084505558013916e-01
-7.016259431838989258e-01 -7.195496559143066406e-02 -1.596217602491378784e-01
-7.092291116714477539e-01 -8.202837407588958740e-02 -1.546393334865570068e-01
-6.920511126518249512e-01 -6.670281291007995605e-02 -1.408978253602981567e-01
-6.999619007110595703e-01 -7.637263089418411255e-02 -1.361510753631591797e-01
2.331856042146682739e-01 -3.094467520713806152e-01 -1.448368374258279800e-02
2.254190891981124878e-01 -3.202975988388061523e-01 -6.546407006680965424e-03
2.419493794441223145e-01 -3.032728433609008789e-01 4.630133509635925293e-03
2.337782233953475952e-01 -3.138552010059356689e-01 1.204285304993391037e-02
-3.250481188297271729e-01 1.481262594461441040e-01 -3.279644250869750977e-01
-3.305841684341430664e-01 1.371250301599502563e-01 -3.256096839904785156e-01
-3.155969977378845215e-01 1.427741348743438721e-01 -3.267533183097839355e-01
-3.212839961051940918e-01 1.303431838750839233e-01 -3.239476382732391357e-01
-7.166295051574707031e-01 -3.842352330684661865e-02 -2.201881557703018188e-01
-7.285216450691223145e-01 -5.099423229694366455e-02 -2.151185721158981323e-01
-7.041015028953552246e-01 -3.657540678977966309e-02 -2.167993187904357910e-01
-7.142278552055358887e-01 -4.870846495032310486e-02 -2.111383527517318726e-01
2.963127940893173218e-02 -5.266689658164978027e-01 4.795532673597335815e-02
2.234470471739768982e-02 -5.376729369163513184e-01 6.167295202612876892e-02
3.832678869366645813e-02 -5.169100761413574219e-01 6.302157044410705566e-02
3.005122765898704529e-02 -5.273891687393188477e-01 7.608640938997268677e-02
-4.639745950698852539e-01 -6.308956444263458252e-02 -1.535295043140649796e-03
-4.777055680751800537e-01 -7.557537406682968140e-02 6.144519895315170288e-03
-4.521120786666870117e-01 -5.828401446342468262e-02 1.951808296144008636e-02
-4.638375043869018555e-01 -7.078924030065536499e-02 2.655458077788352966e-02
-2.566967010498046875e-01 1.921331882476806641e-01 -2.112630605697631836e-01
-2.637819647789001465e-01 1.817460358142852783e-01 -2.072302699089050293e-01
-2.455603927373886108e-01 2.011192589998245239e-01 -2.020476907491683960e-01
-2.547884881496429443e-01 1.890266984701156616e-01 -2.016825973987579346e-01
-8.454465866088867188e-02 -4.684711098670959473e-01 2.522906847298145294e-02
-9.818857908248901367e-02 -4.928464889526367188e-01 3.162513673305511475e-02
-6.063063070178031921e-02 -4.695887267589569092e-01 2.017268911004066467e-02
-7.490386068820953369e-02 -4.926462769508361816e-01 2.604609169065952301e-02
1.961289495229721069e-01 -3.490677475929260254e-01 -5.636890232563018799e-02
1.871278733015060425e-01 -3.597561120986938477e-01 -4.946406558156013489e-02
2.032864838838577271e-01 -3.419247865676879883e-01 -4.800283163785934448e-02
1.942503750324249268e-01 -3.530600965023040771e-01 -4.067909717559814453e-02
-1.651216596364974976e-01 -1.605056375265121460e-01 -2.825778424739837646e-01
-1.750972867012023926e-01 -1.756950318813323975e-01 -2.767398357391357422e-01
-1.476928889751434326e-01 -1.640403270721435547e-01 -2.867267727851867676e-01
-1.577617079019546509e-01 -1.790684759616851807e-01 -2.807789146900177002e-01
-2.859233021736145020e-01 8.528959751129150391e-01 2.896683216094970703e-01
-3.205164670944213867e-01 8.399497866630554199e-01 3.046005666255950928e-01
-2.444900870323181152e-01 8.463059067726135254e-01 2.790724039077758789e-01
-2.795676887035369873e-01 8.317903280258178711e-01 2.937121987342834473e-01
-4.635838270187377930e-01 -1.656869426369667053e-05 -1.881436705589294434e-01
-4.713296592235565186e-01 -9.203545749187469482e-03 -1.815970391035079956e-01
-4.565925896167755127e-01 -1.663765870034694672e-04 -1.758800595998764038e-01
-4.644125103950500488e-01 -9.286928921937942505e-03 -1.696552634239196777e-01
9.047536551952362061e-02 2.841578423976898193e-01 -2.353526651859283447e-01
7.732331007719039917e-02 3.010337948799133301e-01 -2.203911691904067993e-01
9.813190251588821411e-02 2.815354466438293457e-01 -2.096947282552719116e-01
8.527214080095291138e-02 2.992783188819885254e-01 -1.932827830314636230e-01
-6.461508870124816895e-01 -2.871356010437011719e-01 -2.003503590822219849e-01
-6.568431854248046875e-01 -2.965337932109832764e-01 -1.953873932361602783e-01
-6.339643597602844238e-01 -2.931857705116271973e-01 -1.998364925384521484e-01
-6.473555564880371094e-01 -3.008718192577362061e-01 -1.950369924306869507e-01
-6.241602301597595215e-01 -3.863455653190612793e-01 -1.775409728288650513e-01
-6.337226629257202148e-01 -3.972257077693939209e-01 -1.722271889448165894e-01
-6.096090078353881836e-01 -3.932392597198486328e-01 -1.786955147981643677e-01
-6.186594963073730469e-01 -4.050614237785339355e-01 -1.736344844102859497e-01
-2.178455889225006104e-02 4.297206699848175049e-01 -1.933576464653015137e-01
-3.394080698490142822e-02 4.371709227561950684e-01 -1.885329037904739380e-01
-1.103923376649618149e-02 4.256716966629028320e-01 -1.770269125699996948e-01
-2.309056557714939117e-02 4.340913593769073486e-01 -1.706638783216476440e-01
8.487491309642791748e-02 7.637720555067062378e-02 -3.734232485294342041e-01
7.530563324689865112e-02 6.356726586818695068e-02 -3.694773316383361816e-01
1.027714237570762634e-01 6.712567806243896484e-02 -3.790856599807739258e-01
9.335532039403915405e-02 5.393445864319801331e-02 -3.748496472835540771e-01
-5.857397913932800293e-01 -3.084573447704315186e-01 -1.968302130699157715e-01
-5.929385423660278320e-01 -3.137712478637695312e-01 -1.913416832685470581e-01
-5.727682709693908691e-01 -3.161554932594299316e-01 -1.969358026981353760e-01
-5.797581076622009277e-01 -3.217754065990447998e-01 -1.913681775331497192e-01
9.502096474170684814e-02 -4.892578125000000000e-01 9.593641012907028198e-02
8.278327435255050659e-02 -4.966920614242553711e-01 1.020352244377136230e-01
1.057699844241142273e-01 -4.853664338588714600e-01 1.020555198192596436e-01
9.288495033979415894e-02 -4.936990141868591309e-01 1.077581793069839478e-01
-2.567998170852661133e-01 1.519463807344436646e-01 2.135768067091703415e-03
-2.643699944019317627e-01 1.441376507282257080e-01 9.157914668321609497e-03
-2.501040101051330566e-01 1.504531353712081909e-01 1.220055483281612396e-02
-2.572782933712005615e-01 1.424923837184906006e-01 1.933657191693782806e-02
-6.616715788841247559e-01 -2.156823724508285522e-01 -8.300219476222991943e-02
-6.679459214210510254e-01 -2.348424345254898071e-01 -7.813634723424911499e-02
-6.501046419143676758e-01 -2.155385315418243408e-01 -7.061791419982910156e-02
-6.552836894989013672e-01 -2.346146553754806519e-01 -6.576022505760192871e-02
1.843663603067398071e-01 2.227141410112380981e-01 -2.078997641801834106e-01
1.717014014720916748e-01 2.340993881225585938e-01 -1.902437955141067505e-01
2.007268965244293213e-01 2.229600101709365845e-01 -1.946321427822113037e-01
1.913789361715316772e-01 2.228177636861801147e-01 -1.814488023519515991e-01
1.977656036615371704e-01 -3.824697136878967285e-01 -2.930880188941955566e-01
1.858233064413070679e-01 -3.954344391822814941e-01 -2.887046933174133301e-01
2.129141688346862793e-01 -3.761949539184570312e-01 -2.930572628974914551e-01
2.018307447433471680e-01 -3.893721401691436768e-01 -2.892896831035614014e-01
-6.535369753837585449e-01 -1.347188353538513184e-01 1.507997363805770874e-01
-6.600857377052307129e-01 -1.310304403305053711e-01 1.660617291927337646e-01
-6.482533216476440430e-01 -1.332226097583770752e-01 1.655187457799911499e-01
-6.545589566230773926e-01 -1.293943673372268677e-01 1.813677996397018433e-01
-4.714260622859001160e-02 -5.775377750396728516e-01 -1.425662338733673096e-01
-5.125619471073150635e-02 -5.927698016166687012e-01 -1.300333291292190552e-01
-3.711837902665138245e-02 -5.684762001037597656e-01 -1.264363825321197510e-01
-4.134303703904151917e-02 -5.846039056777954102e-01 -1.137659326195716858e-01
1.015892848372459412e-01 3.853187263011932373e-01 3.882604837417602539e-02
8.890594542026519775e-02 3.977112472057342529e-01 4.735884070396423340e-02
1.164492070674896240e-01 3.737552464008331299e-01 5.739127844572067261e-02
1.033106967806816101e-01 3.875713050365447998e-01 6.633256375789642334e-02
7.530577480792999268e-02 -4.326174855232238770e-01 -4.332642257213592529e-02
6.541094183921813965e-02 -4.466618895530700684e-01 -3.948263823986053467e-02
9.035909175872802734e-02 -4.199208319187164307e-01 -3.246606513857841492e-02
8.157422393560409546e-02 -4.341567456722259521e-01 -2.931454963982105255e-02
-2.102556824684143066e-01 -1.676297336816787720e-01 -2.741816043853759766e-01
