2.858700000000000130e-02 -2.092269999999999963e-01 2.721049999999999858e-01
2.650989999999999736e-01 -3.319110000000000116e-01 1.638459999999999916e-01
-5.901119999999999699e-01 -6.096999999999999989e-03 -2.645310000000000161e-01
1.056860000000000022e-01 2.514899999999999913e-01 2.085950000000000026e-01
-2.953300000000000022e-02 3.624169999999999892e-01 6.060700000000000115e-02
5.041219999999999590e-01 -6.165000000000000341e-02 -4.037950000000000150e-01
-1.859790000000000054e-01 4.429690000000000016e-01 2.916360000000000063e-01
2.840159999999999907e-01 2.428829999999999878e-01 1.347160000000000024e-01
-4.618189999999999795e-01 -6.736899999999999833e-02 7.817200000000000537e-02
-3.477709999999999968e-01 2.704790000000000250e-01 -6.854899999999999882e-02
-2.314740000000000131e-01 3.719009999999999816e-01 1.010999999999999963e-03
-1.409539999999999960e-01 -2.689250000000000251e-01 -2.615549999999999820e-01
-5.922979999999999912e-01 9.204999999999999641e-03 2.361399999999999957e-02
-7.740660000000000318e-01 -1.533339999999999981e-01 -2.013679999999999914e-01
5.255370000000000319e-01 2.485899999999999915e-02 1.217590000000000061e-01
-5.915970000000000395e-01 -1.832910000000000095e-01 -3.755000000000000091e-03
2.059269999999999989e-01 4.525300000000000156e-02 -3.759739999999999749e-01
-5.542880000000000029e-01 1.834880000000000122e-01 -3.132730000000000237e-01
-8.433190000000000408e-01 1.580789999999999973e-01 4.890160000000000062e-01
-2.208090000000000053e-01 2.858410000000000117e-01 -3.588549999999999796e-01
-6.048050000000000370e-01 -1.333429999999999893e-01 3.126300000000000190e-01
-5.930699999999999861e-01 -8.616999999999999660e-03 -2.658929999999999905e-01
2.467030000000000056e-01 4.451000000000000095e-02 -3.730129999999999835e-01
-6.189590000000000369e-01 -2.346749999999999947e-01 3.548400000000000165e-02
-5.466389999999999860e-01 5.404229999999999867e-01 3.846430000000000127e-01
-2.871029999999999971e-01 -1.310500000000000033e-02 3.468379999999999797e-01
-1.789439999999999920e-01 -6.002809999999999535e-01 4.542100000000000304e-02
-4.700969999999999871e-01 3.490219999999999989e-01 -3.467259999999999787e-01
3.013319999999999887e-01 7.656999999999999744e-03 -3.729870000000000130e-01
1.777300000000000060e-02 3.515909999999999869e-01 -4.108999999999999875e-01
-1.979009999999999936e-01 -1.419439999999999868e-01 -2.893430000000000168e-01
-4.115320000000000089e-01 8.467600000000000127e-02 -3.030399999999999761e-01
-3.997799999999999965e-02 4.621509999999999785e-01 2.504529999999999812e-01
9.946699999999999986e-02 -4.004940000000000166e-01 -2.779490000000000016e-01
-4.248419999999999974e-01 1.589999999999999888e-04 -8.176300000000000234e-02
-4.946679999999999966e-01 -2.808599999999999985e-02 -2.768160000000000065e-01
-2.468879999999999963e-01 1.542489999999999972e-01 4.497799999999999715e-02
-1.443699999999999983e-01 -6.797440000000000149e-01 2.111000000000000029e-03
-4.219729999999999870e-01 1.810999999999999893e-03 -2.620099999999999860e-02
-1.666099999999999873e-02 4.738669999999999827e-01 2.433549999999999880e-01
-6.392699999999999771e-02 1.843750000000000111e-01 -3.677679999999999838e-01
-2.183309999999999973e-01 1.517989999999999895e-01 1.511510000000000076e-01
-5.992650000000000476e-01 -1.664049999999999974e-01 -2.216440000000000077e-01
6.035129999999999661e-01 -2.435100000000000112e-02 1.033469999999999944e-01
-2.445370000000000044e-01 -6.823709999999999498e-01 -1.823369999999999991e-01
-5.603380000000000027e-01 -2.790389999999999815e-01 4.282500000000000195e-02
3.459860000000000158e-01 -1.851440000000000030e-01 -1.235040000000000027e-01
-1.988129999999999897e-01 -3.524089999999999723e-01 -2.459310000000000107e-01
-3.537609999999999921e-01 6.015899999999999720e-02 6.962599999999999345e-02
-9.973899999999999433e-02 2.860100000000000142e-02 -3.419329999999999870e-01
-4.740170000000000217e-01 3.076780000000000070e-01 -3.402370000000000116e-01
-5.970699999999999896e-01 4.933429999999999760e-01 4.013050000000000228e-01
1.373669999999999891e-01 4.811529999999999974e-01 2.006880000000000053e-01
-2.097650000000000070e-01 -6.822319999999999496e-01 -1.901190000000000102e-01
-1.795279999999999931e-01 -4.243379999999999930e-01 -2.344809999999999950e-01
-9.964000000000000634e-03 -5.274729999999999697e-01 3.014760000000000217e-01
-3.777449999999999974e-01 1.794699999999999906e-01 -3.258559999999999790e-01
1.880699999999999872e-01 -2.911599999999999744e-01 -3.179799999999999849e-01
-1.390520000000000089e-01 2.893890000000000073e-01 2.880240000000000022e-01
-5.075269999999999504e-01 2.389209999999999945e-01 -3.204620000000000246e-01
1.502829999999999999e-01 -3.716940000000000244e-01 -5.861199999999999743e-02
-1.127350000000000019e-01 -6.468089999999999673e-01 3.372140000000000137e-01
-6.072530000000000427e-01 1.586399999999999963e-02 -2.340460000000000040e-01
-6.473499999999999810e-01 -1.587530000000000052e-01 1.066000000000000003e-01
-1.145980000000000054e-01 3.483260000000000245e-01 -2.825790000000000246e-01
-8.840800000000000047e-02 2.938819999999999766e-01 9.498900000000000399e-02
9.467799999999999827e-02 4.017129999999999868e-01 7.866399999999999781e-02
6.276700000000000335e-02 -2.984100000000000086e-01 -2.905570000000000097e-01
1.471939999999999915e-01 -9.352399999999999602e-02 2.322450000000000070e-01
-3.339790000000000258e-01 -4.185650000000000204e-01 3.841180000000000150e-01
2.953549999999999787e-01 2.100629999999999997e-01 6.428699999999999692e-02
-1.196689999999999976e-01 4.960019999999999984e-01 -5.645300000000000318e-02
-3.227349999999999941e-01 5.137000000000000073e-03 -2.991849999999999787e-01
-3.844179999999999819e-01 -3.871499999999999941e-02 3.420469999999999899e-01
1.389269999999999949e-01 -1.592790000000000039e-01 -3.275129999999999986e-01
-1.510579999999999978e-01 3.401660000000000239e-01 -3.465309999999999779e-01
-5.680700000000000333e-02 -5.046400000000000191e-02 -3.327640000000000042e-01
-4.851119999999999877e-01 8.646399999999999919e-02 8.033200000000000063e-02
-5.707919999999999661e-01 -2.652320000000000233e-01 5.568000000000000033e-02
-4.590369999999999728e-01 1.623940000000000106e-01 -4.183900000000000119e-02
-4.432969999999999966e-01 1.835589999999999999e-01 3.778110000000000079e-01
3.314030000000000031e-01 -6.605099999999999860e-02 -1.266819999999999891e-01
-4.787299999999999889e-02 -5.231109999999999927e-01 2.973629999999999884e-01
-7.264700000000000324e-02 1.888249999999999929e-01 -3.674930000000000141e-01
4.180329999999999879e-01 -7.333499999999999741e-02 -3.299639999999999795e-01
1.264710000000000001e-01 3.466790000000000149e-01 3.150000000000000022e-02
-4.885789999999999855e-01 -1.565519999999999967e-01 3.528439999999999910e-01
-1.420309999999999906e-01 3.443649999999999767e-01 -3.492589999999999861e-01
-2.109209999999999974e-01 1.951539999999999941e-01 3.200700000000000073e-02
-4.634769999999999723e-01 -1.456400000000000056e-02 -1.617260000000000086e-01
-6.008399999999999852e-02 1.956469999999999876e-01 -3.511999999999999844e-02
2.516229999999999856e-01 1.815400000000000069e-01 1.874149999999999983e-01
1.015899999999999963e-02 -6.237080000000000402e-01 3.021300000000000097e-01
-2.828260000000000218e-01 1.252630000000000132e-01 2.119100000000000150e-02
3.402649999999999841e-01 -1.648390000000000133e-01 -2.657740000000000102e-01
-5.030890000000000084e-01 8.251400000000000401e-02 1.088879999999999987e-01
3.003529999999999811e-01 -1.183720000000000050e-01 -3.646369999999999889e-01
2.654000000000000109e-02 -3.907269999999999910e-01 -2.597639999999999949e-01
-5.649459999999999482e-01 8.338600000000000179e-02 -1.598660000000000081e-01
-7.493700000000000361e-02 -2.740250000000000186e-01 -2.691810000000000036e-01
3.083139999999999770e-01 9.009599999999999553e-02 -2.772600000000000064e-01
-1.701999999999999954e-03 1.556950000000000001e-01 2.580509999999999748e-01
1.974700000000000066e-01 -2.934709999999999819e-01 -2.500260000000000260e-01
2.095170000000000088e-01 -7.837199999999999722e-02 -3.621010000000000062e-01
-6.583080000000000043e-01 -1.909100000000000033e-02 -1.996400000000000119e-01
1.863519999999999899e-01 -3.229110000000000036e-01 -1.771800000000000042e-01
-5.340160000000000462e-01 -2.766379999999999950e-01 1.294629999999999947e-01
-4.259399999999999992e-02 4.714399999999999841e-02 -3.357660000000000089e-01
-5.107329999999999925e-01 -6.801599999999999313e-02 1.043150000000000049e-01
-8.019300000000000039e-02 -6.455250000000000155e-01 1.568900000000000156e-02
-5.795289999999999608e-01 -1.491480000000000028e-01 -8.649800000000000544e-02
8.473799999999999388e-02 2.653769999999999740e-01 -4.125690000000000190e-01
-6.377319999999999656e-01 2.203300000000000050e-02 -2.532139999999999946e-01
-5.781899999999999817e-01 1.276399999999999930e-02 -2.371719999999999939e-01
1.490299999999999958e-01 -2.383879999999999888e-01 -3.134709999999999996e-01
-2.377100000000000046e-01 -6.320500000000000007e-01 -1.224169999999999980e-01
-1.530209999999999904e-01 1.947300000000000073e-02 -3.337890000000000024e-01
-1.731520000000000004e-01 4.264549999999999730e-01 -3.923800000000000066e-01
-5.118470000000000519e-01 1.721810000000000007e-01 -3.093639999999999723e-01
-7.312189999999999523e-01 -9.368400000000000338e-02 -1.917899999999999883e-01
4.085360000000000102e-01 -1.823869999999999936e-01 -3.678739999999999788e-01
-4.832270000000000176e-01 -1.478299999999999927e-02 -2.661439999999999917e-01
-4.107210000000000027e-01 1.052759999999999946e-01 3.646769999999999734e-01
-2.036429999999999907e-01 -5.241170000000000551e-01 6.367299999999999349e-02
-7.049440000000000150e-01 -6.730400000000000271e-02 -2.376590000000000091e-01
-3.977539999999999965e-01 2.130779999999999896e-01 7.559999999999999880e-03
-2.206940000000000013e-01 7.462100000000000677e-02 3.229739999999999833e-01
5.242399999999999838e-02 5.947899999999999715e-02 2.347660000000000025e-01
-4.151449999999999863e-01 -4.710630000000000095e-01 -1.865169999999999884e-01
1.114500000000000039e-02 -5.090529999999999777e-01 -1.656420000000000115e-01
3.875509999999999788e-01 5.570499999999999757e-02 -1.522449999999999914e-01
-2.448339999999999961e-01 2.014450000000000129e-01 -1.605540000000000023e-01
7.088400000000000256e-02 -1.649470000000000103e-01 2.432269999999999988e-01
-5.249209999999999710e-01 -1.535580000000000001e-01 1.689539999999999931e-01
-4.651560000000000139e-01 -1.721660000000000135e-01 -2.558400000000000118e-01
-5.615040000000000031e-01 -3.539229999999999876e-01 -2.079709999999999892e-01
-5.377920000000000478e-01 -4.044510000000000050e-01 -1.940080000000000138e-01
-4.053200000000000136e-01 -4.821750000000000203e-01 -1.426870000000000083e-01
-5.730410000000000226e-01 -3.047139999999999849e-01 -1.982099999999999973e-01
-3.721530000000000116e-01 1.970330000000000137e-01 6.642199999999999493e-02
-4.549500000000000210e-01 -2.378450000000000009e-01 3.917800000000000171e-01
-4.223810000000000064e-01 2.400499999999999856e-02 -1.786979999999999957e-01
1.878300000000000108e-02 -4.209439999999999849e-01 2.871770000000000156e-01
1.501949999999999952e-01 -5.168709999999999694e-01 2.573010000000000019e-01
3.022250000000000214e-01 1.789560000000000040e-01 1.590830000000000022e-01
-1.500479999999999869e-01 4.807460000000000067e-01 -3.970029999999999948e-01
-1.642550000000000121e-01 2.211999999999999991e-03 -3.111619999999999941e-01
-2.429550000000000043e-01 3.342370000000000063e-01 -3.759259999999999824e-01
-5.556919999999999638e-01 2.429870000000000085e-01 -3.068259999999999876e-01
-4.427699999999999692e-02 -4.547120000000000051e-01 2.922569999999999890e-01
-4.118000000000000133e-02 -3.720269999999999966e-01 -2.630270000000000108e-01
-5.764219999999999899e-01 5.533799999999999830e-02 -1.647609999999999908e-01
-4.558110000000000217e-01 2.053780000000000050e-01 -2.832689999999999930e-01
5.871999999999999616e-03 4.900590000000000224e-01 1.411779999999999979e-01
-2.872439999999999993e-01 3.355279999999999929e-01 -4.958800000000000013e-02
-5.644300000000000012e-02 3.241180000000000172e-01 1.260539999999999994e-01
-2.584029999999999938e-01 3.559320000000000261e-01 -8.678999999999999215e-03
-4.493969999999999909e-01 2.290210000000000024e-01 -3.261260000000000270e-01
-7.283599999999999797e-02 7.823000000000000093e-03 -4.237999999999999580e-03
-3.146590000000000220e-01 7.735200000000000409e-02 9.138799999999999701e-02
-5.951030000000000486e-01 -2.276800000000000004e-02 4.318609999999999949e-01
-3.659599999999999659e-02 5.122060000000000501e-01 2.465100000000000069e-01
2.402080000000000048e-01 1.299130000000000007e-01 1.932830000000000104e-01
5.347099999999999770e-02 3.707570000000000032e-01 2.157239999999999991e-01
-1.953290000000000026e-01 3.140660000000000118e-01 3.019660000000000122e-01
2.711819999999999786e-01 1.630060000000000120e-01 -4.097810000000000064e-01
-1.096759999999999957e-01 -7.679719999999999880e-01 -1.814929999999999877e-01
-1.407579999999999942e-01 2.031310000000000060e-01 -3.532429999999999737e-01
-1.202649999999999969e-01 1.431499999999999960e-02 -3.370619999999999727e-01
-6.244070000000000453e-01 -3.539740000000000109e-01 -1.997510000000000119e-01
-3.252269999999999883e-01 1.704440000000000122e-01 -3.355020000000000224e-01
4.060690000000000133e-01 6.115500000000000103e-02 -8.032999999999999863e-02
-2.387500000000000039e-02 2.512119999999999909e-01 -3.883980000000000210e-01
-2.949629999999999752e-01 1.224660000000000054e-01 3.368299999999999766e-02
2.061139999999999917e-01 -2.414820000000000022e-01 -8.176300000000000234e-02
-3.760999999999999899e-01 2.960510000000000086e-01 -3.149460000000000037e-01
3.594200000000000172e-02 -4.799120000000000053e-01 -2.155769999999999909e-01
-1.704100000000000059e-02 3.348880000000000190e-01 2.372170000000000112e-01
-3.604060000000000041e-01 1.164749999999999952e-01 -2.340079999999999938e-01
-3.381709999999999994e-01 4.621299999999999714e-02 -3.148190000000000155e-01
-1.553480000000000139e-01 -2.978509999999999769e-01 3.132570000000000077e-01
-2.770239999999999925e-01 1.800150000000000083e-01 -2.258670000000000122e-01
4.240680000000000005e-01 -6.552900000000000391e-02 -3.501179999999999848e-01
-4.185300000000000131e-01 2.923399999999999957e-02 -2.013560000000000072e-01
-4.735750000000000237e-01 -3.478400000000000242e-02 -1.671559999999999990e-01
-1.386139999999999872e-01 3.853380000000000138e-01 -4.067160000000000220e-01
1.589000000000000135e-02 -1.949720000000000064e-01 -2.963850000000000096e-01
2.345140000000000002e-01 2.757530000000000259e-01 9.266000000000000625e-02
1.430619999999999947e-01 -2.649090000000000056e-01 -3.075430000000000108e-01
2.164200000000000151e-02 1.290299999999999954e-02 -4.651500000000000079e-02
3.935480000000000089e-01 -9.772699999999999443e-02 -1.418109999999999926e-01
-1.541289999999999882e-01 2.325490000000000057e-01 1.337770000000000070e-01
-3.102730000000000210e-01 2.365039999999999920e-01 -3.457370000000000165e-01
2.814110000000000222e-01 1.033670000000000005e-01 -4.063709999999999822e-01
-1.544939999999999924e-01 2.307919999999999972e-01 1.537149999999999905e-01
-2.711089999999999889e-01 1.397370000000000001e-01 2.431300000000000128e-02
1.584669999999999968e-01 3.715760000000000174e-01 1.884099999999999941e-01
8.160599999999999798e-02 2.827379999999999893e-01 -4.082870000000000110e-01
-4.155519999999999770e-01 3.467219999999999747e-01 -3.558239999999999736e-01
7.510100000000000109e-02 -2.900369999999999893e-01 -2.962170000000000081e-01
-2.192840000000000067e-01 8.610200000000000076e-01 2.755799999999999916e-01
7.418099999999999694e-02 -5.107300000000000034e-02 -3.493450000000000166e-01
-1.600530000000000008e-01 4.380240000000000244e-01 -7.224000000000000386e-03
-2.109930000000000139e-01 1.325409999999999922e-01 2.859229999999999827e-01
3.865439999999999987e-01 1.170279999999999931e-01 3.892299999999999927e-02
1.598650000000000071e-01 4.067399999999999904e-01 1.990030000000000132e-01
-8.457800000000000040e-02 -3.702590000000000048e-01 -2.214000000000000135e-01
6.628499999999999670e-02 -1.063319999999999960e-01 -3.283130000000000215e-01
-3.591799999999999854e-02 -1.817149999999999876e-01 2.735170000000000101e-01
-3.020059999999999967e-01 -1.456689999999999929e-01 -2.644679999999999809e-01
-4.627000000000000002e-01 8.510399999999999909e-02 3.890620000000000189e-01
-2.552909999999999902e-01 -2.715100000000000152e-02 3.182100000000000206e-02
5.070700000000000207e-02 -8.430400000000000393e-02 2.581419999999999826e-01
-5.520610000000000239e-01 -1.469060000000000088e-01 -2.397299999999999986e-01
-1.016139999999999960e-01 4.433989999999999876e-01 -2.259200000000000097e-02
-3.323710000000000275e-01 -1.309190000000000076e-01 5.920500000000000068e-02
2.819200000000000039e-01 -2.514999999999999875e-03 -3.684780000000000277e-01
4.083600000000000008e-01 -3.504700000000000176e-02 -3.868019999999999792e-01
1.501609999999999889e-01 -4.018140000000000045e-01 -2.818849999999999967e-01
-4.804640000000000022e-01 -1.208439999999999931e-01 2.602010000000000156e-01
4.945299999999999696e-02 -4.675139999999999851e-01 2.819470000000000032e-01
1.060249999999999942e-01 9.617100000000000648e-02 -3.824890000000000234e-01
8.682199999999999640e-02 -4.940129999999999799e-01 9.836300000000000598e-02
-4.144209999999999838e-01 8.677000000000000685e-03 8.935899999999999399e-02
-4.515239999999999809e-01 -2.228950000000000098e-01 -2.405220000000000136e-01
3.485880000000000090e-01 -1.177470000000000044e-01 1.642480000000000051e-01
-3.677250000000000241e-01 7.642710000000000337e-01 3.221049999999999747e-01
-8.847099999999999409e-02 -3.861470000000000180e-01 3.002420000000000089e-01
-1.619329999999999936e-01 -4.721360000000000001e-01 3.255629999999999913e-01
-4.542539999999999911e-01 -4.195880000000000165e-01 -1.637210000000000054e-01
-2.985200000000000076e-01 4.599700000000000316e-02 3.071220000000000061e-01
2.119590000000000085e-01 2.579659999999999731e-01 -3.022899999999999893e-02
-2.549710000000000032e-01 -5.650779999999999692e-01 3.865199999999999886e-02
-1.783939999999999970e-01 -2.675440000000000040e-01 -2.747419999999999862e-01
8.550800000000000067e-02 -4.612919999999999798e-01 -7.091100000000000181e-02
1.662549999999999861e-01 -1.879270000000000107e-01 2.330800000000000094e-01
-3.837820000000000120e-01 5.984429999999999472e-01 3.364980000000000193e-01
-4.626700000000000257e-02 -1.306599999999999949e-02 -3.235950000000000215e-01
-3.134319999999999884e-01 -4.442050000000000165e-01 2.487540000000000029e-01
-1.733349999999999891e-01 4.994350000000000178e-01 -3.164830000000000143e-01
-4.221190000000000220e-01 -6.313199999999999368e-02 2.056510000000000005e-01
4.135409999999999919e-01 1.179900000000000046e-02 -4.062370000000000148e-01
-2.422789999999999944e-01 -4.748879999999999768e-01 7.129900000000000126e-02
-6.297420000000000240e-01 1.163379999999999970e-01 -2.725690000000000057e-01
1.982490000000000085e-01 -2.399799999999999989e-01 -3.260239999999999805e-01
3.458330000000000015e-01 -1.643709999999999893e-01 -3.535300000000000109e-01
-3.760029999999999761e-01 -5.135309999999999597e-01 -1.554159999999999986e-01
-2.368079999999999907e-01 2.844059999999999921e-01 3.151249999999999885e-01
-5.411820000000000519e-01 -2.844729999999999759e-01 -2.241090000000000027e-01
-5.075790000000000024e-01 -8.494400000000000561e-02 -7.071700000000000208e-02
-1.724269999999999969e-01 -7.639249999999999652e-01 -1.613290000000000002e-01
3.628830000000000111e-01 1.703969999999999929e-01 1.380389999999999950e-01
1.070269999999999971e-01 -4.725940000000000141e-01 -2.543719999999999870e-01
4.648100000000000148e-02 -2.565600000000000103e-01 -2.965579999999999883e-01
-3.043839999999999879e-01 3.026519999999999766e-01 -1.612200000000000091e-02
-3.132809999999999762e-01 -2.313719999999999943e-01 7.609299999999999398e-02
-2.021799999999999986e-02 -5.226060000000000150e-01 2.897509999999999808e-01
-5.343930000000000069e-01 -2.101760000000000017e-01 -2.321759999999999935e-01
-2.848620000000000041e-01 -3.106990000000000030e-01 3.495380000000000154e-01
-3.941620000000000124e-01 -6.368400000000000449e-02 3.646209999999999729e-01
-4.923239999999999839e-01 -2.279090000000000005e-01 1.249709999999999988e-01
-3.184319999999999928e-01 2.270900000000000002e-02 3.102750000000000230e-01
-2.586109999999999798e-01 1.882459999999999967e-01 3.268960000000000199e-01
-2.178420000000000079e-01 2.469210000000000016e-01 -2.807799999999999740e-01
-1.693079999999999863e-01 5.694099999999999856e-02 -3.292680000000000051e-01
-5.949250000000000371e-01 -1.393739999999999979e-01 -2.355990000000000029e-01
3.614109999999999823e-01 -1.490329999999999988e-01 -2.408029999999999893e-01
3.514920000000000266e-01 -1.281960000000000044e-01 -3.068339999999999956e-01
-4.631020000000000136e-01 -2.873120000000000118e-01 3.036590000000000122e-01
-1.519540000000000057e-01 4.632589999999999764e-01 -2.297599999999999990e-02
-1.785210000000000130e-01 3.178610000000000047e-01 -3.251339999999999786e-01
2.147519999999999984e-01 -2.896190000000000153e-01 -2.171879999999999922e-01
-9.646599999999999620e-02 -2.320889999999999898e-01 -2.826529999999999876e-01
2.674000000000000266e-01 -2.668940000000000201e-01 -1.293360000000000065e-01
-1.213510000000000005e-01 4.653619999999999979e-01 3.766400000000000303e-02
7.388599999999999335e-02 4.101529999999999898e-01 2.077539999999999942e-01
-4.272219999999999906e-01 1.468750000000000056e-01 -3.049310000000000076e-01
-2.441329999999999889e-01 7.931789999999999674e-01 2.864800000000000124e-01
8.355300000000000227e-02 -4.768540000000000001e-01 -2.586200000000000165e-01
-2.307639999999999969e-01 -3.933170000000000277e-01 3.396839999999999860e-01
-1.282210000000000016e-01 -6.818659999999999721e-01 -1.778849999999999876e-01
-8.157670000000000199e-01 -1.513899999999999968e-02 -2.227590000000000126e-01
-2.993950000000000222e-01 3.910319999999999907e-01 3.258590000000000098e-01
3.792369999999999908e-01 4.699999999999999859e-04 -1.438039999999999874e-01
-4.205619999999999914e-01 1.415919999999999956e-01 1.524060000000000137e-01
-6.492409999999999570e-01 -1.127360000000000029e-01 2.415259999999999907e-01
-4.498699999999999921e-02 -1.696000000000000008e-01 2.895159999999999956e-01
-6.060039999999999871e-01 -3.915440000000000031e-01 -1.948570000000000024e-01
-3.159580000000000166e-01 5.333250000000000490e-01 -4.050570000000000004e-01
-5.641999999999999793e-02 -5.697229999999999794e-01 -1.916120000000000045e-01
3.482799999999999785e-02 -8.681899999999999340e-02 2.484040000000000137e-01
7.059699999999999309e-02 -3.818909999999999805e-01 -3.615100000000000258e-02
-2.825639999999999818e-01 2.075160000000000060e-01 -3.355859999999999954e-01
-4.963299999999999657e-02 2.377100000000000046e-01 2.662499999999999867e-01
2.895899999999999863e-02 -4.598130000000000273e-01 2.867290000000000116e-01
-6.168240000000000389e-01 -3.560900000000000176e-02 -2.528880000000000017e-01
-2.548250000000000237e-01 2.146270000000000122e-01 -3.487259999999999804e-01
-1.355860000000000121e-01 2.017249999999999877e-01 -3.617839999999999945e-01
2.527710000000000234e-01 1.309599999999999931e-01 -1.169940000000000008e-01
-3.714740000000000264e-01 -3.648250000000000104e-01 -2.234099999999999975e-01
-3.219330000000000247e-01 2.384040000000000048e-01 3.412339999999999818e-01
-4.467700000000000005e-01 -2.163950000000000040e-01 4.028599999999999959e-01
-1.279780000000000084e-01 3.184910000000000241e-01 -1.820549999999999946e-01
2.856369999999999743e-01 -2.319309999999999983e-01 -3.244150000000000089e-01
-5.816500000000000142e-02 -9.365400000000000114e-02 -3.241999999999999882e-01
1.733499999999999971e-02 -4.171019999999999728e-01 -2.640049999999999897e-01
-2.329499999999999973e-02 -4.222980000000000067e-01 -2.576930000000000054e-01
-4.901639999999999886e-01 -2.128980000000000039e-01 -2.446659999999999946e-01
-6.371899999999999786e-02 6.749519999999999964e-01 2.441409999999999969e-01
6.023300000000000182e-02 -4.967030000000000056e-01 9.107999999999999430e-02
-5.577499999999999680e-01 -3.375989999999999824e-01 -1.653010000000000035e-01
-1.662579999999999891e-01 1.762890000000000013e-01 -3.447029999999999816e-01
-6.313269999999999715e-01 -2.305000000000000104e-02 1.961800000000000002e-02
-3.454639999999999933e-01 -5.898250000000000437e-01 -1.857640000000000124e-01
-9.148999999999999147e-03 6.293700000000000683e-02 2.514379999999999948e-01
-2.856239999999999890e-01 4.240499999999999825e-02 3.284730000000000150e-01
3.270100000000000090e-02 -5.216650000000000453e-01 -2.529429999999999734e-01
4.339140000000000219e-01 -9.586000000000000076e-02 -1.504260000000000042e-01
-3.584570000000000256e-01 -2.346000000000000169e-02 -2.808300000000000241e-01
-1.641880000000000006e-01 1.467189999999999883e-01 -3.497950000000000226e-01
-3.431429999999999758e-01 1.419600000000000029e-02 2.536340000000000261e-01
-5.604850000000000110e-01 -3.400770000000000182e-01 -1.508430000000000049e-01
2.828430000000000111e-01 -5.861899999999999750e-02 -3.658429999999999738e-01
4.040679999999999827e-01 9.613499999999999823e-02 1.507670000000000121e-01
-4.782219999999999804e-01 9.608899999999999386e-02 1.363409999999999900e-01
-2.781779999999999808e-01 1.810489999999999877e-01 -2.257879999999999887e-01
-1.409189999999999887e-01 4.487479999999999802e-01 2.384800000000000114e-02
-3.299750000000000183e-01 9.616800000000000348e-02 3.520079999999999876e-01
-1.134420000000000012e-01 -3.262999999999999928e-02 -3.288360000000000172e-01
1.100699999999999942e-02 -1.505340000000000011e-01 -3.221809999999999952e-01
4.893750000000000044e-01 -2.944700000000000095e-02 -3.903249999999999775e-01
-4.559969999999999857e-01 -9.137599999999999889e-02 2.004879999999999995e-01
1.273100000000000065e-01 -3.308789999999999787e-01 2.377539999999999931e-01
3.064049999999999829e-01 -5.106900000000000328e-02 1.864109999999999934e-01
-4.883400000000000241e-02 -3.844350000000000267e-01 3.035149999999999793e-01
-1.302439999999999987e-01 4.892690000000000095e-01 -7.441499999999999504e-02
-3.983749999999999791e-01 -1.142959999999999948e-01 -2.685460000000000069e-01
-4.148859999999999770e-01 -9.724000000000000005e-03 7.023999999999999688e-02
-4.715829999999999744e-01 -1.195179999999999992e-01 2.741290000000000115e-01
-5.244959999999999622e-01 5.015530000000000266e-01 3.809139999999999748e-01
1.772420000000000107e-01 1.725750000000000062e-01 -3.606460000000000221e-01
-6.060550000000000104e-01 2.447900000000000076e-01 -3.184210000000000096e-01
-6.773500000000000076e-01 -1.393659999999999899e-01 7.942000000000000448e-02
-5.397870000000000168e-01 2.391300000000000092e-01 -3.259690000000000087e-01
2.647169999999999801e-01 8.246599999999999764e-02 -3.827340000000000186e-01
3.235259999999999803e-01 1.666239999999999943e-01 1.686010000000000009e-01
-1.717199999999999976e-02 2.494770000000000043e-01 2.423990000000000034e-01
6.403899999999999870e-02 -2.815090000000000092e-01 -2.964300000000000268e-01
4.202919999999999989e-01 -9.432599999999999318e-02 -3.687099999999999822e-01
-6.003840000000000288e-01 -1.466339999999999866e-01 -2.253370000000000095e-01
-5.375090000000000146e-01 -3.358149999999999746e-01 -2.146190000000000042e-01
-5.367539999999999534e-01 3.378669999999999729e-01 3.941359999999999864e-01
-3.670269999999999921e-01 -2.440440000000000109e-01 -2.450180000000000136e-01
1.761669999999999903e-01 -2.695770000000000111e-01 -3.206189999999999873e-01
-3.703489999999999838e-01 1.683499999999999996e-01 -3.343369999999999953e-01
-1.638709999999999889e-01 -5.658490000000000464e-01 -2.114709999999999923e-01
-2.694639999999999813e-01 3.987109999999999821e-01 -3.349289999999999767e-01
1.096730000000000066e-01 2.685199999999999809e-01 -2.987480000000000135e-01
7.538400000000000656e-02 -3.823000000000000009e-03 -4.417200000000000293e-02
3.289999999999999739e-04 -5.096349999999999492e-01 -1.818700000000000039e-01
1.267079999999999873e-01 1.823929999999999996e-01 -3.946890000000000120e-01
-4.141090000000000049e-01 3.237999999999999906e-02 -1.822090000000000098e-01
1.341610000000000025e-01 -4.505279999999999840e-01 1.062160000000000049e-01
-4.099499999999999672e-02 -3.415860000000000007e-01 -7.985000000000000778e-03
-1.200559999999999961e-01 1.972879999999999912e-01 -3.548109999999999875e-01
1.633989999999999887e-01 4.389009999999999856e-01 1.960969999999999935e-01
-4.737950000000000217e-01 -1.224530000000000063e-01 2.667809999999999904e-01
2.618770000000000264e-01 -2.851049999999999973e-01 1.981040000000000023e-01
-1.985999999999999918e-02 4.267310000000000270e-01 -4.230039999999999911e-01
-4.290109999999999757e-01 -5.857799999999999813e-02 -2.649029999999999996e-01
-1.653600000000000070e-01 4.427949999999999942e-01 -2.132600000000000121e-02
-5.249850000000000350e-01 5.945000000000000284e-02 1.308600000000000041e-01
-4.072479999999999989e-01 7.144899999999999585e-01 3.359400000000000164e-01
3.144770000000000065e-01 4.963299999999999657e-02 -3.554539999999999922e-01
5.755230000000000068e-01 -9.573999999999999178e-03 1.101300000000000057e-01
-4.198779999999999735e-01 5.686100000000000182e-02 -3.062239999999999962e-01
-1.913789999999999936e-01 -6.759020000000000028e-01 -1.865110000000000101e-01
-9.545800000000000118e-02 -2.929000000000000006e-02 -3.245879999999999876e-01
-8.028200000000000613e-02 4.373699999999999810e-01 -2.807700000000000126e-02
6.225249999999999950e-01 -6.061300000000000021e-02 1.003190000000000054e-01
8.414800000000000058e-02 2.736999999999999850e-03 -3.602159999999999807e-01
2.499800000000000078e-01 -2.620480000000000032e-01 -2.334219999999999906e-01
9.653899999999999981e-02 1.680889999999999884e-01 -3.879739999999999855e-01
3.219999999999999946e-02 1.239920000000000050e-01 -3.754259999999999819e-01
2.776719999999999744e-01 2.161579999999999890e-01 3.138500000000000317e-02
-1.345260000000000067e-01 4.942730000000000179e-01 -4.187279999999999891e-01
-5.246800000000000352e-01 -2.353739999999999999e-01 2.863200000000000189e-01
-1.343459999999999932e-01 -7.904170000000000362e-01 -1.611549999999999927e-01
-2.894030000000000213e-01 -6.008200000000000207e-01 -1.696010000000000018e-01
-1.768499999999999933e-02 -3.824290000000000189e-01 2.948540000000000050e-01
-3.484530000000000127e-01 1.076919999999999961e-01 -2.405220000000000136e-01
3.399479999999999724e-01 -1.677839999999999887e-01 1.696320000000000050e-01
2.199560000000000126e-01 1.737009999999999943e-01 1.819540000000000046e-01
1.666040000000000021e-01 1.610520000000000007e-01 -4.029940000000000189e-01
-3.762179999999999969e-01 -2.965659999999999963e-01 3.737329999999999819e-01
2.940189999999999748e-01 1.773139999999999994e-01 -4.333599999999999952e-02
-3.608540000000000081e-01 -4.511140000000000150e-01 -2.056159999999999932e-01
4.005389999999999784e-01 -1.676300000000000012e-02 -3.917559999999999931e-01
-4.124399999999999733e-01 9.455800000000000316e-02 -2.745049999999999990e-01
4.542849999999999944e-01 -3.441799999999999721e-02 -1.622770000000000046e-01
8.430500000000000493e-02 1.909599999999999909e-01 -3.883929999999999882e-01
-2.983999999999999847e-02 4.385069999999999801e-01 -4.239879999999999760e-01
-1.418339999999999879e-01 -6.799619999999999553e-01 8.906999999999999987e-03
2.134560000000000068e-01 -2.442340000000000066e-01 -2.850150000000000183e-01
-3.059760000000000257e-01 -4.755489999999999995e-01 1.715319999999999900e-01
3.905080000000000218e-01 -2.594380000000000019e-01 1.759070000000000078e-01
-4.885300000000000059e-02 -3.165879999999999805e-01 2.994319999999999760e-01
-4.434029999999999916e-01 2.717310000000000003e-01 -3.352020000000000000e-01
-1.048639999999999989e-01 8.434700000000000530e-02 -3.526719999999999855e-01
-7.916299999999999726e-02 -3.355110000000000037e-01 -2.737850000000000006e-01
-5.477419999999999511e-01 -2.778229999999999866e-01 1.122289999999999954e-01
-2.814200000000000035e-01 -3.702480000000000215e-01 -2.341100000000000125e-01
-4.870499999999999829e-02 1.662480000000000069e-01 -2.039900000000000047e-02
3.714999999999999986e-03 -1.661400000000000099e-01 2.759559999999999791e-01
-3.210680000000000200e-01 1.315089999999999870e-01 -1.743079999999999907e-01
-2.982090000000000019e-01 -4.554300000000000015e-02 3.372220000000000217e-01
-4.540580000000000171e-01 2.817939999999999889e-01 -3.454420000000000268e-01
-6.741909999999999847e-01 -2.450440000000000118e-01 -1.790879999999999972e-01
-3.838999999999999965e-03 2.294200000000000128e-01 -3.843570000000000042e-01
-6.231989999999999474e-01 -2.715899999999999911e-02 7.670699999999999741e-02
-2.466969999999999996e-01 7.230599999999999528e-02 3.954200000000000076e-02
9.268800000000000650e-02 -2.940159999999999996e-01 2.450249999999999928e-01
2.429500000000000062e-02 4.439150000000000040e-01 -3.869299999999999823e-02
-1.646360000000000046e-01 -1.967069999999999930e-01 3.325299999999999784e-02
-1.055740000000000012e-01 1.850000000000000082e-03 -3.365589999999999971e-01
-4.480669999999999931e-01 1.993270000000000042e-01 -2.378190000000000026e-01
-3.265190000000000037e-01 3.637059999999999738e-01 -3.383180000000000076e-01
8.408000000000000543e-03 -2.476460000000000050e-01 -2.718900000000000136e-02
-3.574390000000000067e-01 -3.396810000000000107e-01 -2.195600000000000052e-01
-1.997750000000000081e-01 -7.260980000000000212e-01 -1.806659999999999933e-01
-2.612630000000000230e-01 8.828319999999999501e-01 2.857750000000000012e-01
3.025789999999999869e-01 -2.096379999999999910e-01 -1.101280000000000037e-01
-2.375299999999999911e-01 -6.498709999999999765e-01 -1.765390000000000015e-01
-5.354849999999999888e-01 7.564800000000000690e-02 -9.867900000000000282e-02
-2.645480000000000054e-01 -2.854860000000000175e-01 -2.527710000000000234e-01
-4.161520000000000219e-01 2.318989999999999940e-01 -2.408839999999999870e-01
-3.193670000000000120e-01 3.782900000000000151e-02 4.547299999999999953e-02
1.621150000000000091e-01 4.823000000000000030e-03 -3.624049999999999772e-01
-2.728570000000000162e-01 2.778079999999999994e-01 -3.683159999999999767e-01
1.527409999999999879e-01 3.252340000000000231e-01 3.365100000000000036e-02
-5.384910000000000529e-01 -2.540419999999999900e-01 1.864540000000000086e-01
-2.231039999999999968e-01 9.923300000000000176e-02 1.538199999999999984e-02
-4.234370000000000078e-01 -5.042410000000000503e-01 -1.789930000000000132e-01
6.709999999999999819e-03 1.312260000000000093e-01 2.572189999999999754e-01
-2.881000000000000227e-01 -3.053549999999999875e-01 3.501040000000000263e-01
-6.731199999999999684e-02 1.426189999999999958e-01 2.625830000000000108e-01
1.154609999999999942e-01 3.824609999999999954e-01 7.905900000000000427e-02
-2.437539999999999984e-01 2.108500000000000096e-01 -1.837670000000000137e-01
-6.685630000000000184e-01 -3.527799999999999686e-02 -1.719080000000000052e-01
-5.302130000000000454e-01 -2.276380000000000070e-01 -2.293310000000000071e-01
-2.803419999999999801e-01 -6.978299999999999781e-02 -2.998410000000000242e-01
-3.475999999999999923e-02 3.356109999999999927e-01 1.736949999999999883e-01
-3.394619999999999860e-01 -2.655999999999999941e-03 -2.979129999999999834e-01
2.016599999999999990e-02 5.732000000000000116e-03 -2.960899999999999990e-02
9.068199999999999872e-02 4.414529999999999843e-01 2.132709999999999884e-01
-5.099900000000000266e-02 -6.294239999999999835e-01 3.046249999999999791e-01
-2.244659999999999989e-01 -7.220429999999999904e-01 -1.626690000000000080e-01
-2.445539999999999936e-01 -5.874730000000000230e-01 -1.495999999999999934e-03
2.083599999999999897e-01 -1.016849999999999976e-01 -3.396199999999999775e-01
3.917000000000000343e-03 4.243109999999999937e-01 -1.607099999999999917e-01
-5.264480000000000270e-01 -1.284579999999999889e-01 -2.563280000000000003e-01
-7.954369999999999497e-01 -6.830000000000000134e-04 4.854539999999999966e-01
-7.460020000000000540e-01 -1.791699999999999959e-01 -1.825130000000000086e-01
1.796379999999999921e-01 1.819379999999999886e-01 -8.394600000000000672e-02
2.258330000000000060e-01 -2.916099999999999803e-01 -2.081149999999999944e-01
-3.189919999999999978e-01 -4.725389999999999868e-01 -2.120180000000000120e-01
-3.584829999999999961e-01 -1.872999999999999943e-01 -2.571510000000000185e-01
7.629800000000000471e-02 2.381300000000000083e-01 2.316999999999999893e-01
-1.525640000000000052e-01 -3.879619999999999735e-01 3.325380000000000003e-01
-3.187400000000000233e-01 -4.269300000000000178e-02 -2.928439999999999932e-01
-5.415250000000000341e-01 -2.930240000000000067e-01 -2.045939999999999981e-01
-1.417799999999999963e-02 -3.037070000000000047e-01 2.749070000000000125e-01
3.111500000000000030e-02 -5.673089999999999522e-01 2.926139999999999852e-01
-3.275830000000000131e-01 -8.427199999999999969e-02 -2.908620000000000094e-01
-3.574140000000000095e-01 -3.980659999999999754e-01 8.216600000000000292e-02
-2.493470000000000131e-01 -3.912649999999999739e-01 3.592710000000000070e-01
-2.177969999999999906e-01 2.043800000000000061e-01 -4.489200000000000135e-02
-6.598999999999999831e-03 2.149590000000000112e-01 -3.487699999999999828e-02
-8.178480000000000194e-01 2.284490000000000132e-01 4.777930000000000232e-01
-2.347440000000000082e-01 1.149550000000000016e-01 2.935780000000000056e-01
-4.193990000000000218e-01 -3.351410000000000222e-01 -2.204939999999999956e-01
-7.686819999999999764e-01 -1.236899999999999944e-01 -1.527260000000000006e-01
-1.821699999999999986e-01 -7.731599999999999584e-02 -3.039450000000000207e-01
2.569000000000000103e-02 -3.764140000000000263e-01 2.826000000000000179e-01
-4.165119999999999933e-01 3.699500000000000011e-02 3.792980000000000240e-01
2.744699999999999918e-02 1.737090000000000023e-01 2.489740000000000009e-01
-4.620879999999999987e-01 2.044310000000000016e-01 -2.709500000000000242e-01
-4.459449999999999803e-01 2.816660000000000275e-01 -3.230890000000000151e-01
2.678800000000000070e-01 3.581100000000000255e-02 1.917379999999999918e-01
-2.562440000000000273e-01 -9.273099999999999399e-02 -2.985289999999999888e-01
-6.251099999999999712e-02 5.570100000000000051e-02 2.665040000000000187e-01
-1.970270000000000077e-01 -3.071880000000000166e-01 -2.549449999999999772e-01
5.360899999999999693e-02 -5.571840000000000126e-01 2.282279999999999864e-01
-2.332829999999999904e-01 2.645250000000000101e-01 2.428400000000000003e-02
-6.915000000000000140e-03 4.965609999999999746e-01 9.978700000000000070e-02
-1.244730000000000003e-01 2.387319999999999998e-01 2.435130000000000072e-01
-2.056159999999999932e-01 2.159030000000000116e-01 -6.544400000000000217e-02
1.924899999999999875e-02 -2.695690000000000031e-01 -2.929019999999999957e-01
7.298999999999999932e-02 4.064090000000000202e-01 2.950799999999999951e-02
-5.682430000000000536e-01 3.692600000000000049e-02 -2.431869999999999865e-01
-4.265959999999999752e-01 -7.831899999999999973e-02 3.671559999999999824e-01
-6.595379999999999576e-01 -1.806159999999999988e-01 -2.215820000000000012e-01
1.386799999999999977e-01 3.361600000000000144e-01 1.944480000000000097e-01
-2.711180000000000256e-01 1.212130000000000013e-01 4.781900000000000039e-02
-1.013600000000000056e-01 -6.442890000000000006e-01 4.287099999999999939e-02
-3.971390000000000198e-01 -1.398210000000000008e-01 7.749799999999999744e-02
2.106290000000000107e-01 -3.219710000000000072e-01 2.143750000000000100e-01
1.725349999999999939e-01 -2.596399999999999819e-01 2.353059999999999874e-01
6.476400000000000212e-02 -2.293479999999999963e-01 2.634000000000000230e-01
-8.115300000000000291e-02 3.202659999999999951e-01 2.854599999999999846e-02
2.053820000000000090e-01 3.680760000000000143e-01 1.888539999999999941e-01
2.257160000000000000e-01 -3.162110000000000198e-01 -9.365999999999999326e-02
1.564840000000000120e-01 -2.726319999999999855e-01 2.262470000000000037e-01
-2.593409999999999882e-01 -2.443999999999999992e-02 -3.041400000000000214e-01
-6.276600000000000235e-02 -3.939499999999999946e-02 -3.163290000000000268e-01
-2.445859999999999979e-01 -4.693559999999999954e-01 -2.196730000000000071e-01
3.015610000000000235e-01 -1.134219999999999950e-01 1.911229999999999873e-01
-1.928960000000000119e-01 2.094689999999999885e-01 3.431300000000000322e-02
3.866410000000000124e-01 3.876099999999999685e-02 -2.085710000000000064e-01
-2.395509999999999862e-01 3.410409999999999831e-01 -3.671280000000000099e-01
-4.468710000000000182e-01 -2.038590000000000124e-01 -2.342609999999999970e-01
-6.833599999999999397e-02 3.249710000000000099e-01 -3.863539999999999752e-01
1.515209999999999890e-01 2.786069999999999935e-01 -4.060460000000000180e-01
-9.359199999999999464e-02 3.600000000000000091e-05 -3.281009999999999760e-01
-1.901410000000000045e-01 -3.706289999999999862e-01 3.271800000000000264e-01
-3.144469999999999765e-01 -4.621709999999999985e-01 -2.191919999999999980e-01
3.367209999999999925e-01 -1.296229999999999882e-01 -1.243090000000000028e-01
-7.461640000000000494e-01 -1.837010000000000032e-01 -1.973239999999999994e-01
-1.283499999999999919e-02 -3.274360000000000048e-01 2.759679999999999911e-01
-6.578040000000000553e-01 -1.145970000000000044e-01 -2.418780000000000097e-01
-2.038530000000000064e-01 2.031300000000000050e-01 2.681400000000000103e-02
-2.494510000000000061e-01 1.527739999999999931e-01 1.638600000000000126e-02
-4.337940000000000129e-01 5.784829999999999695e-01 3.514120000000000021e-01
-3.663569999999999882e-01 3.937999999999999660e-03 1.552699999999999914e-01
4.645290000000000252e-01 -1.232970000000000038e-01 1.343419999999999892e-01
1.745259999999999867e-01 2.085100000000000009e-01 1.923120000000000107e-01
-6.214260000000000339e-01 -4.583399999999999974e-02 1.308040000000000036e-01
-9.038300000000000500e-02 2.979519999999999946e-01 1.260449999999999904e-01
3.336599999999999983e-02 4.040860000000000007e-01 -9.480600000000000138e-02
-2.183249999999999913e-01 4.757859999999999867e-01 -4.138780000000000237e-01
5.221980000000000510e-01 3.766999999999999949e-03 8.078000000000000458e-02
9.128000000000000003e-02 -4.876229999999999731e-01 7.916299999999999726e-02
-2.435869999999999980e-01 -2.198710000000000109e-01 -2.294420000000000071e-01
2.247499999999999845e-02 -4.571270000000000056e-01 -2.354999999999999889e-03
-7.368670000000000497e-01 -9.147800000000000376e-02 -1.732460000000000111e-01
-4.944749999999999979e-01 -4.560800000000000270e-02 -2.693409999999999971e-01
2.511800000000000144e-02 -3.268679999999999919e-01 -2.719790000000000263e-01
-8.553349999999999564e-01 -1.355570000000000108e-01 -1.942129999999999967e-01
-6.418739999999999446e-01 -1.046689999999999982e-01 3.334260000000000002e-01
3.444889999999999897e-01 1.013629999999999948e-01 1.521710000000000007e-01
-4.696810000000000151e-01 -6.879799999999999804e-02 2.115799999999999972e-02
4.596839999999999815e-01 -1.301589999999999969e-01 -3.838469999999999938e-01
-5.378279999999999728e-01 -1.142279999999999962e-01 -7.523399999999999532e-02
-7.586400000000000088e-02 -4.992010000000000058e-01 -2.431359999999999910e-01
-2.319740000000000135e-01 7.107199999999999629e-02 3.266530000000000267e-01
5.070199999999999707e-02 3.543749999999999956e-01 -5.898599999999999677e-02
-1.651839999999999975e-01 2.749789999999999734e-01 -1.445879999999999943e-01
-3.732360000000000122e-01 4.809599999999999986e-01 -3.946669999999999900e-01
-1.338709999999999900e-01 -3.424900000000000166e-01 3.246740000000000181e-01
-3.548029999999999795e-01 -4.133350000000000080e-01 9.843999999999999972e-02
-1.731409999999999894e-01 -4.757299999999999723e-02 3.030559999999999921e-01
-6.351689999999999836e-01 -2.498390000000000055e-01 -2.181569999999999898e-01
-6.134499999999999675e-02 3.010720000000000063e-01 2.108679999999999999e-01
1.991370000000000084e-01 -3.660780000000000145e-01 1.520299999999999950e-02
-5.890670000000000073e-01 -2.047080000000000011e-01 1.146110000000000045e-01
-9.534499999999999920e-02 -6.765229999999999855e-01 -1.976380000000000081e-01
-6.139440000000000452e-01 -2.304099999999999898e-02 -2.475660000000000083e-01
-1.606180000000000108e-01 2.198610000000000009e-01 1.369859999999999967e-01
2.507849999999999802e-01 -4.428499999999999798e-02 -3.741059999999999941e-01
-2.292639999999999956e-01 -1.022499999999999971e-02 -3.084009999999999807e-01
-2.550000000000000044e-01 -1.110799999999999982e-02 4.684399999999999675e-02
-5.703869999999999774e-01 -3.758489999999999887e-01 -1.953080000000000094e-01
8.555200000000000304e-02 -4.771679999999999811e-01 3.514000000000000196e-03
-1.318280000000000007e-01 -1.177860000000000018e-01 -2.920929999999999915e-01
-6.935620000000000118e-01 -1.317600000000000021e-02 -2.390909999999999980e-01
1.284029999999999894e-01 1.181500000000000085e-02 -5.965000000000000163e-02
-6.993900000000000117e-02 -4.280059999999999976e-01 -2.480719999999999870e-01
1.342109999999999970e-01 -3.010789999999999855e-01 2.340669999999999973e-01
-3.248519999999999741e-01 1.581339999999999968e-01 -3.382910000000000084e-01
1.453220000000000067e-01 1.665629999999999888e-01 -4.006779999999999786e-01
-1.552590000000000081e-01 -4.192279999999999895e-01 4.408900000000000319e-02
2.854639999999999955e-01 -4.608199999999999796e-02 -1.152900000000000036e-01
1.100340000000000068e-01 2.472330000000000083e-01 -3.650720000000000076e-01
-1.852380000000000138e-01 4.896920000000000162e-01 -3.664899999999999824e-01
3.662349999999999772e-01 3.176699999999999663e-02 -3.984400000000000164e-01
8.115999999999999950e-03 -5.674609999999999932e-01 -2.408409999999999995e-01
2.331249999999999989e-01 -3.177849999999999842e-01 1.751799999999999885e-02
-6.171159999999999979e-01 -1.579750000000000043e-01 -1.511349999999999916e-01
1.666600000000000026e-02 4.234760000000000191e-01 -4.280579999999999941e-01
-4.172020000000000173e-01 -1.246840000000000032e-01 -2.535080000000000111e-01
-3.924600000000000311e-02 1.010899999999999993e-02 2.774880000000000124e-01
-4.373070000000000013e-01 1.281849999999999934e-01 1.450450000000000073e-01
-2.276579999999999993e-01 5.068409999999999860e-01 -4.090130000000000154e-01
-4.875459999999999794e-01 1.064370000000000038e-01 -2.997690000000000077e-01
-1.479659999999999864e-01 -7.570620000000000127e-01 -1.739930000000000088e-01
1.048499999999999953e-02 2.470829999999999971e-01 -4.149599999999999816e-02
-1.258769999999999889e-01 5.216549999999999798e-01 -1.412410000000000054e-01
3.292309999999999959e-01 -5.013299999999999701e-02 -1.109760000000000052e-01
-2.344469999999999887e-01 2.280240000000000045e-01 -2.503819999999999935e-01
-1.561120000000000008e-01 -6.929520000000000124e-01 -1.911700000000000066e-01
6.318000000000000005e-02 -3.418280000000000207e-01 2.702379999999999782e-01
-5.922100000000000281e-02 -2.376189999999999969e-01 6.817000000000000143e-03
-2.197449999999999959e-01 -1.195289999999999964e-01 -2.884189999999999809e-01
-4.141279999999999961e-01 -4.433999999999999574e-03 8.004999999999999616e-02
-5.578500000000000125e-02 -4.753419999999999868e-01 -2.431520000000000070e-01
3.696789999999999798e-01 1.528349999999999986e-01 1.567790000000000017e-01
-3.051920000000000188e-01 2.150670000000000082e-01 -3.340989999999999793e-01
-9.396300000000000485e-02 1.051649999999999946e-01 -3.484659999999999980e-01
-1.715569999999999873e-01 1.437180000000000124e-01 -3.554970000000000074e-01
-1.048800000000000079e-02 -3.210149999999999948e-01 -2.766069999999999918e-01
-2.862290000000000112e-01 -1.200890000000000013e-01 3.384289999999999798e-01
2.820389999999999842e-01 -2.514870000000000161e-01 -3.282869999999999955e-01
3.058960000000000012e-01 4.241999999999999937e-02 1.809179999999999955e-01
-7.492539999999999756e-01 -1.026190000000000019e-01 -2.144540000000000057e-01
-2.814519999999999800e-01 -4.403859999999999997e-01 -2.263600000000000056e-01
-6.022799999999999682e-02 4.814359999999999751e-01 -5.229799999999999727e-02
-6.655440000000000245e-01 -2.914209999999999856e-01 -2.065299999999999914e-01
-3.988050000000000206e-01 1.084800000000000000e-02 -2.903649999999999842e-01
-5.382099999999999662e-01 -3.140899999999999942e-02 1.257119999999999904e-01
-1.829220000000000013e-01 1.837199999999999944e-02 -3.118639999999999746e-01
2.313419999999999921e-01 1.108699999999999963e-01 -3.605519999999999836e-01
3.460000000000000076e-04 3.728759999999999852e-01 -6.236499999999999683e-02
-5.608319999999999972e-01 9.136500000000000177e-02 -2.456240000000000090e-01
-3.012279999999999958e-01 2.861190000000000122e-01 4.290800000000000169e-02
