-1.532542854547500610e-01 -4.933308809995651245e-02 -4.804328083992004395e-02
-1.604399979114532471e-01 -4.866536706686019897e-02 -4.289478808641433716e-02
-1.446548104286193848e-01 -5.636591836810112000e-02 -4.246962070465087891e-02
-1.515143066644668579e-01 -5.586694180965423584e-02 -3.664950653910636902e-02
-9.507381916046142578e-02 1.182225868105888367e-01 1.276594549417495728e-01
-1.000163853168487549e-01 1.064784452319145203e-01 1.270728558301925659e-01
-8.245870471000671387e-02 1.147989332675933838e-01 1.303915828466415405e-01
-8.798348903656005859e-02 1.040721535682678223e-01 1.295026391744613647e-01
-3.927717506885528564e-01 1.119160205125808716e-01 4.625632613897323608e-02
-4.011411368846893311e-01 1.016945317387580872e-01 4.848918691277503967e-02
-3.799243271350860596e-01 1.130154877901077271e-01 5.525954812765121460e-02
-3.883542120456695557e-01 1.026833653450012207e-01 5.719807744026184082e-02
-5.545859932899475098e-01 -2.294742912054061890e-01 7.543846964836120605e-02
-5.626797080039978027e-01 -2.373321652412414551e-01 7.954034954309463501e-02
-5.448065996170043945e-01 -2.310400605201721191e-01 8.335778117179870605e-02
-5.521728396415710449e-01 -2.414398342370986938e-01 8.663393557071685791e-02
-4.831447005271911621e-01 -3.424780070781707764e-01 3.040771558880805969e-02
-4.866375923156738281e-01 -3.498226106166839600e-01 3.424409404397010803e-02
-4.766193330287933350e-01 -3.399012088775634766e-01 4.035421833395957947e-02
-4.802682995796203613e-01 -3.475404679775238037e-01 4.450057446956634521e-02
2.502099275588989258e-01 -3.071790933609008789e-01 -3.295123577117919922e-02
2.413733005523681641e-01 -3.106144666671752930e-01 -2.378272451460361481e-02
2.563869953155517578e-01 -3.127457499504089355e-01 -2.120069414377212524e-02
2.480120509862899780e-01 -3.167672753334045410e-01 -1.167211588472127914e-02
3.389491140842437744e-02 1.019993275403976440e-01 -1.764761805534362793e-01
3.097019903361797333e-02 9.025479108095169067e-02 -1.793507933616638184e-01
4.569032043218612671e-02 9.876018017530441284e-02 -1.752885431051254272e-01
4.304479062557220459e-02 8.688683807849884033e-02 -1.789957731962203979e-01
-2.469062507152557373e-01 3.046949803829193115e-01 -7.090888917446136475e-02
-2.546933293342590332e-01 3.016871511936187744e-01 -6.321000307798385620e-02
-2.428622394800186157e-01 3.121828734874725342e-01 -5.863023549318313599e-02
-2.506369054317474365e-01 3.087003231048583984e-01 -5.133212730288505554e-02
2.003890275955200195e-02 7.668461650609970093e-02 1.646020263433456421e-01
1.294113136827945709e-02 6.769423931837081909e-02 1.651514917612075806e-01
3.168078511953353882e-02 6.978304684162139893e-02 1.670753955841064453e-01
2.527596801519393921e-02 5.993382632732391357e-02 1.677487343549728394e-01
2.932542860507965088e-01 -2.059506177902221680e-01 -1.163711175322532654e-01
2.833360135555267334e-01 -2.141097635030746460e-01 -1.127035468816757202e-01
3.045967519283294678e-01 -2.143043577671051025e-01 -1.118017062544822693e-01
2.958117425441741943e-01 -2.221768051385879517e-01 -1.090637370944023132e-01
1.913638114929199219e-01 4.698068499565124512e-01 -1.578699499368667603e-01
1.796985566616058350e-01 4.696173369884490967e-01 -1.535820662975311279e-01
2.050233036279678345e-01 4.625756144523620605e-01 -1.569415479898452759e-01
1.937098056077957153e-01 4.619981646537780762e-01 -1.524314582347869873e-01
-3.331109583377838135e-01 -4.760088771581649780e-02 1.323556005954742432e-01
-3.392015993595123291e-01 -5.267664790153503418e-02 1.358004808425903320e-01
-3.293001353740692139e-01 -5.797285586595535278e-02 1.352450549602508545e-01
-3.356849253177642822e-01 -6.393297016620635986e-02 1.390300691127777100e-01
-5.606634020805358887e-01 -1.027189120650291443e-01 -3.652392625808715820e-01
-5.649555325508117676e-01 -1.133346110582351685e-01 -3.609664440155029297e-01
-5.457935333251953125e-01 -1.102850064635276794e-01 -3.607668876647949219e-01
-5.527830719947814941e-01 -1.191748157143592834e-01 -3.575118482112884521e-01
-3.169415891170501709e-01 -1.949860602617263794e-01 -6.007840484380722046e-02
-3.214266300201416016e-01 -2.041194438934326172e-01 -5.879383534193038940e-02
-3.111988902091979980e-01 -1.866340935230255127e-01 -5.152487754821777344e-02
-3.163162469863891602e-01 -1.962408572435379028e-01 -4.955980181694030762e-02
4.278628230094909668e-01 -2.159808427095413208e-01 1.155158691108226776e-02
4.234520196914672852e-01 -2.283130586147308350e-01 1.473978161811828613e-02
4.262216985225677490e-01 -2.083017379045486450e-01 2.163072675466537476e-02
4.219451546669006348e-01 -2.191092967987060547e-01 2.465831488370895386e-02
7.663605362176895142e-02 -4.075900465250015259e-02 -1.533491462469100952e-01
6.273939460515975952e-02 -5.062152817845344543e-02 -1.497704833745956421e-01
8.976472914218902588e-02 -4.342610016465187073e-02 -1.529005914926528931e-01
7.611222565174102783e-02 -5.344564840197563171e-02 -1.492034792900085449e-01
-4.120295345783233643e-01 -2.693310976028442383e-01 4.182036593556404114e-02
-4.178894758224487305e-01 -2.723864316940307617e-01 4.836424440145492554e-02
-4.091938138008117676e-01 -2.691490650177001953e-01 5.352676659822463989e-02
-4.168364405632019043e-01 -2.717230916023254395e-01 6.069731339812278748e-02
3.713539838790893555e-01 -1.731405556201934814e-01 1.899899691343307495e-01
3.596594929695129395e-01 -1.693803519010543823e-01 1.964679807424545288e-01
3.800044059753417969e-01 -1.628448814153671265e-01 1.870225965976715088e-01
3.681568503379821777e-01 -1.595579981803894043e-01 1.934269517660140991e-01
-3.360944688320159912e-01 -9.727809578180313110e-03 3.397977948188781738e-01
-3.431122004985809326e-01 -1.498504169285297394e-02 3.426399528980255127e-01
-3.312047421932220459e-01 3.745923750102519989e-03 3.410545885562896729e-01
-3.385528326034545898e-01 -1.919585047289729118e-03 3.450507223606109619e-01
3.638543561100959778e-02 1.284385025501251221e-01 1.571992188692092896e-01
2.443039603531360626e-02 1.187033653259277344e-01 1.601187735795974731e-01
4.726929217576980591e-02 1.275911778211593628e-01 1.566439419984817505e-01
3.659850731492042542e-02 1.183948740363121033e-01 1.603190749883651733e-01
-4.261743426322937012e-01 -1.201040595769882202e-01 -3.486009240150451660e-01
-4.342688024044036865e-01 -1.180069446563720703e-01 -3.435758054256439209e-01
-4.184449017047882080e-01 -1.220224276185035706e-01 -3.417007029056549072e-01
-4.266372621059417725e-01 -1.198985427618026733e-01 -3.361802697181701660e-01
-4.281420409679412842e-01 -2.094150185585021973e-01 -2.883058190345764160e-01
-4.332371354103088379e-01 -2.028677314519882202e-01 -2.797864973545074463e-01
-4.221872687339782715e-01 -2.153655886650085449e-01 -2.771151959896087646e-01
-4.279590547084808350e-01 -2.084888964891433716e-01 -2.694034874439239502e-01
6.929386854171752930e-01 3.108196854591369629e-01 -1.550255417823791504e-01
6.876712441444396973e-01 3.062866330146789551e-01 -1.513261497020721436e-01
6.976960301399230957e-01 3.131969869136810303e-01 -1.503776907920837402e-01
6.930088996887207031e-01 3.090338706970214844e-01 -1.464102715253829956e-01
1.006304025650024414e-01 -2.574905753135681152e-01 -1.991349458694458008e-02
9.373992681503295898e-02 -2.568598389625549316e-01 -1.101631298661231995e-02
1.064702123403549194e-01 -2.675007581710815430e-01 -1.091520953923463821e-02
9.934653341770172119e-02 -2.659609317779541016e-01 5.184533074498176575e-05
-1.783340424299240112e-01 1.673829108476638794e-01 -1.943681091070175171e-01
-1.842876970767974854e-01 1.580283939838409424e-01 -1.905266940593719482e-01
-1.702044904232025146e-01 1.593753993511199951e-01 -1.932115256786346436e-01
-1.762648224830627441e-01 1.503481417894363403e-01 -1.892649531364440918e-01
1.748443543910980225e-01 1.057806424796581268e-02 -1.308998912572860718e-01
1.714594513177871704e-01 8.875001221895217896e-04 -1.336751133203506470e-01
1.866409927606582642e-01 1.075218059122562408e-02 -1.236913353204727173e-01
1.823682785034179688e-01 1.113638747483491898e-03 -1.280726939439773560e-01
2.938061356544494629e-01 -3.049230873584747314e-01 -2.715992741286754608e-02
2.894628942012786865e-01 -3.109368979930877686e-01 -1.831172406673431396e-02
2.995789349079132080e-01 -3.074060976505279541e-01 -1.784695871174335480e-02
2.948835492134094238e-01 -3.135176301002502441e-01 -9.541803970932960510e-03
1.028159186244010925e-01 1.685386449098587036e-01 -1.109309718012809753e-01
9.478367865085601807e-02 1.780695170164108276e-01 -1.077664643526077271e-01
1.127289682626724243e-01 1.702923178672790527e-01 -9.848154336214065552e-02
1.048922687768936157e-01 1.789776235818862915e-01 -9.498777240514755249e-02
5.614575147628784180e-01 8.865190297365188599e-02 9.196455776691436768e-02
5.569672584533691406e-01 7.642196118831634521e-02 9.390474855899810791e-02
5.697535276412963867e-01 8.035030215978622437e-02 9.186267852783203125e-02
5.651804208755493164e-01 6.801640987396240234e-02 9.418281167745590210e-02
-4.529612883925437927e-02 4.687033593654632568e-01 -1.601387262344360352e-01
-5.519182235002517700e-02 4.640130698680877686e-01 -1.541044116020202637e-01
-3.800352662801742554e-02 4.720553755760192871e-01 -1.572236567735671997e-01
-4.760305956006050110e-02 4.659463763236999512e-01 -1.514779925346374512e-01
-3.534460365772247314e-01 -2.102077007293701172e-01 -2.986412346363067627e-01
-3.551184237003326416e-01 -2.204999029636383057e-01 -2.960344552993774414e-01
-3.484285175800323486e-01 -2.121398746967315674e-01 -2.878287136554718018e-01
-3.500493168830871582e-01 -2.215970456600189209e-01 -2.843073606491088867e-01
4.163113832473754883e-01 -4.088760316371917725e-01 9.789770096540451050e-02
4.060865640640258789e-01 -4.001352190971374512e-01 1.038563698530197144e-01
4.230597615242004395e-01 -4.080802798271179199e-01 1.054598838090896606e-01
4.139075279235839844e-01 -4.001691043376922607e-01 1.102871522307395935e-01
-3.172506392002105713e-01 2.318597631528973579e-03 3.369961678981781006e-01
-3.247776925563812256e-01 -3.349138889461755753e-03 3.414299488067626953e-01
-3.136211633682250977e-01 1.599740423262119293e-02 3.396093547344207764e-01
-3.206663727760314941e-01 9.212950244545936584e-03 3.437007665634155273e-01
-2.715176641941070557e-01 3.757612407207489014e-02 7.404854148626327515e-02
-2.791407108306884766e-01 4.125310108065605164e-02 7.607255131006240845e-02
-2.649098038673400879e-01 4.349930584430694580e-02 7.652682811021804810e-02
-2.727436721324920654e-01 4.763493686914443970e-02 7.887096703052520752e-02
-3.041759431362152100e-01 -1.408119350671768188e-01 8.281067758798599243e-02
-3.074344098567962646e-01 -1.483686417341232300e-01 8.769685775041580200e-02
-3.065108656883239746e-01 -1.362980455160140991e-01 9.542414546012878418e-02
-3.092812895774841309e-01 -1.436989903450012207e-01 1.012600436806678772e-01
2.657830948010087013e-03 6.379089355468750000e-01 -2.952805347740650177e-02
9.809770854189991951e-04 6.254667043685913086e-01 -2.661811374127864838e-02
9.936155751347541809e-03 6.483866572380065918e-01 -2.879169583320617676e-02
7.068925071507692337e-03 6.364866495132446289e-01 -2.581770718097686768e-02
2.495649009943008423e-01 -3.207572102546691895e-01 1.143604665994644165e-01
2.406367063522338867e-01 -3.128705024719238281e-01 1.214798912405967712e-01
2.512075006961822510e-01 -3.093091547489166260e-01 1.291719228029251099e-01
2.418663352727890015e-01 -3.015049993991851807e-01 1.360898017883300781e-01
3.882566392421722412e-01 -4.117553681135177612e-02 -1.231108605861663818e-01
3.850176930427551270e-01 -5.376816540956497192e-02 -1.228758320212364197e-01
3.972716331481933594e-01 -5.165332183241844177e-02 -1.206248775124549866e-01
3.941167593002319336e-01 -6.506917625665664673e-02 -1.199916973710060120e-01
-4.152417182922363281e-01 5.164960399270057678e-02 7.379022985696792603e-02
-4.214396178722381592e-01 4.294732213020324707e-02 7.837379723787307739e-02
-4.051753878593444824e-01 4.938743263483047485e-02 7.960923761129379272e-02
-4.120901823043823242e-01 4.028997942805290222e-02 8.333121240139007568e-02
7.121689617633819580e-03 1.666684448719024658e-01 1.378925740718841553e-01
-1.821871381253004074e-03 1.579446196556091309e-01 1.418815553188323975e-01
1.878174580633640289e-02 1.614190191030502319e-01 1.392768919467926025e-01
1.056218892335891724e-02 1.531151086091995239e-01 1.440325230360031128e-01
3.137792050838470459e-01 -1.562185883522033691e-01 -1.273662149906158447e-01
3.071513473987579346e-01 -1.660508662462234497e-01 -1.251824647188186646e-01
3.241421282291412354e-01 -1.674840003252029419e-01 -1.248426884412765503e-01
3.174539506435394287e-01 -1.772782951593399048e-01 -1.224431917071342468e-01
6.777901649475097656e-01 -4.352891445159912109e-01 -5.510606616735458374e-02
6.691522598266601562e-01 -4.302031993865966797e-01 -4.663587361574172974e-02
6.751583218574523926e-01 -4.337686598300933838e-01 -4.381712153553962708e-02
6.667832136154174805e-01 -4.292961359024047852e-01 -3.561595454812049866e-02
1.770150661468505859e-02 6.508657336235046387e-01 -3.331562131643295288e-02
1.392232999205589294e-02 6.400069594383239746e-01 -2.980809472501277924e-02
2.412509731948375702e-02 6.615019440650939941e-01 -2.970755845308303833e-02
1.923578977584838867e-02 6.516701579093933105e-01 -2.614020183682441711e-02
7.948164641857147217e-02 1.820803135633468628e-01 1.068303659558296204e-01
7.234050333499908447e-02 1.773550212383270264e-01 1.154899746179580688e-01
8.605435490608215332e-02 1.750504821538925171e-01 1.130116358399391174e-01
7.902726531028747559e-02 1.702468693256378174e-01 1.215646043419837952e-01
-3.919632732868194580e-01 1.574352234601974487e-01 -2.652770467102527618e-02
-3.995150029659271240e-01 1.494686752557754517e-01 -2.256803400814533234e-02
-3.849016726016998291e-01 1.631330400705337524e-01 -1.750181615352630615e-02
-3.922287821769714355e-01 1.554086953401565552e-01 -1.391000021249055862e-02
5.976790785789489746e-01 -4.276614785194396973e-01 7.295653969049453735e-02
5.891737341880798340e-01 -4.239407181739807129e-01 7.773739099502563477e-02
5.998209118843078613e-01 -4.267852604389190674e-01 7.821317762136459351e-02
5.914151668548583984e-01 -4.229034483432769775e-01 8.340275287628173828e-02
-1.299269944429397583e-01 3.182230591773986816e-01 -2.291202731430530548e-02
-1.388049274682998657e-01 3.164976537227630615e-01 -1.382794044911861420e-02
-1.215637028217315674e-01 3.200758397579193115e-01 -1.251713186502456665e-02
-1.304519176483154297e-01 3.182756304740905762e-01 -3.648120909929275513e-03
1.645220220088958740e-01 1.414129137992858887e-01 -7.325973361730575562e-02
1.613103598356246948e-01 1.491649895906448364e-01 -6.671899557113647461e-02
1.686768233776092529e-01 1.411836594343185425e-01 -6.227434426546096802e-02
1.657702922821044922e-01 1.486046761274337769e-01 -5.424371361732482910e-02
-9.212496876716613770e-02 4.851112663745880127e-01 -4.213289357721805573e-03
-9.490993618965148926e-02 4.746000468730926514e-01 6.594874430447816849e-04
-8.329865336418151855e-02 4.738920629024505615e-01 -2.852319506928324699e-03
-8.558577299118041992e-02 4.633109867572784424e-01 8.741157362237572670e-04
-3.709937334060668945e-01 -2.316236644983291626e-01 3.881153091788291931e-02
-3.789006173610687256e-01 -2.369065880775451660e-01 4.347433522343635559e-02
-3.693895936012268066e-01 -2.229067981243133545e-01 4.791895300149917603e-02
-3.773599565029144287e-01 -2.280174493789672852e-01 5.243898555636405945e-02
-5.177576541900634766e-01 -5.652498826384544373e-02 5.906678363680839539e-02
-5.196077823638916016e-01 -6.515683978796005249e-02 6.895352900028228760e-02
-5.138238668441772461e-01 -5.241854488849639893e-02 7.086523622274398804e-02
-5.158188939094543457e-01 -6.140147149562835693e-02 7.997047156095504761e-02
1.862575262784957886e-01 4.762760102748870850e-01 -1.939321160316467285e-01
1.728523224592208862e-01 4.768257439136505127e-01 -1.855233907699584961e-01
1.992530524730682373e-01 4.703072607517242432e-01 -1.911014467477798462e-01
1.858045309782028198e-01 4.711066186428070068e-01 -1.833620518445968628e-01
-5.940564274787902832e-01 -2.814634144306182861e-01 9.246095269918441772e-02
-5.984109640121459961e-01 -2.900039255619049072e-01 9.452150762081146240e-02
-5.874803662300109863e-01 -2.780745625495910645e-01 1.010582298040390015e-01
-5.925677418708801270e-01 -2.859969139099121094e-01 1.023566201329231262e-01
-2.141022980213165283e-01 -1.062170043587684631e-02 5.431425943970680237e-02
-2.234025746583938599e-01 -2.265434246510267258e-03 5.718804895877838135e-02
-2.084266096353530884e-01 -5.777844227850437164e-03 6.246276944875717163e-02
-2.180051207542419434e-01 4.047836177051067352e-03 6.538201868534088135e-02
-2.288991212844848633e-02 -3.475542366504669189e-02 -1.347081661224365234e-01
-2.862024307250976562e-02 -3.891729563474655151e-02 -1.279411911964416504e-01
-1.546320505440235138e-02 -4.733587801456451416e-02 -1.306733191013336182e-01
-2.195513620972633362e-02 -5.151230841875076294e-02 -1.242989376187324524e-01
-5.076763033866882324e-01 -3.780035972595214844e-01 3.142367675900459290e-02
-5.140059590339660645e-01 -3.844717144966125488e-01 3.585931658744812012e-02
-5.005357861518859863e-01 -3.826681673526763916e-01 3.839382901787757874e-02
-5.069473981857299805e-01 -3.889690637588500977e-01 4.270133748650550842e-02
4.516609013080596924e-01 8.967682719230651855e-02 -7.650647312402725220e-02
4.459998011589050293e-01 8.207059651613235474e-02 -7.354708015918731689e-02
4.595189392566680908e-01 8.917654305696487427e-02 -7.031377404928207397e-02
4.537489712238311768e-01 8.137162774801254272e-02 -6.719335168600082397e-02
1.567281782627105713e-01 -3.011356890201568604e-01 6.691910326480865479e-02
1.464732438325881958e-01 -2.951806485652923584e-01 7.097881287336349487e-02
1.584475040435791016e-01 -3.044495284557342529e-01 7.541750371456146240e-02
1.493687778711318970e-01 -2.986818552017211914e-01 8.004850149154663086e-02
1.914365738630294800e-01 -1.615240424871444702e-01 -1.247880756855010986e-01
1.775722205638885498e-01 -1.666126549243927002e-01 -1.195262074470520020e-01
2.055161893367767334e-01 -1.673766821622848511e-01 -1.256588250398635864e-01
1.913075298070907593e-01 -1.721283048391342163e-01 -1.201794669032096863e-01
5.202248692512512207e-02 2.410528212785720825e-01 -2.115180529654026031e-02
4.408185184001922607e-02 2.443372458219528198e-01 -1.233852095901966095e-02
6.007477641105651855e-02 2.380434721708297729e-01 -7.765248883515596390e-03
5.202784761786460876e-02 2.412780374288558960e-01 2.211790531873703003e-03
-1.237040311098098755e-01 4.246507287025451660e-01 2.831893973052501678e-02
-1.270040273666381836e-01 4.087463319301605225e-01 3.257540613412857056e-02
-1.116625294089317322e-01 4.244973659515380859e-01 3.397351875901222229e-02
-1.153315603733062744e-01 4.092549979686737061e-01 3.816641867160797119e-02
-3.324476182460784912e-01 1.233761981129646301e-01 3.438808619976043701e-01
-3.458865284919738770e-01 1.241690889000892639e-01 3.483537733554840088e-01
-3.200306296348571777e-01 1.330242007970809937e-01 3.498298227787017822e-01
-3.341045677661895752e-01 1.369743943214416504e-01 3.551306128501892090e-01
1.380562484264373779e-01 -2.363262027502059937e-01 -8.038789778947830200e-02
1.337510645389556885e-01 -2.429166287183761597e-01 -7.277071475982666016e-02
1.450155526399612427e-01 -2.475477308034896851e-01 -7.509157806634902954e-02
1.405210793018341064e-01 -2.541471421718597412e-01 -6.702816486358642578e-02
-6.129122897982597351e-02 3.967865370213985443e-03 1.267872899770736694e-01
-6.260956078767776489e-02 -7.101865950971841812e-03 1.223353371024131775e-01
-5.173912644386291504e-02 8.136902004480361938e-03 1.350406706333160400e-01
-5.205932259559631348e-02 -5.451165139675140381e-03 1.303675025701522827e-01
2.129413336515426636e-01 1.027074307203292847e-01 2.484471350908279419e-02
2.070785313844680786e-01 1.089936867356300354e-01 2.974691614508628845e-02
2.157486975193023682e-01 9.840635955333709717e-02 3.249858692288398743e-02
2.096539288759231567e-01 1.047485098242759705e-01 3.744125738739967346e-02
1.730115860700607300e-01 -2.377147600054740906e-02 -1.278378814458847046e-01
1.692243218421936035e-01 -3.527935221791267395e-02 -1.295622736215591431e-01
1.846446394920349121e-01 -2.497364766895771027e-02 -1.224412769079208374e-01
1.807191371917724609e-01 -3.627057373523712158e-02 -1.263219714164733887e-01
-3.990453779697418213e-01 -1.527164876461029053e-01 -3.403193652629852295e-01
-4.005077481269836426e-01 -1.620290577411651611e-01 -3.408966958522796631e-01
-3.899080157279968262e-01 -1.537027657032012939e-01 -3.329227864742279053e-01
-3.902156352996826172e-01 -1.629181951284408569e-01 -3.341164588928222656e-01
5.445073843002319336e-01 2.570913136005401611e-01 4.470597952604293823e-02
5.444220900535583496e-01 2.462860494852066040e-01 4.722889885306358337e-02
5.483149290084838867e-01 2.540308535099029541e-01 5.454540625214576721e-02
5.478531122207641602e-01 2.421235293149948120e-01 5.826429650187492371e-02
4.075269103050231934e-01 4.819728061556816101e-02 -1.292155086994171143e-01
3.964870274066925049e-01 4.875765368342399597e-02 -1.223469898104667664e-01
4.101133048534393311e-01 5.378745868802070618e-02 -1.227612346410751343e-01
3.998488187789916992e-01 5.394758284091949463e-02 -1.154422014951705933e-01
4.341216087341308594e-01 2.468950301408767700e-02 -5.917979776859283447e-02
4.291663467884063721e-01 1.251584757119417191e-02 -5.452907457947731018e-02
4.416851103305816650e-01 2.136060222983360291e-02 -5.794050544500350952e-02
4.371413290500640869e-01 9.204931557178497314e-03 -5.354196205735206604e-02
-8.117258548736572266e-03 6.791071891784667969e-01 -4.723668843507766724e-02
-1.399097032845020294e-02 6.746439337730407715e-01 -4.177422821521759033e-02
-2.095605712383985519e-03 6.815289258956909180e-01 -4.101521894335746765e-02
-7.555234245955944061e-03 6.760508418083190918e-01 -3.494011238217353821e-02
-3.352930545806884766e-01 2.019150406122207642e-01 -9.969837963581085205e-02
-3.421491980552673340e-01 1.903581619262695312e-01 -9.622389823198318481e-02
-3.343999385833740234e-01 2.115691155195236206e-01 -9.322382509708404541e-02
-3.416197299957275391e-01 2.013464421033859253e-01 -8.939712494611740112e-02
3.811751902103424072e-01 -3.801536560058593750e-02 5.735409259796142578e-02
3.729478716850280762e-01 -2.650613524019718170e-02 5.871163681149482727e-02
3.916344344615936279e-01 -4.091030731797218323e-02 6.244859844446182251e-02
3.835798501968383789e-01 -2.956761978566646576e-02 6.408574432134628296e-02
1.714217662811279297e-01 -9.139496833086013794e-02 1.962977200746536255e-01
1.640014797449111938e-01 -1.017723977565765381e-01 1.979422867298126221e-01
1.834316551685333252e-01 -9.433336555957794189e-02 1.982753127813339233e-01
1.769141107797622681e-01 -1.052784770727157593e-01 1.998298168182373047e-01
-5.073153376579284668e-01 -3.701441287994384766e-01 1.026598215103149414e-01
-5.163220763206481934e-01 -3.705406785011291504e-01 1.088689118623733521e-01
-5.020661950111389160e-01 -3.560506403446197510e-01 1.032681986689567566e-01
-5.112217664718627930e-01 -3.577068448066711426e-01 1.087240055203437805e-01
-3.927340209484100342e-01 -1.337735056877136230e-01 -1.173631399869918823e-01
-3.933874070644378662e-01 -1.508829593658447266e-01 -1.186501756310462952e-01
-3.807538151741027832e-01 -1.302142441272735596e-01 -1.177195906639099121e-01
-3.813998401165008545e-01 -1.450075209140777588e-01 -1.196501255035400391e-01
3.896342813968658447e-01 -6.772630661725997925e-02 1.754975169897079468e-01
3.839867413043975830e-01 -7.877355813980102539e-02 1.789977401494979858e-01
3.956538140773773193e-01 -7.400432974100112915e-02 1.719514876604080200e-01
3.903246223926544189e-01 -8.424307405948638916e-02 1.750284731388092041e-01
-9.406986832618713379e-02 5.536868572235107422e-01 -4.386126995086669922e-02
-1.004193574190139771e-01 5.452839136123657227e-01 -3.864857926964759827e-02
-8.382825553417205811e-02 5.537761449813842773e-01 -3.872320055961608887e-02
-9.042320400476455688e-02 5.453569293022155762e-01 -3.363356366753578186e-02
-3.613232970237731934e-01 1.901957690715789795e-01 -4.759228974580764771e-02
-3.686672151088714600e-01 1.836785078048706055e-01 -3.833973780274391174e-02
-3.582588732242584229e-01 1.987248063087463379e-01 -3.772070258855819702e-02
-3.655368387699127197e-01 1.918794363737106323e-01 -2.832334488630294800e-02
-1.292229443788528442e-01 1.645036637783050537e-01 -1.955842226743698120e-01
-1.336840391159057617e-01 1.547318696975708008e-01 -1.941961497068405151e-01
-1.206603497266769409e-01 1.529596149921417236e-01 -1.915242820978164673e-01
-1.251496374607086182e-01 1.431585699319839478e-01 -1.904236376285552979e-01
1.848573237657546997e-01 -1.677739173173904419e-01 -1.227838397026062012e-01
1.708282977342605591e-01 -1.725254952907562256e-01 -1.173155829310417175e-01
1.991330832242965698e-01 -1.746129542589187622e-01 -1.235414743423461914e-01
1.849190890789031982e-01 -1.794441938400268555e-01 -1.179475933313369751e-01
-2.414737045764923096e-01 1.131056770682334900e-01 -1.605677455663681030e-01
-2.468597590923309326e-01 1.037832275032997131e-01 -1.539675742387771606e-01
-2.333817481994628906e-01 1.060184910893440247e-01 -1.597899198532104492e-01
-2.383755743503570557e-01 9.612873196601867676e-02 -1.532234698534011841e-01
4.590274095535278320e-01 7.992713898420333862e-02 1.037677079439163208e-01
4.555802047252655029e-01 7.542393356561660767e-02 1.076418310403823853e-01
4.648206233978271484e-01 8.137243986129760742e-02 1.071681380271911621e-01
4.619297385215759277e-01 7.674775272607803345e-02 1.108872890472412109e-01
-2.899235188961029053e-01 -1.311125755310058594e-01 -2.190082333981990814e-02
-2.921769022941589355e-01 -1.398842781782150269e-01 -1.845313981175422668e-02
-2.888948619365692139e-01 -1.267365217208862305e-01 -1.361057162284851074e-02
-2.911351621150970459e-01 -1.355840861797332764e-01 -1.097013242542743683e-02
5.203519463539123535e-01 2.304301708936691284e-01 5.183107033371925354e-02
5.181266665458679199e-01 2.170300781726837158e-01 5.347776412963867188e-02
5.221620202064514160e-01 2.307509481906890869e-01 6.103224307298660278e-02
5.196365118026733398e-01 2.167525142431259155e-01 6.225661188364028931e-02
1.254517734050750732e-01 6.829333305358886719e-02 -1.578449159860610962e-01
1.226482614874839783e-01 5.970777198672294617e-02 -1.605251282453536987e-01
1.349214017391204834e-01 6.720742583274841309e-02 -1.523025631904602051e-01
1.324881017208099365e-01 5.783110484480857849e-02 -1.551919728517532349e-01
2.308254390954971313e-01 -8.437310904264450073e-02 -1.255592852830886841e-01
2.251163423061370850e-01 -9.681086242198944092e-02 -1.250108182430267334e-01
2.485444247722625732e-01 -8.315998315811157227e-02 -1.300867348909378052e-01
2.428823411464691162e-01 -9.658309817314147949e-02 -1.291549205780029297e-01
-3.412897884845733643e-02 7.813271880149841309e-02 -1.744471192359924316e-01
-4.361248016357421875e-02 6.626173108816146851e-02 -1.701166629791259766e-01
-1.855816692113876343e-02 8.088751882314682007e-02 -1.765900701284408569e-01
-2.780169062316417694e-02 6.886528432369232178e-02 -1.724119633436203003e-01
-5.358288884162902832e-01 -1.233494803309440613e-01 -3.509672880172729492e-01
-5.448933243751525879e-01 -1.307455450296401978e-01 -3.481737971305847168e-01
-5.202586054801940918e-01 -1.289339065551757812e-01 -3.473334610462188721e-01
-5.293598175048828125e-01 -1.371503025293350220e-01 -3.448220491409301758e-01
4.627019762992858887e-01 -4.112203717231750488e-01 6.386940181255340576e-02
4.557695388793945312e-01 -4.182548522949218750e-01 6.805194169282913208e-02
4.742110371589660645e-01 -4.145571291446685791e-01 6.164050474762916565e-02
4.676673710346221924e-01 -4.218073785305023193e-01 6.545408070087432861e-02
2.253490984439849854e-01 5.474186316132545471e-02 -6.011936441063880920e-02
2.231407314538955688e-01 6.048716977238655090e-02 -5.916916951537132263e-02
2.295581251382827759e-01 5.465386062860488892e-02 -5.140943080186843872e-02
2.260757684707641602e-01 6.361418962478637695e-02 -4.797009751200675964e-02
-1.673760116100311279e-01 1.252583228051662445e-03 -9.926079958677291870e-02
-1.725464612245559692e-01 -3.778299316763877869e-03 -9.269016236066818237e-02
-1.585854887962341309e-01 -9.054712951183319092e-03 -9.468804299831390381e-02
-1.638886928558349609e-01 -1.328656449913978577e-02 -8.847897499799728394e-02
3.616054952144622803e-01 -5.068998038768768311e-02 1.869493424892425537e-01
3.531481325626373291e-01 -6.080048158764839172e-02 1.925066858530044556e-01
3.742109239101409912e-01 -5.934961512684822083e-02 1.844141036272048950e-01
3.667588233947753906e-01 -7.049006223678588867e-02 1.895877271890640259e-01
-3.273492157459259033e-01 5.032948404550552368e-02 8.188518881797790527e-02
-3.324991464614868164e-01 3.847306221723556519e-02 8.394674211740493774e-02
-3.171620666980743408e-01 4.584417492151260376e-02 8.245860040187835693e-02
-3.213025927543640137e-01 3.329483792185783386e-02 8.351197093725204468e-02
3.014780282974243164e-01 -3.556902110576629639e-01 7.673576474189758301e-02
2.908768951892852783e-01 -3.518477082252502441e-01 8.135277032852172852e-02
3.123187124729156494e-01 -3.579275608062744141e-01 8.496987819671630859e-02
3.024884462356567383e-01 -3.520316779613494873e-01 8.938989043235778809e-02
-3.878813385963439941e-01 1.544833928346633911e-01 -4.094745963811874390e-02
-3.958545625209808350e-01 1.475163549184799194e-01 -3.714571520686149597e-02
-3.822944760322570801e-01 1.624795347452163696e-01 -3.182712942361831665e-02
-3.900304436683654785e-01 1.551707237958908081e-01 -2.772237174212932587e-02
-2.635573446750640869e-01 2.431276738643646240e-01 -1.474322676658630371e-01
-2.730406820774078369e-01 2.420449107885360718e-01 -1.402695477008819580e-01
-2.645737230777740479e-01 2.532305121421813965e-01 -1.386442482471466064e-01
-2.732359468936920166e-01 2.511584758758544922e-01 -1.318513154983520508e-01
6.324014663696289062e-01 -4.690499901771545410e-01 -1.198548004031181335e-01
6.270413994789123535e-01 -4.671955406665802002e-01 -1.117268204689025879e-01
6.300056576728820801e-01 -4.715344905853271484e-01 -1.075796112418174744e-01
6.245661377906799316e-01 -4.691525101661682129e-01 -9.987056255340576172e-02
7.055221199989318848e-01 -5.057556033134460449e-01 -1.288762241601943970e-01
6.983268857002258301e-01 -5.091960430145263672e-01 -1.213238388299942017e-01
7.065882086753845215e-01 -4.996767342090606689e-01 -1.149528101086616516e-01
6.982288956642150879e-01 -5.030563473701477051e-01 -1.073466688394546509e-01
-3.200915828347206116e-02 2.105152457952499390e-01 -1.305767595767974854e-01
-3.694298863410949707e-02 2.066376805305480957e-01 -1.326041221618652344e-01
-2.353435568511486053e-02 2.085526138544082642e-01 -1.229576691985130310e-01
-3.144692629575729370e-02 2.124212980270385742e-01 -1.238122358918190002e-01
2.951380014419555664e-01 1.238266378641128540e-02 6.716679781675338745e-02
2.868745028972625732e-01 1.736361160874366760e-02 7.209751009941101074e-02
3.024567067623138428e-01 1.559283118695020676e-02 7.698912173509597778e-02
2.939644753932952881e-01 2.083771675825119019e-02 8.194449543952941895e-02
-1.069539114832878113e-01 -8.322074264287948608e-02 -1.957148872315883636e-02
-1.120430603623390198e-01 -8.363909274339675903e-02 -9.419454261660575867e-03
-1.026085987687110901e-01 -9.111192077398300171e-02 -1.015670038759708405e-02
-1.074548959732055664e-01 -9.059557318687438965e-02 -5.623758770525455475e-04
-5.205419063568115234e-01 -1.007861122488975525e-01 -3.351171314716339111e-01
-5.309005975723266602e-01 -1.074284836649894714e-01 -3.314717710018157959e-01
-5.067338347434997559e-01 -1.115492060780525208e-01 -3.318941891193389893e-01
-5.148413181304931641e-01 -1.185630261898040771e-01 -3.281105756759643555e-01
3.040513694286346436e-01 5.315511673688888550e-02 1.260503977537155151e-01
2.953115999698638916e-01 5.385648086667060852e-02 1.327457427978515625e-01
3.117158114910125732e-01 5.778545886278152466e-02 1.356305927038192749e-01
3.037529885768890381e-01 5.595017597079277039e-02 1.424197554588317871e-01
-5.988027453422546387e-01 -6.841118633747100830e-02 -3.734563589096069336e-01
-6.002231836318969727e-01 -8.145884424448013306e-02 -3.681771457195281982e-01
-5.879248976707458496e-01 -7.353935390710830688e-02 -3.701891601085662842e-01
-5.893837809562683105e-01 -8.647397905588150024e-02 -3.649486601352691650e-01
-6.114374399185180664e-01 -3.671550154685974121e-01 4.735342413187026978e-02
-6.161733269691467285e-01 -3.644797503948211670e-01 5.725982785224914551e-02
-6.115517616271972656e-01 -3.704509139060974121e-01 5.836939439177513123e-02
-6.164488792419433594e-01 -3.663094639778137207e-01 6.795260310173034668e-02
6.709629893302917480e-01 -4.314682185649871826e-01 -9.199773520231246948e-02
6.629759073257446289e-01 -4.268781840801239014e-01 -8.214072138071060181e-02
6.683273911476135254e-01 -4.293807148933410645e-01 -8.204714953899383545e-02
6.603652834892272949e-01 -4.255079925060272217e-01 -7.256218791007995605e-02
6.214917898178100586e-01 -4.094478785991668701e-01 -3.262171149253845215e-02
6.160933971405029297e-01 -4.076631069183349609e-01 -2.576976269483566284e-02
6.234242320060729980e-01 -4.070592224597930908e-01 -2.463670447468757629e-02
6.178403496742248535e-01 -4.049235582351684570e-01 -1.789254136383533478e-02
-7.399231195449829102e-02 3.950196206569671631e-01 -1.830883920192718506e-01
-8.108188211917877197e-02 3.943773508071899414e-01 -1.784129142761230469e-01
-7.054259628057479858e-02 4.026813209056854248e-01 -1.819679588079452515e-01
-7.890658825635910034e-02 4.028870463371276855e-01 -1.765144318342208862e-01
5.455869436264038086e-01 3.912231326103210449e-02 1.074313744902610779e-01
5.392373204231262207e-01 3.311491757631301880e-02 1.118260622024536133e-01
5.531743764877319336e-01 3.976618871092796326e-02 1.086124181747436523e-01
5.468522310256958008e-01 3.295759111642837524e-02 1.129976660013198853e-01
-5.092738568782806396e-02 2.356696426868438721e-01 -1.556997150182723999e-01
-5.286006256937980652e-02 2.260318547487258911e-01 -1.561098247766494751e-01
-4.453802481293678284e-02 2.342505007982254028e-01 -1.464995443820953369e-01
-4.650934040546417236e-02 2.245828658342361450e-01 -1.467773318290710449e-01
6.707674860954284668e-01 -4.639795124530792236e-01 -1.482341736555099487e-01
6.602097153663635254e-01 -4.602475166320800781e-01 -1.408625245094299316e-01
6.707637906074523926e-01 -4.547501504421234131e-01 -1.423119604587554932e-01
6.600791811943054199e-01 -4.515562355518341064e-01 -1.347543448209762573e-01
-4.977592229843139648e-01 -1.679936647415161133e-01 1.128139197826385498e-01
-4.938186109066009521e-01 -1.783432066440582275e-01 1.152369454503059387e-01
-4.936154484748840332e-01 -1.727153062820434570e-01 1.249387562274932861e-01
-4.901260435581207275e-01 -1.826719343662261963e-01 1.281176209449768066e-01
9.677542746067047119e-02 -1.552064120769500732e-01 1.768504679203033447e-01
9.546370804309844971e-02 -1.683862805366516113e-01 1.708157211542129517e-01
1.080145016312599182e-01 -1.508572101593017578e-01 1.847442686557769775e-01
1.055080145597457886e-01 -1.636104732751846313e-01 1.794114410877227783e-01
3.250747323036193848e-01 -1.610057801008224487e-02 4.514377564191818237e-02
3.171750605106353760e-01 -5.280426703393459320e-03 5.406481400132179260e-02
3.303121626377105713e-01 -7.240249775350093842e-03 5.708082392811775208e-02
3.218487799167633057e-01 3.525561653077602386e-03 6.541074812412261963e-02
3.855572044849395752e-01 4.765001684427261353e-02 1.567389816045761108e-01
3.790432810783386230e-01 4.069408029317855835e-02 1.614812314510345459e-01
3.937110900878906250e-01 4.178573191165924072e-02 1.583294123411178589e-01
3.870856165885925293e-01 3.421519324183464050e-02 1.627596467733383179e-01
4.640773832798004150e-01 4.372117668390274048e-02 -1.155430227518081665e-01
4.552584588527679443e-01 3.309611976146697998e-02 -1.174866259098052979e-01
4.744845032691955566e-01 3.957194834947586060e-02 -1.119891032576560974e-01
4.660483598709106445e-01 2.857076004147529602e-02 -1.134511232376098633e-01
-3.145087957382202148e-01 2.264399081468582153e-01 4.052998870611190796e-02
-3.196704089641571045e-01 2.171891480684280396e-01 4.324092343449592590e-02
-3.071771562099456787e-01 2.260959446430206299e-01 4.948899894952774048e-02
-3.121507465839385986e-01 2.160805016756057739e-01 5.295676365494728088e-02
-7.999997586011886597e-03 1.215508431196212769e-01 -1.767717450857162476e-01
-1.624636724591255188e-02 1.116744577884674072e-01 -1.750592738389968872e-01
7.014688570052385330e-03 1.205711960792541504e-01 -1.775923520326614380e-01
4.322300665080547333e-04 1.116918325424194336e-01 -1.781477630138397217e-01
3.450789153575897217e-01 4.615376144647598267e-02 1.600913107395172119e-01
3.382652103900909424e-01 3.937495872378349304e-02 1.655801981687545776e-01
3.559016287326812744e-01 4.424536973237991333e-02 1.606939136981964111e-01
3.485432863235473633e-01 3.749250248074531555e-02 1.658417731523513794e-01
-2.951335608959197998e-01 -2.577484585344791412e-02 6.900364160537719727e-02
-2.963388860225677490e-01 -3.579914942383766174e-02 7.028342783451080322e-02
-2.932524681091308594e-01 -2.456599287688732147e-02 7.420093566179275513e-02
-2.952763140201568604e-01 -3.320801258087158203e-02 7.550718635320663452e-02
-3.439512252807617188e-01 9.315318614244461060e-02 3.526834547519683838e-01
-3.503789007663726807e-01 8.257070183753967285e-02 3.546869158744812012e-01
-3.355014324188232422e-01 9.974200278520584106e-02 3.565970659255981445e-01
-3.440556824207305908e-01 9.204450994729995728e-02 3.584998846054077148e-01
-2.340826839208602905e-01 1.099532917141914368e-01 1.008333861827850342e-01
-2.324683517217636108e-01 9.210981428623199463e-02 9.840312600135803223e-02
-2.245844006538391113e-01 1.073994636535644531e-01 1.040867567062377930e-01
-2.228094637393951416e-01 8.948812633752822876e-02 1.015678197145462036e-01
-1.019521802663803101e-01 3.963991403579711914e-01 5.288072675466537476e-02
-1.074999794363975525e-01 3.835324048995971680e-01 5.763495713472366333e-02
-8.833716809749603271e-02 3.920514285564422607e-01 5.735120922327041626e-02
-9.423476457595825195e-02 3.796348571777343750e-01 6.287818402051925659e-02
7.552950829267501831e-02 1.317040063440799713e-02 -1.723183691501617432e-01
6.688407063484191895e-02 6.584201473742723465e-03 -1.704561263322830200e-01
8.507810533046722412e-02 1.182936411350965500e-02 -1.718231588602066040e-01
7.679326832294464111e-02 5.121896509081125259e-03 -1.699170172214508057e-01
2.795078456401824951e-01 -3.443275112658739090e-03 -1.595687493681907654e-02
2.749080657958984375e-01 8.317553438246250153e-04 -8.093345910310745239e-03
2.835434079170227051e-01 -6.611521355807781219e-03 -2.274316735565662384e-03
2.787258923053741455e-01 -2.447026781737804413e-03 5.188545677810907364e-03
-4.164658486843109131e-01 -1.686641871929168701e-01 -3.490448892116546631e-01
-4.255237877368927002e-01 -1.758327633142471313e-01 -3.456155955791473389e-01
-4.045743644237518311e-01 -1.703851372003555298e-01 -3.455844223499298096e-01
-4.123092889785766602e-01 -1.788742989301681519e-01 -3.431918025016784668e-01
3.414945304393768311e-01 -2.316272258758544922e-02 1.886371225118637085e-01
3.322574794292449951e-01 -3.197167068719863892e-02 1.947517991065979004e-01
3.549567461013793945e-01 -3.249203413724899292e-02 1.860634535551071167e-01
3.456328213214874268e-01 -4.023550078272819519e-02 1.918694227933883667e-01
-2.885266840457916260e-01 8.804443478584289551e-02 -1.328875571489334106e-01
-2.963177263736724854e-01 7.865292578935623169e-02 -1.231899112462997437e-01
-2.768458724021911621e-01 7.904405891895294189e-02 -1.343962252140045166e-01
-2.841790318489074707e-01 6.933940201997756958e-02 -1.249389946460723877e-01
-4.314840435981750488e-01 -8.079289644956588745e-02 2.312402576208114624e-01
-4.417671561241149902e-01 -7.972680777311325073e-02 2.362993359565734863e-01
-4.275353550910949707e-01 -7.117904722690582275e-02 2.380944937467575073e-01
-4.376007616519927979e-01 -7.096918672323226929e-02 2.440247088670730591e-01
-3.806029558181762695e-01 -2.597340345382690430e-01 -2.209903299808502197e-01
-3.874134123325347900e-01 -2.612285614013671875e-01 -2.154933214187622070e-01
-3.755274713039398193e-01 -2.602569162845611572e-01 -2.123664915561676025e-01
-3.820288777351379395e-01 -2.619262039661407471e-01 -2.071161717176437378e-01
2.415194660425186157e-01 -1.686101853847503662e-01 -1.238480433821678162e-01
2.324870526790618896e-01 -1.797632426023483276e-01 -1.194691359996795654e-01
2.537218332290649414e-01 -1.751897484064102173e-01 -1.247909516096115112e-01
2.441921383142471313e-01 -1.862201094627380371e-01 -1.201518550515174866e-01
3.079274892807006836e-01 -1.900877989828586578e-02 -3.255770355463027954e-02
3.025060892105102539e-01 -1.723622158169746399e-02 -2.707966975867748260e-02
3.142948150634765625e-01 -2.372487261891365051e-02 -2.147958055138587952e-02
3.087374866008758545e-01 -2.240118011832237244e-02 -1.636833325028419495e-02
2.683716714382171631e-01 -2.543773353099822998e-01 -9.381914883852005005e-02
2.589546740055084229e-01 -2.615881264209747314e-01 -8.614924550056457520e-02
2.794091403484344482e-01 -2.567358911037445068e-01 -9.137774258852005005e-02
2.706006169319152832e-01 -2.641793787479400635e-01 -8.328918367624282837e-02
-5.681244283914566040e-02 2.316868752241134644e-01 -1.649314612150192261e-01
-5.908706411719322205e-02 2.222350090742111206e-01 -1.652044206857681274e-01
-5.027498304843902588e-02 2.275854647159576416e-01 -1.552329063415527344e-01
-5.233227461576461792e-02 2.176297008991241455e-01 -1.563661396503448486e-01
1.292958557605743408e-01 -2.455773502588272095e-01 1.487311273813247681e-01
1.226226165890693665e-01 -2.366994172334671021e-01 1.505822390317916870e-01
1.367745995521545410e-01 -2.417865842580795288e-01 1.600696742534637451e-01
1.300201714038848877e-01 -2.327208817005157471e-01 1.618392914533615112e-01
4.061799347400665283e-01 -3.919304013252258301e-01 7.040952146053314209e-02
3.945250511169433594e-01 -3.849607706069946289e-01 7.797907292842864990e-02
4.168834090232849121e-01 -3.938297033309936523e-01 7.642225921154022217e-02
4.056774973869323730e-01 -3.877141177654266357e-01 8.442242443561553955e-02
-3.400196135044097900e-01 2.129238545894622803e-01 -6.052596867084503174e-02
-3.476198315620422363e-01 2.064660489559173584e-01 -5.116772279143333435e-02
-3.391247987747192383e-01 2.193887531757354736e-01 -4.449730366468429565e-02
-3.466419875621795654e-01 2.128418087959289551e-01 -3.415912762284278870e-02
-4.691379368305206299e-01 -2.515503168106079102e-01 -7.454287260770797729e-02
-4.743413329124450684e-01 -2.446527332067489624e-01 -6.618989259004592896e-02
-4.651631116867065430e-01 -2.565392255783081055e-01 -6.494128704071044922e-02
-4.704644083976745605e-01 -2.495914697647094727e-01 -5.672433227300643921e-02
5.003150552511215210e-02 7.114878296852111816e-01 -7.168380916118621826e-02
4.369881749153137207e-02 6.998764872550964355e-01 -6.643050163984298706e-02
5.701597407460212708e-02 7.133504152297973633e-01 -6.396817415952682495e-02
5.103191360831260681e-02 7.012750506401062012e-01 -5.839914828538894653e-02
1.883329749107360840e-01 1.362609565258026123e-01 -1.871528476476669312e-02
1.848909258842468262e-01 1.418496519327163696e-01 -1.004725135862827301e-02
1.900410801172256470e-01 1.330918371677398682e-01 -7.630368694663047791e-03
1.866224259138107300e-01 1.384053081274032593e-01 1.479396596550941467e-04
-4.932508468627929688e-01 -2.763875573873519897e-02 4.458095133304595947e-02
-4.971342980861663818e-01 -3.585505858063697815e-02 5.128407105803489685e-02
-4.896771907806396484e-01 -2.550417371094226837e-02 5.689626187086105347e-02
-4.941959977149963379e-01 -3.393251448869705200e-02 6.313793361186981201e-02
6.439891457557678223e-01 -4.172428250312805176e-01 -4.488858580589294434e-02
6.381600499153137207e-01 -4.149770736694335938e-01 -3.816053271293640137e-02
6.416653990745544434e-01 -4.140605330467224121e-01 -3.342560306191444397e-02
6.357274055480957031e-01 -4.119620323181152344e-01 -2.659800648689270020e-02
-1.873075962066650391e-01 1.448309570550918579e-01 1.209103688597679138e-01
-1.884911060333251953e-01 1.319322586059570312e-01 1.180848777294158936e-01
-1.746243983507156372e-01 1.423187851905822754e-01 1.212301552295684814e-01
-1.759668886661529541e-01 1.299038082361221313e-01 1.189650446176528931e-01
4.216226041316986084e-01 -2.215571850538253784e-01 1.542504504323005676e-02
4.170402288436889648e-01 -2.329908460378646851e-01 1.884469203650951385e-02
4.232237935066223145e-01 -2.121848016977310181e-01 2.267612703144550323e-02
4.187123477458953857e-01 -2.236444205045700073e-01 2.580879628658294678e-02
3.832905292510986328e-01 3.497611358761787415e-02 -5.997381359338760376e-02
3.786417245864868164e-01 2.760533988475799561e-02 -5.684145167469978333e-02
3.885750472545623779e-01 3.138920664787292480e-02 -5.637828633189201355e-02
3.840631842613220215e-01 2.367935329675674438e-02 -5.343791097402572632e-02
-4.709103703498840332e-01 -2.352859526872634888e-01 -1.661736965179443359e-01
-4.707346260547637939e-01 -2.438110709190368652e-01 -1.633491069078445435e-01
-4.732775986194610596e-01 -2.354406714439392090e-01 -1.571794897317886353e-01
-4.740751981735229492e-01 -2.406322956085205078e-01 -1.536813974380493164e-01
5.443630218505859375e-01 -3.794557154178619385e-01 8.053703606128692627e-02
5.365228652954101562e-01 -3.794232308864593506e-01 8.741489052772521973e-02
5.475148558616638184e-01 -3.835333883762359619e-01 8.534459769725799561e-02
5.394380688667297363e-01 -3.833349347114562988e-01 9.241545945405960083e-02
2.600821256637573242e-01 -1.208562403917312622e-01 2.106593996286392212e-01
2.485235482454299927e-01 -1.330497562885284424e-01 2.148316204547882080e-01
2.725785374641418457e-01 -1.236694157123565674e-01 2.104614228010177612e-01
2.608003020286560059e-01 -1.356764584779739380e-01 2.147490829229354858e-01
5.092173218727111816e-01 3.098344504833221436e-01 8.146311342716217041e-02
5.050230622291564941e-01 2.964443564414978027e-01 8.145890384912490845e-02
5.174829959869384766e-01 3.099990785121917725e-01 8.505079150199890137e-02
5.133077502250671387e-01 2.961565852165222168e-01 8.514565974473953247e-02
5.577654838562011719e-01 2.650837898254394531e-01 5.974051728844642639e-02
5.578514933586120605e-01 2.533474564552307129e-01 6.423548609018325806e-02
5.595760345458984375e-01 2.626952826976776123e-01 7.182677835226058960e-02
5.592831373214721680e-01 2.511118054389953613e-01 7.645928114652633667e-02
-5.132469534873962402e-01 -1.187276020646095276e-01 -3.663793504238128662e-01
-5.188142657279968262e-01 -1.343425810337066650e-01 -3.627043068408966064e-01
-5.010895133018493652e-01 -1.200233250856399536e-01 -3.614543378353118896e-01
-5.066309571266174316e-01 -1.357269138097763062e-01 -3.577899336814880371e-01
1.431679725646972656e-01 -2.991396188735961914e-01 4.887146502733230591e-02
1.322197169065475464e-01 -2.934010028839111328e-01 5.351261422038078308e-02
1.492233425378799438e-01 -3.037232160568237305e-01 5.832737684249877930e-02
1.382790803909301758e-01 -2.978679239749908447e-01 6.253281235694885254e-02
-4.102715551853179932e-01 -2.952093482017517090e-01 -1.836889237165451050e-02
-4.181203544139862061e-01 -2.960686087608337402e-01 -9.719694964587688446e-03
-4.069313108921051025e-01 -2.912361919879913330e-01 -6.190588697791099548e-03
-4.142795205116271973e-01 -2.920942306518554688e-01 2.493604319170117378e-03
7.117902040481567383e-01 -4.945586323738098145e-01 -1.561935991048812866e-01
7.067119479179382324e-01 -5.062229633331298828e-01 -1.595240235328674316e-01
7.176539897918701172e-01 -4.892306029796600342e-01 -1.495799720287322998e-01
7.123031020164489746e-01 -4.981946051120758057e-01 -1.518277972936630249e-01
-3.932094275951385498e-01 -1.486884951591491699e-01 -3.333831131458282471e-01
-3.939378857612609863e-01 -1.578499078750610352e-01 -3.343395888805389404e-01
-3.846881687641143799e-01 -1.486943364143371582e-01 -3.260612785816192627e-01
-3.856960237026214600e-01 -1.570750623941421509e-01 -3.265147805213928223e-01
5.965847969055175781e-01 1.968094259500503540e-01 -1.010402143001556396e-01
5.896831750869750977e-01 1.903937608003616333e-01 -9.750846773386001587e-02
