4.781099999999999933e-02 -6.538939999999999753e-01 1.733290000000000108e-01
-5.806400000000000450e-01 -1.215119999999999950e-01 -1.698800000000000032e-01
-7.719099999999999573e-02 -1.508299999999999919e-01 2.777740000000000209e-01
4.057450000000000223e-01 4.122810000000000086e-01 -2.764980000000000215e-01
-4.079180000000000028e-01 -1.214049999999999990e-01 1.450490000000000113e-01
5.776710000000000456e-01 4.024369999999999892e-01 2.015139999999999987e-01
2.556740000000000124e-01 2.309599999999999986e-01 5.275799999999999934e-02
2.212189999999999990e-01 -9.062099999999999322e-02 -8.464800000000000102e-02
4.309299999999999936e-02 -5.733350000000000390e-01 2.033669999999999922e-01
2.143919999999999992e-01 -6.558380000000000321e-01 -3.052200000000000052e-02
9.776999999999999580e-02 2.163059999999999983e-01 9.912200000000000177e-02
5.101780000000000204e-01 4.130619999999999847e-01 3.226400000000000101e-02
-7.051070000000000393e-01 1.470110000000000028e-01 1.132289999999999963e-01
5.435929999999999929e-01 -4.352869999999999795e-01 -1.130260000000000015e-01
8.448700000000000099e-01 -1.440819999999999879e-01 -5.393339999999999801e-01
1.770490000000000119e-01 6.501519999999999522e-01 -2.001690000000000136e-01
-1.633400000000000130e-02 -7.229219999999999535e-01 1.706370000000000109e-01
5.127800000000000136e-01 -2.612200000000000077e-01 -4.520170000000000021e-01
-2.669549999999999979e-01 1.230760000000000048e-01 -1.707569999999999921e-01
-3.462999999999999967e-01 1.232179999999999942e-01 -1.504070000000000129e-01
1.718590000000000118e-01 -3.796499999999999875e-02 -1.962069999999999925e-01
-1.040490000000000026e-01 -4.444910000000000250e-01 -3.442939999999999889e-01
-6.857050000000000090e-01 1.066359999999999947e-01 8.396299999999999597e-02
9.729400000000000548e-02 2.196440000000000059e-01 -1.987079999999999957e-01
-5.483080000000000176e-01 -1.382829999999999893e-01 2.903999999999999984e-02
-3.403189999999999826e-01 2.687479999999999869e-01 3.207929999999999948e-01
-6.038740000000000219e-01 1.791500000000000037e-01 1.377569999999999906e-01
-1.885360000000000091e-01 4.556000000000000050e-01 1.306950000000000056e-01
1.047455000000000025e+00 2.513000000000000043e-03 -7.776800000000000379e-02
6.527159999999999629e-01 5.977569999999999828e-01 -1.390760000000000052e-01
1.088006000000000029e+00 -1.078120000000000051e-01 -3.339799999999999713e-02
-2.362269999999999925e-01 -6.779770000000000518e-01 -3.820300000000000085e-02
1.433020000000000127e-01 5.889929999999999888e-01 2.926860000000000017e-01
9.121820000000000483e-01 1.154590000000000061e-01 -5.000400000000000400e-01
1.292459999999999998e-01 -5.618870000000000253e-01 -3.777690000000000214e-01
6.521980000000000555e-01 -9.365400000000000114e-02 1.240730000000000027e-01
-2.193910000000000027e-01 -1.241280000000000022e-01 3.424969999999999959e-01
4.388989999999999836e-01 3.847450000000000037e-01 7.050999999999999976e-03
5.500999999999999814e-03 5.236929999999999641e-01 1.039380000000000026e-01
5.122020000000000461e-01 8.913149999999999684e-01 -1.098760000000000014e-01
-1.073069999999999996e-01 -8.031329999999999858e-01 -7.030999999999999923e-03
-1.492429999999999868e-01 9.912899999999999490e-02 3.486449999999999827e-01
-2.042219999999999869e-01 1.106410000000000032e-01 -1.006279999999999952e-01
5.850269999999999637e-01 1.249500000000000055e-01 1.522449999999999914e-01
-2.850139999999999896e-01 3.469990000000000019e-01 1.614319999999999922e-01
-5.488640000000000185e-01 -1.038229999999999986e-01 -1.707210000000000116e-01
8.680480000000000418e-01 1.802600000000000036e-01 -3.320040000000000213e-01
1.339599999999999992e-02 -6.165659999999999474e-01 -3.809370000000000256e-01
-4.860300000000000037e-02 6.747400000000000619e-02 1.726149999999999907e-01
4.240780000000000105e-01 4.105829999999999758e-01 4.847300000000000220e-02
-3.011210000000000275e-01 -4.665639999999999787e-01 2.846210000000000129e-01
2.575970000000000204e-01 -6.532679999999999598e-01 1.175839999999999941e-01
-5.386779999999999902e-01 -1.428919999999999912e-01 7.185400000000000120e-02
8.414760000000000018e-01 3.629649999999999821e-01 -2.040200000000000000e-02
2.602579999999999893e-01 -5.276819999999999844e-01 -3.228650000000000131e-01
5.802199999999999719e-02 -1.425490000000000090e-01 2.684759999999999924e-01
-3.513350000000000084e-01 -1.084029999999999994e-01 3.595149999999999735e-01
7.512020000000000364e-01 -2.443079999999999974e-01 -3.693810000000000149e-01
1.248790000000000039e-01 2.606120000000000103e-01 -1.639160000000000061e-01
-7.958899999999999308e-02 3.220399999999999929e-01 -1.869220000000000048e-01
1.878440000000000110e-01 3.345700000000000063e-02 -1.192919999999999953e-01
4.536899999999999822e-01 -4.459690000000000043e-01 -2.236140000000000072e-01
2.319710000000000105e-01 3.484169999999999767e-01 -2.498269999999999935e-01
9.317410000000000414e-01 7.846499999999999309e-02 -3.138290000000000246e-01
6.383630000000000138e-01 -2.291920000000000068e-01 8.191099999999999770e-02
-2.712720000000000131e-01 4.072979999999999934e-01 1.403510000000000035e-01
7.271539999999999671e-01 5.425830000000000375e-01 -2.540000000000000157e-03
1.707039999999999946e-01 3.960239999999999871e-01 -2.632450000000000068e-01
5.905340000000000034e-01 -4.416619999999999990e-01 6.824500000000000011e-02
1.797459999999999891e-01 -2.453089999999999993e-01 2.208469999999999878e-01
-6.881960000000000299e-01 1.401380000000000126e-01 2.680440000000000045e-01
1.166490000000000027e-01 3.692999999999999755e-02 -3.112059999999999826e-01
9.029690000000000216e-01 1.324960000000000027e-01 -4.940760000000000152e-01
-2.468839999999999923e-01 3.240319999999999867e-01 3.074390000000000178e-01
7.398419999999999996e-01 -3.948530000000000095e-01 5.788499999999999895e-02
-4.912300000000000000e-01 -1.344750000000000112e-01 -9.497300000000000186e-02
3.670080000000000009e-01 -3.962060000000000026e-01 -3.127659999999999885e-01
5.154500000000000054e-02 -5.821469999999999700e-01 1.757730000000000126e-01
-1.794099999999999862e-02 -2.647700000000000053e-02 2.905719999999999970e-01
3.049540000000000028e-01 2.682709999999999817e-01 -3.350250000000000172e-01
9.137370000000000214e-01 -2.052720000000000100e-01 1.518800000000000011e-02
4.460089999999999888e-01 7.400179999999999536e-01 3.002949999999999786e-01
4.708919999999999773e-01 2.429959999999999898e-01 -3.815819999999999768e-01
5.610089999999999799e-01 8.553279999999999772e-01 6.018699999999999745e-02
-1.536569999999999880e-01 4.035250000000000226e-01 3.676010000000000111e-01
1.018032000000000048e+00 -9.076900000000000246e-02 3.080899999999999958e-02
9.279249999999999998e-01 -1.360830000000000095e-01 -4.068140000000000089e-01
5.597550000000000026e-01 -8.397999999999999909e-02 1.252870000000000095e-01
3.980279999999999929e-01 7.214669999999999694e-01 -2.453710000000000058e-01
5.011759999999999549e-01 -2.951889999999999792e-01 -4.754599999999999937e-01
3.970449999999999813e-01 2.636180000000000190e-01 2.021769999999999956e-01
4.830940000000000234e-01 1.909869999999999901e-01 -3.930310000000000192e-01
-5.018789999999999640e-01 -1.684130000000000071e-01 1.192109999999999975e-01
2.667050000000000254e-01 -1.700869999999999882e-01 -9.682699999999999640e-02
5.600829999999999975e-01 3.845600000000000129e-01 2.101280000000000092e-01
4.643920000000000270e-01 4.888489999999999780e-01 -1.383010000000000073e-01
-7.484929999999999639e-01 1.724150000000000127e-01 -6.241100000000000120e-02
-1.573599999999999999e-01 -7.558120000000000394e-01 1.634470000000000089e-01
5.749840000000000506e-01 -3.926099999999999729e-02 1.366199999999999914e-01
3.195999999999999952e-01 7.095169999999999533e-01 2.135579999999999978e-01
1.456149999999999944e-01 5.495499999999999829e-01 2.736899999999999888e-01
-2.796629999999999949e-01 -8.560700000000000254e-02 2.600810000000000066e-01
1.312570000000000126e-01 1.195190000000000002e-01 2.915749999999999731e-01
-1.107220000000000010e-01 -7.769160000000000510e-01 -1.004789999999999989e-01
-8.655599999999999405e-02 -1.736439999999999928e-01 3.005410000000000026e-01
2.632160000000000055e-01 -6.399529999999999941e-01 5.761999999999999761e-03
1.494649999999999868e-01 7.302739999999999787e-01 -2.213910000000000045e-01
3.947900000000000020e-02 -1.015600000000000010e-02 -3.115640000000000076e-01
-3.389059999999999850e-01 9.552199999999999580e-02 -1.978429999999999911e-01
-2.076050000000000118e-01 1.272919999999999885e-01 5.179799999999999682e-02
5.801709999999999923e-01 8.084310000000000107e-01 1.922439999999999982e-01
-2.838359999999999772e-01 -4.168229999999999991e-01 2.962319999999999953e-01
6.582399999999999363e-02 -4.440239999999999743e-01 2.182360000000000133e-01
5.425240000000000062e-01 7.657869999999999955e-01 -2.005419999999999980e-01
3.282979999999999787e-01 3.974659999999999860e-01 -8.272899999999999698e-02
3.285830000000000140e-01 3.150970000000000160e-01 1.918060000000000043e-01
3.741320000000000201e-01 -5.433289999999999509e-01 -6.294500000000000095e-02
-6.201560000000000406e-01 -8.022999999999999576e-02 -1.346400000000000027e-02
4.803490000000000260e-01 8.575099999999999945e-01 -2.466899999999999926e-01
2.134330000000000116e-01 7.227989999999999693e-01 -2.442400000000000126e-02
-9.940400000000000624e-02 -7.712989999999999569e-01 -1.689660000000000051e-01
1.262780000000000014e-01 2.704399999999999860e-02 -2.383419999999999983e-01
4.291980000000000239e-01 3.866620000000000057e-01 1.373969999999999914e-01
1.448240000000000083e-01 4.989779999999999771e-01 9.994000000000000106e-02
2.421089999999999909e-01 -3.803509999999999946e-01 -4.227150000000000074e-01
-3.351959999999999940e-01 3.026690000000000214e-01 9.831399999999999861e-02
4.907929999999999793e-01 9.079599999999999893e-01 -1.282570000000000099e-01
6.841880000000000184e-01 1.823690000000000033e-01 1.360280000000000100e-01
3.055200000000000138e-01 4.000250000000000195e-01 -3.140859999999999763e-01
-2.784940000000000193e-01 -6.739249999999999963e-01 -8.430100000000000093e-02
-3.433840000000000225e-01 2.766910000000000203e-01 -4.918700000000000155e-02
9.091970000000000329e-01 -2.575370000000000159e-01 -3.696200000000000180e-02
4.751369999999999760e-01 7.872770000000000046e-01 2.387990000000000113e-01
-1.915620000000000100e-01 -6.687199999999999811e-01 2.601109999999999811e-01
2.393500000000000141e-02 -6.232250000000000290e-01 -3.659549999999999748e-01
1.603340000000000043e-01 -7.132560000000000011e-01 6.181099999999999789e-02
8.583070000000000421e-01 2.291269999999999973e-01 -4.129820000000000157e-01
6.781669999999999643e-01 -2.937549999999999883e-01 -3.884730000000000127e-01
-4.497920000000000251e-01 -9.512900000000000522e-02 -1.788289999999999880e-01
-5.892739999999999645e-01 -2.167600000000000082e-02 -1.524530000000000052e-01
7.694090000000000096e-01 3.770789999999999975e-01 -2.145859999999999990e-01
-2.810690000000000133e-01 -4.686699999999999894e-02 2.830730000000000190e-01
-6.275150000000000450e-01 6.269500000000000073e-02 2.828700000000000103e-01
1.316730000000000123e-01 -4.014809999999999768e-01 -3.978030000000000177e-01
-7.753100000000000269e-02 -6.993930000000000424e-01 -3.682449999999999890e-01
-2.950099999999999945e-01 3.230259999999999798e-01 2.229349999999999943e-01
-3.267200000000000104e-01 -1.665409999999999946e-01 3.451699999999999768e-01
-3.697679999999999856e-01 2.981670000000000154e-01 -1.335999999999999965e-01
2.647869999999999946e-01 9.505500000000000060e-02 2.535250000000000004e-01
5.278450000000000086e-01 -4.521089999999999831e-01 9.857299999999999396e-02
1.224259999999999932e-01 -3.096409999999999996e-01 -3.807380000000000209e-01
4.658459999999999823e-01 7.480719999999999592e-01 -2.995990000000000042e-01
3.168949999999999823e-01 -4.752230000000000065e-01 -3.235319999999999863e-01
2.364630000000000065e-01 6.773660000000000236e-01 1.687529999999999863e-01
-1.102920000000000011e-01 -7.929389999999999494e-01 -1.168519999999999975e-01
-3.218590000000000062e-01 2.348270000000000080e-01 -7.077700000000000657e-02
1.661970000000000114e-01 -3.739720000000000266e-01 1.877910000000000135e-01
1.721169999999999922e-01 -5.744740000000000402e-01 -3.783610000000000029e-01
2.987000000000000072e-03 -8.068969999999999754e-01 8.609999999999999598e-02
-1.856939999999999980e-01 5.420799999999999924e-02 1.209289999999999948e-01
6.031940000000000079e-01 -1.648239999999999983e-01 1.252399999999999902e-01
2.169649999999999912e-01 3.874909999999999743e-01 -2.935360000000000191e-01
1.448579999999999868e-01 -7.347179999999999822e-01 1.049619999999999997e-01
-1.735349999999999948e-01 4.824950000000000072e-01 6.860800000000000232e-02
8.530370000000000452e-01 3.054089999999999860e-01 3.960700000000000331e-02
1.780980000000000063e-01 5.466379999999999573e-01 2.951710000000000167e-01
3.074939999999999896e-01 3.054919999999999858e-01 2.044700000000000129e-01
-3.001699999999999854e-02 6.381940000000000390e-01 -1.873700000000000088e-01
9.178110000000000435e-01 2.516869999999999941e-01 9.534600000000000020e-02
-9.018700000000000327e-02 -8.108309999999999684e-01 -2.063100000000000003e-02
-4.566149999999999931e-01 2.804610000000000158e-01 2.239690000000000014e-01
-3.168790000000000218e-01 -5.142280000000000184e-01 6.828700000000000048e-02
-1.159850000000000048e-01 -7.127670000000000394e-01 -3.234909999999999730e-01
3.747400000000000175e-01 -3.642989999999999839e-01 -4.340609999999999746e-01
-3.056829999999999825e-01 -3.638899999999999774e-02 -8.257200000000000650e-02
-6.280149999999999899e-01 1.747859999999999969e-01 2.626379999999999826e-01
-4.232139999999999791e-01 -1.711890000000000078e-01 3.771780000000000133e-01
6.543200000000000127e-01 -2.934950000000000059e-01 9.155199999999999450e-02
-5.061229999999999896e-01 -1.193270000000000025e-01 -5.182599999999999707e-02
3.372209999999999930e-01 -1.932439999999999991e-01 -3.195300000000000223e-02
-5.311310000000000198e-01 2.462860000000000049e-01 -8.336000000000000354e-02
3.680490000000000150e-01 -4.344259999999999788e-01 -3.658730000000000038e-01
-2.612280000000000157e-01 -6.592409999999999659e-01 7.772600000000000342e-02
1.429870000000000030e-01 5.228570000000000162e-01 1.772350000000000037e-01
1.239500000000000046e-01 -3.652279999999999971e-01 2.159530000000000061e-01
4.051000000000000156e-01 2.747359999999999802e-01 -3.596469999999999945e-01
2.564810000000000145e-01 3.736419999999999741e-01 -2.890030000000000099e-01
4.701750000000000096e-01 3.616389999999999882e-01 9.582999999999999505e-03
8.571969999999999867e-01 3.222679999999999989e-01 -7.377499999999999336e-02
-1.766610000000000125e-01 5.018800000000000344e-02 1.468579999999999885e-01
-4.240630000000000233e-01 -1.894530000000000103e-01 3.419530000000000070e-01
-3.919799999999999673e-02 -1.473579999999999890e-01 2.926139999999999852e-01
5.632190000000000252e-01 8.054459999999999953e-01 -1.133330000000000032e-01
1.980909999999999893e-01 8.683100000000000540e-02 1.428180000000000005e-01
4.506890000000000063e-01 -5.557320000000000038e-01 1.140899999999999970e-01
-3.706329999999999902e-01 -5.052609999999999602e-01 -3.105000000000000121e-02
-4.022310000000000052e-01 2.719440000000000190e-01 3.515780000000000016e-01
3.256740000000000190e-01 1.355919999999999903e-01 2.444119999999999904e-01
-2.989519999999999955e-01 2.462399999999999867e-01 1.142129999999999951e-01
5.902089999999999836e-01 -3.759179999999999744e-01 -2.254339999999999955e-01
6.563039999999999985e-01 -3.635450000000000070e-01 -1.962119999999999975e-01
4.568099999999999938e-02 1.444860000000000033e-01 2.429570000000000063e-01
5.045239999999999725e-01 7.936999999999999611e-03 -4.068309999999999982e-01
6.499239999999999462e-01 5.910210000000000186e-01 -1.814840000000000064e-01
4.065710000000000157e-01 -5.078129999999999589e-01 -1.218790000000000012e-01
1.945580000000000087e-01 2.568700000000000150e-02 2.363989999999999980e-01
-3.120970000000000133e-01 3.712079999999999824e-01 3.145900000000000085e-02
-2.193710000000000104e-01 -5.006399999999999739e-01 -3.027520000000000211e-01
5.550500000000000433e-01 8.054409999999999625e-01 1.698149999999999937e-01
5.119329999999999714e-01 1.114699999999999996e-01 -4.131429999999999825e-01
3.846200000000000313e-02 -1.463949999999999974e-01 2.728720000000000034e-01
4.092640000000000167e-01 7.136069999999999913e-01 2.091959999999999931e-01
-2.265790000000000026e-01 -2.854920000000000235e-01 3.185169999999999946e-01
-3.917000000000000343e-03 6.857099999999999307e-02 2.505370000000000097e-01
9.818019999999999525e-01 -1.119669999999999971e-01 -3.182320000000000149e-01
1.679509999999999892e-01 6.258839999999999959e-01 6.052300000000000041e-02
-1.478780000000000094e-01 7.807300000000000351e-02 2.406540000000000068e-01
-6.503769999999999829e-01 -6.073400000000000326e-02 -1.291180000000000105e-01
5.426250000000000240e-01 -5.034999999999999892e-02 1.590749999999999942e-01
-5.073309999999999764e-01 -1.651160000000000128e-01 2.634230000000000183e-01
2.856940000000000035e-01 -3.879650000000000043e-01 1.549369999999999914e-01
-4.008689999999999753e-01 -4.763060000000000072e-01 -1.116489999999999982e-01
-2.160209999999999908e-01 2.622539999999999871e-01 -1.615360000000000129e-01
2.479699999999999960e-02 2.168990000000000085e-01 -2.011910000000000087e-01
6.464999999999999913e-02 6.322870000000000434e-01 5.083999999999999977e-03
4.830079999999999929e-01 4.440870000000000095e-01 -3.525079999999999880e-01
1.997909999999999964e-01 6.461259999999999781e-01 2.057390000000000052e-01
-6.011170000000000124e-01 -7.683299999999999852e-02 1.176600000000000007e-01
3.954500000000000237e-01 -4.287989999999999857e-01 -2.568550000000000000e-01
6.406089999999999840e-01 6.702489999999999837e-01 -1.340260000000000062e-01
6.178000000000000158e-02 1.265799999999999981e-01 -2.699190000000000200e-01
4.734499999999999820e-02 9.826300000000000312e-02 2.453349999999999975e-01
4.583299999999999874e-02 4.820900000000000185e-01 -2.345550000000000135e-01
-1.284869999999999901e-01 1.229599999999999964e-02 -2.649380000000000068e-01
6.348150000000000182e-01 -3.909499999999999781e-02 1.213179999999999953e-01
6.359179999999999833e-01 7.244369999999999976e-01 3.813199999999999923e-02
5.908349999999999991e-01 4.768780000000000241e-01 -1.535219999999999918e-01
1.822020000000000028e-01 -6.567410000000000192e-01 1.543809999999999905e-01
9.359840000000000382e-01 -1.350929999999999909e-01 -4.456669999999999798e-01
5.731990000000000141e-01 -4.159590000000000232e-01 -1.232830000000000037e-01
6.570059999999999789e-01 6.098179999999999712e-01 -2.546149999999999802e-01
4.194069999999999743e-01 -6.720399999999999985e-02 1.720079999999999942e-01
8.388529999999999598e-01 1.183329999999999937e-01 1.101749999999999952e-01
5.064539999999999598e-01 -4.519599999999999729e-01 -1.253549999999999942e-01
-6.191900000000000182e-02 -4.003059999999999952e-01 -3.480170000000000208e-01
6.936299999999999688e-01 -3.726579999999999893e-01 -9.775699999999999668e-02
2.610330000000000150e-01 -1.265169999999999906e-01 1.950119999999999909e-01
3.078589999999999938e-01 -9.559499999999999942e-02 1.481540000000000079e-01
-3.592719999999999803e-01 -4.080500000000000238e-01 1.989740000000000120e-01
6.838109999999999467e-01 -2.710080000000000267e-01 -3.331140000000000212e-01
-5.819330000000000336e-01 -6.166900000000000159e-02 2.934120000000000061e-01
-1.814719999999999944e-01 4.383719999999999839e-01 -1.422049999999999981e-01
5.592810000000000281e-01 -3.554539999999999922e-01 -4.002370000000000094e-01
6.949570000000000469e-01 3.656949999999999923e-01 -4.193529999999999758e-01
1.091393999999999975e+00 -1.415389999999999981e-01 -9.026099999999999401e-02
5.366830000000000211e-01 4.085079999999999822e-01 -2.492799999999999877e-02
4.647290000000000032e-01 -6.932199999999999473e-02 1.759960000000000135e-01
-9.940799999999999637e-02 3.977339999999999764e-01 3.314619999999999789e-01
7.434509999999999730e-01 -1.221840000000000009e-01 8.018999999999999739e-02
7.653339999999999588e-01 -3.069259999999999766e-01 -1.855380000000000085e-01
-1.746280000000000054e-01 6.774199999999999666e-02 -5.832699999999999690e-02
3.056249999999999800e-01 -2.354920000000000069e-01 1.661489999999999911e-01
8.694939999999999891e-01 1.072789999999999994e-01 -4.844390000000000085e-01
4.330379999999999785e-01 3.817459999999999742e-01 6.331999999999999955e-03
-3.495999999999999976e-03 1.742940000000000045e-01 5.402699999999999864e-02
6.383410000000000473e-01 -3.243499999999999855e-02 1.374199999999999866e-01
-3.049790000000000001e-01 -6.137519999999999643e-01 -2.274710000000000065e-01
7.381029999999999536e-01 -1.007699999999999915e-02 -4.695559999999999734e-01
1.545880000000000032e-01 -5.845329999999999693e-01 -2.561740000000000128e-01
6.113600000000000145e-01 6.876619999999999955e-01 -2.513750000000000151e-01
-6.594700000000000562e-02 -7.651839999999999753e-01 -1.784949999999999870e-01
-4.951639999999999930e-01 -1.810180000000000122e-01 -1.809489999999999987e-01
-2.144220000000000015e-01 2.082300000000000123e-02 1.441599999999999999e-02
9.765799999999999481e-02 6.450200000000000378e-01 -1.806500000000000050e-01
-3.888260000000000050e-01 2.641569999999999752e-01 4.019519999999999760e-01
2.035260000000000125e-01 1.969700000000000062e-01 2.020629999999999926e-01
6.890999999999999903e-02 1.865950000000000109e-01 -1.518799999999999872e-01
-6.209940000000000460e-01 5.822000000000000092e-02 3.068230000000000124e-01
-6.733630000000000448e-01 1.081619999999999943e-01 1.664529999999999899e-01
-4.730440000000000200e-01 -1.212899999999999950e-01 1.802189999999999903e-01
1.681670000000000109e-01 7.400090000000000279e-01 -1.643080000000000096e-01
3.897010000000000196e-01 3.819520000000000137e-01 8.096699999999999731e-02
3.437259999999999760e-01 -5.409469999999999557e-01 -5.591200000000000336e-02
-1.133610000000000034e-01 -6.612200000000000299e-01 2.053689999999999960e-01
5.810710000000000042e-01 5.493099999999999650e-01 -2.915809999999999791e-01
1.740250000000000130e-01 4.266639999999999877e-01 1.297199999999999916e-02
-1.706509999999999971e-01 -1.113500000000000080e-02 -2.369040000000000035e-01
9.498029999999999529e-01 6.508500000000000396e-02 4.921099999999999780e-02
-1.605630000000000113e-01 -1.419499999999999929e-02 2.399260000000000004e-01
5.766829999999999457e-01 -3.228199999999999820e-02 -4.317540000000000266e-01
2.478110000000000035e-01 2.942060000000000231e-01 -1.719940000000000080e-01
1.915719999999999923e-01 6.977050000000000196e-01 -1.352820000000000134e-01
-5.244700000000000056e-02 -3.339309999999999778e-01 2.421349999999999891e-01
-1.054009999999999947e-01 1.614780000000000104e-01 -2.437850000000000017e-01
1.297760000000000025e-01 -5.949820000000000109e-01 -2.667059999999999986e-01
9.258899999999999908e-01 1.548450000000000104e-01 9.371899999999999675e-02
3.833779999999999966e-01 -4.657180000000000208e-01 -3.042529999999999957e-01
1.748609999999999887e-01 -5.877569999999999739e-01 1.513619999999999965e-01
7.002800000000000136e-01 4.470410000000000217e-01 -4.077000000000000068e-01
-4.125389999999999890e-01 -3.819790000000000130e-01 -3.568999999999999950e-02
3.148800000000000210e-02 -1.881059999999999954e-01 2.439659999999999884e-01
1.847580000000000056e-01 5.548100000000000254e-01 3.276450000000000196e-01
-4.039389999999999925e-01 -1.995240000000000069e-01 3.617739999999999845e-01
-9.826400000000000412e-02 -1.350000000000000089e-01 -2.962520000000000153e-01
-1.700859999999999872e-01 3.404229999999999756e-01 3.931000000000000050e-01
-1.613509999999999944e-01 -4.477960000000000274e-01 2.518159999999999843e-01
5.168519999999999781e-01 2.991829999999999767e-01 -3.843659999999999854e-01
3.190899999999999848e-01 6.789819999999999744e-01 1.597770000000000024e-01
9.355399999999999827e-02 4.130739999999999967e-01 -2.578250000000000264e-01
-1.883430000000000104e-01 1.227499999999999980e-01 -1.119239999999999957e-01
6.994449999999999834e-01 4.143199999999999661e-02 1.335850000000000093e-01
6.118559999999999555e-01 7.642640000000000544e-01 2.253290000000000015e-01
3.849569999999999936e-01 -3.181470000000000131e-01 8.901499999999999690e-02
4.601439999999999975e-01 -2.816219999999999835e-01 -4.627769999999999939e-01
2.412219999999999920e-01 4.316500000000000198e-02 2.512579999999999814e-01
9.972910000000000386e-01 -3.689100000000000018e-02 -5.364389999999999992e-01
8.423640000000000017e-01 -2.979740000000000166e-01 5.563799999999999996e-02
2.661319999999999797e-01 -2.338079999999999881e-01 -3.371790000000000065e-01
-6.016280000000000516e-01 -7.798900000000000277e-02 -7.878100000000000380e-02
2.776000000000000134e-01 3.864210000000000145e-01 -1.385329999999999895e-01
5.016159999999999508e-01 9.021869999999999612e-01 -1.372720000000000051e-01
4.017450000000000188e-01 -2.962279999999999913e-01 -1.302700000000000038e-02
-3.177260000000000084e-01 1.779499999999999832e-02 -1.533829999999999916e-01
3.720189999999999886e-01 -2.702309999999999990e-01 1.516599999999999893e-01
5.617820000000000036e-01 4.384399999999999964e-01 2.071709999999999940e-01
3.824239999999999862e-01 4.148930000000000118e-01 -1.963320000000000065e-01
4.847069999999999990e-01 -4.875039999999999929e-01 -2.882200000000000040e-02
-6.396599999999999508e-02 -6.447300000000000253e-01 2.193710000000000104e-01
5.631500000000000394e-01 -4.148569999999999758e-01 -1.452920000000000045e-01
5.204020000000000312e-01 5.116490000000000204e-01 -2.663389999999999924e-01
1.993560000000000054e-01 4.665630000000000055e-01 1.299309999999999909e-01
-1.836639999999999939e-01 -2.496259999999999868e-01 2.892429999999999723e-01
-5.245049999999999990e-01 1.445500000000000118e-01 3.977410000000000112e-01
-1.136000000000000031e-02 -3.226269999999999971e-01 -3.485400000000000165e-01
-5.003469999999999862e-01 9.582699999999999552e-02 -1.564339999999999897e-01
1.050008999999999970e+00 -5.154000000000000248e-02 -6.079199999999999882e-02
-4.520879999999999899e-01 -2.275739999999999985e-01 2.861859999999999959e-01
4.228810000000000069e-01 2.081250000000000044e-01 -3.538810000000000011e-01
1.298169999999999880e-01 -8.490499999999999436e-02 2.593070000000000097e-01
9.795920000000000183e-01 1.478009999999999879e-01 3.972900000000000043e-02
-1.605459999999999943e-01 -2.469119999999999926e-01 2.918339999999999823e-01
3.473459999999999881e-01 5.413199999999999956e-02 2.098849999999999882e-01
3.039669999999999872e-01 -2.876549999999999940e-01 -3.017739999999999867e-01
3.887300000000000200e-01 -3.965850000000000208e-01 1.190800000000000053e-01
-1.651729999999999865e-01 -8.258710000000000218e-01 -1.577369999999999883e-01
-3.311629999999999852e-01 -1.977389999999999981e-01 3.353349999999999942e-01
-3.101570000000000160e-01 2.846029999999999949e-01 1.870279999999999998e-01
-6.981249999999999956e-01 4.082399999999999918e-02 -4.892900000000000027e-02
1.072416999999999954e+00 -7.432900000000000618e-02 -2.079409999999999870e-01
2.087829999999999964e-01 6.422719999999999541e-01 8.054200000000000248e-02
-6.744799999999999407e-02 -2.164790000000000048e-01 2.647729999999999806e-01
6.916510000000000158e-01 1.421040000000000081e-01 1.276730000000000087e-01
-3.096380000000000243e-01 -5.278589999999999671e-01 -3.049629999999999841e-01
4.686819999999999875e-01 -2.632450000000000068e-01 -4.410430000000000184e-01
9.971590000000000176e-01 -1.993679999999999897e-01 5.550000000000000462e-04
5.557879999999999487e-01 4.610540000000000194e-01 -4.413299999999999862e-02
-6.069120000000000070e-01 -7.956199999999999384e-02 -1.175179999999999975e-01
-6.108029999999999848e-01 2.292919999999999958e-01 -4.169500000000000289e-02
4.139180000000000081e-01 7.514349999999999641e-01 9.184900000000000009e-02
3.789279999999999871e-01 2.303199999999999970e-01 2.452590000000000048e-01
5.269059999999999855e-01 8.782290000000000374e-01 -6.889199999999999491e-02
9.305470000000000130e-01 1.530930000000000069e-01 -4.394800000000000095e-02
4.553070000000000173e-01 7.547859999999999570e-01 1.562540000000000040e-01
-7.121399999999999952e-01 8.990499999999999881e-02 4.622300000000000020e-02
7.216000000000000192e-01 5.521230000000000304e-01 -6.361899999999999500e-02
-1.238540000000000058e-01 -5.007749999999999702e-01 2.577499999999999791e-01
1.062278000000000056e+00 -6.329999999999999516e-02 -2.300709999999999977e-01
1.095728999999999953e+00 -1.126640000000000003e-01 2.085199999999999901e-02
6.374220000000000441e-01 -3.097230000000000261e-01 -4.097279999999999811e-01
-5.380850000000000355e-01 -1.033759999999999957e-01 1.897000000000000032e-03
-5.268340000000000245e-01 -1.304669999999999996e-01 3.807070000000000176e-01
2.965369999999999950e-01 -4.834200000000000302e-02 2.224440000000000028e-01
4.113149999999999862e-01 3.581659999999999844e-01 4.511899999999999938e-02
2.103029999999999899e-01 -6.818830000000000169e-01 9.892099999999999504e-02
5.639579999999999593e-01 1.438939999999999941e-01 -4.003019999999999912e-01
-3.826039999999999996e-01 2.859010000000000162e-01 3.409730000000000261e-01
1.065587999999999980e+00 -8.676200000000000578e-02 1.926699999999999940e-02
9.209089999999999776e-01 -2.280590000000000117e-01 -1.136469999999999980e-01
3.104830000000000090e-01 4.044710000000000250e-01 -3.036840000000000095e-01
1.446630000000000138e-01 -6.347260000000000124e-01 -2.280389999999999917e-01
1.746749999999999969e-01 -7.054859999999999465e-01 6.214200000000000279e-02
4.510190000000000032e-01 -4.532610000000000250e-01 -2.222189999999999999e-01
2.338600000000000123e-01 -4.412699999999999956e-02 -1.211829999999999991e-01
1.844290000000000096e-01 -6.093089999999999895e-01 -1.192789999999999961e-01
1.873990000000000100e-01 -5.780450000000000310e-01 -3.385839999999999961e-01
-6.872169999999999668e-01 2.896599999999999869e-02 -2.510199999999999931e-02
1.028160000000000046e-01 -5.883659999999999446e-01 1.856609999999999927e-01
-7.500500000000000222e-02 -8.027450000000000419e-01 -1.981799999999999881e-02
9.417320000000000135e-01 -9.010999999999999566e-02 -5.555130000000000345e-01
7.738899999999999668e-01 4.055119999999999836e-01 -8.103399999999999492e-02
9.434599999999999931e-02 -1.758510000000000073e-01 2.538409999999999833e-01
-3.555000000000000000e-03 -5.095460000000000544e-01 -3.804500000000000104e-01
6.306500000000000439e-01 -4.082990000000000230e-01 2.656700000000000034e-02
2.442519999999999969e-01 -2.282830000000000137e-01 2.070450000000000068e-01
8.964539999999999731e-01 -1.306990000000000096e-01 -4.117140000000000244e-01
-3.100789999999999935e-01 -5.068129999999999580e-01 2.864570000000000172e-01
1.070567000000000046e+00 -9.996299999999999630e-02 -3.147179999999999978e-01
-3.097949999999999871e-01 2.771190000000000042e-01 -2.750299999999999967e-02
2.663800000000000057e-01 -1.687780000000000113e-01 1.949589999999999934e-01
-7.157399999999999873e-02 -6.954620000000000246e-01 -3.704489999999999728e-01
-6.534659999999999913e-01 1.756729999999999958e-01 5.879800000000000304e-02
5.722999999999999789e-03 5.564400000000000457e-01 1.498369999999999980e-01
6.542900000000000105e-02 5.627649999999999597e-01 -1.572030000000000094e-01
-3.213250000000000273e-01 -4.436880000000000268e-01 3.136369999999999991e-01
2.625199999999999756e-01 3.436759999999999815e-01 2.554020000000000179e-01
8.340790000000000148e-01 -2.986789999999999723e-01 -3.721700000000000008e-02
7.922069999999999945e-01 -2.926270000000000260e-01 -1.840489999999999904e-01
-2.265159999999999951e-01 -6.559409999999999963e-01 2.411850000000000105e-01
7.792390000000000150e-01 6.617999999999999751e-03 1.075710000000000000e-01
-9.021600000000000452e-02 1.262030000000000096e-01 -2.301449999999999885e-01
4.475419999999999954e-01 5.060000000000000261e-03 1.682839999999999892e-01
5.880889999999999729e-01 8.118429999999999813e-01 6.523199999999999832e-02
5.508659999999999668e-01 7.805330000000000323e-01 -9.382600000000000662e-02
4.324169999999999958e-01 -4.022580000000000044e-01 1.150599999999999956e-01
-5.669009999999999883e-01 -2.282000000000000174e-03 4.186889999999999779e-01
-7.359599999999999476e-02 3.853999999999999787e-02 2.232429999999999970e-01
6.518209999999999837e-01 6.091579999999999773e-01 -1.963949999999999863e-01
7.747800000000000520e-02 -7.477819999999999467e-01 2.542200000000000015e-02
-4.985499999999999932e-01 -2.071419999999999928e-01 2.645480000000000054e-01
-1.311690000000000078e-01 1.436270000000000047e-01 -7.700999999999999512e-02
-3.655160000000000076e-01 -4.981260000000000132e-01 -1.746040000000000092e-01
-3.101479999999999793e-01 -6.175249999999999906e-01 -7.174400000000000222e-02
8.401899999999999924e-01 -2.289970000000000061e-01 -2.578730000000000189e-01
1.001185999999999909e+00 -2.129599999999999896e-02 -4.542430000000000079e-01
6.863089999999999469e-01 -2.954330000000000012e-01 6.710699999999999998e-02
3.748159999999999825e-01 -1.384330000000000005e-01 1.720339999999999925e-01
7.830099999999999560e-02 -7.532029999999999559e-01 1.481560000000000099e-01
-3.150089999999999835e-01 -2.964000000000000055e-03 7.506899999999999684e-02
-4.029800000000000049e-02 4.473050000000000082e-01 2.744539999999999758e-01
4.689260000000000095e-01 4.621700000000000252e-01 -4.127399999999999819e-02
-5.638189999999999591e-01 -6.671100000000000640e-02 3.874219999999999886e-01
-5.751799999999999968e-02 5.752920000000000256e-01 -2.831900000000000042e-02
9.327579999999999760e-01 6.217400000000000010e-02 -3.680410000000000070e-01
1.340129999999999932e-01 5.409570000000000212e-01 1.886410000000000031e-01
6.548140000000000072e-01 5.603320000000000523e-01 -1.936350000000000016e-01
-1.835090000000000054e-01 5.152379999999999738e-01 -5.852399999999999963e-02
3.034760000000000235e-01 -2.591399999999999954e-02 2.002369999999999983e-01
2.432910000000000073e-01 -2.293939999999999868e-01 1.830950000000000077e-01
-2.690049999999999941e-01 -7.431940000000000213e-01 -2.826429999999999776e-01
-4.541450000000000209e-01 1.856359999999999955e-01 4.422010000000000107e-01
-2.440499999999999961e-02 1.764699999999999880e-01 8.623000000000000456e-03
3.167880000000000140e-01 1.308699999999999967e-02 -3.788909999999999778e-01
4.220240000000000102e-01 2.579989999999999783e-01 2.522610000000000130e-01
-1.857399999999999884e-01 -7.724999999999999645e-01 -3.225689999999999946e-01
2.184949999999999948e-01 1.352180000000000049e-01 2.707359999999999767e-01
6.228050000000000530e-01 7.362809999999999633e-01 1.894979999999999998e-01
-4.628360000000000252e-01 -1.212540000000000007e-01 -2.006489999999999940e-01
-7.261099999999999499e-02 1.320000000000000062e-01 -2.172920000000000129e-01
-8.863899999999999557e-02 -3.016550000000000065e-01 2.646519999999999984e-01
1.020650000000000057e+00 4.279299999999999771e-02 -9.492699999999999749e-02
-6.065899999999999764e-02 4.758549999999999724e-01 2.967440000000000078e-01
-6.589930000000000510e-01 1.049210000000000004e-01 4.328130000000000033e-01
4.151880000000000015e-01 -4.004260000000000042e-01 -3.929320000000000035e-01
-6.369700000000000362e-02 7.720599999999999685e-02 2.671149999999999913e-01
4.124570000000000181e-01 8.211289999999999978e-01 -1.426659999999999873e-01
1.967730000000000035e-01 8.761499999999999844e-02 1.375300000000000133e-01
-1.096270000000000022e-01 -7.375509999999999566e-01 -2.998959999999999959e-01
-3.760390000000000121e-01 1.849200000000000149e-02 -2.006560000000000010e-01
-2.266309999999999991e-01 -4.482099999999999973e-02 8.978300000000000169e-02
9.089129999999999709e-01 2.445200000000000151e-02 6.126399999999999901e-02
-1.137269999999999948e-01 -7.008520000000000305e-01 1.991199999999999914e-01
-4.079499999999999793e-02 -1.587929999999999897e-01 -3.147829999999999795e-01
-9.491900000000000337e-02 4.159140000000000059e-01 2.791779999999999817e-01
1.775090000000000001e-01 2.139959999999999918e-01 8.723000000000000198e-02
-2.423849999999999894e-01 6.852800000000000558e-02 -1.846260000000000123e-01
5.955519999999999703e-01 4.325019999999999976e-01 2.713000000000000134e-03
4.265729999999999800e-01 2.921239999999999948e-01 -3.623660000000000214e-01
-5.663960000000000106e-01 1.783700000000000008e-01 2.087640000000000051e-01
2.527249999999999774e-01 -5.763840000000000074e-01 -1.745990000000000042e-01
7.445929999999999493e-01 -9.954799999999999760e-02 -5.065169999999999950e-01
-9.591099999999999626e-02 -6.901230000000000420e-01 -3.647029999999999994e-01
-3.972089999999999788e-01 -5.645399999999999724e-02 -6.217099999999999710e-02
7.743940000000000268e-01 -3.424059999999999881e-01 5.296200000000000213e-02
2.443839999999999901e-01 1.589540000000000119e-01 2.665899999999999936e-01
-7.009779999999999900e-01 1.680609999999999882e-01 1.518249999999999877e-01
-2.808700000000000085e-02 -3.144959999999999978e-01 -3.429539999999999811e-01
-1.350290000000000101e-01 -7.760709999999999553e-01 -2.181220000000000103e-01
-1.686080000000000079e-01 7.477999999999999925e-02 -2.021779999999999966e-01
-5.534100000000000130e-02 6.215000000000000524e-01 -1.780599999999999961e-01
1.677690000000000015e-01 -6.644390000000000018e-01 3.370900000000000285e-02
6.291600000000000525e-01 7.920230000000000325e-01 2.472129999999999883e-01
-2.773599999999999954e-01 2.767749999999999932e-01 4.114929999999999977e-01
-4.263020000000000143e-01 -3.287370000000000014e-01 7.648900000000000143e-02
-2.310190000000000021e-01 6.745400000000000007e-02 -1.603050000000000030e-01
-4.343090000000000006e-01 -2.754039999999999822e-01 2.248310000000000031e-01
9.539499999999999369e-02 -7.209280000000000133e-01 -3.120699999999999863e-02
1.522920000000000107e-01 -7.007399999999999740e-02 -3.500539999999999763e-01
-5.413259999999999739e-01 1.898539999999999950e-01 2.163259999999999905e-01
1.304150000000000031e-01 -3.577159999999999784e-01 -3.904779999999999918e-01
-2.141200000000000048e-01 9.752199999999999758e-02 8.959499999999999409e-02
-1.317280000000000117e-01 -8.204169999999999519e-01 5.890000000000000270e-03
5.296239999999999837e-01 -3.918490000000000029e-01 -3.332990000000000119e-01
3.365920000000000023e-01 -4.247499999999999887e-02 -3.928550000000000098e-01
5.981670000000000043e-01 -2.963270000000000071e-01 -5.004910000000000192e-01
-6.646399999999999531e-02 -1.956100000000000061e-01 2.759400000000000186e-01
5.344539999999999846e-01 9.428000000000000269e-02 1.843120000000000036e-01
-2.381340000000000123e-01 2.074840000000000018e-01 3.487350000000000172e-01
3.250689999999999968e-01 -1.305669999999999886e-01 1.253160000000000107e-01
-3.573779999999999735e-01 -7.610999999999999710e-02 8.662599999999999467e-02
1.202929999999999972e-01 2.020699999999999927e-02 -3.148159999999999847e-01
4.598240000000000105e-01 7.238569999999999727e-01 2.673880000000000146e-01
-2.561240000000000183e-01 -2.405889999999999973e-01 -2.517229999999999746e-01
3.819009999999999905e-01 -3.345020000000000215e-01 9.213999999999999968e-03
2.162739999999999940e-01 4.438130000000000130e-01 1.506929999999999936e-01
-1.391060000000000074e-01 -7.954959999999999809e-01 -9.048399999999999499e-02
-1.745960000000000012e-01 -7.222640000000000171e-01 1.808259999999999867e-01
4.295340000000000269e-01 -5.065600000000000103e-01 -8.412999999999999645e-02
-4.860600000000000337e-02 -6.558209999999999873e-01 -3.923150000000000248e-01
-1.352089999999999959e-01 3.374200000000000116e-02 -4.688000000000000327e-03
7.053800000000000348e-02 2.078109999999999957e-01 -2.636609999999999787e-01
5.132069999999999688e-01 -3.735740000000000172e-01 -4.240619999999999945e-01
5.814380000000000104e-01 3.828540000000000276e-01 2.175749999999999906e-01
4.022720000000000184e-01 -3.599189999999999889e-01 -2.464169999999999972e-01
-2.307690000000000019e-01 -2.077589999999999992e-01 -2.739469999999999961e-01
-2.038399999999999934e-01 4.343279999999999919e-01 -1.371209999999999929e-01
-8.200999999999999956e-02 -6.434549999999999992e-01 -3.607969999999999788e-01
-1.085980000000000001e-01 -3.806400000000000061e-02 2.827629999999999866e-01
-1.045589999999999992e-01 6.458700000000000552e-02 8.007599999999999441e-02
5.735599999999999726e-02 6.229050000000000420e-01 -1.145280000000000048e-01
-1.172789999999999944e-01 1.129769999999999941e-01 -1.041239999999999943e-01
5.135410000000000252e-01 3.326939999999999897e-01 -3.781550000000000189e-01
1.054040000000000088e+00 -1.696179999999999910e-01 -6.971999999999999899e-03
4.183830000000000049e-01 -4.426340000000000274e-01 -2.991570000000000062e-01
3.387399999999999856e-01 3.612770000000000148e-01 5.672200000000000158e-02
3.650050000000000239e-01 2.471619999999999928e-01 1.984319999999999973e-01
8.140979999999999883e-01 3.191689999999999805e-01 -1.516200000000000048e-01
3.014879999999999782e-01 3.318229999999999791e-01 -3.029859999999999776e-01
-4.089960000000000262e-01 2.509930000000000216e-01 -1.550080000000000069e-01
-3.391680000000000250e-01 -5.210620000000000251e-01 -2.963100000000000178e-01
-4.198609999999999842e-01 -2.170610000000000039e-01 3.100399999999999823e-01
-4.997539999999999760e-01 -1.382349999999999968e-01 3.314219999999999944e-01
-3.319360000000000088e-01 2.645739999999999759e-01 4.235229999999999828e-01
1.000663999999999998e+00 -1.259309999999999874e-01 -2.373480000000000034e-01
3.161309999999999953e-01 3.805220000000000269e-01 -2.137030000000000041e-01
5.594699999999999673e-02 5.167230000000000434e-01 2.192139999999999922e-01
4.578399999999999831e-02 5.725299999999999834e-01 1.694420000000000093e-01
6.467049999999999743e-01 -3.431819999999999871e-01 -2.814760000000000040e-01
8.896619999999999528e-01 2.895110000000000183e-01 6.569000000000000186e-03
2.910300000000000109e-01 1.215969999999999968e-01 2.270300000000000096e-01
1.066807999999999979e+00 -1.802779999999999938e-01 -5.653400000000000092e-02
4.366670000000000273e-01 -1.504149999999999932e-01 -4.147859999999999880e-01
5.853789999999999827e-01 7.791770000000000085e-01 1.159479999999999955e-01
1.000318000000000040e+00 7.877399999999999680e-02 -8.777500000000000580e-02
7.055369999999999697e-01 -2.656450000000000200e-01 -3.817550000000000110e-01
3.828460000000000196e-01 -3.121189999999999798e-01 -1.897099999999999898e-01
7.146019999999999595e-01 -5.519999999999999733e-04 1.070450000000000013e-01
7.081800000000000317e-01 -1.364160000000000095e-01 -4.821070000000000078e-01
-1.555539999999999978e-01 7.836400000000000310e-02 -5.884600000000000247e-02
1.086619999999999919e+00 -3.742600000000000093e-02 1.996799999999999964e-02
2.800900000000000056e-01 1.709360000000000046e-01 2.740830000000000211e-01
7.329839999999999689e-01 5.876510000000000344e-01 2.027160000000000073e-01
1.035506000000000038e+00 2.835299999999999973e-02 -5.611599999999999921e-02
2.112350000000000061e-01 -2.302800000000000125e-01 -3.698100000000000276e-01
1.024666999999999994e+00 -1.320299999999999946e-02 2.558200000000000057e-02
7.794229999999999769e-01 3.732110000000000150e-01 -1.666289999999999993e-01
-7.324400000000000355e-02 -6.661960000000000104e-01 -3.876629999999999798e-01
-5.496959999999999624e-01 -2.016139999999999877e-01 -1.723299999999999832e-02
-1.792340000000000044e-01 1.058639999999999998e-01 -1.935550000000000048e-01
-1.749580000000000024e-01 1.407899999999999985e-01 -1.475049999999999972e-01
2.587599999999999900e-01 7.485349999999999504e-01 -1.817310000000000036e-01
4.537280000000000202e-01 -3.397979999999999889e-01 -4.704420000000000268e-01
-1.398330000000000128e-01 -3.356480000000000019e-01 2.882669999999999955e-01
4.131630000000000025e-01 2.044380000000000086e-01 2.089959999999999873e-01
-5.738630000000000120e-01 -1.425629999999999953e-01 -8.776200000000000667e-02
-4.636680000000000246e-01 -3.584370000000000056e-01 -6.452299999999999702e-02
3.206080000000000041e-01 -1.178870000000000057e-01 1.446659999999999890e-01
5.756839999999999735e-01 1.242280000000000051e-01 1.545229999999999937e-01
-3.725939999999999808e-01 -1.211259999999999976e-01 3.630349999999999966e-01
-2.808220000000000161e-01 -5.480909999999999949e-01 1.668709999999999916e-01
-2.166220000000000090e-01 9.085200000000000220e-02 -5.743199999999999694e-02
-2.687930000000000041e-01 2.066560000000000064e-01 -1.569129999999999969e-01
1.649480000000000113e-01 5.530909999999999993e-01 2.373039999999999872e-01
1.266919999999999991e-01 6.939600000000000213e-01 -8.682800000000000240e-02
-1.998419999999999919e-01 -6.902760000000000007e-01 -3.381009999999999849e-01
3.419030000000000125e-01 -2.299489999999999867e-01 1.487719999999999876e-01
3.128029999999999977e-01 2.332089999999999996e-01 2.452930000000000110e-01
-5.571600000000000164e-02 -2.259999999999999856e-03 3.020280000000000187e-01
-2.078659999999999952e-01 3.798469999999999902e-01 1.929849999999999899e-01
7.247299999999999576e-02 -4.855550000000000144e-01 1.939480000000000093e-01
5.664810000000000123e-01 -3.454840000000000133e-01 -4.202589999999999937e-01
-3.334409999999999874e-01 -1.457199999999999884e-01 -2.377150000000000096e-01
4.420839999999999770e-01 -4.369939999999999936e-01 -2.221849999999999936e-01
2.463500000000000134e-01 5.108200000000000240e-02 -3.337829999999999964e-01
-2.227470000000000006e-01 -2.306489999999999929e-01 3.263110000000000177e-01
3.987120000000000108e-01 -5.697140000000000537e-01 6.969899999999999707e-02
3.880299999999999860e-01 2.328359999999999874e-01 2.199790000000000079e-01
1.860880000000000034e-01 1.200449999999999989e-01 1.915330000000000088e-01
-1.300759999999999972e-01 -8.038990000000000302e-01 -1.165039999999999965e-01
6.016860000000000541e-01 4.701339999999999963e-01 -1.112790000000000029e-01
2.030000000000000012e-04 -3.080470000000000153e-01 2.568059999999999787e-01
3.620419999999999749e-01 -1.393959999999999921e-01 1.751520000000000021e-01
3.982069999999999776e-01 2.587599999999999900e-01 2.591729999999999867e-01
5.069339999999999957e-01 8.233890000000000375e-01 2.227399999999999866e-02
2.820259999999999989e-01 8.062989999999999879e-01 -1.769940000000000124e-01
3.804919999999999969e-01 -2.454810000000000048e-01 1.453699999999999992e-01
7.943649999999999878e-01 -3.095359999999999778e-01 -3.138000000000000164e-03
5.868870000000000475e-01 7.089419999999999611e-01 -1.356519999999999948e-01
3.740720000000000156e-01 -6.058160000000000212e-01 9.455600000000000116e-02
3.121880000000000210e-01 -2.626859999999999751e-01 -1.578239999999999921e-01
4.029780000000000029e-01 -2.833120000000000083e-01 -4.274209999999999954e-01
-1.000940000000000024e-01 3.686740000000000017e-01 -2.153170000000000084e-01
5.794319999999999471e-01 -4.191460000000000186e-01 -3.084299999999999889e-02
-1.559010000000000118e-01 -2.722339999999999760e-01 -3.034450000000000203e-01
5.199340000000000073e-01 8.178509999999999946e-01 -1.476820000000000077e-01
4.720219999999999971e-01 4.875160000000000049e-01 -2.743709999999999760e-01
3.011980000000000213e-01 -5.524869999999999504e-01 -9.515600000000000447e-02
-3.358949999999999991e-01 1.221700000000000043e-02 -1.679910000000000014e-01
-3.334440000000000182e-01 -1.549409999999999954e-01 -2.391900000000000137e-01
1.046020000000000005e-01 -7.300119999999999942e-01 1.607530000000000070e-01
6.204969999999999652e-01 4.883109999999999951e-01 -1.668800000000000144e-02
2.789510000000000045e-01 -6.073389999999999622e-01 4.671199999999999658e-02
-3.922129999999999783e-01 -3.642650000000000055e-01 3.324079999999999813e-01
-2.660179999999999767e-01 4.873810000000000087e-01 -1.164660000000000001e-01
3.581779999999999964e-01 4.400049999999999795e-01 -3.213119999999999865e-01
1.022999999999999909e+00 -4.100000000000000172e-02 -1.897389999999999910e-01
3.902829999999999910e-01 -2.887699999999999989e-02 -3.834540000000000171e-01
5.448800000000000310e-01 8.208499999999999686e-01 1.873500000000000165e-02
-2.665270000000000139e-01 3.517830000000000124e-01 3.336950000000000194e-01
-2.573320000000000052e-01 -5.811469999999999692e-01 1.902480000000000004e-01
3.264639999999999764e-01 4.298370000000000246e-01 -3.148130000000000095e-01
-5.245180000000000398e-01 -2.226110000000000033e-01 -1.404650000000000065e-01
-3.467199999999999727e-01 -1.024800000000000016e-01 -2.273940000000000128e-01
5.390470000000000539e-01 6.983310000000000350e-01 -3.263130000000000197e-01
5.371219999999999883e-01 7.569110000000000005e-01 -2.671419999999999906e-01
4.932050000000000045e-01 8.786209999999999853e-01 -2.446079999999999921e-01
-4.567160000000000108e-01 -3.259999999999999704e-02 -8.501999999999999835e-02
-2.308560000000000056e-01 2.486339999999999939e-01 3.579800000000000204e-01
-5.998699999999999866e-02 1.098409999999999942e-01 -1.205330000000000013e-01
