3.042992949485778809e-01 -3.973099589347839355e-01 1.643705070018768311e-01
3.485856950283050537e-01 -3.914730548858642578e-01 1.470458656549453735e-01
3.270074725151062012e-01 -3.836192786693572998e-01 1.564235091209411621e-01
3.898217976093292236e-01 -4.012637436389923096e-01 -3.966150283813476562e-01
3.760876059532165527e-01 -4.071272015571594238e-01 -3.845150768756866455e-01
4.102861583232879639e-01 -4.059420824050903320e-01 -3.843486309051513672e-01
3.973939120769500732e-01 -4.105663001537322998e-01 -3.730171620845794678e-01
5.581827759742736816e-01 7.955281138420104980e-01 -1.011254489421844482e-01
5.504692792892456055e-01 8.154755234718322754e-01 -8.017905801534652710e-02
5.669203996658325195e-01 7.927268147468566895e-01 -7.974601536989212036e-02
5.587232708930969238e-01 8.116334080696105957e-01 -5.970291420817375183e-02
-2.116075307130813599e-01 4.326896369457244873e-01 1.174891516566276550e-01
-2.270814776420593262e-01 4.187383055686950684e-01 1.350635439157485962e-01
-1.903439313173294067e-01 4.311573505401611328e-01 1.323078274726867676e-01
-2.031742334365844727e-01 4.172044992446899414e-01 1.536299139261245728e-01
4.811642467975616455e-01 4.232943952083587646e-01 -7.357840985059738159e-02
4.698967337608337402e-01 4.139317572116851807e-01 -5.111791938543319702e-02
4.952208995819091797e-01 4.139923155307769775e-01 -4.904107749462127686e-02
4.832913279533386230e-01 4.040177762508392334e-01 -2.820514515042304993e-02
-3.721691370010375977e-01 -3.453930914402008057e-01 -2.438953518867492676e-01
-3.800358772277832031e-01 -3.717198073863983154e-01 -2.405156642198562622e-01
-3.441933989524841309e-01 -3.521912097930908203e-01 -2.470391988754272461e-01
-3.518397212028503418e-01 -3.781753182411193848e-01 -2.452062964439392090e-01
-8.329197764396667480e-02 4.983112588524818420e-02 1.923570930957794189e-01
-9.621732681989669800e-02 3.985454142093658447e-02 2.065265178680419922e-01
-6.957402080297470093e-02 4.939533025026321411e-02 2.098243087530136108e-01
-8.222852647304534912e-02 3.892932832241058350e-02 2.225013971328735352e-01
-2.013745009899139404e-01 -8.209439367055892944e-02 3.312620222568511963e-01
-2.135753482580184937e-01 -9.762272238731384277e-02 3.401286602020263672e-01
-1.808063983917236328e-01 -8.505192399024963379e-02 3.398584425449371338e-01
-1.928276121616363525e-01 -1.013696044683456421e-01 3.485799133777618408e-01
1.659208089113235474e-01 1.162216216325759888e-01 2.720392942428588867e-01
1.612258106470108032e-01 9.549128264188766479e-02 2.724340856075286865e-01
1.867254525423049927e-01 1.198128387331962585e-01 2.684835791587829590e-01
1.819282621145248413e-01 9.952067583799362183e-02 2.696291208267211914e-01
3.001031875610351562e-01 1.350360456854104996e-02 -3.771837949752807617e-01
2.859530448913574219e-01 5.703510250896215439e-04 -3.694040775299072266e-01
3.276163339614868164e-01 3.164935857057571411e-02 -3.839254677295684814e-01
3.148981630802154541e-01 1.187204569578170776e-02 -3.765132129192352295e-01
-4.058664739131927490e-01 3.622233867645263672e-01 -5.487172864377498627e-03
-4.167824387550354004e-01 3.577741682529449463e-01 2.352377772331237793e-02
-3.967558741569519043e-01 3.626151680946350098e-01 2.330334298312664032e-02
-4.060052931308746338e-01 3.557106256484985352e-01 5.503781139850616455e-02
-6.639542430639266968e-02 4.103653877973556519e-02 2.381534278392791748e-01
-7.980971783399581909e-02 3.040821477770805359e-02 2.502349615097045898e-01
-5.220687761902809143e-02 4.847114533185958862e-02 2.482951730489730835e-01
-6.561348587274551392e-02 3.647060692310333252e-02 2.572526335716247559e-01
-5.020060539245605469e-01 -2.319146096706390381e-01 -1.970943212509155273e-01
-5.027446150779724121e-01 -2.639387547969818115e-01 -1.900540590286254883e-01
-4.932573735713958740e-01 -2.249420881271362305e-01 -1.907817423343658447e-01
-4.939381480216979980e-01 -2.569482028484344482e-01 -1.832405626773834229e-01
2.654818594455718994e-01 3.556366860866546631e-01 -2.228499054908752441e-01
2.500482499599456787e-01 3.476189672946929932e-01 -2.004686594009399414e-01
2.736648917198181152e-01 3.550259470939636230e-01 -2.145002931356430054e-01
2.583253979682922363e-01 3.465287387371063232e-01 -1.934383362531661987e-01
-9.739217348396778107e-03 -7.268360257148742676e-01 -1.334763318300247192e-01
-1.959640346467494965e-02 -7.362435460090637207e-01 -1.167078614234924316e-01
1.062289811670780182e-05 -7.271141409873962402e-01 -1.165960803627967834e-01
-1.170932687819004059e-02 -7.374830842018127441e-01 -9.926620125770568848e-02
9.155615419149398804e-02 2.378229945898056030e-01 -1.510116606950759888e-01
7.645063102245330811e-02 2.326131463050842285e-01 -1.430386155843734741e-01
1.043144464492797852e-01 2.383175343275070190e-01 -1.362505853176116943e-01
8.868743479251861572e-02 2.376194894313812256e-01 -1.271928101778030396e-01
8.844602108001708984e-01 5.809962749481201172e-04 6.232290714979171753e-02
8.821769952774047852e-01 -2.933488413691520691e-02 5.929734930396080017e-02
9.098162651062011719e-01 1.385482866317033768e-02 5.992786213755607605e-02
9.073385000228881836e-01 -1.636191084980964661e-02 5.622018873691558838e-02
7.736862897872924805e-01 4.931334555149078369e-01 1.687994152307510376e-01
7.559410333633422852e-01 5.047433376312255859e-01 1.826132982969284058e-01
7.926656007766723633e-01 4.816222190856933594e-01 1.814436167478561401e-01
7.759475111961364746e-01 4.936966001987457275e-01 1.947650462388992310e-01
7.707173228263854980e-01 3.657714724540710449e-01 -3.761899769306182861e-01
7.579216361045837402e-01 3.901708126068115234e-01 -3.632097244262695312e-01
7.812370061874389648e-01 3.717133104801177979e-01 -3.575359880924224854e-01
7.691025733947753906e-01 3.951884210109710693e-01 -3.450206518173217773e-01
2.503845691680908203e-01 -2.644944787025451660e-01 1.895245164632797241e-01
2.334077209234237671e-01 -2.512275874614715576e-01 1.988994926214218140e-01
2.676653563976287842e-01 -2.494354993104934692e-01 1.876115202903747559e-01
2.503955364227294922e-01 -2.367528825998306274e-01 1.963527649641036987e-01
2.687062919139862061e-01 3.600119650363922119e-01 1.969753205776214600e-01
2.572658360004425049e-01 3.840231299400329590e-01 2.210549563169479370e-01
2.775197923183441162e-01 3.605129718780517578e-01 2.255384922027587891e-01
2.660049498081207275e-01 3.802646994590759277e-01 2.461585253477096558e-01
2.209623157978057861e-02 -3.332901597023010254e-01 2.410897165536880493e-01
1.516504213213920593e-03 -3.268210589885711670e-01 2.502646148204803467e-01
4.540860652923583984e-02 -3.130366504192352295e-01 2.386333644390106201e-01
2.111448720097541809e-02 -2.999752461910247803e-01 2.499806433916091919e-01
-3.306881189346313477e-01 -3.505682647228240967e-01 3.145587742328643799e-01
-3.438174426555633545e-01 -3.329491317272186279e-01 3.218508660793304443e-01
-3.142924010753631592e-01 -3.510007560253143311e-01 3.185822665691375732e-01
-3.310310840606689453e-01 -3.318050503730773926e-01 3.253015577793121338e-01
-4.439046978950500488e-02 9.458960592746734619e-02 2.524523995816707611e-02
-6.060905382037162781e-02 7.740191370248794556e-02 4.394061118364334106e-02
-2.936775609850883484e-02 9.134075045585632324e-02 5.242554470896720886e-02
-4.550867527723312378e-02 7.625185698270797729e-02 7.068742066621780396e-02
4.858087301254272461e-01 1.976732611656188965e-01 -3.958001434803009033e-01
4.811150431632995605e-01 1.655386984348297119e-01 -3.969893157482147217e-01
5.149645209312438965e-01 2.166827470064163208e-01 -3.990406095981597900e-01
5.099622011184692383e-01 1.846556663513183594e-01 -3.998423516750335693e-01
2.282447367906570435e-01 -5.315979719161987305e-01 -3.402732908725738525e-01
2.133417427539825439e-01 -5.426112413406372070e-01 -3.311933279037475586e-01
2.451245784759521484e-01 -5.278997421264648438e-01 -3.184401988983154297e-01
2.308844029903411865e-01 -5.390222668647766113e-01 -3.089728951454162598e-01
2.936104238033294678e-01 -2.229689806699752808e-02 2.160922139883041382e-01
2.940793931484222412e-01 -4.992706328630447388e-02 2.123982459306716919e-01
3.164840936660766602e-01 -1.349770277738571167e-02 2.170372754335403442e-01
3.173447251319885254e-01 -4.043250903487205505e-02 2.130106836557388306e-01
9.841389209032058716e-02 2.593612968921661377e-01 -2.231176793575286865e-01
8.368887752294540405e-02 2.491079717874526978e-01 -2.166809588670730591e-01
1.135938838124275208e-01 2.628162205219268799e-01 -2.049898952245712280e-01
9.876332432031631470e-02 2.532016932964324951e-01 -1.983469128608703613e-01
1.771274507045745850e-01 6.840983033180236816e-01 -2.137193456292152405e-02
1.549902558326721191e-01 6.730632185935974121e-01 -1.300151459872722626e-02
2.001716941595077515e-01 6.891149282455444336e-01 2.392381662502884865e-03
1.779237687587738037e-01 6.783024072647094727e-01 9.041192010045051575e-03
7.270368933677673340e-01 -4.604503884911537170e-02 1.008830070495605469e-01
7.228201627731323242e-01 -6.781964004039764404e-02 1.007661297917366028e-01
7.514285445213317871e-01 -4.044653475284576416e-02 9.463231265544891357e-02
7.476633787155151367e-01 -6.067565828561782837e-02 9.467484802007675171e-02
6.599889397621154785e-01 6.654261350631713867e-01 3.611649945378303528e-02
6.503661274909973145e-01 6.844309568405151367e-01 5.739796534180641174e-02
6.722536683082580566e-01 6.523752808570861816e-01 5.910028889775276184e-02
6.620226502418518066e-01 6.743364334106445312e-01 8.222739398479461670e-02
-6.823664903640747070e-01 2.384586818516254425e-02 -1.466576606035232544e-01
-6.967954039573669434e-01 3.320922702550888062e-02 -1.262840330600738525e-01
-6.732360124588012695e-01 1.192408613860607147e-02 -1.214054673910140991e-01
-6.872218847274780273e-01 2.217521332204341888e-02 -1.019658595323562622e-01
5.002963542938232422e-01 4.364620745182037354e-01 -6.845080107450485229e-02
4.880358576774597168e-01 4.266919493675231934e-01 -4.794688522815704346e-02
5.192038416862487793e-01 4.378265142440795898e-01 -4.931095242500305176e-02
5.042958855628967285e-01 4.282345473766326904e-01 -3.335295990109443665e-02
1.330353766679763794e-01 6.833092868328094482e-02 -1.352037936449050903e-01
1.268383860588073730e-01 8.336485922336578369e-02 -1.152965500950813293e-01
1.411256939172744751e-01 5.949968844652175903e-02 -1.110408753156661987e-01
1.346599757671356201e-01 7.514809072017669678e-02 -9.052769839763641357e-02
-2.422060221433639526e-01 4.462205469608306885e-01 -8.184987306594848633e-02
-2.727048397064208984e-01 4.320533275604248047e-01 -6.666801869869232178e-02
-2.249652892351150513e-01 4.567296504974365234e-01 -6.013093516230583191e-02
-2.551141977310180664e-01 4.408233165740966797e-01 -5.204302072525024414e-02
-2.075320780277252197e-01 2.207455635070800781e-01 3.501769006252288818e-01
-2.209916412830352783e-01 2.006354033946990967e-01 3.496095538139343262e-01
-1.917153745889663696e-01 2.185550481081008911e-01 3.691453933715820312e-01
-2.061169147491455078e-01 1.987688392400741577e-01 3.683697879314422607e-01
2.780519723892211914e-01 -1.314644813537597656e-01 6.830221414566040039e-02
2.641867697238922119e-01 -1.092680171132087708e-01 8.450226485729217529e-02
2.939082682132720947e-01 -1.282206624746322632e-01 8.676796406507492065e-02
2.763322889804840088e-01 -1.040554270148277283e-01 9.889604151248931885e-02
5.018731355667114258e-01 -2.066362053155899048e-01 -4.418430030345916748e-01
4.786535799503326416e-01 -1.929644495248794556e-01 -4.317253232002258301e-01
5.309841632843017578e-01 -1.900297105312347412e-01 -4.522971212863922119e-01
5.041734576225280762e-01 -1.712295413017272949e-01 -4.404290318489074707e-01
1.418849825859069824e-01 2.340311408042907715e-01 2.006248384714126587e-02
1.430227309465408325e-01 2.123561352491378784e-01 2.980592474341392517e-02
1.550591140985488892e-01 2.326949685811996460e-01 3.708465397357940674e-02
1.562343388795852661e-01 2.075278013944625854e-01 4.777885973453521729e-02
8.982861638069152832e-01 2.599211931228637695e-01 1.193158328533172607e-01
8.855775594711303711e-01 2.721419036388397217e-01 1.371624767780303955e-01
9.060618877410888672e-01 2.527617514133453369e-01 1.347979307174682617e-01
8.938159942626953125e-01 2.643452882766723633e-01 1.540674269199371338e-01
-3.374082446098327637e-01 -5.555308461189270020e-01 -2.175005227327346802e-01
-3.518767356872558594e-01 -5.406929254531860352e-01 -1.998994201421737671e-01
-3.266061246395111084e-01 -5.673133730888366699e-01 -1.957233697175979614e-01
-3.404688835144042969e-01 -5.516326427459716797e-01 -1.790277808904647827e-01
6.805453300476074219e-01 4.295244812965393066e-01 -3.941187262535095215e-01
6.572677493095397949e-01 4.492916166782379150e-01 -3.839964568614959717e-01
6.999947428703308105e-01 4.369440376758575439e-01 -3.849923312664031982e-01
6.796580553054809570e-01 4.581665992736816406e-01 -3.743049502372741699e-01
8.699936866760253906e-01 -2.479171305894851685e-01 1.783102750778198242e-02
8.600943684577941895e-01 -2.626399099826812744e-01 2.120424434542655945e-02
8.883742094039916992e-01 -2.409629821777343750e-01 1.862945966422557831e-02
8.757011890411376953e-01 -2.483738213777542114e-01 2.481662109494209290e-02
1.728449910879135132e-01 2.610001564025878906e-01 -2.083615958690643311e-02
1.575708985328674316e-01 2.474541068077087402e-01 -9.366095066070556641e-03
1.817691326141357422e-01 2.496670782566070557e-01 -4.121009260416030884e-04
1.683326959609985352e-01 2.354079335927963257e-01 1.101111993193626404e-02
5.967920422554016113e-01 4.264882206916809082e-01 1.148301959037780762e-01
5.820960998535156250e-01 4.178319871425628662e-01 1.299748718738555908e-01
6.106513738632202148e-01 4.193598926067352295e-01 1.318880468606948853e-01
5.970129370689392090e-01 4.084533154964447021e-01 1.455654203891754150e-01
3.100517392158508301e-01 -1.838760375976562500e-01 -3.647759556770324707e-02
3.003777861595153809e-01 -1.645812839269638062e-01 -1.498317811638116837e-02
3.281089365482330322e-01 -1.953201889991760254e-01 -4.526066593825817108e-03
3.164597749710083008e-01 -1.736958920955657959e-01 1.490146759897470474e-02
4.361785650253295898e-01 -4.636287689208984375e-01 -1.732704341411590576e-01
4.268933534622192383e-01 -4.733650982379913330e-01 -1.610402911901473999e-01
4.496735632419586182e-01 -4.604826271533966064e-01 -1.556050777435302734e-01
4.398132264614105225e-01 -4.712013006210327148e-01 -1.421597599983215332e-01
-3.639400303363800049e-01 -4.048521816730499268e-02 -6.458237767219543457e-02
-3.799174129962921143e-01 -5.175338685512542725e-02 -5.583948642015457153e-02
-3.505200147628784180e-01 -3.730274736881256104e-02 -5.335791781544685364e-02
-3.645203709602355957e-01 -4.858915507793426514e-02 -4.364619404077529907e-02
7.795426845550537109e-01 -3.247691094875335693e-01 -3.743731975555419922e-02
7.612727880477905273e-01 -3.359656035900115967e-01 -2.601467818021774292e-02
7.967451810836791992e-01 -3.216339349746704102e-01 -2.665795199573040009e-02
7.771947383880615234e-01 -3.321182131767272949e-01 -1.731052249670028687e-02
-1.576720327138900757e-01 -7.816544771194458008e-01 6.613015383481979370e-02
-1.669029444456100464e-01 -7.733570337295532227e-01 8.855057507753372192e-02
-1.403298079967498779e-01 -7.905158400535583496e-01 9.029809385538101196e-02
-1.505457311868667603e-01 -7.824663519859313965e-01 1.102911159396171570e-01
-1.383939525112509727e-03 -3.062817752361297607e-01 -3.511825799942016602e-01
-7.424750830978155136e-03 -3.457564711570739746e-01 -3.497835695743560791e-01
2.887945249676704407e-02 -2.871290445327758789e-01 -3.577672839164733887e-01
2.125790715217590332e-02 -3.273476064205169678e-01 -3.576263189315795898e-01
-1.426622122526168823e-01 6.854471564292907715e-02 -1.168093383312225342e-01
-1.567674875259399414e-01 5.873495340347290039e-02 -1.030536666512489319e-01
-1.312868595123291016e-01 6.776490807533264160e-02 -9.225466102361679077e-02
-1.454838812351226807e-01 5.852860212326049805e-02 -7.978773117065429688e-02
9.647156596183776855e-01 9.789025038480758667e-02 -2.398695051670074463e-01
9.537748694419860840e-01 1.086671799421310425e-01 -2.224161177873611450e-01
9.734881520271301270e-01 9.354556351900100708e-02 -2.162916064262390137e-01
9.627112746238708496e-01 1.049218997359275818e-01 -1.986673325300216675e-01
3.837178051471710205e-01 -3.676369786262512207e-01 1.326325386762619019e-01
3.712945580482482910e-01 -3.755243122577667236e-01 1.359945088624954224e-01
4.039861559867858887e-01 -3.487258553504943848e-01 1.332714259624481201e-01
3.916899561882019043e-01 -3.582656979560852051e-01 1.372058987617492676e-01
8.564998507499694824e-01 3.760657906532287598e-01 1.157071888446807861e-01
8.402740359306335449e-01 3.719996809959411621e-01 1.266157329082489014e-01
8.677359223365783691e-01 3.814333975315093994e-01 1.249392703175544739e-01
8.511842489242553711e-01 3.775936067104339600e-01 1.358903497457504272e-01
-2.534689605236053467e-01 2.035146057605743408e-01 1.333365738391876221e-01
-2.611441612243652344e-01 2.240111976861953735e-01 1.600419580936431885e-01
-2.460512518882751465e-01 1.971383243799209595e-01 1.587415784597396851e-01
-2.540935873985290527e-01 2.166044414043426514e-01 1.843383461236953735e-01
-1.488659530878067017e-01 1.208195649087429047e-02 -2.602460980415344238e-01
-1.720004975795745850e-01 3.312052786350250244e-02 -2.452041208744049072e-01
-1.224009469151496887e-01 1.920233853161334991e-02 -2.655520737171173096e-01
-1.453791260719299316e-01 4.364930838346481323e-02 -2.502018511295318604e-01
7.144877314567565918e-01 -2.368363440036773682e-01 -4.162952303886413574e-01
7.032578587532043457e-01 -2.476381808519363403e-01 -4.059187769889831543e-01
7.217890024185180664e-01 -2.372433841228485107e-01 -4.014165401458740234e-01
7.108969092369079590e-01 -2.485791295766830444e-01 -3.896063566207885742e-01
6.437224745750427246e-01 2.104430794715881348e-01 1.489436924457550049e-01
6.411256194114685059e-01 1.818668544292449951e-01 1.481787264347076416e-01
6.688577532768249512e-01 2.241438031196594238e-01 1.451963335275650024e-01
6.659157872200012207e-01 1.969347447156906128e-01 1.437605172395706177e-01
6.423172354698181152e-01 7.065960764884948730e-01 1.798364222049713135e-01
6.264790296554565430e-01 7.259156107902526855e-01 1.963929831981658936e-01
6.512804627418518066e-01 7.076354026794433594e-01 2.077620625495910645e-01
6.358351111412048340e-01 7.267908453941345215e-01 2.239777445793151855e-01
6.166373491287231445e-01 4.962128400802612305e-01 -7.743078470230102539e-02
6.031540632247924805e-01 4.833259880542755127e-01 -6.050086393952369690e-02
6.206600666046142578e-01 4.882755577564239502e-01 -5.484552681446075439e-02
6.086030006408691406e-01 4.746118783950805664e-01 -3.609501570463180542e-02
2.916799187660217285e-01 -6.018816828727722168e-01 1.236121132969856262e-01
2.757717967033386230e-01 -6.062153577804565430e-01 1.320628374814987183e-01
3.065195381641387939e-01 -5.978008508682250977e-01 1.265853792428970337e-01
2.925155460834503174e-01 -6.020136475563049316e-01 1.366259753704071045e-01
8.555814027786254883e-01 2.947602868080139160e-01 -1.558350324630737305e-01
8.484916687011718750e-01 3.125422894954681396e-01 -1.374464035034179688e-01
8.609768748283386230e-01 2.888548374176025391e-01 -1.320080906152725220e-01
8.550933003425598145e-01 3.049231767654418945e-01 -1.121894344687461853e-01
-2.630034387111663818e-01 -4.540584981441497803e-02 2.958916723728179932e-01
-2.786645591259002686e-01 -6.137768924236297607e-02 3.085551559925079346e-01
-2.328711003065109253e-01 -4.354739189147949219e-02 3.107858002185821533e-01
-2.472018599510192871e-01 -5.846239626407623291e-02 3.221935331821441650e-01
1.878260374069213867e-01 4.962821900844573975e-01 1.515361964702606201e-01
1.695359945297241211e-01 5.113580226898193359e-01 1.648994684219360352e-01
1.996264904737472534e-01 4.922655522823333740e-01 1.773341894149780273e-01
1.817615330219268799e-01 5.093833804130554199e-01 1.920958012342453003e-01
-6.867755949497222900e-02 -7.544224262237548828e-01 -1.855645924806594849e-01
-8.431191742420196533e-02 -7.642452716827392578e-01 -1.749926805496215820e-01
-5.253886431455612183e-02 -7.536507248878479004e-01 -1.681592464447021484e-01
-6.658901274204254150e-02 -7.632049918174743652e-01 -1.583735495805740356e-01
9.126567281782627106e-03 7.122736424207687378e-02 3.006504774093627930e-01
2.017165068536996841e-03 4.690244793891906738e-02 3.053378760814666748e-01
3.398086130619049072e-02 7.183708995580673218e-02 3.030475378036499023e-01
2.566364035010337830e-02 4.834642261266708374e-02 3.076116442680358887e-01
-1.438244879245758057e-01 -7.116936445236206055e-01 2.188760936260223389e-01
-1.623482853174209595e-01 -6.968773007392883301e-01 2.291367352008819580e-01
-1.233315765857696533e-01 -7.017162442207336426e-01 2.244292199611663818e-01
-1.422541290521621704e-01 -6.856064796447753906e-01 2.336726784706115723e-01
9.772884249687194824e-01 6.286041438579559326e-02 -2.972368597984313965e-01
9.670586585998535156e-01 7.722196727991104126e-02 -2.808953523635864258e-01
9.886843562126159668e-01 5.886641889810562134e-02 -2.721528410911560059e-01
9.785622358322143555e-01 6.996546685695648193e-02 -2.542990148067474365e-01
1.607993692159652710e-01 -3.925978243350982666e-01 1.964357495307922363e-01
1.567895710468292236e-01 -4.144957959651947021e-01 1.973375529050827026e-01
1.861629188060760498e-01 -3.786380290985107422e-01 1.901976913213729858e-01
1.837249696254730225e-01 -4.011065065860748291e-01 1.894955635070800781e-01
-4.629384875297546387e-01 1.644787043333053589e-01 -1.322537511587142944e-01
-4.658351242542266846e-01 1.239763647317886353e-01 -1.302465349435806274e-01
-4.317802786827087402e-01 1.767853498458862305e-01 -1.412926167249679565e-01
-4.352735579013824463e-01 1.329679787158966064e-01 -1.368268728256225586e-01
-2.946570143103599548e-02 -6.629136204719543457e-01 -3.363578021526336670e-01
-3.864634037017822266e-02 -6.829510927200317383e-01 -3.322142064571380615e-01
-7.034216076135635376e-03 -6.549430489540100098e-01 -3.298527300357818604e-01
-1.644319109618663788e-02 -6.752858757972717285e-01 -3.242381811141967773e-01
5.309187248349189758e-02 -2.189508974552154541e-01 -3.526065349578857422e-01
4.716731235384941101e-02 -2.556032836437225342e-01 -3.517127633094787598e-01
8.563587069511413574e-02 -2.054586857557296753e-01 -3.612915277481079102e-01
8.078268170356750488e-02 -2.399522662162780762e-01 -3.594461381435394287e-01
3.549651503562927246e-01 3.707423508167266846e-01 -1.216825395822525024e-01
3.336252570152282715e-01 3.575767874717712402e-01 -1.166835501790046692e-01
3.698905408382415771e-01 3.759687542915344238e-01 -1.057509779930114746e-01
3.485816121101379395e-01 3.640488386154174805e-01 -9.792314469814300537e-02
7.256511449813842773e-01 -3.102792799472808838e-01 -2.387018203735351562e-01
7.126767635345458984e-01 -3.203725516796112061e-01 -2.306690514087677002e-01
7.396227121353149414e-01 -3.053686320781707764e-01 -2.183123081922531128e-01
7.284137010574340820e-01 -3.167072236537933350e-01 -2.075638920068740845e-01
-3.349385261535644531e-01 -5.594399571418762207e-01 -2.489765882492065430e-01
-3.502074480056762695e-01 -5.446625351905822754e-01 -2.314915657043457031e-01
-3.175354897975921631e-01 -5.745182037353515625e-01 -2.311966270208358765e-01
-3.318344652652740479e-01 -5.596641898155212402e-01 -2.132543176412582397e-01
2.876130640506744385e-01 3.016384243965148926e-01 1.080292835831642151e-01
2.770620584487915039e-01 2.872730195522308350e-01 1.208792105317115784e-01
2.965674400329589844e-01 2.956441342830657959e-01 1.264325529336929321e-01
2.842029035091400146e-01 2.829395234584808350e-01 1.395452320575714111e-01
9.859187006950378418e-01 -3.537818789482116699e-02 -5.596175193786621094e-01
9.756870865821838379e-01 -6.420852988958358765e-02 -5.569272637367248535e-01
1.012565374374389648e+00 -4.280396550893783569e-02 -5.536227822303771973e-01
1.001658797264099121e+00 -7.498956471681594849e-02 -5.479695796966552734e-01
6.975162029266357422e-01 2.686284184455871582e-01 1.553472131490707397e-01
6.891929507255554199e-01 2.463820874691009521e-01 1.546392887830734253e-01
7.236446738243103027e-01 2.779069840908050537e-01 1.465186029672622681e-01
7.123896479606628418e-01 2.646814882755279541e-01 1.496383994817733765e-01
2.211933732032775879e-01 3.185757398605346680e-01 -3.207406103610992432e-01
2.108655720949172974e-01 2.957331538200378418e-01 -3.104633390903472900e-01
2.320431768894195557e-01 3.172680437564849854e-01 -3.051635622978210449e-01
2.217660695314407349e-01 2.945672571659088135e-01 -2.948329150676727295e-01
-4.859069585800170898e-01 -2.822115719318389893e-01 -4.680782929062843323e-02
-4.920876920223236084e-01 -2.678184211254119873e-01 -2.857802249491214752e-02
-4.705324769020080566e-01 -2.991226911544799805e-01 -2.474288642406463623e-02
-4.771832525730133057e-01 -2.840666770935058594e-01 -6.809544749557971954e-03
7.684423923492431641e-01 -3.124317824840545654e-01 4.782347381114959717e-02
7.586840391159057617e-01 -3.363460600376129150e-01 5.368101224303245544e-02
7.911503314971923828e-01 -3.079183697700500488e-01 4.824205487966537476e-02
7.808537483215332031e-01 -3.321745097637176514e-01 5.466367676854133606e-02
6.301473379135131836e-01 -3.829338848590850830e-01 -1.170040667057037354e-01
6.206278204917907715e-01 -3.965666592121124268e-01 -1.054501160979270935e-01
6.398906707763671875e-01 -3.843811452388763428e-01 -9.840634465217590332e-02
6.304949522018432617e-01 -3.980727493762969971e-01 -8.661703765392303467e-02
6.763866543769836426e-01 6.665367484092712402e-01 9.695097059011459351e-02
6.649166345596313477e-01 6.897701025009155273e-01 1.206935644149780273e-01
6.883917450904846191e-01 6.519616842269897461e-01 1.193591952323913574e-01
6.756994724273681641e-01 6.759681105613708496e-01 1.438026279211044312e-01
7.638889551162719727e-01 -2.380500584840774536e-01 -3.398285806179046631e-01
7.532254457473754883e-01 -2.487664073705673218e-01 -3.229445219039916992e-01
7.776941657066345215e-01 -2.409613728523254395e-01 -3.255729973316192627e-01
7.675499916076660156e-01 -2.522138059139251709e-01 -3.094432950019836426e-01
7.494340538978576660e-01 2.996179461479187012e-01 1.397329866886138916e-01
7.340359687805175781e-01 3.003080487251281738e-01 1.464882045984268188e-01
7.719755172729492188e-01 3.046428859233856201e-01 1.384655535221099854e-01
7.522691488265991211e-01 3.135780096054077148e-01 1.470437794923782349e-01
4.501164853572845459e-01 8.176118135452270508e-01 -2.595043480396270752e-01
4.289869368076324463e-01 8.312969803810119629e-01 -2.458880096673965454e-01
4.682926535606384277e-01 8.216230273246765137e-01 -2.465132474899291992e-01
4.496499001979827881e-01 8.332783579826354980e-01 -2.297372519969940186e-01
1.870620697736740112e-01 4.785072058439254761e-02 2.019415423274040222e-02
1.748480051755905151e-01 6.831727921962738037e-02 3.721562400460243225e-02
1.993975192308425903e-01 5.082047730684280396e-02 3.905694931745529175e-02
1.865795850753784180e-01 7.048691809177398682e-02 6.125631183385848999e-02
4.254623949527740479e-01 2.953216433525085449e-01 2.407301813364028931e-01
4.073092043399810791e-01 3.002447783946990967e-01 2.462847381830215454e-01
4.540573060512542725e-01 3.070983886718750000e-01 2.406576871871948242e-01
4.350156188011169434e-01 3.121749460697174072e-01 2.473133057355880737e-01
7.244585156440734863e-01 -3.249979615211486816e-01 -1.951449364423751831e-01
7.128180861473083496e-01 -3.398627936840057373e-01 -1.814379096031188965e-01
7.390012145042419434e-01 -3.221957683563232422e-01 -1.763563752174377441e-01
7.281486988067626953e-01 -3.369838297367095947e-01 -1.618664264678955078e-01
-4.106158614158630371e-01 -1.052512899041175842e-01 -1.332634594291448593e-02
-4.240574240684509277e-01 -1.156191006302833557e-01 1.572068780660629272e-03
-3.949846923351287842e-01 -1.060524806380271912e-01 2.101602964103221893e-03
-4.082881212234497070e-01 -1.165347993373870850e-01 1.756152510643005371e-02
1.108232855796813965e+00 -9.559793770313262939e-02 -8.990144729614257812e-02
1.101870059967041016e+00 -1.174306198954582214e-01 -8.504095673561096191e-02
1.116432666778564453e+00 -9.253042936325073242e-02 -7.088126242160797119e-02
1.107590794563293457e+00 -1.116226837038993835e-01 -6.601528823375701904e-02
8.837370574474334717e-02 -6.136327385902404785e-01 -2.837996780872344971e-01
7.565765827894210815e-02 -6.251823306083679199e-01 -2.697315812110900879e-01
1.039142683148384094e-01 -6.178752779960632324e-01 -2.619703412055969238e-01
9.049453586339950562e-02 -6.283227205276489258e-01 -2.496701031923294067e-01
-8.715871721506118774e-02 9.082604944705963135e-02 -3.981753066182136536e-02
-1.027225181460380554e-01 7.465680688619613647e-02 -1.989280618727207184e-02
-7.075573503971099854e-02 8.661481738090515137e-02 -1.602997630834579468e-02
-8.588995039463043213e-02 6.998785585165023804e-02 5.270758643746376038e-03
-1.646917611360549927e-01 5.043541193008422852e-01 -3.035041503608226776e-02
-1.923649907112121582e-01 4.889091551303863525e-01 -2.738702297210693359e-02
-1.369543820619583130e-01 5.081172585487365723e-01 -1.212241686880588531e-02
-1.631519794464111328e-01 4.940685629844665527e-01 -6.178107578307390213e-03
9.798014163970947266e-01 -9.338001906871795654e-02 -4.153518080711364746e-01
9.674512743949890137e-01 -1.083981394767761230e-01 -4.040094614028930664e-01
9.877895712852478027e-01 -1.022256910800933838e-01 -3.911555409431457520e-01
9.739869236946105957e-01 -1.189929321408271790e-01 -3.776523470878601074e-01
2.950317263603210449e-01 -6.124371886253356934e-01 -5.422510206699371338e-03
2.801349163055419922e-01 -6.216202974319458008e-01 7.237114943563938141e-03
3.020806908607482910e-01 -6.111932396888732910e-01 1.770693808794021606e-02
2.867140173912048340e-01 -6.193221211433410645e-01 2.852160111069679260e-02
-1.933018863201141357e-01 3.209917619824409485e-02 5.423815548419952393e-02
-2.063103169202804565e-01 1.815741881728172302e-02 5.960978940129280090e-02
-1.753830909729003906e-01 2.792049944400787354e-02 7.499843090772628784e-02
-1.871643960475921631e-01 1.001909282058477402e-02 8.236980438232421875e-02
8.373659253120422363e-01 3.076971173286437988e-01 1.183667406439781189e-01
8.147444128990173340e-01 3.188712596893310547e-01 1.312177032232284546e-01
8.532211184501647949e-01 3.070377707481384277e-01 1.230300515890121460e-01
8.307860493659973145e-01 3.181500732898712158e-01 1.356032788753509521e-01
-1.162124872207641602e-01 -8.121748268604278564e-02 -2.848865091800689697e-01
-1.181709915399551392e-01 -1.120705902576446533e-01 -2.857935130596160889e-01
-8.918578177690505981e-02 -7.059359550476074219e-02 -2.905488610267639160e-01
-9.068728238344192505e-02 -1.029233410954475403e-01 -2.925566136837005615e-01
-4.673961699008941650e-01 -6.447671353816986084e-02 -2.669556438922882080e-02
-4.816913902759552002e-01 -7.229718565940856934e-02 -8.239632472395896912e-03
-4.512336552143096924e-01 -6.222268193960189819e-02 -6.974538788199424744e-03
-4.671824276447296143e-01 -6.863459944725036621e-02 1.183129660785198212e-02
4.598781466484069824e-01 -3.714795410633087158e-01 1.057031974196434021e-01
4.571592509746551514e-01 -4.001964628696441650e-01 1.024074107408523560e-01
4.849228560924530029e-01 -3.563257753849029541e-01 1.050554066896438599e-01
4.820329248905181885e-01 -3.841046094894409180e-01 1.022662520408630371e-01
3.999261558055877686e-01 -5.472926497459411621e-01 -1.034766249358654022e-02
3.898569345474243164e-01 -5.570328831672668457e-01 8.690650574862957001e-04
4.107218682765960693e-01 -5.464669466018676758e-01 6.765487603843212128e-03
3.999316096305847168e-01 -5.565850138664245605e-01 1.621915586292743683e-02
-6.199569106101989746e-01 2.063556015491485596e-02 3.046182096004486084e-01
-6.271108388900756836e-01 3.232693299651145935e-02 3.174642622470855713e-01
-6.083154082298278809e-01 1.129252184182405472e-02 3.209333717823028564e-01
-6.157899498939514160e-01 2.359928376972675323e-02 3.333953619003295898e-01
3.806900382041931152e-01 7.513596415519714355e-01 6.278406083583831787e-02
3.588599860668182373e-01 7.384330034255981445e-01 6.871724128723144531e-02
4.018685221672058105e-01 7.533771395683288574e-01 8.419039845466613770e-02
3.802529275417327881e-01 7.405385971069335938e-01 8.953423798084259033e-02
2.710281014442443848e-01 -1.328357756137847900e-01 -3.197462856769561768e-02
2.625519037246704102e-01 -1.153588220477104187e-01 -5.836071446537971497e-03
2.829685509204864502e-01 -1.407584547996520996e-01 -2.793222665786743164e-03
2.753961086273193359e-01 -1.236840859055519104e-01 2.349178120493888855e-02
-2.554353475570678711e-01 -6.619746088981628418e-01 2.083341032266616821e-01
-2.708964645862579346e-01 -6.419244408607482910e-01 2.129813730716705322e-01
-2.398570179939270020e-01 -6.580709218978881836e-01 2.205207645893096924e-01
-2.550538480281829834e-01 -6.387360692024230957e-01 2.249049693346023560e-01
3.679850101470947266e-01 3.815148770809173584e-01 -3.174522221088409424e-01
3.414995968341827393e-01 3.906769156455993652e-01 -3.037748634815216064e-01
3.926183581352233887e-01 4.029936492443084717e-01 -3.089733421802520752e-01
3.664113283157348633e-01 4.036801457405090332e-01 -2.982342541217803955e-01
-5.680297501385211945e-03 -6.514729261398315430e-01 -3.852130174636840820e-01
-1.318700052797794342e-02 -6.749340891838073730e-01 -3.831763565540313721e-01
2.066028490662574768e-02 -6.601277589797973633e-01 -3.829952478408813477e-01
1.256982423365116119e-02 -6.861940026283264160e-01 -3.798956573009490967e-01
5.302355065941810608e-02 -6.955404877662658691e-01 -1.594799757003784180e-01
4.340667650103569031e-02 -7.073728442192077637e-01 -1.408587247133255005e-01
6.120486557483673096e-02 -6.983469128608703613e-01 -1.347146481275558472e-01
5.029635131359100342e-02 -7.098575234413146973e-01 -1.167968809604644775e-01
-5.167766660451889038e-02 4.718141257762908936e-02 -2.765280604362487793e-01
-7.492358237504959106e-02 7.110411673784255981e-02 -2.632494866847991943e-01
-3.119088709354400635e-02 7.309389114379882812e-02 -2.799776792526245117e-01
-4.847197234630584717e-02 7.783817499876022339e-02 -2.711377441883087158e-01
-2.734525203704833984e-01 -3.758262470364570618e-02 2.672649621963500977e-01
-2.896876633167266846e-01 -5.304813385009765625e-02 2.819586992263793945e-01
-2.529210150241851807e-01 -3.780600428581237793e-02 2.865528464317321777e-01
-2.683638036251068115e-01 -5.351721495389938354e-02 2.989769279956817627e-01
5.554195642471313477e-01 -3.164946138858795166e-01 -4.524538815021514893e-01
5.433904528617858887e-01 -3.319664597511291504e-01 -4.488791525363922119e-01
5.692704319953918457e-01 -3.192200064659118652e-01 -4.452284872531890869e-01
5.553100705146789551e-01 -3.309275209903717041e-01 -4.379098415374755859e-01
1.755988225340843201e-02 1.629580408334732056e-01 -2.771151065826416016e-01
-3.842527978122234344e-03 1.764180958271026611e-01 -2.590726315975189209e-01
3.095535561442375183e-02 1.740874946117401123e-01 -2.716432511806488037e-01
9.319399483501911163e-03 1.872460842132568359e-01 -2.536785006523132324e-01
-6.350510120391845703e-01 2.534363269805908203e-01 -7.528075575828552246e-02
-6.689994931221008301e-01 2.486613392829895020e-01 -6.196828186511993408e-02
-6.054039001464843750e-01 2.657207548618316650e-01 -5.889035761356353760e-02
-6.388909816741943359e-01 2.631489634513854980e-01 -4.615484178066253662e-02
-2.312513887882232666e-01 6.754583865404129028e-02 -5.141046643257141113e-02
-2.461603432893753052e-01 5.546793714165687561e-02 -4.346515238285064697e-02
-2.169174998998641968e-01 6.745533645153045654e-02 -3.547286242246627808e-02
-2.285665720701217651e-01 5.249521136283874512e-02 -2.691346779465675354e-02
-2.815626189112663269e-02 1.324597895145416260e-01 -7.100220769643783569e-02
-4.557196050882339478e-02 1.197442561388015747e-01 -5.219225212931632996e-02
-1.555188465863466263e-02 1.259155720472335815e-01 -5.269672349095344543e-02
-3.200991824269294739e-02 1.141044199466705322e-01 -3.279149904847145081e-02
5.260910987854003906e-01 -4.305684864521026611e-01 -1.389382183551788330e-01
5.186246037483215332e-01 -4.433304369449615479e-01 -1.200677454471588135e-01
5.347371101379394531e-01 -4.378195106983184814e-01 -1.182493045926094055e-01
5.277742147445678711e-01 -4.513633251190185547e-01 -9.842702746391296387e-02
5.764197111129760742e-01 -3.537121713161468506e-01 -3.525381982326507568e-01
5.614508390426635742e-01 -3.616784811019897461e-01 -3.419647514820098877e-01
5.847765207290649414e-01 -3.518313169479370117e-01 -3.338664770126342773e-01
5.707946419715881348e-01 -3.606687784194946289e-01 -3.209588229656219482e-01
7.814707756042480469e-01 -7.165207713842391968e-02 7.780886441469192505e-02
7.751657962799072266e-01 -9.292517602443695068e-02 7.837121933698654175e-02
8.079762458801269531e-01 -6.992949545383453369e-02 7.317747920751571655e-02
8.018592596054077148e-01 -9.342819452285766602e-02 7.363701611757278442e-02
4.728598594665527344e-01 -4.325146973133087158e-01 -2.200785577297210693e-01
4.615574777126312256e-01 -4.422418177127838135e-01 -2.058528065681457520e-01
4.834304451942443848e-01 -4.326825737953186035e-01 -2.043812274932861328e-01
4.718788266181945801e-01 -4.428077936172485352e-01 -1.900360137224197388e-01
4.142293035984039307e-01 -4.854273498058319092e-01 -2.049716860055923462e-01
4.060134589672088623e-01 -4.943470358848571777e-01 -1.928986459970474243e-01
4.248682260513305664e-01 -4.883935749530792236e-01 -1.810242086648941040e-01
4.156281352043151855e-01 -4.984763860702514648e-01 -1.687151938676834106e-01
-2.582412064075469971e-01 1.039089541882276535e-02 -5.754500627517700195e-02
-2.758347392082214355e-01 -1.932595623657107353e-04 -4.871074110269546509e-02
-2.476667314767837524e-01 1.679916307330131531e-02 -4.341638088226318359e-02
-2.659674286842346191e-01 5.618801340460777283e-03 -3.397777304053306580e-02
4.391540288925170898e-01 6.302396059036254883e-01 -2.961806058883666992e-01
4.267147779464721680e-01 5.949591994285583496e-01 -2.935682833194732666e-01
4.736814796924591064e-01 6.309547424316406250e-01 -3.000344634056091309e-01
4.580634832382202148e-01 6.095612049102783203e-01 -2.950779497623443604e-01
-1.130143404006958008e-01 4.140639603137969971e-01 3.811257183551788330e-01
-1.325876861810684204e-01 3.985893428325653076e-01 3.907947838306427002e-01
-9.112551808357238770e-02 4.129630625247955322e-01 3.948917984962463379e-01
-1.111686229705810547e-01 3.981136381626129150e-01 4.048976302146911621e-01
3.044441640377044678e-01 7.162901759147644043e-01 1.110732778906822205e-01
2.871433496475219727e-01 7.020033597946166992e-01 1.229638010263442993e-01
3.278231322765350342e-01 7.200540900230407715e-01 1.317001730203628540e-01
3.110600709915161133e-01 7.061300873756408691e-01 1.437021344900131226e-01
8.076946139335632324e-01 1.590174883604049683e-01 -4.928939640522003174e-01
7.861202359199523926e-01 1.845311075448989868e-01 -4.835912585258483887e-01
8.264107108116149902e-01 1.626401990652084351e-01 -4.798702895641326904e-01
8.068498373031616211e-01 1.882435977458953857e-01 -4.689697325229644775e-01
4.019084870815277100e-01 7.949456572532653809e-01 -1.793551072478294373e-02
3.841569125652313232e-01 7.828039526939392090e-01 -3.870259504765272141e-03
4.121809899806976318e-01 7.888354659080505371e-01 8.982978761196136475e-03
3.949082195758819580e-01 7.757975459098815918e-01 2.054300904273986816e-02
5.396273136138916016e-01 4.455945491790771484e-01 -9.703397005796432495e-02
5.233252644538879395e-01 4.353258907794952393e-01 -8.442473411560058594e-02
5.523449778556823730e-01 4.430041313171386719e-01 -8.118974417448043823e-02
5.354496836662292480e-01 4.327748715877532959e-01 -6.929855048656463623e-02
1.471134722232818604e-01 1.451126188039779663e-01 6.516520678997039795e-02
1.463568657636642456e-01 1.280593127012252808e-01 6.748915463685989380e-02
1.594395339488983154e-01 1.450093090534210205e-01 8.216760307550430298e-02
1.582795083522796631e-01 1.283740848302841187e-01 8.559184521436691284e-02
-1.772188246250152588e-01 -3.409983962774276733e-02 2.850709855556488037e-01
-1.916717886924743652e-01 -4.749140515923500061e-02 2.938385605812072754e-01
-1.547972559928894043e-01 -3.197350353002548218e-02 2.931858301162719727e-01
-1.682980060577392578e-01 -4.700823128223419189e-02 3.016845583915710449e-01
3.005767166614532471e-01 2.157201915979385376e-01 2.344318330287933350e-01
2.971322238445281982e-01 1.950905323028564453e-01 2.319631278514862061e-01
3.190874457359313965e-01 2.222022861242294312e-01 2.400307655334472656e-01
3.158330321311950684e-01 2.023036330938339233e-01 2.352688908576965332e-01
-3.299889862537384033e-01 1.498176157474517822e-01 -1.878263354301452637e-01
-3.481928110122680664e-01 1.251418888568878174e-01 -1.793243736028671265e-01
-3.002578914165496826e-01 1.354356706142425537e-01 -1.890937983989715576e-01
-3.152483999729156494e-01 1.105542257428169250e-01 -1.814983040094375610e-01
3.678433895111083984e-01 -5.953689813613891602e-01 8.292664587497711182e-02
3.563534319400787354e-01 -6.029847860336303711e-01 9.395501762628555298e-02
3.815666437149047852e-01 -5.912390947341918945e-01 9.236922115087509155e-02
3.692867755889892578e-01 -5.994974970817565918e-01 1.032655388116836548e-01
3.195805251598358154e-01 -2.483149766921997070e-01 -3.695561885833740234e-01
3.090906143188476562e-01 -2.653071880340576172e-01 -3.672416508197784424e-01
3.370601832866668701e-01 -2.321360558271408081e-01 -3.660941123962402344e-01
3.273704648017883301e-01 -2.519622743129730225e-01 -3.652945458889007568e-01
3.528212606906890869e-01 -2.066220045089721680e-01 9.664630889892578125e-02
3.296124339103698730e-01 -1.834646463394165039e-01 1.044574901461601257e-01
3.717556595802307129e-01 -2.045625150203704834e-01 1.022796779870986938e-01
3.511267304420471191e-01 -1.868497878313064575e-01 1.092911735177040100e-01
-5.038959383964538574e-01 -1.376899629831314087e-01 1.857595592737197876e-01
-5.150312185287475586e-01 -1.374430954456329346e-01 1.995781064033508301e-01
-4.880014657974243164e-01 -1.449493616819381714e-01 1.992592066526412964e-01
-4.999778568744659424e-01 -1.449195891618728638e-01 2.151930928230285645e-01
2.339399755001068115e-01 3.285746872425079346e-01 -3.021508455276489258e-01
2.234906554222106934e-01 3.061696588993072510e-01 -2.917136251926422119e-01
2.448858916759490967e-01 3.309285044670104980e-01 -2.863744199275970459e-01
2.349906563758850098e-01 3.090974390506744385e-01 -2.785217463970184326e-01
6.511857509613037109e-01 -3.839552998542785645e-01 7.338248938322067261e-02
6.462296843528747559e-01 -4.039826393127441406e-01 7.161390036344528198e-02
6.686084866523742676e-01 -3.762461245059967041e-01 7.595786452293395996e-02
6.631641983985900879e-01 -3.976814150810241699e-01 7.463938742876052856e-02
3.234827518463134766e-01 -1.363634467124938965e-01 1.763359159231185913e-01
3.030011653900146484e-01 -1.157557815313339233e-01 1.818728595972061157e-01
3.421842157840728760e-01 -1.344716846942901611e-01 1.855899989604949951e-01
3.213023245334625244e-01 -1.138615012168884277e-01 1.940481364727020264e-01
-1.243467107415199280e-01 6.550963222980499268e-02 1.238643079996109009e-01
-1.338672190904617310e-01 5.084843561053276062e-02 1.368052363395690918e-01
-1.157787293195724487e-01 6.489331275224685669e-02 1.415765285491943359e-01
-1.263517439365386963e-01 5.451148003339767456e-02 1.551842093467712402e-01
8.603321909904479980e-01 -1.544822156429290771e-01 -4.549832344055175781e-01
8.473821878433227539e-01 -1.680241823196411133e-01 -4.442665576934814453e-01
8.834347724914550781e-01 -1.488144397735595703e-01 -4.401348233222961426e-01
8.703113794326782227e-01 -1.616564393043518066e-01 -4.290653467178344727e-01
-1.961700432002544403e-02 2.616710066795349121e-01 -2.265224307775497437e-01
-3.979554027318954468e-02 2.601389884948730469e-01 -2.132248878479003906e-01
-4.392676986753940582e-03 2.793596088886260986e-01 -2.113437205553054810e-01
-2.089669927954673767e-02 2.700121402740478516e-01 -1.973967254161834717e-01
8.494288325309753418e-01 3.430110514163970947e-01 4.713128134608268738e-02
8.305994272232055664e-01 3.598311841487884521e-01 6.179676204919815063e-02
8.589115738868713379e-01 3.311623632907867432e-01 6.315466761589050293e-02
8.398166894912719727e-01 3.461512029170989990e-01 7.591702789068222046e-02
8.212862610816955566e-01 -1.880696564912796021e-01 -4.362341761589050293e-01
8.064817786216735840e-01 -2.021713703870773315e-01 -4.208871126174926758e-01
8.320540189743041992e-01 -1.869507879018783569e-01 -4.191343784332275391e-01
8.183240294456481934e-01 -2.006181478500366211e-01 -4.024206995964050293e-01
-6.177268624305725098e-01 -9.741401299834251404e-03 1.672359853982925415e-01
-6.255686283111572266e-01 2.745528705418109894e-03 1.829922497272491455e-01
-6.064192652702331543e-01 -2.173085696995258331e-02 1.891695708036422729e-01
-6.142230629920959473e-01 -8.723028004169464111e-03 2.048027366399765015e-01
9.546419978141784668e-01 1.120411232113838196e-01 -2.271206229925155640e-01
9.439291954040527344e-01 1.235418468713760376e-01 -2.097490876913070679e-01
9.682785272598266602e-01 1.060452163219451904e-01 -2.062020301818847656e-01
9.577643275260925293e-01 1.175746247172355652e-01 -1.892915815114974976e-01
-2.964944839477539062e-01 2.614920139312744141e-01 4.417762160301208496e-02
-3.020508885383605957e-01 2.771283388137817383e-01 6.784565001726150513e-02
-2.855859696865081787e-01 2.508621215820312500e-01 6.787723302841186523e-02
-2.909269928932189941e-01 2.671470940113067627e-01 9.239836037158966064e-02
-6.945294141769409180e-01 1.421043127775192261e-01 8.162353932857513428e-02
-7.049698829650878906e-01 1.497605443000793457e-01 1.006473153829574585e-01
-6.821085810661315918e-01 1.348778456449508667e-01 1.033600792288780212e-01
-6.919158101081848145e-01 1.411986798048019409e-01 1.218493729829788208e-01
-2.567422389984130859e-01 2.685666084289550781e-01 2.511186599731445312e-01
-2.632605433464050293e-01 2.636283934116363525e-01 2.667511403560638428e-01
-2.469744980335235596e-01 2.660394012928009033e-01 2.683361470699310303e-01
-2.550806999206542969e-01 2.590109705924987793e-01 2.816937863826751709e-01
7.294458150863647461e-01 1.206968054175376892e-01 -4.665482342243194580e-01
6.983183622360229492e-01 1.424804031848907471e-01 -4.565923213958740234e-01
7.538198828697204590e-01 1.278579831123352051e-01 -4.655073285102844238e-01
7.239309549331665039e-01 1.513992547988891602e-01 -4.555626809597015381e-01
-4.943979680538177490e-01 -2.611871361732482910e-01 -1.978383213281631470e-02
-5.005902647972106934e-01 -2.484353929758071899e-01 -2.941524609923362732e-03
-4.789948463439941406e-01 -2.761681675910949707e-01 -3.335708752274513245e-04
-4.842037558555603027e-01 -2.640257775783538818e-01 1.610790751874446869e-02
-4.626968204975128174e-01 1.874237507581710815e-01 3.949447870254516602e-01
-4.776138961315155029e-01 1.750716269016265869e-01 4.085789322853088379e-01
-4.455235600471496582e-01 1.949652433395385742e-01 4.099922478199005127e-01
-4.582333862781524658e-01 1.821374148130416870e-01 4.254115819931030273e-01
-5.742678642272949219e-01 -3.106904029846191406e-02 3.063045144081115723e-01
-5.847208499908447266e-01 -1.208098605275154114e-02 3.237571120262145996e-01
-5.609533190727233887e-01 -4.170831665396690369e-02 3.309375941753387451e-01
-5.722970366477966309e-01 -2.144035324454307556e-02 3.495065569877624512e-01
5.967020392417907715e-01 -3.954488039016723633e-01 -1.647041141986846924e-01
5.880127549171447754e-01 -4.061357975006103516e-01 -1.522744446992874146e-01
6.079086065292358398e-01 -3.993288278579711914e-01 -1.433663368225097656e-01
5.987908244132995605e-01 -4.103273749351501465e-01 -1.306010931730270386e-01
7.678269147872924805e-01 4.971219599246978760e-01 1.808019131422042847e-01
7.500816583633422852e-01 5.087318420410156250e-01 1.946157962083816528e-01
7.868129014968872070e-01 4.822480082511901855e-01 1.924009025096893311e-01
7.700948119163513184e-01 4.943223893642425537e-01 2.057223320007324219e-01
-4.646342396736145020e-01 3.664401918649673462e-02 -1.728146821260452271e-01
-4.923473596572875977e-01 5.211918801069259644e-02 -1.583863943815231323e-01
-4.369053542613983154e-01 6.246449798345565796e-02 -1.715773344039916992e-01
-4.638572633266448975e-01 7.377453893423080444e-02 -1.571992933750152588e-01
1.069270730018615723e+00 -1.688869595527648926e-01 -7.716877758502960205e-02
