2.859443426132202148e-01 6.833745539188385010e-02 1.035198569297790527e-01
2.768981158733367920e-01 7.292497903108596802e-02 1.124999597668647766e-01
-6.512979865074157715e-01 -6.858598440885543823e-02 -1.899696886539459229e-01
-6.611132621765136719e-01 -7.470896840095520020e-02 -1.813137829303741455e-01
-6.582732796669006348e-01 -5.509587377309799194e-02 -1.814686655998229980e-01
-6.670094728469848633e-01 -6.140478327870368958e-02 -1.727901548147201538e-01
1.936296224594116211e-01 -1.424003392457962036e-01 2.257136255502700806e-01
1.857870072126388550e-01 -1.570247560739517212e-01 2.291212230920791626e-01
2.044902741909027100e-01 -1.457661837339401245e-01 2.237922549247741699e-01
1.967504620552062988e-01 -1.597162783145904541e-01 2.270396947860717773e-01
4.161205887794494629e-01 1.937545649707317352e-02 1.703652739524841309e-02
4.077559709548950195e-01 2.206526137888431549e-02 2.216426283121109009e-02
4.234814047813415527e-01 1.629291847348213196e-02 2.568038180470466614e-02
4.156374633312225342e-01 1.831361837685108185e-02 3.067043796181678772e-02
1.013109907507896423e-01 2.165239304304122925e-01 -1.241674274206161499e-01
9.405723214149475098e-02 2.089325785636901855e-01 -1.189532279968261719e-01
1.100386455655097961e-01 2.241300344467163086e-01 -1.296340525150299072e-01
1.030749604105949402e-01 2.163061201572418213e-01 -1.244236677885055542e-01
5.828703641891479492e-01 -2.274586856365203857e-01 -8.293151110410690308e-02
5.731149315834045410e-01 -2.378745824098587036e-01 -8.040282130241394043e-02
5.945367813110351562e-01 -2.380170226097106934e-01 -8.123609423637390137e-02
5.851203203201293945e-01 -2.487420439720153809e-01 -7.890057563781738281e-02
-1.242986544966697693e-01 1.245082467794418335e-01 -6.981984525918960571e-02
-1.324580758810043335e-01 1.248442232608795166e-01 -6.214356049895286560e-02
-1.162777319550514221e-01 1.230733767151832581e-01 -5.777496844530105591e-02
-1.238920614123344421e-01 1.234585419297218323e-01 -4.788335412740707397e-02
6.377969384193420410e-01 9.526159614324569702e-02 -2.173771709203720093e-02
6.271358728408813477e-01 9.450574219226837158e-02 -1.491803675889968872e-02
6.412623524665832520e-01 1.084338724613189697e-01 -1.209268625825643539e-02
6.312342882156372070e-01 1.071834713220596313e-01 -4.956660792231559753e-03
-7.071211338043212891e-01 2.865210771560668945e-01 -6.472042948007583618e-02
-7.101289629936218262e-01 2.756130695343017578e-01 -6.318676471710205078e-02
-6.985484361648559570e-01 2.878231406211853027e-01 -5.547014251351356506e-02
-7.030930519104003906e-01 2.775860726833343506e-01 -5.407707765698432922e-02
-6.911653876304626465e-01 2.394471317529678345e-01 8.462948352098464966e-02
-6.978752017021179199e-01 2.244581431150436401e-01 9.297405183315277100e-02
-6.961365342140197754e-01 2.427051812410354614e-01 9.448630362749099731e-02
-7.028619050979614258e-01 2.276339232921600342e-01 1.027123704552650452e-01
6.583059430122375488e-01 -2.505035102367401123e-01 1.562134772539138794e-01
6.461235284805297852e-01 -2.492921948432922363e-01 1.652442961931228638e-01
6.640933156013488770e-01 -2.440002411603927612e-01 1.637907177209854126e-01
6.514816284179687500e-01 -2.431482970714569092e-01 1.732902973890304565e-01
-6.643758416175842285e-01 -1.164065897464752197e-01 1.872528493404388428e-01
-6.626308560371398926e-01 -1.340444386005401611e-01 1.831791996955871582e-01
-6.582773327827453613e-01 -1.078499555587768555e-01 1.978341341018676758e-01
-6.563544273376464844e-01 -1.256959140300750732e-01 1.942882537841796875e-01
-2.886506915092468262e-01 -3.164469897747039795e-01 2.297933399677276611e-01
-3.000634908676147461e-01 -3.057186007499694824e-01 2.322640269994735718e-01
-2.822234332561492920e-01 -3.041325509548187256e-01 2.411195933818817139e-01
-2.948384881019592285e-01 -2.895656228065490723e-01 2.452965825796127319e-01
-5.369417071342468262e-01 1.653073579072952271e-01 9.543690830469131470e-02
-5.371983051300048828e-01 1.497058868408203125e-01 9.040926396846771240e-02
-5.274179577827453613e-01 1.658311933279037476e-01 9.948120266199111938e-02
-5.269652009010314941e-01 1.499635428190231323e-01 9.479493647813796997e-02
3.141083419322967529e-01 -3.398099243640899658e-01 1.588928401470184326e-01
3.008236587047576904e-01 -3.381333351135253906e-01 1.641041189432144165e-01
3.208803236484527588e-01 -3.261662423610687256e-01 1.643493622541427612e-01
3.076460063457489014e-01 -3.236443400382995605e-01 1.697894781827926636e-01
-6.654013991355895996e-01 2.276724874973297119e-01 7.540693134069442749e-02
-6.692597866058349609e-01 2.149316668510437012e-01 7.824906706809997559e-02
-6.558336615562438965e-01 2.123265117406845093e-01 7.599052041769027710e-02
-6.598324179649353027e-01 1.998209953308105469e-01 7.816684991121292114e-02
2.102830559015274048e-01 2.563214004039764404e-01 1.216131597757339478e-01
2.117989063262939453e-01 2.442307770252227783e-01 1.180306971073150635e-01
2.184958159923553467e-01 2.553039789199829102e-01 1.309160292148590088e-01
2.220511883497238159e-01 2.424882501363754272e-01 1.280466616153717041e-01
2.072436809539794922e-01 1.156318783760070801e-01 -1.514234095811843872e-01
2.031013369560241699e-01 1.002549305558204651e-01 -1.564955711364746094e-01
2.202865779399871826e-01 1.239250153303146362e-01 -1.448704898357391357e-01
2.165539264678955078e-01 1.080789119005203247e-01 -1.500213593244552612e-01
-2.585249245166778564e-01 9.465657174587249756e-02 7.791610807180404663e-02
-2.655413448810577393e-01 9.159652143716812134e-02 8.802153915166854858e-02
-2.508474290370941162e-01 9.751226752996444702e-02 9.037795662879943848e-02
-2.576756477355957031e-01 9.438004344701766968e-02 9.985181689262390137e-02
-2.560123801231384277e-01 9.779249131679534912e-02 -1.478645652532577515e-01
-2.652316987514495850e-01 9.984302520751953125e-02 -1.380896121263504028e-01
-2.447216212749481201e-01 1.056670919060707092e-01 -1.344897896051406860e-01
-2.543098926544189453e-01 1.070216447114944458e-01 -1.249864175915718079e-01
1.854846477508544922e-01 1.369396448135375977e-01 2.118137329816818237e-01
1.718607693910598755e-01 1.203674897551536560e-01 2.203168421983718872e-01
1.993726640939712524e-01 1.287025958299636841e-01 2.091717272996902466e-01
1.871062368154525757e-01 1.134583577513694763e-01 2.177925556898117065e-01
4.189538657665252686e-01 -3.205104172229766846e-01 -7.880932837724685669e-02
4.125041663646697998e-01 -3.307647407054901123e-01 -7.585768401622772217e-02
4.325091242790222168e-01 -3.269799947738647461e-01 -6.722758710384368896e-02
4.255007505416870117e-01 -3.361375331878662109e-01 -6.380851566791534424e-02
-3.472734093666076660e-01 -5.070552825927734375e-01 -1.812676899135112762e-03
-3.564096689224243164e-01 -5.070644021034240723e-01 1.105796732008457184e-02
-3.443563580513000488e-01 -5.063672661781311035e-01 1.279466599225997925e-02
-3.538472652435302734e-01 -5.061455965042114258e-01 2.537799999117851257e-02
-4.820012152194976807e-01 -4.803437292575836182e-01 1.471776701509952545e-02
-4.957823753356933594e-01 -4.745503664016723633e-01 1.940457522869110107e-02
-4.718053042888641357e-01 -4.850292205810546875e-01 2.671884186565876007e-02
-4.838887751102447510e-01 -4.788793623447418213e-01 3.230965510010719299e-02
-9.191520512104034424e-02 -4.847534894943237305e-01 -2.603152021765708923e-02
-1.013336256146430969e-01 -4.859039783477783203e-01 -1.722548343241214752e-02
-8.476289361715316772e-02 -4.857870936393737793e-01 -8.844056166708469391e-03
-9.548661112785339355e-02 -4.871375858783721924e-01 2.370448783040046692e-05
7.147619724273681641e-01 1.403395086526870728e-03 1.412408351898193359e-01
7.079343795776367188e-01 -1.553472597151994705e-02 1.419990211725234985e-01
7.286199927330017090e-01 4.383492283523082733e-03 1.411286592483520508e-01
7.230703234672546387e-01 -1.274347584694623947e-02 1.414056718349456787e-01
-6.461869478225708008e-01 -2.970820665359497070e-01 1.178100034594535828e-01
-6.537387967109680176e-01 -2.811700105667114258e-01 1.234855428338050842e-01
-6.395480632781982422e-01 -2.974166572093963623e-01 1.296264827251434326e-01
-6.475631594657897949e-01 -2.809930443763732910e-01 1.350489109754562378e-01
-3.050738573074340820e-02 -3.304104506969451904e-01 -2.243195325136184692e-01
-3.910196200013160706e-02 -3.390071690082550049e-01 -2.212262749671936035e-01
-1.980843394994735718e-02 -3.350163102149963379e-01 -2.203847020864486694e-01
-2.779348194599151611e-02 -3.453346192836761475e-01 -2.170398533344268799e-01
-6.647584438323974609e-01 -8.163817226886749268e-02 -8.527659624814987183e-02
-6.648275256156921387e-01 -9.285376220941543579e-02 -8.063065260648727417e-02
-6.599377393722534180e-01 -7.879110425710678101e-02 -7.616912573575973511e-02
-6.605554223060607910e-01 -8.930488675832748413e-02 -7.171799242496490479e-02
-2.602728903293609619e-01 8.757713437080383301e-02 -1.661506891250610352e-01
-2.690627276897430420e-01 8.976749330759048462e-02 -1.562420427799224854e-01
-2.508348524570465088e-01 9.602726995944976807e-02 -1.555222123861312866e-01
-2.600485384464263916e-01 9.810079634189605713e-02 -1.455350965261459351e-01
-7.903368026018142700e-02 -1.092369705438613892e-01 2.881906330585479736e-01
-9.569446742534637451e-02 -1.216844916343688965e-01 2.953070700168609619e-01
-5.734204500913619995e-02 -1.123294532299041748e-01 2.839550971984863281e-01
-7.422200590372085571e-02 -1.253410577774047852e-01 2.911675870418548584e-01
1.491318196058273315e-01 3.517721891403198242e-01 -1.198239549994468689e-01
1.434368640184402466e-01 3.315875828266143799e-01 -1.203751042485237122e-01
1.653562188148498535e-01 3.490015268325805664e-01 -1.213206574320793152e-01
1.597578376531600952e-01 3.292724788188934326e-01 -1.217277050018310547e-01
-5.741309523582458496e-01 -2.594432532787322998e-01 -1.971814185380935669e-01
-5.802917480468750000e-01 -2.755929827690124512e-01 -1.817907691001892090e-01
-5.685364603996276855e-01 -2.794188559055328369e-01 -1.856367141008377075e-01
-5.750442147254943848e-01 -2.963820993900299072e-01 -1.699056923389434814e-01
3.296055495738983154e-01 -2.623059451580047607e-01 -1.527643054723739624e-01
3.225000798702239990e-01 -2.772502005100250244e-01 -1.501991152763366699e-01
3.424804210662841797e-01 -2.677474319934844971e-01 -1.452072858810424805e-01
3.353199362754821777e-01 -2.826718688011169434e-01 -1.422543823719024658e-01
3.263779282569885254e-01 -8.944074809551239014e-02 1.767045408487319946e-01
3.174884021282196045e-01 -1.008323803544044495e-01 1.817843019962310791e-01
3.379212915897369385e-01 -9.614998847246170044e-02 1.737914979457855225e-01
3.286682963371276855e-01 -1.081892400979995728e-01 1.784932464361190796e-01
9.427202343940734863e-01 1.056390777230262756e-01 -3.080945275723934174e-02
9.407162666320800781e-01 9.288696944713592529e-02 -3.214931860566139221e-02
9.491452574729919434e-01 1.105204373598098755e-01 -1.943596452474594116e-02
9.475390315055847168e-01 9.820077568292617798e-02 -2.079508081078529358e-02
-5.880956649780273438e-01 1.794729679822921753e-01 -4.026266559958457947e-02
-5.924445986747741699e-01 1.637582331895828247e-01 -4.149746894836425781e-02
-5.700335502624511719e-01 1.746678054332733154e-01 -4.263385012745857239e-02
-5.739409923553466797e-01 1.597527116537094116e-01 -4.375682771205902100e-02
-4.593308568000793457e-01 -2.857377231121063232e-01 -2.027203589677810669e-01
-4.655305147171020508e-01 -2.981035411357879639e-01 -1.945058703422546387e-01
-4.447565376758575439e-01 -3.015118837356567383e-01 -1.945245414972305298e-01
-4.515031576156616211e-01 -3.145727813243865967e-01 -1.859599053859710693e-01
5.744229555130004883e-01 -9.042537957429885864e-02 -8.610449731349945068e-02
5.720617175102233887e-01 -1.076341569423675537e-01 -8.877741545438766479e-02
5.880163908004760742e-01 -9.488952159881591797e-02 -8.822502940893173218e-02
5.853359103202819824e-01 -1.117433011531829834e-01 -8.961308002471923828e-02
-2.422346919775009155e-01 -4.983833432197570801e-01 2.127604559063911438e-02
-2.533124983310699463e-01 -4.959169030189514160e-01 3.572230041027069092e-02
-2.363659441471099854e-01 -4.951774477958679199e-01 3.659262135624885559e-02
-2.471006363630294800e-01 -4.918939471244812012e-01 5.033180862665176392e-02
1.753193140029907227e-01 1.049456670880317688e-01 -2.329189889132976532e-02
1.729990541934967041e-01 8.860056847333908081e-02 -2.316545695066452026e-02
1.868910044431686401e-01 1.011101454496383667e-01 -2.205566503107547760e-02
1.850195229053497314e-01 8.488573879003524780e-02 -2.195843495428562164e-02
-1.805540621280670166e-01 -4.895908236503601074e-01 -3.536687418818473816e-02
-1.888332664966583252e-01 -4.931663870811462402e-01 -2.699485048651695251e-02
-1.715147495269775391e-01 -4.924228787422180176e-01 -2.524326927959918976e-02
-1.794185489416122437e-01 -4.956004619598388672e-01 -1.697224751114845276e-02
7.050881981849670410e-01 -1.190395504236221313e-01 1.356801688671112061e-01
6.974987983703613281e-01 -1.341379433870315552e-01 1.371906846761703491e-01
7.207413315773010254e-01 -1.232743114233016968e-01 1.321893334388732910e-01
7.131521105766296387e-01 -1.386311501264572144e-01 1.338577866554260254e-01
9.071835875511169434e-02 -4.503996372222900391e-01 5.156235024333000183e-02
8.109761029481887817e-02 -4.504980742931365967e-01 6.075230613350868225e-02
9.487754106521606445e-02 -4.446777403354644775e-01 6.996898353099822998e-02
8.498867601156234741e-02 -4.447570741176605225e-01 7.824833691120147705e-02
-3.593062460422515869e-01 5.317744240164756775e-02 -4.468226805329322815e-02
-3.693436086177825928e-01 4.595724493265151978e-02 -3.578050434589385986e-02
-3.461789488792419434e-01 5.654684454202651978e-02 -3.269558027386665344e-02
-3.585242927074432373e-01 4.836884140968322754e-02 -2.487907558679580688e-02
7.486206293106079102e-01 -2.382200583815574646e-02 1.357423216104507446e-01
7.457819581031799316e-01 -4.186533391475677490e-02 1.345931589603424072e-01
7.601945996284484863e-01 -2.011526748538017273e-02 1.357741653919219971e-01
7.598857283592224121e-01 -4.004442691802978516e-02 1.335326433181762695e-01
5.391618609428405762e-01 -2.204421907663345337e-01 -8.583832532167434692e-02
5.288719534873962402e-01 -2.306966632604598999e-01 -8.253104239702224731e-02
5.528799891471862793e-01 -2.280526012182235718e-01 -8.528003096580505371e-02
5.422469377517700195e-01 -2.378330826759338379e-01 -8.197348564863204956e-02
-5.551046133041381836e-01 -9.515341371297836304e-04 6.456160545349121094e-02
-5.641170740127563477e-01 -1.506306603550910950e-02 6.432192772626876831e-02
-5.399560332298278809e-01 -2.824906259775161743e-03 6.665489077568054199e-02
-5.489891171455383301e-01 -1.726172678172588348e-02 6.585296243429183960e-02
-7.174163460731506348e-01 -2.031396627426147461e-01 7.195292506366968155e-03
-7.232494950294494629e-01 -2.231397628784179688e-01 7.988936267793178558e-03
-7.033088803291320801e-01 -2.107905149459838867e-01 1.406712085008621216e-02
-7.079524993896484375e-01 -2.311682105064392090e-01 1.512845419347286224e-02
8.918883651494979858e-02 3.895443305373191833e-02 -6.112754344940185547e-02
7.859330624341964722e-02 4.891499876976013184e-02 -6.219594180583953857e-02
1.016912087798118591e-01 4.301000386476516724e-02 -5.236014351248741150e-02
9.007468074560165405e-02 5.193182080984115601e-02 -5.347542464733123779e-02
7.383521199226379395e-01 -1.374989897012710571e-01 -6.547114998102188110e-02
7.348111867904663086e-01 -1.502321511507034302e-01 -6.717029958963394165e-02
7.507511973381042480e-01 -1.403050124645233154e-01 -6.339805573225021362e-02
7.471233606338500977e-01 -1.522476673126220703e-01 -6.485996395349502563e-02
-1.458812039345502853e-02 -4.557366073131561279e-01 -9.044741839170455933e-02
-2.145127765834331512e-02 -4.601353704929351807e-01 -8.158490806818008423e-02
-6.627602968364953995e-03 -4.598723351955413818e-01 -7.639007270336151123e-02
-1.351214200258255005e-02 -4.642193019390106201e-01 -6.670448929071426392e-02
1.560705155134201050e-01 -3.439513966441154480e-02 2.179641276597976685e-01
1.533726900815963745e-01 -5.088117718696594238e-02 2.187045961618423462e-01
1.663166582584381104e-01 -4.197524487972259521e-02 2.203022092580795288e-01
1.631529927253723145e-01 -5.930138379335403442e-02 2.207251638174057007e-01
-5.341013669967651367e-01 -3.201322257518768311e-01 1.765517443418502808e-01
-5.462444424629211426e-01 -3.068252801895141602e-01 1.804036051034927368e-01
-5.272423624992370605e-01 -3.101468086242675781e-01 1.896097958087921143e-01
-5.394716858863830566e-01 -2.961668968200683594e-01 1.936164945363998413e-01
4.839201569557189941e-01 -3.516383171081542969e-01 5.614338815212249756e-02
4.719712436199188232e-01 -3.480649590492248535e-01 6.773461401462554932e-02
4.903978109359741211e-01 -3.440192639827728271e-01 6.913263350725173950e-02
4.785364270210266113e-01 -3.398695290088653564e-01 8.094097673892974854e-02
6.154596209526062012e-01 -2.565352022647857666e-01 1.317944973707199097e-01
6.036277413368225098e-01 -2.491193413734436035e-01 1.332864165306091309e-01
6.246711015701293945e-01 -2.478327006101608276e-01 1.354122608900070190e-01
6.131089925765991211e-01 -2.421582341194152832e-01 1.368027031421661377e-01
2.939586341381072998e-01 -1.503956317901611328e-01 2.047474980354309082e-01
2.859643995761871338e-01 -1.656319946050643921e-01 2.106957733631134033e-01
3.100007474422454834e-01 -1.559472233057022095e-01 2.004637420177459717e-01
3.025956451892852783e-01 -1.707441806793212891e-01 2.062944769859313965e-01
5.542525649070739746e-01 -3.113353252410888672e-01 -4.513287171721458435e-02
5.432674288749694824e-01 -3.206921517848968506e-01 -3.939336910843849182e-02
5.650343298912048340e-01 -3.161422610282897949e-01 -4.035691916942596436e-02
5.537216663360595703e-01 -3.247123956680297852e-01 -3.423167765140533447e-02
-5.836730599403381348e-01 -5.001671612262725830e-02 4.049861431121826172e-02
-5.981703996658325195e-01 -4.599026218056678772e-02 5.005562305450439453e-02
-5.762493610382080078e-01 -3.728078678250312805e-02 5.335152521729469299e-02
-5.933557748794555664e-01 -3.380620852112770081e-02 6.063277646899223328e-02
1.971768587827682495e-01 6.979859620332717896e-02 7.394935190677642822e-02
1.832825094461441040e-01 8.821248263120651245e-02 8.380206674337387085e-02
2.047891616821289062e-01 7.502888888120651245e-02 8.182201534509658813e-02
1.907630264759063721e-01 9.370331466197967529e-02 9.178692102432250977e-02
-6.454272866249084473e-01 -4.992566257715225220e-02 -6.296978145837783813e-02
-6.469216346740722656e-01 -6.283226609230041504e-02 -5.835991352796554565e-02
-6.358876824378967285e-01 -5.579448118805885315e-02 -5.442691594362258911e-02
-6.384596824645996094e-01 -6.908246129751205444e-02 -4.965110123157501221e-02
6.191999912261962891e-01 -3.141665458679199219e-01 7.219423353672027588e-02
6.017469763755798340e-01 -3.166249096393585205e-01 7.565499842166900635e-02
6.258854269981384277e-01 -3.070967197418212891e-01 8.578605949878692627e-02
6.098799109458923340e-01 -3.086892962455749512e-01 8.829449117183685303e-02
-3.883031308650970459e-01 -4.259554445743560791e-01 -1.219911724328994751e-01
-3.969540297985076904e-01 -4.357405602931976318e-01 -1.133558154106140137e-01
-3.756519854068756104e-01 -4.333714544773101807e-01 -1.161659285426139832e-01
-3.841437399387359619e-01 -4.431792795658111572e-01 -1.078090071678161621e-01
8.090255260467529297e-01 -1.652720719575881958e-01 9.665590524673461914e-02
8.010084629058837891e-01 -1.728495806455612183e-01 1.021391376852989197e-01
8.042685389518737793e-01 -1.571466028690338135e-01 1.108594760298728943e-01
7.959933876991271973e-01 -1.646236777305603027e-01 1.166181191802024841e-01
9.278351068496704102e-01 1.841845065355300903e-01 9.300190955400466919e-02
9.198967218399047852e-01 1.846153289079666138e-01 1.036948338150978088e-01
9.295813441276550293e-01 1.731551289558410645e-01 1.041668578982353210e-01
9.213836789131164551e-01 1.736266911029815674e-01 1.143677234649658203e-01
-5.562577843666076660e-01 -2.888926491141319275e-02 -2.370480597019195557e-01
-5.672105550765991211e-01 -2.538822591304779053e-02 -2.317985445261001587e-01
-5.453721284866333008e-01 -2.153072319924831390e-02 -2.372272908687591553e-01
-5.541262030601501465e-01 -2.190535143017768860e-02 -2.332609444856643677e-01
-7.130210101604461670e-02 -1.061028335243463516e-02 2.489975988864898682e-01
-7.858042418956756592e-02 -2.329703979194164276e-02 2.611417174339294434e-01
-6.037238985300064087e-02 -2.399588935077190399e-02 2.513143420219421387e-01
-6.805583834648132324e-02 -3.679534792900085449e-02 2.637537121772766113e-01
-2.663876712322235107e-01 9.470993280410766602e-02 1.190074905753135681e-01
-2.727354466915130615e-01 8.890703320503234863e-02 1.316163241863250732e-01
-2.581361830234527588e-01 9.543852508068084717e-02 1.303980201482772827e-01
-2.643232643604278564e-01 9.004920721054077148e-02 1.428562104701995850e-01
-5.975704193115234375e-01 -3.317574262619018555e-01 -1.400939822196960449e-01
-6.070510149002075195e-01 -3.326179087162017822e-01 -1.259699165821075439e-01
-5.961865782737731934e-01 -3.438903391361236572e-01 -1.277196109294891357e-01
-6.059503555297851562e-01 -3.441913425922393799e-01 -1.135252788662910461e-01
-6.671122908592224121e-01 1.833021640777587891e-01 -1.454432606697082520e-01
-6.707980632781982422e-01 1.646789014339447021e-01 -1.424159258604049683e-01
-6.553404927253723145e-01 1.768190413713455200e-01 -1.478019654750823975e-01
-6.580594182014465332e-01 1.565655022859573364e-01 -1.459129452705383301e-01
-1.313019841909408569e-01 -1.481111943721771240e-01 -2.748685479164123535e-01
-1.443567276000976562e-01 -1.576002836227416992e-01 -2.766320109367370605e-01
-1.103452593088150024e-01 -1.503910571336746216e-01 -2.723972499370574951e-01
-1.243542209267616272e-01 -1.594943255186080933e-01 -2.742549479007720947e-01
9.519027471542358398e-01 8.664723485708236694e-02 1.023498848080635071e-01
9.474627971649169922e-01 7.912547141313552856e-02 1.068226471543312073e-01
9.472740292549133301e-01 9.655683487653732300e-02 1.126654520630836487e-01
9.429885745048522949e-01 8.862631022930145264e-02 1.170476004481315613e-01
1.004425883293151855e-01 1.691206246614456177e-01 1.906571388244628906e-01
9.655418992042541504e-02 1.485438197851181030e-01 1.887325644493103027e-01
1.135872155427932739e-01 1.662559807300567627e-01 1.995699256658554077e-01
1.094072163105010986e-01 1.455993652343750000e-01 2.006399482488632202e-01
-5.646066665649414062e-01 -3.900468945503234863e-01 1.136444807052612305e-01
-5.733704566955566406e-01 -3.811288774013519287e-01 1.180548593401908875e-01
-5.608641505241394043e-01 -3.819567561149597168e-01 1.259900033473968506e-01
-5.695145130157470703e-01 -3.732888698577880859e-01 1.298877000808715820e-01
-6.065706014633178711e-01 2.058473974466323853e-01 -3.703022375702857971e-02
-6.119992136955261230e-01 1.910977661609649658e-01 -3.775910660624504089e-02
-5.874567627906799316e-01 2.031313478946685791e-01 -4.175630211830139160e-02
-5.924709439277648926e-01 1.882749199867248535e-01 -4.241155833005905151e-02
-5.399760007858276367e-01 2.893892824649810791e-01 9.763003140687942505e-02
-5.397112369537353516e-01 2.769720852375030518e-01 9.626048803329467773e-02
-5.356877446174621582e-01 2.925691306591033936e-01 1.119911745190620422e-01
-5.353997349739074707e-01 2.799311280250549316e-01 1.107785701751708984e-01
-5.029592514038085938e-01 -3.592106401920318604e-01 1.537512987852096558e-01
-5.163481235504150391e-01 -3.480783700942993164e-01 1.572108566761016846e-01
-4.935895204544067383e-01 -3.490793406963348389e-01 1.653442382812500000e-01
-5.068836212158203125e-01 -3.361186087131500244e-01 1.702752262353897095e-01
-6.913367658853530884e-02 -3.420960903167724609e-01 -2.289324104785919189e-01
-8.044447004795074463e-02 -3.454934656620025635e-01 -2.255726903676986694e-01
-5.984950065612792969e-02 -3.424748182296752930e-01 -2.271197736263275146e-01
-7.092218101024627686e-02 -3.466236293315887451e-01 -2.237092107534408569e-01
9.302847385406494141e-01 4.734091088175773621e-02 -8.494338952004909515e-03
9.254390001296997070e-01 3.703476861119270325e-02 -4.841123707592487335e-03
9.364467859268188477e-01 4.592924937605857849e-02 8.077736711129546165e-04
9.327088594436645508e-01 3.697287291288375854e-02 5.782597232609987259e-03
-3.974858224391937256e-01 1.492171082645654678e-03 1.511560380458831787e-01
-4.023934602737426758e-01 -4.532189108431339264e-03 1.557851284742355347e-01
-3.929051458835601807e-01 4.363485611975193024e-03 1.620670706033706665e-01
-3.979880213737487793e-01 -1.858094590716063976e-03 1.662759333848953247e-01
1.722275614738464355e-01 2.734352350234985352e-01 -1.232410892844200134e-01
1.641027182340621948e-01 2.588043212890625000e-01 -1.253783702850341797e-01
1.852186769247055054e-01 2.766630649566650391e-01 -1.203967481851577759e-01
1.792487651109695435e-01 2.613080441951751709e-01 -1.226554661989212036e-01
3.199965953826904297e-01 4.326574504375457764e-02 -5.739786475896835327e-02
3.093880414962768555e-01 5.393856763839721680e-02 -5.474765971302986145e-02
3.339732289314270020e-01 4.591289907693862915e-02 -4.735240340232849121e-02
3.224535286426544189e-01 5.512902513146400452e-02 -4.352558031678199768e-02
-2.363705486059188843e-01 -1.970144212245941162e-01 2.983305752277374268e-01
-2.464891970157623291e-01 -2.114135324954986572e-01 2.980922758579254150e-01
-2.183564603328704834e-01 -1.974452584981918335e-01 2.992552220821380615e-01
-2.284896373748779297e-01 -2.101803869009017944e-01 2.988161146640777588e-01
1.506419330835342407e-01 8.776407688856124878e-02 -1.606950461864471436e-01
1.445445418357849121e-01 7.416650652885437012e-02 -1.588260829448699951e-01
1.664770841598510742e-01 9.081686288118362427e-02 -1.645161360502243042e-01
1.602057665586471558e-01 7.702840119600296021e-02 -1.633767783641815186e-01
-4.391481876373291016e-01 -1.398102659732103348e-02 9.757816046476364136e-02
-4.488157927989959717e-01 -8.236741647124290466e-03 1.014988943934440613e-01
-4.319242835044860840e-01 -1.048034988343715668e-02 1.093650683760643005e-01
-4.411083757877349854e-01 -5.454206839203834534e-03 1.134555786848068237e-01
-6.931074857711791992e-01 -2.403903454542160034e-01 -3.174891462549567223e-03
-6.879585981369018555e-01 -2.613694369792938232e-01 -4.818714223802089691e-04
-6.924432516098022461e-01 -2.372626215219497681e-01 1.246893312782049179e-02
-6.879874467849731445e-01 -2.576757073402404785e-01 1.531566958874464035e-02
8.500199764966964722e-02 3.011304736137390137e-01 1.975729316473007202e-01
7.237260043621063232e-02 2.933025062084197998e-01 1.952847689390182495e-01
1.028803065419197083e-01 3.014486134052276611e-01 2.004012465476989746e-01
9.025396406650543213e-02 2.932766377925872803e-01 1.981294006109237671e-01
-4.617562294006347656e-01 -2.134348265826702118e-02 2.361488491296768188e-01
-4.691599011421203613e-01 -1.345211733132600784e-02 2.445840686559677124e-01
-4.637239575386047363e-01 -2.978793531656265259e-02 2.449169307947158813e-01
-4.706136882305145264e-01 -2.212526649236679077e-02 2.523691654205322266e-01
-7.310134172439575195e-01 -1.450222581624984741e-01 -1.272538676857948303e-02
-7.385115027427673340e-01 -1.589161157608032227e-01 -1.481380313634872437e-02
-7.182230949401855469e-01 -1.540589034557342529e-01 -7.777468301355838776e-03
-7.253332138061523438e-01 -1.677137464284896851e-01 -9.250449016690254211e-03
-2.064463049173355103e-01 9.458504617214202881e-02 -1.613849997520446777e-01
-2.197577208280563354e-01 9.584461897611618042e-02 -1.570142209529876709e-01
-1.954171061515808105e-01 9.979866445064544678e-02 -1.496110260486602783e-01
-2.079907804727554321e-01 1.008366644382476807e-01 -1.449924856424331665e-01
2.771652936935424805e-01 -4.005076885223388672e-01 9.358147531747817993e-02
2.614105939865112305e-01 -3.971239626407623291e-01 1.023839861154556274e-01
2.841260135173797607e-01 -3.937920033931732178e-01 1.066207289695739746e-01
2.685546576976776123e-01 -3.903673589229583740e-01 1.153193935751914978e-01
2.225462496280670166e-01 8.029549568891525269e-02 2.117745727300643921e-01
2.138223499059677124e-01 7.436786592006683350e-02 2.180178612470626831e-01
2.290141433477401733e-01 6.494614481925964355e-02 2.120296806097030640e-01
2.204351872205734253e-01 6.175617873668670654e-02 2.175756394863128662e-01
6.355893611907958984e-01 -3.157512545585632324e-01 -1.282677799463272095e-02
6.236228346824645996e-01 -3.217864930629730225e-01 2.183032687753438950e-03
6.465005874633789062e-01 -3.178142309188842773e-01 -1.587617676705121994e-03
6.356466412544250488e-01 -3.235680460929870605e-01 1.330673042684793472e-02
5.262315273284912109e-01 -3.425089716911315918e-01 3.794913738965988159e-02
5.140507221221923828e-01 -3.448960185050964355e-01 4.420003667473793030e-02
5.351072549819946289e-01 -3.369930088520050049e-01 5.153377726674079895e-02
5.226945281028747559e-01 -3.394330739974975586e-01 5.764095857739448547e-02
-6.698373556137084961e-01 -1.288291960954666138e-01 -6.904678791761398315e-02
-6.691299676895141602e-01 -1.403659731149673462e-01 -6.047494709491729736e-02
-6.675612330436706543e-01 -1.297813504934310913e-01 -5.509441718459129333e-02
-6.673392057418823242e-01 -1.407273411750793457e-01 -4.670354723930358887e-02
-6.491054296493530273e-01 2.294978946447372437e-01 7.291624695062637329e-02
-6.535913944244384766e-01 2.164276540279388428e-01 7.445348054170608521e-02
-6.352272629737854004e-01 2.220687270164489746e-01 7.238454371690750122e-02
-6.395027637481689453e-01 2.074612081050872803e-01 7.333261519670486450e-02
-6.606363058090209961e-01 -1.699870526790618896e-01 -4.745466168969869614e-03
-6.614257693290710449e-01 -1.823180168867111206e-01 4.822942428290843964e-04
-6.607021689414978027e-01 -1.669685840606689453e-01 8.837444707751274109e-03
-6.618216633796691895e-01 -1.789353042840957642e-01 1.257039047777652740e-02
-5.792981982231140137e-01 8.925264328718185425e-02 7.384397089481353760e-02
-5.828371047973632812e-01 7.447133213281631470e-02 7.404066622257232666e-02
-5.691935420036315918e-01 7.872655242681503296e-02 7.417322695255279541e-02
-5.722229480743408203e-01 6.350319087505340576e-02 7.384685426950454712e-02
-5.743364095687866211e-01 8.465243875980377197e-02 2.060995548963546753e-01
-5.812054872512817383e-01 7.108713686466217041e-02 2.105870097875595093e-01
-5.623124241828918457e-01 7.307989895343780518e-02 2.122253179550170898e-01
-5.685954093933105469e-01 6.032432615756988525e-02 2.169472724199295044e-01
9.981740266084671021e-02 1.827339977025985718e-01 -1.201167255640029907e-01
8.342988789081573486e-02 1.906258314847946167e-01 -1.118188872933387756e-01
1.087717115879058838e-01 1.899303197860717773e-01 -1.255994141101837158e-01
9.239703416824340820e-02 1.977593004703521729e-01 -1.174701228737831116e-01
1.878692805767059326e-01 -2.479889243841171265e-01 2.233702391386032104e-01
1.829928606748580933e-01 -2.624627649784088135e-01 2.224265486001968384e-01
2.027622610330581665e-01 -2.475339025259017944e-01 2.232158333063125610e-01
1.984145939350128174e-01 -2.617892622947692871e-01 2.218195796012878418e-01
1.451392322778701782e-01 5.073879659175872803e-02 -1.642277985811233521e-01
1.375817954540252686e-01 4.000150784850120544e-02 -1.618915200233459473e-01
1.603601723909378052e-01 5.346308648586273193e-02 -1.667897552251815796e-01
1.522879898548126221e-01 4.249782487750053406e-02 -1.645456105470657349e-01
6.469088196754455566e-01 -1.890504807233810425e-01 1.491135507822036743e-01
6.457188725471496582e-01 -2.077360898256301880e-01 1.468569338321685791e-01
6.585130691528320312e-01 -1.905708909034729004e-01 1.482295542955398560e-01
6.572568416595458984e-01 -2.093383222818374634e-01 1.464271098375320435e-01
6.560353636741638184e-01 -3.138715922832489014e-01 3.987720981240272522e-02
6.473424434661865234e-01 -3.195495605468750000e-01 5.137211084365844727e-02
6.664966344833374023e-01 -3.062177300453186035e-01 5.404660850763320923e-02
6.576735377311706543e-01 -3.123400807380676270e-01 6.325649470090866089e-02
3.360611200332641602e-01 -2.791736721992492676e-01 -1.439630091190338135e-01
3.288772106170654297e-01 -2.938735187053680420e-01 -1.410108804702758789e-01
3.496238291263580322e-01 -2.863030433654785156e-01 -1.361816078424453735e-01
3.425556421279907227e-01 -3.010868132114410400e-01 -1.332946121692657471e-01
1.531490683555603027e-01 2.018098160624504089e-02 2.229555547237396240e-01
1.456298381090164185e-01 1.785161904990673065e-03 2.258254289627075195e-01
1.709074229001998901e-01 1.739097945392131805e-02 2.199143618345260620e-01
1.621572524309158325e-01 -1.191689400002360344e-03 2.227142006158828735e-01
5.917339324951171875e-01 4.915810748934745789e-02 -3.633124008774757385e-02
5.776323080062866211e-01 4.872270673513412476e-02 -3.171680867671966553e-02
5.968703627586364746e-01 5.873218923807144165e-02 -2.785662375390529633e-02
5.833143591880798340e-01 5.852668359875679016e-02 -2.228077314794063568e-02
-5.827684998512268066e-01 -2.506070435047149658e-01 2.128489166498184204e-01
-5.943274497985839844e-01 -2.359098047018051147e-01 2.146397829055786133e-01
-5.723479986190795898e-01 -2.468588650226593018e-01 2.215425819158554077e-01
-5.841535329818725586e-01 -2.322400659322738647e-01 2.234421521425247192e-01
-6.810873150825500488e-01 2.132406532764434814e-01 -1.396129727363586426e-01
-6.834048628807067871e-01 1.958735138177871704e-01 -1.349635273218154907e-01
-6.731175184249877930e-01 2.026653736829757690e-01 -1.388043016195297241e-01
-6.761782765388488770e-01 1.849324107170104980e-01 -1.344979703426361084e-01
7.122464478015899658e-02 -4.405106008052825928e-01 1.050385162234306335e-01
5.832036212086677551e-02 -4.389010071754455566e-01 1.145696714520454407e-01
7.640565931797027588e-02 -4.355159401893615723e-01 1.220125481486320496e-01
6.327561289072036743e-02 -4.334500730037689209e-01 1.305004358291625977e-01
-6.139401793479919434e-01 2.247726917266845703e-02 -5.591064319014549255e-02
-6.220738887786865234e-01 1.209311746060848236e-02 -5.934690684080123901e-02
-5.984027981758117676e-01 2.188410982489585876e-02 -5.045180767774581909e-02
-6.073325872421264648e-01 9.827598929405212402e-03 -5.071341618895530701e-02
-1.772748380899429321e-01 -4.876868128776550293e-01 -4.181952401995658875e-02
-1.856522262096405029e-01 -4.911112785339355469e-01 -3.385340049862861633e-02
-1.687825918197631836e-01 -4.906703829765319824e-01 -3.124322369694709778e-02
-1.767208278179168701e-01 -4.937627911567687988e-01 -2.328353375196456909e-02
1.484547853469848633e-01 1.283360719680786133e-01 -2.383537217974662781e-02
1.432238519191741943e-01 1.156492233276367188e-01 -2.551503852009773254e-02
1.617911756038665771e-01 1.267731189727783203e-01 -1.958456449210643768e-02
1.576314419507980347e-01 1.120821088552474976e-01 -2.094780653715133667e-02
-1.247509494423866272e-01 -2.604291737079620361e-01 -2.662853002548217773e-01
-1.375071406364440918e-01 -2.712347209453582764e-01 -2.624625265598297119e-01
-1.094488948583602905e-01 -2.695131301879882812e-01 -2.647854089736938477e-01
-1.215030252933502197e-01 -2.803483903408050537e-01 -2.611992061138153076e-01
6.388401985168457031e-01 -2.831040620803833008e-01 1.512541025876998901e-01
6.284515857696533203e-01 -2.789648473262786865e-01 1.605568379163742065e-01
6.466563940048217773e-01 -2.791399955749511719e-01 1.593151241540908813e-01
6.358165144920349121e-01 -2.757235765457153320e-01 1.691104918718338013e-01
6.487786173820495605e-01 -1.491516083478927612e-01 -8.281045407056808472e-02
6.440896987915039062e-01 -1.629456877708435059e-01 -8.453076332807540894e-02
6.629102230072021484e-01 -1.565122455358505249e-01 -8.233610540628433228e-02
6.585001349449157715e-01 -1.709846556186676025e-01 -8.415541797876358032e-02
5.927611589431762695e-01 -9.460597485303878784e-02 1.460067182779312134e-01
5.824638009071350098e-01 -1.107273772358894348e-01 1.487798541784286499e-01
6.084086298942565918e-01 -1.028097793459892273e-01 1.454979926347732544e-01
5.980800986289978027e-01 -1.180423051118850708e-01 1.482428610324859619e-01
-3.085120022296905518e-01 -4.688621759414672852e-01 9.017454832792282104e-02
-3.217906653881072998e-01 -4.572800099849700928e-01 9.966446459293365479e-02
-2.987720072269439697e-01 -4.613825976848602295e-01 1.072926968336105347e-01
-3.108562231063842773e-01 -4.496816396713256836e-01 1.161905229091644287e-01
1.437709927558898926e-01 1.666101813316345215e-01 -2.038298547267913818e-02
1.382209360599517822e-01 1.515789330005645752e-01 -2.143280021846294403e-02
1.603137254714965820e-01 1.665133833885192871e-01 -1.906804367899894714e-02
1.546884179115295410e-01 1.517129540443420410e-01 -2.013472467660903931e-02
1.414484381675720215e-01 -9.926639497280120850e-02 -1.735156625509262085e-01
1.311045736074447632e-01 -9.492791444063186646e-02 -1.724933236837387085e-01
1.526802778244018555e-01 -9.264256060123443604e-02 -1.674927771091461182e-01
1.421372890472412109e-01 -8.923533558845520020e-02 -1.669913530349731445e-01
-6.398628354072570801e-01 -2.954757772386074066e-02 -1.951688528060913086e-01
-6.568557024002075195e-01 -3.018930181860923767e-02 -1.824178844690322876e-01
-6.432355046272277832e-01 -1.321494393050670624e-02 -1.900602132081985474e-01
-6.600887179374694824e-01 -1.479255221784114838e-02 -1.774153560400009155e-01
2.037573158740997314e-01 3.885174542665481567e-02 5.596868321299552917e-02
1.910481005907058716e-01 5.452520027756690979e-02 6.482320278882980347e-02
2.164803594350814819e-01 4.312814027070999146e-02 6.176346167922019958e-02
2.027014195919036865e-01 6.113560870289802551e-02 7.157234847545623779e-02
8.129451274871826172e-01 -7.307446096092462540e-03 -4.859900102019309998e-02
8.042043447494506836e-01 -2.047123014926910400e-02 -4.676722735166549683e-02
8.316842913627624512e-01 -1.824482902884483337e-02 -4.416039958596229553e-02
8.239806890487670898e-01 -3.106867894530296326e-02 -4.243684932589530945e-02
-5.559826493263244629e-01 3.167902529239654541e-01 1.051362007856369019e-01
-5.623514056205749512e-01 3.168144524097442627e-01 1.106167733669281006e-01
-5.468516945838928223e-01 3.186716437339782715e-01 1.147778332233428955e-01
-5.538263320922851562e-01 3.192052245140075684e-01 1.203825026750564575e-01
6.069046854972839355e-01 -3.005476891994476318e-01 -4.749028384685516357e-02
5.944011211395263672e-01 -3.084628283977508545e-01 -3.855224326252937317e-02
6.157958507537841797e-01 -3.042483031749725342e-01 -4.096828401088714600e-02
6.025180220603942871e-01 -3.110477924346923828e-01 -2.829198725521564484e-02
3.583804517984390259e-02 4.046912789344787598e-01 1.587866842746734619e-01
3.870473057031631470e-02 3.827802836894989014e-01 1.650252044200897217e-01
3.722428530454635620e-02 4.100652933120727539e-01 1.703694015741348267e-01
3.937541320919990540e-02 3.869658708572387695e-01 1.770200282335281372e-01
-6.480877846479415894e-02 1.229318454861640930e-01 -5.846443399786949158e-02
-7.580406218767166138e-02 1.287259757518768311e-01 -4.752660915255546570e-02
-5.584795027971267700e-02 1.244397237896919250e-01 -4.678793624043464661e-02
-6.725804507732391357e-02 1.299551129341125488e-01 -3.588941693305969238e-02
-6.400198340415954590e-01 1.606346070766448975e-01 -4.326151683926582336e-02
-6.420834064483642578e-01 1.452692896127700806e-01 -4.600910097360610962e-02
-6.273190975189208984e-01 1.581493914127349854e-01 -4.013383388519287109e-02
-6.304103732109069824e-01 1.425709724426269531e-01 -4.307888448238372803e-02
4.135325849056243896e-01 8.034800179302692413e-03 7.971307635307312012e-02
4.053695797920227051e-01 4.987838212400674820e-03 8.754471689462661743e-02
4.257019758224487305e-01 4.640744067728519440e-03 8.604019135236740112e-02
4.168064594268798828e-01 2.693431451916694641e-05 9.475746005773544312e-02
2.578388713300228119e-02 -6.922233104705810547e-02 2.351800352334976196e-01
1.591938547790050507e-02 -7.630491256713867188e-02 2.439341992139816284e-01
3.721523284912109375e-02 -8.158537745475769043e-02 2.348736375570297241e-01
2.828587964177131653e-02 -8.852498978376388550e-02 2.436947226524353027e-01
-1.672444492578506470e-01 -3.601342439651489258e-02 2.796825170516967773e-01
-1.775427162647247314e-01 -4.652436450123786926e-02 2.856272459030151367e-01
-1.546275317668914795e-01 -3.835567086935043335e-02 2.784345448017120361e-01
-1.654789298772811890e-01 -4.897990077733993530e-02 2.842490077018737793e-01
-5.237963795661926270e-01 -3.567987084388732910e-01 1.517669111490249634e-01
-5.350488424301147461e-01 -3.465750515460968018e-01 1.548191457986831665e-01
-5.134035348892211914e-01 -3.450545370578765869e-01 1.643713712692260742e-01
-5.257890820503234863e-01 -3.334545493125915527e-01 1.682659834623336792e-01
3.062544763088226318e-02 -1.220101583749055862e-02 1.857290714979171753e-01
2.395928651094436646e-02 -1.864716224372386932e-02 1.955192536115646362e-01
3.595264256000518799e-02 -2.869401127099990845e-02 1.946382075548171997e-01
2.977807819843292236e-02 -3.571945428848266602e-02 2.047818899154663086e-01
3.439129292964935303e-01 -3.852980732917785645e-01 -6.167298182845115662e-02
3.366459906101226807e-01 -3.958178460597991943e-01 -5.159442499279975891e-02
3.558962345123291016e-01 -3.875966370105743408e-01 -5.379845201969146729e-02
3.491867482662200928e-01 -3.972594141960144043e-01 -4.364144802093505859e-02
2.557099461555480957e-01 1.241392567753791809e-01 1.037442758679389954e-01
2.467678189277648926e-01 1.348021179437637329e-01 1.075744256377220154e-01
2.571726441383361816e-01 1.217410415410995483e-01 1.134519875049591064e-01
2.480139285326004028e-01 1.347735673189163208e-01 1.189051792025566101e-01
-6.398640275001525879e-01 -3.671936988830566406e-01 2.298726327717304230e-02
-6.490156054496765137e-01 -3.535286486148834229e-01 3.010212816298007965e-02
-6.353424191474914551e-01 -3.678931295871734619e-01 3.602909296751022339e-02
-6.436472535133361816e-01 -3.551475107669830322e-01 4.404042661190032959e-02
2.783503234386444092e-01 -4.268900156021118164e-01 2.248609624803066254e-02
2.684929966926574707e-01 -4.272366762161254883e-01 3.593722730875015259e-02
2.815387845039367676e-01 -4.251493215560913086e-01 3.969306498765945435e-02
2.710181772708892822e-01 -4.253845810890197754e-01 5.300393700599670410e-02
-3.897179365158081055e-01 -9.470179677009582520e-02 -2.599484324455261230e-01
-3.960934877395629883e-01 -9.893712401390075684e-02 -2.566232979297637939e-01
-3.819033205509185791e-01 -8.479621261358261108e-02 -2.594624459743499756e-01
-3.878632485866546631e-01 -8.978425711393356323e-02 -2.564634084701538086e-01
-2.021982818841934204e-01 1.015528757125139236e-02 2.588394582271575928e-01
-2.112691849470138550e-01 -3.975746221840381622e-05 2.651990652084350586e-01
-1.906236708164215088e-01 2.906494773924350739e-03 2.606786191463470459e-01
-1.995488107204437256e-01 -6.301477085798978806e-03 2.670777738094329834e-01
8.823242187500000000e-01 1.897926628589630127e-02 1.265899538993835449e-01
8.682249188423156738e-01 2.255947329103946686e-02 1.325380802154541016e-01
8.910017013549804688e-01 3.096692636609077454e-02 1.265668421983718872e-01
8.781485557556152344e-01 3.360148146748542786e-02 1.326983422040939331e-01
1.017672047019004822e-01 2.563107311725616455e-01 -2.314354293048381805e-02
1.012845262885093689e-01 2.349187135696411133e-01 -2.409806475043296814e-02
1.150518953800201416e-01 2.581658661365509033e-01 -2.270303852856159210e-02
1.121015176177024841e-01 2.380845844745635986e-01 -2.222122624516487122e-02
-1.822008788585662842e-01 -4.425629973411560059e-01 1.465177386999130249e-01
-1.976952999830245972e-01 -4.348811507225036621e-01 1.532487720251083374e-01
-1.719105541706085205e-01 -4.388520121574401855e-01 1.583691388368606567e-01
-1.878908574581146240e-01 -4.295580685138702393e-01 1.652055084705352783e-01
5.852800235152244568e-02 4.395156800746917725e-01 -7.801927626132965088e-02
5.072288960218429565e-02 4.339603185653686523e-01 -7.047098129987716675e-02
6.335365027189254761e-02 4.426377117633819580e-01 -6.681636720895767212e-02
5.568947643041610718e-02 4.370733201503753662e-01 -5.902335047721862793e-02
9.122515320777893066e-01 2.114518582820892334e-01 2.932044677436351776e-02
9.041211605072021484e-01 2.189091593027114868e-01 3.842503949999809265e-02
9.173486828804016113e-01 2.074141353368759155e-01 4.261801391839981079e-02
9.100094437599182129e-01 2.122950106859207153e-01 5.257004499435424805e-02
2.823932170867919922e-01 7.098373770713806152e-02 1.550018936395645142e-01
2.775729000568389893e-01 6.901842355728149414e-02 1.642057746648788452e-01
2.824805676937103271e-01 5.673047900199890137e-02 1.639510393142700195e-01
2.771887183189392090e-01 5.471058934926986694e-02 1.724583506584167480e-01
2.871810197830200195e-01 5.717113241553306580e-02 3.916463255882263184e-02
2.748055756092071533e-01 5.982035398483276367e-02 5.298652127385139465e-02
2.968985438346862793e-01 5.594379827380180359e-02 5.244329944252967834e-02
2.854949831962585449e-01 5.953118577599525452e-02 6.456661969423294067e-02
-2.898280918598175049e-01 -3.682554364204406738e-01 1.874504685401916504e-01
-3.025820553302764893e-01 -3.595163226127624512e-01 1.886452138423919678e-01
-2.782379388809204102e-01 -3.592040240764617920e-01 2.000219672918319702e-01
-2.910982668399810791e-01 -3.508784770965576172e-01 2.009788900613784790e-01
3.009896576404571533e-01 -4.253140687942504883e-01 -1.602655649185180664e-02
2.928293645381927490e-01 -4.255253374576568604e-01 -5.366890225559473038e-03
3.084865808486938477e-01 -4.237143099308013916e-01 3.259271383285522461e-03
2.994034588336944580e-01 -4.238338768482208252e-01 1.352236233651638031e-02
-6.573516726493835449e-01 -2.746940255165100098e-01 -7.574298977851867676e-02
-6.562619805335998535e-01 -2.864910066127777100e-01 -6.986240297555923462e-02
-6.601060032844543457e-01 -2.767291367053985596e-01 -6.031196936964988708e-02
-6.560767889022827148e-01 -2.916759252548217773e-01 -5.594112351536750793e-02
5.100675821304321289e-01 -1.277337521314620972e-01 -9.537996351718902588e-02
5.029947757720947266e-01 -1.424707025289535522e-01 -9.472327679395675659e-02
5.253383517265319824e-01 -1.349764168262481689e-01 -9.448048472404479980e-02
5.184138417243957520e-01 -1.497042924165725708e-01 -9.390840679407119751e-02
-5.129038095474243164e-01 6.598228961229324341e-02 8.043757826089859009e-02
-5.151550173759460449e-01 4.924886301159858704e-02 7.512138783931732178e-02
-5.003589391708374023e-01 5.782676488161087036e-02 8.317131549119949341e-02
-5.028116106986999512e-01 4.194745793938636780e-02 7.836253941059112549e-02
7.548705935478210449e-01 2.310845553874969482e-01 4.610645771026611328e-02
7.484788298606872559e-01 2.276114970445632935e-01 5.778663605451583862e-02
7.597357630729675293e-01 2.335341274738311768e-01 6.222876161336898804e-02
7.539609670639038086e-01 2.294040620326995850e-01 7.365194708108901978e-02
7.212421894073486328e-01 -2.373228371143341064e-01 -5.596356093883514404e-02
7.155832648277282715e-01 -2.466867864131927490e-01 -5.099412053823471069e-02
7.294576764106750488e-01 -2.394018322229385376e-01 -4.623467475175857544e-02
7.238266468048095703e-01 -2.488837987184524536e-01 -4.156851395964622498e-02
-3.654010593891143799e-01 3.714982420206069946e-02 1.829369813203811646e-01
-3.747903406620025635e-01 2.847096882760524750e-02 1.901446431875228882e-01
-3.537288010120391846e-01 3.938086330890655518e-02 1.974099278450012207e-01
-3.635143637657165527e-01 3.066164255142211914e-02 2.048773467540740967e-01
-5.819234531372785568e-03 -1.433019936084747314e-01 2.807525992393493652e-01
-1.535222679376602173e-02 -1.600422561168670654e-01 2.855345010757446289e-01
1.081704441457986832e-02 -1.489125788211822510e-01 2.758248448371887207e-01
1.841588411480188370e-03 -1.651378571987152100e-01 2.816742658615112305e-01
-1.964865773916244507e-01 1.128260120749473572e-01 5.508574843406677246e-02
-2.045965939760208130e-01 1.103191226720809937e-01 6.200730055570602417e-02
-1.874596178531646729e-01 1.146332621574401855e-01 6.933552771806716919e-02
-1.967317909002304077e-01 1.117295473814010620e-01 7.551994919776916504e-02
-2.379072457551956177e-01 -5.529287457466125488e-02 -2.643958330154418945e-01
-2.440481632947921753e-01 -6.950329989194869995e-02 -2.672828435897827148e-01
-2.235659956932067871e-01 -5.139611661434173584e-02 -2.626728117465972900e-01
-2.312033474445343018e-01 -6.009927392005920410e-02 -2.644602060317993164e-01
3.359601497650146484e-01 -4.095989167690277100e-01 5.073643848299980164e-02
