1.838137507438659668e-01 2.740336954593658447e-01 5.695376396179199219e-01
1.792886853218078613e-01 2.730801403522491455e-01 5.738176107406616211e-01
1.874546557664871216e-01 2.744961380958557129e-01 5.776972770690917969e-01
1.830233633518218994e-01 2.738973796367645264e-01 5.822200775146484375e-01
1.737507432699203491e-01 1.920266449451446533e-01 8.844549655914306641e-01
1.700248271226882935e-01 1.921777725219726562e-01 8.898258805274963379e-01
1.764137893915176392e-01 1.890637129545211792e-01 8.885260224342346191e-01
1.725025027990341187e-01 1.892043501138687134e-01 8.938127160072326660e-01
2.548456490039825439e-01 2.780118398368358612e-02 8.380954265594482422e-01
2.510304450988769531e-01 2.867869473993778229e-02 8.416956067085266113e-01
2.575471401214599609e-01 2.560016512870788574e-02 8.421999216079711914e-01
2.532081902027130127e-01 2.624095790088176727e-02 8.456169962882995605e-01
2.596627771854400635e-01 1.649255007505416870e-01 7.975277304649353027e-01
2.571980953216552734e-01 1.629024595022201538e-01 8.012317419052124023e-01
2.617835998535156250e-01 1.613261550664901733e-01 8.008951544761657715e-01
2.594400346279144287e-01 1.589870601892471313e-01 8.045350313186645508e-01
3.191705048084259033e-01 1.835469305515289307e-01 7.515959143638610840e-01
3.185584247112274170e-01 1.784417927265167236e-01 7.528190016746520996e-01
3.218981325626373291e-01 1.816367357969284058e-01 7.561420798301696777e-01
3.214174807071685791e-01 1.766332536935806274e-01 7.572826147079467773e-01
2.920086085796356201e-01 2.710627615451812744e-01 6.453420519828796387e-01
2.879486382007598877e-01 2.723009884357452393e-01 6.488441824913024902e-01
2.977122068405151367e-01 2.693028450012207031e-01 6.504095792770385742e-01
2.930163443088531494e-01 2.703122496604919434e-01 6.536956429481506348e-01
1.364169269800186157e-01 2.569263875484466553e-01 7.140747904777526855e-01
1.358469128608703613e-01 2.525373697280883789e-01 7.174283266067504883e-01
1.387809962034225464e-01 2.567203640937805176e-01 7.195066213607788086e-01
1.371210813522338867e-01 2.526252865791320801e-01 7.230791449546813965e-01
2.286210656166076660e-01 2.766871750354766846e-01 2.914413809776306152e-01
2.242722213268280029e-01 2.787383198738098145e-01 2.971612513065338135e-01
2.332528382539749146e-01 2.745712995529174805e-01 2.968177795410156250e-01
2.288632988929748535e-01 2.766983807086944580e-01 3.024961054325103760e-01
3.207175433635711670e-01 2.140829861164093018e-01 7.182779908180236816e-01
3.193196058273315430e-01 2.107802629470825195e-01 7.195163369178771973e-01
3.222143352031707764e-01 2.151057720184326172e-01 7.234504818916320801e-01
3.208726942539215088e-01 2.117010653018951416e-01 7.246258854866027832e-01
2.388807684183120728e-01 2.704836130142211914e-01 2.508867383003234863e-01
2.362527102231979370e-01 2.714231312274932861e-01 2.570417821407318115e-01
2.419865727424621582e-01 2.691319286823272705e-01 2.567776739597320557e-01
2.393153905868530273e-01 2.701742053031921387e-01 2.631822526454925537e-01
7.618419080972671509e-02 2.267646938562393188e-01 6.299672722816467285e-01
7.406105846166610718e-02 2.256545722484588623e-01 6.336958408355712891e-01
8.030068129301071167e-02 2.254344522953033447e-01 6.334351301193237305e-01
7.804857194423675537e-02 2.246217578649520874e-01 6.366401314735412598e-01
1.540453433990478516e-01 1.303375512361526489e-01 5.075605511665344238e-01
1.484222859144210815e-01 1.301403343677520752e-01 5.111926794052124023e-01
1.573896259069442749e-01 1.300818324089050293e-01 5.142801403999328613e-01
1.517584323883056641e-01 1.300672292709350586e-01 5.178298354148864746e-01
1.323577463626861572e-01 2.722635865211486816e-01 2.073220610618591309e-01
1.275961250066757202e-01 2.688080370426177979e-01 2.085434496402740479e-01
1.355165094137191772e-01 2.750415802001953125e-01 2.120944112539291382e-01
1.306557506322860718e-01 2.718846201896667480e-01 2.133690118789672852e-01
2.414235174655914307e-01 1.694664061069488525e-01 8.494790196418762207e-01
2.402743250131607056e-01 1.620808690786361694e-01 8.497202396392822266e-01
2.468767315149307251e-01 1.671932935714721680e-01 8.524226546287536621e-01
2.456006556749343872e-01 1.595444083213806152e-01 8.525447845458984375e-01
2.652280628681182861e-01 2.593821883201599121e-01 2.951153814792633057e-01
2.608337700366973877e-01 2.616961598396301270e-01 2.975676357746124268e-01
2.690701782703399658e-01 2.571079730987548828e-01 3.005186915397644043e-01
2.644859552383422852e-01 2.599793672561645508e-01 3.035210072994232178e-01
1.643550693988800049e-01 2.668468654155731201e-01 7.830216288566589355e-01
1.622570306062698364e-01 2.653158307075500488e-01 7.868027091026306152e-01
1.690694093704223633e-01 2.665481567382812500e-01 7.861619591712951660e-01
1.668821573257446289e-01 2.650487720966339111e-01 7.899615168571472168e-01
6.955330073833465576e-02 2.046263664960861206e-01 5.423331260681152344e-01
6.554146111011505127e-02 2.035687863826751709e-01 5.476239323616027832e-01
6.937030702829360962e-02 2.080947458744049072e-01 5.477842688560485840e-01
6.528089195489883423e-02 2.070177495479583740e-01 5.529875755310058594e-01
2.476507872343063354e-01 1.530829519033432007e-01 1.310948729515075684e-01
2.438603490591049194e-01 1.505683958530426025e-01 1.352566927671432495e-01
2.499583661556243896e-01 1.558716893196105957e-01 1.365301012992858887e-01
2.462461143732070923e-01 1.534825265407562256e-01 1.406303346157073975e-01
2.872040569782257080e-01 2.036863118410110474e-01 4.057818651199340820e-01
2.859285473823547363e-01 1.994704455137252808e-01 4.094038009643554688e-01
2.884237170219421387e-01 2.055799365043640137e-01 4.131439030170440674e-01
2.873175442218780518e-01 2.014801651239395142e-01 4.164401888847351074e-01
1.567075848579406738e-01 1.603080630302429199e-01 1.943967342376708984e-01
1.535303741693496704e-01 1.622552573680877686e-01 1.988466829061508179e-01
1.597692966461181641e-01 1.596835106611251831e-01 2.019262611865997314e-01
1.567280143499374390e-01 1.615375727415084839e-01 2.063910067081451416e-01
2.162281274795532227e-01 1.905768811702728271e-01 7.109398245811462402e-01
2.107215672731399536e-01 1.920112222433090210e-01 7.144213914871215820e-01
2.197416126728057861e-01 1.900199055671691895e-01 7.148920297622680664e-01
2.147611975669860840e-01 1.916359961032867432e-01 7.189813852310180664e-01
2.729811668395996094e-01 1.465539634227752686e-01 7.446391582489013672e-01
2.694591283798217773e-01 1.418145895004272461e-01 7.477726340293884277e-01
2.742101252079010010e-01 1.504122167825698853e-01 7.507977485656738281e-01
2.708734571933746338e-01 1.445388346910476685e-01 7.534767389297485352e-01
2.570134997367858887e-01 3.869135305285453796e-02 8.251546621322631836e-01
2.537077367305755615e-01 3.550761938095092773e-02 8.280652165412902832e-01
2.603186368942260742e-01 3.164377808570861816e-02 8.272843956947326660e-01
2.570466697216033936e-01 2.929045818746089935e-02 8.306815028190612793e-01
3.076642751693725586e-01 1.648692786693572998e-01 6.864246129989624023e-01
3.054021596908569336e-01 1.589944362640380859e-01 6.875969767570495605e-01
3.128429651260375977e-01 1.662733852863311768e-01 6.890579462051391602e-01
3.104673027992248535e-01 1.604484170675277710e-01 6.900798678398132324e-01
3.084353804588317871e-01 1.239953935146331787e-01 6.226849555969238281e-01
3.037251532077789307e-01 1.301475465297698975e-01 6.237316131591796875e-01
3.114139139652252197e-01 1.254974901676177979e-01 6.265013217926025391e-01
3.065932393074035645e-01 1.314402967691421509e-01 6.272265911102294922e-01
1.543922722339630127e-01 1.724368929862976074e-01 3.295817077159881592e-01
1.518094837665557861e-01 1.739910840988159180e-01 3.342540264129638672e-01
1.569647789001464844e-01 1.704176962375640869e-01 3.362791836261749268e-01
1.543774604797363281e-01 1.718751937150955200e-01 3.409188091754913330e-01
2.266010642051696777e-01 2.109427005052566528e-01 8.047837615013122559e-01
2.259673327207565308e-01 2.040881216526031494e-01 8.064099550247192383e-01
2.299394011497497559e-01 2.101131081581115723e-01 8.097528815269470215e-01
2.290901243686676025e-01 2.033267617225646973e-01 8.114217519760131836e-01
3.346686661243438721e-01 2.093288898468017578e-01 7.789161205291748047e-01
3.352582454681396484e-01 2.027429342269897461e-01 7.817057967185974121e-01
3.335905373096466064e-01 2.067088931798934937e-01 7.849230170249938965e-01
3.349542617797851562e-01 1.988633424043655396e-01 7.877312898635864258e-01
2.351868897676467896e-01 2.055385112762451172e-01 8.254904150962829590e-01
2.346790581941604614e-01 1.993913948535919189e-01 8.269639611244201660e-01
2.386769652366638184e-01 2.045515924692153931e-01 8.310987949371337891e-01
2.381983697414398193e-01 1.984105259180068970e-01 8.325569629669189453e-01
3.157601952552795410e-01 2.251721024513244629e-01 5.057084560394287109e-01
3.155883252620697021e-01 2.275774627923965454e-01 5.078241825103759766e-01
3.162510693073272705e-01 2.283944934606552124e-01 5.119150280952453613e-01
3.172174692153930664e-01 2.281124442815780640e-01 5.131807923316955566e-01
1.635237485170364380e-01 2.852014303207397461e-01 2.991996705532073975e-01
1.603428423404693604e-01 2.846682667732238770e-01 3.030399680137634277e-01
1.673666238784790039e-01 2.854105830192565918e-01 3.034644722938537598e-01
1.641282290220260620e-01 2.854160070419311523e-01 3.080186843872070312e-01
5.328592285513877869e-02 2.131537497043609619e-01 6.890684962272644043e-01
4.997232556343078613e-02 2.109455913305282593e-01 6.946189999580383301e-01
5.686103552579879761e-02 2.121234238147735596e-01 6.939861178398132324e-01
5.350001901388168335e-02 2.105249017477035522e-01 6.991290450096130371e-01
2.010737061500549316e-01 2.754706144332885742e-01 4.578148424625396729e-01
1.977919191122055054e-01 2.745168507099151611e-01 4.627818167209625244e-01
2.046619504690170288e-01 2.749336063861846924e-01 4.643031060695648193e-01
2.014144957065582275e-01 2.740070819854736328e-01 4.691013991832733154e-01
2.669480443000793457e-01 1.076868027448654175e-01 8.680902719497680664e-01
2.664079070091247559e-01 9.861638396978378296e-02 8.688105940818786621e-01
2.720764279365539551e-01 1.100906506180763245e-01 8.656166195869445801e-01
2.717868983745574951e-01 1.008278802037239075e-01 8.663079738616943359e-01
2.223232090473175049e-01 1.395442783832550049e-01 9.135624766349792480e-02
2.180462181568145752e-01 1.389810591936111450e-01 9.572582691907882690e-02
2.254050672054290771e-01 1.410684734582901001e-01 9.792288392782211304e-02
2.205915451049804688e-01 1.404562741518020630e-01 1.015483140945434570e-01
2.464886158704757690e-01 1.195350885391235352e-01 8.298038244247436523e-01
2.441899925470352173e-01 1.116898879408836365e-01 8.312789201736450195e-01
2.491316199302673340e-01 1.204146444797515869e-01 8.328853249549865723e-01
2.467675954103469849e-01 1.125546991825103760e-01 8.343195319175720215e-01
1.486445367336273193e-01 1.766328513622283936e-01 3.273333609104156494e-01
1.462591886520385742e-01 1.783467233180999756e-01 3.327577114105224609e-01
1.519599258899688721e-01 1.741236597299575806e-01 3.342104852199554443e-01
1.495017260313034058e-01 1.756324172019958496e-01 3.392616510391235352e-01
1.749739348888397217e-01 2.829720079898834229e-01 3.651180565357208252e-01
1.709280014038085938e-01 2.828167378902435303e-01 3.702387809753417969e-01
1.786217689514160156e-01 2.829284071922302246e-01 3.722834587097167969e-01
1.747234165668487549e-01 2.826760709285736084e-01 3.775012493133544922e-01
1.700813919305801392e-01 1.967695504426956177e-01 6.700425148010253906e-01
1.632589101791381836e-01 1.965265274047851562e-01 6.723551750183105469e-01
1.744089126586914062e-01 1.971443444490432739e-01 6.755176782608032227e-01
1.684025377035140991e-01 1.971069574356079102e-01 6.786240935325622559e-01
1.695716232061386108e-01 2.194647043943405151e-01 9.030480980873107910e-01
1.674127429723739624e-01 2.135807871818542480e-01 9.058092236518859863e-01
1.731750518083572388e-01 2.178481370210647583e-01 9.077485799789428711e-01
1.701965332031250000e-01 2.133824825286865234e-01 9.110492467880249023e-01
3.085614740848541260e-01 2.061418592929840088e-01 6.935254335403442383e-01
3.074511885643005371e-01 2.025925517082214355e-01 6.966872811317443848e-01
3.095252215862274170e-01 2.061261087656021118e-01 6.980118155479431152e-01
3.085811138153076172e-01 2.030373513698577881e-01 7.008467912673950195e-01
2.412061691284179688e-01 1.406366825103759766e-01 8.293521404266357422e-01
2.383643090724945068e-01 1.382160484790802002e-01 8.307341933250427246e-01
2.440343201160430908e-01 1.378883868455886841e-01 8.317294120788574219e-01
2.412368059158325195e-01 1.346326321363449097e-01 8.328261375427246094e-01
2.627627849578857422e-01 2.579570412635803223e-01 2.483386695384979248e-01
2.593839764595031738e-01 2.608602046966552734e-01 2.536015808582305908e-01
2.651237249374389648e-01 2.571571171283721924e-01 2.543416619300842285e-01
2.615568637847900391e-01 2.601291239261627197e-01 2.599949538707733154e-01
1.739333122968673706e-01 2.800139486789703369e-01 4.199582636356353760e-01
1.679640561342239380e-01 2.780268788337707520e-01 4.232182800769805908e-01
1.806672811508178711e-01 2.795952856540679932e-01 4.239063262939453125e-01
1.746817231178283691e-01 2.779264450073242188e-01 4.269926249980926514e-01
2.684880495071411133e-01 2.417262345552444458e-01 7.439411878585815430e-01
2.621066272258758545e-01 2.427542358636856079e-01 7.483174800872802734e-01
2.735400497913360596e-01 2.390663325786590576e-01 7.477444410324096680e-01
2.670372128486633301e-01 2.400030791759490967e-01 7.520838379859924316e-01
2.784787118434906006e-01 1.826833188533782959e-01 6.919667720794677734e-01
2.735442221164703369e-01 1.834724694490432739e-01 6.948561072349548340e-01
2.825630903244018555e-01 1.859181076288223267e-01 6.986494660377502441e-01
2.775822877883911133e-01 1.863137632608413696e-01 7.010947465896606445e-01
2.079735845327377319e-01 2.823505103588104248e-01 5.748816952109336853e-02
2.027104943990707397e-01 2.838023006916046143e-01 6.113226711750030518e-02
2.111954987049102783e-01 2.803280353546142578e-01 6.413365900516510010e-02
2.059739381074905396e-01 2.816512584686279297e-01 6.797693669795989990e-02
2.398038208484649658e-01 1.453511267900466919e-01 9.339923411607742310e-02
2.351336628198623657e-01 1.436991691589355469e-01 9.654796123504638672e-02
2.421866357326507568e-01 1.466783881187438965e-01 9.979446232318878174e-02
2.377072572708129883e-01 1.448912024497985840e-01 1.031148284673690796e-01
1.117773279547691345e-01 2.361984252929687500e-01 3.052107095718383789e-01
1.106718927621841431e-01 2.334912121295928955e-01 3.068446218967437744e-01
1.125332787632942200e-01 2.396203279495239258e-01 3.103872835636138916e-01
1.110847368836402893e-01 2.360129654407501221e-01 3.118242621421813965e-01
2.150247991085052490e-01 2.062164098024368286e-01 9.180585741996765137e-01
2.132837325334548950e-01 2.038902342319488525e-01 9.202172160148620605e-01
2.175108343362808228e-01 2.055369913578033447e-01 9.215521812438964844e-01
2.155820727348327637e-01 2.040979862213134766e-01 9.241389036178588867e-01
2.473006844520568848e-01 2.445099055767059326e-01 7.800441384315490723e-01
2.434008270502090454e-01 2.428141087293624878e-01 7.831564545631408691e-01
2.524773180484771729e-01 2.431153655052185059e-01 7.833303809165954590e-01
2.486550062894821167e-01 2.414332777261734009e-01 7.864612340927124023e-01
3.218696117401123047e-01 1.585069298744201660e-01 7.835494875907897949e-01
3.184608221054077148e-01 1.556581407785415649e-01 7.857452630996704102e-01
3.219532370567321777e-01 1.628407388925552368e-01 7.873332500457763672e-01
3.185400068759918213e-01 1.600225418806076050e-01 7.894607782363891602e-01
3.268935680389404297e-01 2.438325285911560059e-01 5.694684386253356934e-01
3.246030211448669434e-01 2.470750957727432251e-01 5.714119672775268555e-01
3.294741809368133545e-01 2.428355067968368530e-01 5.744386911392211914e-01
3.271764516830444336e-01 2.463036328554153442e-01 5.760779380798339844e-01
2.490511089563369751e-01 2.561317682266235352e-01 4.396486282348632812e-02
2.457772046327590942e-01 2.596745193004608154e-01 4.735552519559860229e-02
2.506978213787078857e-01 2.554699182510375977e-01 4.902645945549011230e-02
2.481062561273574829e-01 2.585286498069763184e-01 5.360149964690208435e-02
1.702236831188201904e-01 2.928043305873870850e-01 5.191955342888832092e-02
1.646688282489776611e-01 2.931627929210662842e-01 5.615551769733428955e-02
1.748707145452499390e-01 2.913492023944854736e-01 5.705941095948219299e-02
1.696066856384277344e-01 2.917172908782958984e-01 6.124140694737434387e-02
2.809161543846130371e-01 2.027300298213958740e-01 2.568765580654144287e-01
2.777041196823120117e-01 1.979845464229583740e-01 2.592615485191345215e-01
2.823878526687622070e-01 2.065051496028900146e-01 2.623654901981353760e-01
2.791142463684082031e-01 2.013814598321914673e-01 2.646059095859527588e-01
2.614541053771972656e-01 9.897465258836746216e-02 7.273802161216735840e-01
2.568179070949554443e-01 1.050652563571929932e-01 7.280289530754089355e-01
2.649925947189331055e-01 9.739260375499725342e-02 7.317347526550292969e-01
2.607351541519165039e-01 1.027482002973556519e-01 7.328684329986572266e-01
1.193024218082427979e-01 1.341249048709869385e-01 4.978198111057281494e-01
1.156907007098197937e-01 1.347852796316146851e-01 5.011156201362609863e-01
1.217949986457824707e-01 1.320053040981292725e-01 5.030903220176696777e-01
1.180413439869880676e-01 1.325712352991104126e-01 5.064224004745483398e-01
1.656990349292755127e-01 1.753464788198471069e-01 6.094714999198913574e-01
1.601166874170303345e-01 1.756341159343719482e-01 6.141660213470458984e-01
1.693455129861831665e-01 1.790579259395599365e-01 6.163712739944458008e-01
1.639529615640640259e-01 1.793396025896072388e-01 6.209698319435119629e-01
1.172122061252593994e-01 2.759931385517120361e-01 6.017088890075683594e-02
1.122020408511161804e-01 2.715613842010498047e-01 6.167344003915786743e-02
1.230154708027839661e-01 2.806346416473388672e-01 6.574538350105285645e-02
1.179704442620277405e-01 2.763359546661376953e-01 6.743582338094711304e-02
2.089762091636657715e-01 2.220490574836730957e-01 8.787130713462829590e-01
2.108182460069656372e-01 2.181579023599624634e-01 8.799777030944824219e-01
2.105010598897933960e-01 2.205775827169418335e-01 8.831512331962585449e-01
2.113669812679290771e-01 2.184391021728515625e-01 8.852645158767700195e-01
1.023760065436363220e-01 1.858265399932861328e-01 6.252891570329666138e-02
1.007094308733940125e-01 1.891934573650360107e-01 6.623397767543792725e-02
1.032267734408378601e-01 1.849618554115295410e-01 6.767647713422775269e-02
1.017207205295562744e-01 1.882658302783966064e-01 7.149212062358856201e-02
2.420767247676849365e-01 1.631051152944564819e-01 4.035148322582244873e-01
2.386050522327423096e-01 1.612295955419540405e-01 4.065442383289337158e-01
2.456028461456298828e-01 1.630520373582839966e-01 4.090241789817810059e-01
2.426530718803405762e-01 1.609793454408645630e-01 4.122005701065063477e-01
2.627854049205780029e-01 2.631289660930633545e-01 3.274727463722229004e-01
2.587814927101135254e-01 2.656854391098022461e-01 3.312471807003021240e-01
2.671775221824645996e-01 2.607668340206146240e-01 3.327397704124450684e-01
2.632889151573181152e-01 2.633154392242431641e-01 3.367460370063781738e-01
2.092212140560150146e-01 2.800863981246948242e-01 4.143332242965698242e-01
2.055147439241409302e-01 2.792622148990631104e-01 4.208091199398040771e-01
2.128841876983642578e-01 2.793086469173431396e-01 4.206012785434722900e-01
2.092864215373992920e-01 2.784888148307800293e-01 4.270913898944854736e-01
4.704716056585311890e-02 1.575020849704742432e-01 7.863354682922363281e-01
4.113842546939849854e-02 1.592779606580734253e-01 7.892827987670898438e-01
5.272300168871879578e-02 1.602177023887634277e-01 7.893832325935363770e-01
4.611959680914878845e-02 1.623319834470748901e-01 7.924135327339172363e-01
2.040997445583343506e-01 1.963168084621429443e-01 6.754249334335327148e-01
1.991271376609802246e-01 1.959181129932403564e-01 6.792094707489013672e-01
2.096659988164901733e-01 1.945411711931228638e-01 6.818737983703613281e-01
2.040934264659881592e-01 1.943447291851043701e-01 6.852871775627136230e-01
8.004945516586303711e-02 1.624789088964462280e-01 5.109138488769531250e-01
7.763640582561492920e-02 1.605674773454666138e-01 5.148816704750061035e-01
7.831925153732299805e-02 1.603946536779403687e-01 5.158024430274963379e-01
7.557702064514160156e-02 1.595105975866317749e-01 5.203128457069396973e-01
2.823227941989898682e-01 2.400607466697692871e-01 2.977220118045806885e-01
2.838675081729888916e-01 2.340226322412490845e-01 3.010099530220031738e-01
2.829847335815429688e-01 2.416592687368392944e-01 3.062072694301605225e-01
2.853716313838958740e-01 2.336061000823974609e-01 3.093876540660858154e-01
1.316148340702056885e-01 2.591300010681152344e-01 6.516894102096557617e-01
1.281418204307556152e-01 2.566638886928558350e-01 6.558743119239807129e-01
1.332511156797409058e-01 2.591093778610229492e-01 6.577810645103454590e-01
1.297627538442611694e-01 2.566668987274169922e-01 6.621840000152587891e-01
2.162106931209564209e-01 1.936634182929992676e-01 6.962698698043823242e-01
2.104325890541076660e-01 1.943062841892242432e-01 6.994139552116394043e-01
2.219063788652420044e-01 1.916608959436416626e-01 7.011488676071166992e-01
2.163135409355163574e-01 1.924100816249847412e-01 7.043393850326538086e-01
1.389170736074447632e-01 2.656665444374084473e-01 4.221369624137878418e-01
1.360418796539306641e-01 2.626971304416656494e-01 4.280327856540679932e-01
1.430199891328811646e-01 2.666915953159332275e-01 4.285987317562103271e-01
1.402063816785812378e-01 2.636676430702209473e-01 4.346859455108642578e-01
3.304600119590759277e-01 2.194613665342330933e-01 5.497475862503051758e-01
3.328833281993865967e-01 2.142503410577774048e-01 5.521185398101806641e-01
3.331452012062072754e-01 2.187525480985641479e-01 5.562484264373779297e-01
3.349179029464721680e-01 2.147520333528518677e-01 5.582039356231689453e-01
9.700462967157363892e-02 2.266625463962554932e-01 5.367323756217956543e-01
9.323064982891082764e-02 2.240554839372634888e-01 5.386303663253784180e-01
9.853689372539520264e-02 2.303787618875503540e-01 5.420216917991638184e-01
9.489725530147552490e-02 2.278762906789779663e-01 5.442220568656921387e-01
2.814666032791137695e-01 1.681760251522064209e-01 7.421484589576721191e-01
2.803273797035217285e-01 1.610442250967025757e-01 7.451991438865661621e-01
2.853586375713348389e-01 1.654149144887924194e-01 7.475854158401489258e-01
2.842969000339508057e-01 1.582131385803222656e-01 7.507221698760986328e-01
2.019909769296646118e-01 2.840339839458465576e-01 1.512766480445861816e-01
1.970277428627014160e-01 2.848366200923919678e-01 1.537496894598007202e-01
2.058099657297134399e-01 2.836464047431945801e-01 1.575635671615600586e-01
2.011804133653640747e-01 2.844153344631195068e-01 1.605003625154495239e-01
2.796568572521209717e-01 2.188966125249862671e-01 9.767190366983413696e-02
2.798268496990203857e-01 2.184310108423233032e-01 1.009692251682281494e-01
2.797432541847229004e-01 2.184389531612396240e-01 1.038428768515586853e-01
2.803658545017242432e-01 2.172311842441558838e-01 1.069978922605514526e-01
1.250097751617431641e-01 1.344522833824157715e-01 4.937416017055511475e-01
1.210908815264701843e-01 1.347277313470840454e-01 4.972951710224151611e-01
1.280778795480728149e-01 1.314346939325332642e-01 4.989811182022094727e-01
1.241181641817092896e-01 1.316637694835662842e-01 5.024595856666564941e-01
3.155862689018249512e-01 1.809386163949966431e-01 7.506162524223327637e-01
3.148230016231536865e-01 1.757195889949798584e-01 7.519009709358215332e-01
3.188935220241546631e-01 1.783865392208099365e-01 7.544380426406860352e-01
3.181072175502777100e-01 1.737048923969268799e-01 7.556431293487548828e-01
2.060676813125610352e-01 2.268897444009780884e-01 8.889963030815124512e-01
2.048283070325851440e-01 2.274720221757888794e-01 8.923761844635009766e-01
2.071690410375595093e-01 2.235641181468963623e-01 8.935501575469970703e-01
2.056909948587417603e-01 2.244678735733032227e-01 8.970852494239807129e-01
1.412578821182250977e-01 2.779881656169891357e-01 2.743282616138458252e-01
1.377701312303543091e-01 2.759244441986083984e-01 2.782563567161560059e-01
1.453108042478561401e-01 2.800076603889465332e-01 2.788586318492889404e-01
1.416401863098144531e-01 2.778972983360290527e-01 2.827694714069366455e-01
3.140115737915039062e-01 2.422693520784378052e-01 7.116848230361938477e-01
3.151503801345825195e-01 2.365976572036743164e-01 7.135123610496520996e-01
3.161142766475677490e-01 2.424952834844589233e-01 7.172744870185852051e-01
3.168559074401855469e-01 2.372120618820190430e-01 7.190222740173339844e-01
9.760117530822753906e-02 1.952913701534271240e-01 4.845475852489471436e-01
9.565358608961105347e-02 1.911359578371047974e-01 4.870270490646362305e-01
9.636158496141433716e-02 1.981645822525024414e-01 4.907630980014801025e-01
9.402125328779220581e-02 1.947173327207565308e-01 4.932741522789001465e-01
2.905295789241790771e-01 2.579601109027862549e-01 5.430533289909362793e-01
2.825954556465148926e-01 2.597674429416656494e-01 5.451499819755554199e-01
2.970244288444519043e-01 2.561318576335906982e-01 5.477932691574096680e-01
2.896132767200469971e-01 2.578160166740417480e-01 5.496231317520141602e-01
1.366394907236099243e-01 1.420586854219436646e-01 5.712888240814208984e-01
1.314931362867355347e-01 1.423694491386413574e-01 5.749063491821289062e-01
1.401365399360656738e-01 1.462767720222473145e-01 5.795961022377014160e-01
1.347958594560623169e-01 1.468323916196823120e-01 5.836037397384643555e-01
3.179321885108947754e-01 1.095103994011878967e-01 6.745473146438598633e-01
3.156688213348388672e-01 1.047673076391220093e-01 6.755156517028808594e-01
3.216921091079711914e-01 1.118341907858848572e-01 6.807589530944824219e-01
3.194908499717712402e-01 1.063637435436248779e-01 6.812013387680053711e-01
1.721045076847076416e-01 1.576153039932250977e-01 4.106481969356536865e-01
1.677850484848022461e-01 1.578093320131301880e-01 4.159548282623291016e-01
1.739410012960433960e-01 1.544350832700729370e-01 4.186776876449584961e-01
1.702412664890289307e-01 1.540722697973251343e-01 4.240478277206420898e-01
2.848134338855743408e-01 2.015358954668045044e-01 3.559350073337554932e-01
2.837371528148651123e-01 1.971970647573471069e-01 3.610087335109710693e-01
2.864902913570404053e-01 2.022803723812103271e-01 3.637473583221435547e-01
2.855602502822875977e-01 1.976893544197082520e-01 3.688379824161529541e-01
4.146363586187362671e-02 1.972172111272811890e-01 5.796038508415222168e-01
3.832252696156501770e-02 1.943935453891754150e-01 5.845512151718139648e-01
4.081355035305023193e-02 2.021219879388809204e-01 5.856750011444091797e-01
3.749381750822067261e-02 1.990637779235839844e-01 5.912292599678039551e-01
2.817202806472778320e-01 1.991211771965026855e-01 1.099576577544212341e-01
2.815490961074829102e-01 1.942698806524276733e-01 1.137020736932754517e-01
2.820307314395904541e-01 1.979139745235443115e-01 1.173526719212532043e-01
2.818036079406738281e-01 1.927864253520965576e-01 1.214756667613983154e-01
1.698700636625289917e-01 1.414291560649871826e-01 2.431153319776058197e-02
1.620073765516281128e-01 1.356601864099502563e-01 2.656650543212890625e-02
1.780413240194320679e-01 1.405875682830810547e-01 2.463970519602298737e-02
1.710116714239120483e-01 1.359318196773529053e-01 2.700531668961048126e-02
1.547901630401611328e-01 2.452092021703720093e-01 8.316850662231445312e-01
1.532214134931564331e-01 2.407100349664688110e-01 8.349382281303405762e-01
1.570687890052795410e-01 2.467868179082870483e-01 8.385305404663085938e-01
1.555250883102416992e-01 2.417218834161758423e-01 8.415770530700683594e-01
1.606081426143646240e-01 2.014339566230773926e-01 7.330218553543090820e-01
1.561356335878372192e-01 2.051499783992767334e-01 7.369545698165893555e-01
1.638841927051544189e-01 2.005765140056610107e-01 7.373721003532409668e-01
1.592689603567123413e-01 2.042793482542037964e-01 7.412539124488830566e-01
2.771738767623901367e-01 1.870509088039398193e-01 3.948773145675659180e-01
2.751199603080749512e-01 1.834843456745147705e-01 3.993479609489440918e-01
2.792682349681854248e-01 1.887404918670654297e-01 4.015433788299560547e-01
2.774473726749420166e-01 1.851420104503631592e-01 4.058063924312591553e-01
1.494818329811096191e-01 2.873768806457519531e-01 1.122854128479957581e-01
1.455280184745788574e-01 2.849538326263427734e-01 1.172308698296546936e-01
1.547669917345046997e-01 2.873814702033996582e-01 1.172571033239364624e-01
1.508240401744842529e-01 2.852643430233001709e-01 1.219521611928939819e-01
1.889989078044891357e-01 1.355978250503540039e-01 5.064994692802429199e-01
1.849871575832366943e-01 1.370044350624084473e-01 5.125697851181030273e-01
1.915895640850067139e-01 1.386546343564987183e-01 5.142632126808166504e-01
1.872110664844512939e-01 1.402292102575302124e-01 5.202109813690185547e-01
8.111056685447692871e-02 1.642906516790390015e-01 6.635698676109313965e-01
7.825916260480880737e-02 1.625145077705383301e-01 6.686756610870361328e-01
8.152846992015838623e-02 1.658491045236587524e-01 6.697672009468078613e-01
7.893453538417816162e-02 1.638942658901214600e-01 6.743324995040893555e-01
1.222476214170455933e-01 1.904028952121734619e-01 2.730599939823150635e-01
1.202746182680130005e-01 1.938247680664062500e-01 2.776587307453155518e-01
1.237752884626388550e-01 1.892855167388916016e-01 2.785865664482116699e-01
1.217095181345939636e-01 1.928245425224304199e-01 2.831671833992004395e-01
1.233036443591117859e-01 1.840393841266632080e-01 2.186993956565856934e-01
1.216424778103828430e-01 1.864737868309020996e-01 2.226470708847045898e-01
1.254415363073348999e-01 1.822093725204467773e-01 2.249065190553665161e-01
1.234224364161491394e-01 1.849442571401596069e-01 2.284664511680603027e-01
1.975542902946472168e-01 2.552495002746582031e-01 8.249168395996093750e-01
1.937507838010787964e-01 2.568974494934082031e-01 8.290849924087524414e-01
2.020856738090515137e-01 2.517659068107604980e-01 8.299246430397033691e-01
1.981548070907592773e-01 2.533044517040252686e-01 8.339183926582336426e-01
8.996746689081192017e-02 1.895340532064437866e-01 7.158750891685485840e-01
8.845024555921554565e-02 1.881538778543472290e-01 7.193927168846130371e-01
9.209964424371719360e-02 1.866554319858551025e-01 7.210682630538940430e-01
9.058985859155654907e-02 1.853504031896591187e-01 7.245389819145202637e-01
1.577214896678924561e-01 2.816592156887054443e-01 3.775734007358551025e-01
1.548280715942382812e-01 2.803724706172943115e-01 3.820331096649169922e-01
1.612168252468109131e-01 2.823359072208404541e-01 3.839879333972930908e-01
1.581933200359344482e-01 2.809269428253173828e-01 3.885186612606048584e-01
1.328516006469726562e-01 2.356283664703369141e-01 2.450811862945556641e-02
1.292739659547805786e-01 2.297915816307067871e-01 2.532193064689636230e-02
1.388127654790878296e-01 2.353601306676864624e-01 2.461528219282627106e-02
1.351714879274368286e-01 2.296326905488967896e-01 2.552056685090065002e-02
1.159144043922424316e-01 1.991348117589950562e-01 2.690407931804656982e-01
1.142965406179428101e-01 2.018999010324478149e-01 2.732169628143310547e-01
1.166658774018287659e-01 1.973777413368225098e-01 2.739515006542205811e-01
1.149780154228210449e-01 2.004191130399703979e-01 2.782321274280548096e-01
2.159970849752426147e-01 2.111525535583496094e-01 7.548745274543762207e-01
2.151422649621963501e-01 2.132393270730972290e-01 7.589357495307922363e-01
2.171208560466766357e-01 2.117187380790710449e-01 7.591254115104675293e-01
2.165046036243438721e-01 2.136984467506408691e-01 7.631686925888061523e-01
2.184886634349822998e-01 2.781337201595306396e-01 2.375445812940597534e-01
2.145168930292129517e-01 2.798384130001068115e-01 2.420853972434997559e-01
2.231065779924392700e-01 2.764427661895751953e-01 2.445428967475891113e-01
2.192712426185607910e-01 2.779091596603393555e-01 2.489813268184661865e-01
1.334841251373291016e-01 2.530481517314910889e-01 5.377598404884338379e-01
1.298377215862274170e-01 2.510942816734313965e-01 5.410110354423522949e-01
1.372443288564682007e-01 2.556425333023071289e-01 5.440441966056823730e-01
1.334257125854492188e-01 2.537487149238586426e-01 5.472945570945739746e-01
4.941803216934204102e-02 1.575316637754440308e-01 6.232923269271850586e-01
4.456086829304695129e-02 1.606896221637725830e-01 6.262552142143249512e-01
5.207871645689010620e-02 1.566394120454788208e-01 6.288192868232727051e-01
4.713411256670951843e-02 1.596766114234924316e-01 6.316792368888854980e-01
1.973839849233627319e-01 2.825781106948852539e-01 3.869644701480865479e-01
1.925642043352127075e-01 2.822447121143341064e-01 3.920780420303344727e-01
2.016487121582031250e-01 2.824921905994415283e-01 3.943669795989990234e-01
1.968752741813659668e-01 2.820217311382293701e-01 3.998066484928131104e-01
2.125698626041412354e-01 1.496876776218414307e-01 1.963895708322525024e-01
2.057181447744369507e-01 1.500188708305358887e-01 1.977065652608871460e-01
2.178120762109756470e-01 1.496781110763549805e-01 2.009220570325851440e-01
2.107638716697692871e-01 1.497637629508972168e-01 2.025462239980697632e-01
2.732271850109100342e-01 1.077887862920761108e-01 7.513824105262756348e-01
2.695564329624176025e-01 1.122012436389923096e-01 7.555245161056518555e-01
2.752332687377929688e-01 1.095416247844696045e-01 7.567042112350463867e-01
2.713951766490936279e-01 1.139204949140548706e-01 7.605247497558593750e-01
1.329209059476852417e-01 1.463400125503540039e-01 4.613402485847473145e-01
1.277599930763244629e-01 1.455307602882385254e-01 4.668925404548645020e-01
1.381155550479888916e-01 1.431390345096588135e-01 4.672568440437316895e-01
1.326036453247070312e-01 1.428184807300567627e-01 4.719688892364501953e-01
2.490396946668624878e-01 1.490838527679443359e-01 9.285464137792587280e-02
2.448384612798690796e-01 1.470846980810165405e-01 9.633766859769821167e-02
2.507843375205993652e-01 1.507036536931991577e-01 9.896828979253768921e-02
2.466723024845123291e-01 1.487062573432922363e-01 1.025024801492691040e-01
2.583137750625610352e-01 2.538029551506042480e-01 1.007350534200668335e-01
2.553880512714385986e-01 2.571391165256500244e-01 1.049899086356163025e-01
2.599819302558898926e-01 2.521592676639556885e-01 1.069599464535713196e-01
2.571765780448913574e-01 2.554070353507995605e-01 1.110753193497657776e-01
1.292486786842346191e-01 2.798095941543579102e-01 9.654015302658081055e-02
1.262991875410079956e-01 2.771195471286773682e-01 1.008399426937103271e-01
1.308987438678741455e-01 2.803764045238494873e-01 1.030100733041763306e-01
1.279340237379074097e-01 2.776373922824859619e-01 1.076390966773033142e-01
1.054884567856788635e-01 2.246761471033096313e-01 6.314835548400878906e-01
1.034912839531898499e-01 2.219313979148864746e-01 6.333668828010559082e-01
1.071883812546730042e-01 2.257589697837829590e-01 6.357246637344360352e-01
1.052573099732398987e-01 2.229834347963333130e-01 6.372691988945007324e-01
2.973322570323944092e-01 2.295481413602828979e-01 7.696365118026733398e-01
2.919059395790100098e-01 2.292018383741378784e-01 7.731482982635498047e-01
3.006026148796081543e-01 2.265997678041458130e-01 7.735649347305297852e-01
2.952093183994293213e-01 2.259038388729095459e-01 7.772096395492553711e-01
2.904279828071594238e-01 2.738175094127655029e-01 6.679385304450988770e-01
2.859961390495300293e-01 2.744399905204772949e-01 6.714746356010437012e-01
2.955667972564697266e-01 2.717016339302062988e-01 6.729457974433898926e-01
2.909853756427764893e-01 2.723468542098999023e-01 6.762370467185974121e-01
2.332373857498168945e-01 2.724578678607940674e-01 1.925772726535797119e-01
2.297133654356002808e-01 2.740819752216339111e-01 1.977258920669555664e-01
2.368148267269134521e-01 2.708346843719482422e-01 1.973791718482971191e-01
2.334824651479721069e-01 2.729901075363159180e-01 2.019999027252197266e-01
3.226498067378997803e-01 1.315625905990600586e-01 6.408250331878662109e-01
3.199693858623504639e-01 1.261103600263595581e-01 6.385741233825683594e-01
3.270829319953918457e-01 1.310474872589111328e-01 6.443095207214355469e-01
3.245876729488372803e-01 1.245454996824264526e-01 6.422775387763977051e-01
2.133304029703140259e-01 1.625673770904541016e-01 5.480929613113403320e-01
2.073069512844085693e-01 1.617250740528106689e-01 5.507193803787231445e-01
2.174924761056900024e-01 1.650249511003494263e-01 5.522162318229675293e-01
2.114196270704269409e-01 1.641817688941955566e-01 5.547645688056945801e-01
2.998235523700714111e-01 1.718416810035705566e-01 4.821945428848266602e-01
2.976289689540863037e-01 1.684560030698776245e-01 4.856368005275726318e-01
3.014718294143676758e-01 1.707666069269180298e-01 4.886830151081085205e-01
2.992417514324188232e-01 1.674898415803909302e-01 4.920975565910339355e-01
2.592753767967224121e-01 1.228464245796203613e-01 7.009355425834655762e-01
2.541539072990417480e-01 1.232554093003273010e-01 7.032405138015747070e-01
2.610184848308563232e-01 1.261992454528808594e-01 7.047085762023925781e-01
2.559829652309417725e-01 1.266588419675827026e-01 7.069902420043945312e-01
2.443665713071823120e-01 2.702753841876983643e-01 2.992691993713378906e-01
2.397349923849105835e-01 2.728002369403839111e-01 3.045040071010589600e-01
2.491853982210159302e-01 2.677865922451019287e-01 3.051333725452423096e-01
2.446205317974090576e-01 2.704643309116363525e-01 3.098856508731842041e-01
1.895670890808105469e-01 2.591803371906280518e-01 8.234945535659790039e-01
1.860369592905044556e-01 2.602029740810394287e-01 8.277122974395751953e-01
1.937862336635589600e-01 2.560136020183563232e-01 8.283675312995910645e-01
1.903257369995117188e-01 2.568374574184417725e-01 8.324895501136779785e-01
3.261967301368713379e-01 2.388506978750228882e-01 5.547729134559631348e-01
3.242988884449005127e-01 2.426444143056869507e-01 5.574932694435119629e-01
3.283385336399078369e-01 2.382727563381195068e-01 5.605037808418273926e-01
3.262268900871276855e-01 2.421986460685729980e-01 5.625484585762023926e-01
3.098468184471130371e-01 2.252806127071380615e-01 7.852036952972412109e-01
3.034593462944030762e-01 2.243714481592178345e-01 7.909448146820068359e-01
3.107524812221527100e-01 2.203335613012313843e-01 7.909106016159057617e-01
3.043533563613891602e-01 2.195180207490921021e-01 7.965227961540222168e-01
2.646059691905975342e-01 2.736287415027618408e-01 6.226565241813659668e-01
2.592978775501251221e-01 2.749623358249664307e-01 6.261273622512817383e-01
2.691035866737365723e-01 2.728482186794281006e-01 6.300739645957946777e-01
2.643334567546844482e-01 2.739881575107574463e-01 6.335231065750122070e-01
2.429889887571334839e-01 1.914022266864776611e-01 2.570509165525436401e-02
2.410736680030822754e-01 1.806281358003616333e-01 2.614722587168216705e-02
2.505794465541839600e-01 1.844662874937057495e-01 2.473493106663227081e-02
2.481031715869903564e-01 1.743932962417602539e-01 2.593764476478099823e-02
1.654910445213317871e-01 2.340109199285507202e-01 8.763772249221801758e-01
1.631534993648529053e-01 2.297088652849197388e-01 8.783540129661560059e-01
1.692433506250381470e-01 2.345914393663406372e-01 8.814539909362792969e-01
1.667075455188751221e-01 2.302950620651245117e-01 8.834493160247802734e-01
8.697670698165893555e-02 2.337996512651443481e-01 5.820111036300659180e-01
8.340913057327270508e-02 2.316975146532058716e-01 5.875597596168518066e-01
9.019262343645095825e-02 2.358099520206451416e-01 5.888609886169433594e-01
8.647546172142028809e-02 2.336137741804122925e-01 5.939036607742309570e-01
2.036235332489013672e-01 2.833974063396453857e-01 3.807097673416137695e-02
1.966065019369125366e-01 2.867094874382019043e-01 4.045034945011138916e-02
2.086312621831893921e-01 2.836212813854217529e-01 4.155191779136657715e-02
2.017332464456558228e-01 2.868529558181762695e-01 4.380116239190101624e-02
2.045539319515228271e-01 2.762036323547363281e-01 4.930208623409271240e-01
2.002779096364974976e-01 2.755653262138366699e-01 4.971404969692230225e-01
2.082600444555282593e-01 2.760695815086364746e-01 4.993221163749694824e-01
2.039859741926193237e-01 2.755762934684753418e-01 5.033844709396362305e-01
2.479125112295150757e-01 2.645717859268188477e-01 7.319501042366027832e-01
2.446090281009674072e-01 2.641031146049499512e-01 7.357617616653442383e-01
2.527027130126953125e-01 2.608326673507690430e-01 7.353960871696472168e-01
2.488577067852020264e-01 2.606619596481323242e-01 7.393338680267333984e-01
3.849267214536666870e-02 1.590916216373443604e-01 7.525945901870727539e-01
3.762325644493103027e-02 1.550452113151550293e-01 7.547965645790100098e-01
4.253480210900306702e-02 1.585765331983566284e-01 7.586612701416015625e-01
4.141622781753540039e-02 1.546592712402343750e-01 7.606382369995117188e-01
8.996807038784027100e-02 1.384727805852890015e-01 5.551062822341918945e-01
8.480350673198699951e-02 1.407493948936462402e-01 5.587123036384582520e-01
9.475037455558776855e-02 1.383816003799438477e-01 5.617637038230895996e-01
8.870822191238403320e-02 1.406173408031463623e-01 5.649821162223815918e-01
1.710009574890136719e-01 1.843887567520141602e-01 2.480100467801094055e-02
1.665305048227310181e-01 1.746377050876617432e-01 2.622817642986774445e-02
1.793728768825531006e-01 1.809115260839462280e-01 2.399167045950889587e-02
1.747534424066543579e-01 1.725243330001831055e-01 2.534853853285312653e-02
2.239885032176971436e-01 2.757305800914764404e-01 2.045425474643707275e-01
2.205435037612915039e-01 2.772811949253082275e-01 2.083757370710372925e-01
2.258160263299942017e-01 2.755327522754669189e-01 2.114721238613128662e-01
2.227336168289184570e-01 2.770813703536987305e-01 2.156812846660614014e-01
2.706376016139984131e-01 1.509363502264022827e-01 7.572922706604003906e-01
2.680376768112182617e-01 1.449576914310455322e-01 7.592383027076721191e-01
2.739382386207580566e-01 1.551975309848785400e-01 7.631998062133789062e-01
2.715628147125244141e-01 1.495023369789123535e-01 7.652550339698791504e-01
2.363567650318145752e-01 1.913146078586578369e-01 7.538369894027709961e-01
2.325216978788375854e-01 1.932066828012466431e-01 7.569577097892761230e-01
2.394487708806991577e-01 1.905632764101028442e-01 7.578954696655273438e-01
2.358578592538833618e-01 1.925582736730575562e-01 7.612710595130920410e-01
1.969738006591796875e-01 1.581943184137344360e-01 3.804589211940765381e-01
1.923483759164810181e-01 1.576327979564666748e-01 3.845809400081634521e-01
2.030546069145202637e-01 1.579547971487045288e-01 3.849914968013763428e-01
1.979119330644607544e-01 1.571416258811950684e-01 3.891519606113433838e-01
1.844291538000106812e-01 1.685578078031539917e-01 2.447425387799739838e-02
1.786774992942810059e-01 1.629332005977630615e-01 2.560453675687313080e-02
1.921069175004959106e-01 1.661325693130493164e-01 2.412819303572177887e-02
1.863424181938171387e-01 1.609011888504028320e-01 2.519424818456172943e-02
2.215171605348587036e-01 2.807113230228424072e-01 6.364455223083496094e-01
2.169054597616195679e-01 2.810919582843780518e-01 6.399103999137878418e-01
2.250406146049499512e-01 2.811150848865509033e-01 6.431933045387268066e-01
2.204295098781585693e-01 2.814553976058959961e-01 6.464822888374328613e-01
2.607243061065673828e-01 2.522709369659423828e-01 1.213468909263610840e-01
2.585952579975128174e-01 2.543082237243652344e-01 1.248668655753135681e-01
2.629591524600982666e-01 2.508042156696319580e-01 1.274111419916152954e-01
2.609306871891021729e-01 2.526173591613769531e-01 1.308380365371704102e-01
2.248278409242630005e-01 1.986501663923263550e-01 8.034855723381042480e-01
2.240079939365386963e-01 1.927217245101928711e-01 8.055452704429626465e-01
2.278191149234771729e-01 1.985925137996673584e-01 8.085893988609313965e-01
2.272585481405258179e-01 1.921254098415374756e-01 8.104654550552368164e-01
2.416897118091583252e-01 1.254145503044128418e-01 8.481144309043884277e-01
2.399454265832901001e-01 1.154799684882164001e-01 8.496358394622802734e-01
2.440944015979766846e-01 1.266947984695434570e-01 8.502297401428222656e-01
2.424879968166351318e-01 1.166862472891807556e-01 8.520225286483764648e-01
2.539139688014984131e-01 1.714448034763336182e-01 3.280445635318756104e-01
2.501850128173828125e-01 1.692681163549423218e-01 3.328065574169158936e-01
2.554554939270019531e-01 1.728802025318145752e-01 3.346949219703674316e-01
2.518019676208496094e-01 1.706647574901580811e-01 3.393290042877197266e-01
1.019881367683410645e-01 1.840718537569046021e-01 5.310358852148056030e-02
1.001825183629989624e-01 1.874921917915344238e-01 5.683746933937072754e-02
1.026282608509063721e-01 1.840092092752456665e-01 5.917571485042572021e-02
1.008260399103164673e-01 1.874167174100875854e-01 6.285078823566436768e-02
2.790324985980987549e-01 1.908257603645324707e-01 3.855732977390289307e-01
2.773041129112243652e-01 1.867682039737701416e-01 3.906029760837554932e-01
2.810542285442352295e-01 1.919968277215957642e-01 3.918109238147735596e-01
2.794521749019622803e-01 1.879811584949493408e-01 3.968106806278228760e-01
2.954714186489582062e-02 1.818729192018508911e-01 6.663501262664794922e-01
2.640247531235218048e-02 1.862383633852005005e-01 6.704100966453552246e-01
3.070918470621109009e-02 1.794181317090988159e-01 6.718001961708068848e-01
2.726864628493785858e-02 1.842953860759735107e-01 6.760308146476745605e-01
2.728737890720367432e-01 1.144169420003890991e-01 7.598431110382080078e-01
2.690508663654327393e-01 1.204732358455657959e-01 7.634820342063903809e-01
2.753320634365081787e-01 1.158663928508758545e-01 7.644796967506408691e-01
2.713844180107116699e-01 1.220384985208511353e-01 7.678739428520202637e-01
2.749664187431335449e-01 2.110568284988403320e-01 2.031681686639785767e-02
2.757345139980316162e-01 2.044812142848968506e-01 1.984738931059837341e-02
2.763125896453857422e-01 2.098629027605056763e-01 2.645619958639144897e-02
2.770999372005462646e-01 2.033652663230895996e-01 2.636561542749404907e-02
2.821635603904724121e-01 2.150043994188308716e-01 1.797289252281188965e-01
2.811200022697448730e-01 2.097277343273162842e-01 1.826362758874893188e-01
2.822423577308654785e-01 2.148093730211257935e-01 1.878643780946731567e-01
2.812777161598205566e-01 2.096019983291625977e-01 1.908065527677536011e-01
2.703628242015838623e-01 2.682017087936401367e-01 3.871127068996429443e-01
2.678616642951965332e-01 2.694491446018218994e-01 3.932542800903320312e-01
2.723750174045562744e-01 2.653959095478057861e-01 3.928177952766418457e-01
2.699318528175354004e-01 2.667671740055084229e-01 3.993603289127349854e-01
1.373390257358551025e-01 2.564111948013305664e-01 4.853705167770385742e-01
1.324662268161773682e-01 2.532366514205932617e-01 4.903385043144226074e-01
1.424915641546249390e-01 2.588755190372467041e-01 4.899200499057769775e-01
1.372542977333068848e-01 2.556270062923431396e-01 4.944996833801269531e-01
2.457293421030044556e-01 1.650660485029220581e-01 3.987870216369628906e-01
2.424447387456893921e-01 1.633789837360382080e-01 4.017445147037506104e-01
2.492300122976303101e-01 1.654647141695022583e-01 4.039478898048400879e-01
2.463738471269607544e-01 1.633866429328918457e-01 4.070771336555480957e-01
1.447677910327911377e-01 2.630057036876678467e-01 4.538428187370300293e-01
1.417892128229141235e-01 2.608873546123504639e-01 4.595272839069366455e-01
1.488111019134521484e-01 2.639240324497222900e-01 4.600200653076171875e-01
1.454961001873016357e-01 2.617402374744415283e-01 4.656973183155059814e-01
2.996876239776611328e-01 2.630656957626342773e-01 6.053183078765869141e-01
2.956029176712036133e-01 2.646147310733795166e-01 6.138073801994323730e-01
3.020390272140502930e-01 2.634853422641754150e-01 6.135792732238769531e-01
2.982216775417327881e-01 2.648957967758178711e-01 6.213586926460266113e-01
3.414725065231323242e-01 2.383571267127990723e-01 5.955439805984497070e-01
3.390226960182189941e-01 2.425603270530700684e-01 5.980983972549438477e-01
3.444449603557586670e-01 2.362513244152069092e-01 6.009631156921386719e-01
3.419663310050964355e-01 2.404912561178207397e-01 6.034256815910339355e-01
1.178912520408630371e-01 2.553815543651580811e-01 2.132132053375244141e-01
1.157061085104942322e-01 2.514174282550811768e-01 2.155751287937164307e-01
1.191581338644027710e-01 2.577299475669860840e-01 2.187067717313766479e-01
1.168088689446449280e-01 2.539744973182678223e-01 2.211904078722000122e-01
