-7.881529999999999925e-01 -6.190999999999999975e-02 -4.599299999999999916e-02
-8.704299999999999538e-02 2.422479999999999911e-01 -1.014400000000000024e-02
-6.688110000000000444e-01 -5.671299999999999952e-02 5.866400000000000087e-02
-5.482190000000000119e-01 -1.964249999999999885e-01 2.074570000000000025e-01
-3.374369999999999870e-01 -1.633060000000000067e-01 1.341050000000000020e-01
5.671220000000000150e-01 1.170220000000000010e-01 8.262300000000000200e-02
1.891460000000000086e-01 -8.796099999999999752e-02 -1.229269999999999946e-01
3.105629999999999780e-01 -5.136899999999999800e-02 1.039800000000000030e-01
-4.517349999999999977e-01 -3.040669999999999762e-01 1.018000000000000025e-03
8.199199999999999544e-02 1.615600000000000092e-01 -6.240799999999999820e-02
2.618460000000000232e-01 -1.077020000000000061e-01 1.885799999999999976e-02
3.738310000000000244e-01 1.487449999999999883e-01 -4.415899999999999687e-02
-2.608770000000000255e-01 3.818300000000000027e-01 2.948800000000000032e-02
-7.379900000000000349e-02 -1.956990000000000118e-01 1.679720000000000102e-01
-5.270780000000000465e-01 -2.499939999999999940e-01 2.186819999999999875e-01
3.794999999999999762e-02 4.200399999999999967e-02 -1.698850000000000082e-01
-5.260700000000000376e-01 -3.337700000000000111e-01 1.885310000000000041e-01
-2.855699999999999905e-01 -3.640399999999999886e-02 8.675199999999999578e-02
5.699070000000000524e-01 3.767179999999999973e-01 -3.339099999999999707e-02
3.936939999999999884e-01 -1.088029999999999969e-01 1.014329999999999954e-01
3.499780000000000113e-01 -8.007699999999999541e-02 3.973000000000000143e-02
-3.601809999999999734e-01 -4.474170000000000091e-01 1.329480000000000106e-01
8.282220000000000137e-01 -1.350119999999999931e-01 -1.481280000000000097e-01
-1.447299999999999975e-02 2.678300000000000125e-02 7.235600000000000365e-02
3.101990000000000025e-01 -2.480050000000000032e-01 -1.886699999999999836e-02
-5.598700000000000204e-02 2.160390000000000088e-01 1.909440000000000026e-01
-6.293300000000000283e-02 1.329809999999999881e-01 -8.538500000000000256e-02
3.117059999999999831e-01 1.183730000000000060e-01 1.283299999999999996e-01
-4.483739999999999948e-01 8.207100000000000506e-02 6.317200000000000593e-02
3.878900000000000126e-01 -2.707979999999999832e-01 1.616400000000000128e-02
2.052499999999999880e-01 1.379700000000000093e-01 1.386120000000000130e-01
3.350159999999999805e-01 -1.365840000000000110e-01 1.533589999999999953e-01
5.366610000000000547e-01 -2.128240000000000132e-01 -7.049400000000000110e-02
-1.094959999999999961e-01 7.564400000000000290e-02 -7.947799999999999310e-02
-5.154250000000000220e-01 -1.428540000000000088e-01 1.961849999999999983e-01
3.660880000000000245e-01 -6.949900000000000522e-02 -8.348300000000000165e-02
5.539699999999999624e-01 -2.195989999999999887e-01 6.546100000000000529e-02
-5.884800000000000031e-01 8.529399999999999482e-02 -7.001999999999999891e-02
1.748299999999999854e-02 5.565300000000000108e-02 2.008159999999999945e-01
2.481170000000000042e-01 -7.735000000000000209e-02 1.663820000000000021e-01
-3.683000000000000163e-01 -3.894909999999999761e-01 -1.098200000000000010e-01
4.856289999999999774e-01 9.050500000000000211e-02 1.292609999999999870e-01
-2.869099999999999984e-01 -5.635699999999999737e-02 2.899799999999999947e-02
4.947400000000000131e-01 3.169089999999999963e-01 7.386900000000000410e-02
5.727370000000000516e-01 2.170610000000000039e-01 2.853899999999999840e-02
4.329470000000000263e-01 1.357079999999999953e-01 1.163999999999999931e-02
-3.091149999999999731e-01 -2.488710000000000089e-01 1.650050000000000128e-01
2.963319999999999843e-01 -1.633960000000000135e-01 -1.508510000000000129e-01
8.123320000000000540e-01 1.537719999999999920e-01 4.636200000000000043e-02
2.655139999999999723e-01 2.763340000000000241e-01 3.501100000000000045e-02
-2.103820000000000134e-01 -1.800190000000000123e-01 -5.839600000000000346e-02
-3.160049999999999804e-01 -1.846160000000000023e-01 1.627149999999999985e-01
-3.430880000000000041e-01 1.515960000000000085e-01 1.533900000000000020e-02
-2.827870000000000106e-01 -1.606269999999999920e-01 2.409050000000000080e-01
2.038310000000000122e-01 2.592340000000000200e-01 2.843299999999999994e-02
-3.093319999999999959e-01 -3.455619999999999803e-01 -6.104000000000000051e-03
-2.281579999999999997e-01 -5.954000000000000264e-02 -1.636029999999999984e-01
3.884199999999999875e-01 -1.128190000000000026e-01 -2.798399999999999846e-02
-3.342450000000000143e-01 2.167200000000000029e-02 1.022200000000000018e-02
-3.156699999999999784e-02 2.294509999999999883e-01 -1.469860000000000055e-01
-3.279199999999999893e-01 -3.171600000000000114e-02 -9.906299999999999828e-02
8.099549999999999805e-01 -2.847979999999999956e-01 -4.527899999999999980e-02
8.560199999999999754e-02 -1.103949999999999931e-01 7.627299999999999358e-02
4.556970000000000187e-01 -1.623709999999999876e-01 1.489520000000000011e-01
-1.386040000000000050e-01 3.170169999999999932e-01 1.211659999999999959e-01
-3.843380000000000130e-01 -3.113429999999999809e-01 8.496499999999999886e-02
2.995369999999999977e-01 1.995500000000000052e-02 1.176169999999999993e-01
4.409859999999999891e-01 -1.446060000000000123e-01 -1.379690000000000083e-01
9.529929999999999790e-01 -2.213050000000000017e-01 -1.736310000000000076e-01
-1.672069999999999945e-01 3.839299999999999657e-02 1.305149999999999921e-01
6.958619999999999806e-01 2.626620000000000066e-01 8.635000000000000314e-03
-1.811300000000000063e-02 1.729020000000000001e-01 1.218359999999999999e-01
1.437370000000000037e-01 1.930330000000000101e-01 -1.075040000000000023e-01
-9.440400000000000180e-02 2.970300000000000024e-02 1.115249999999999991e-01
-1.438319999999999876e-01 1.019479999999999970e-01 -8.641300000000000370e-02
-5.648130000000000095e-01 3.249449999999999839e-01 -4.354000000000000231e-03
5.416619999999999768e-01 3.653200000000000197e-02 7.327200000000000379e-02
-2.454359999999999875e-01 -1.559790000000000065e-01 -1.386199999999999932e-02
-1.935459999999999958e-01 2.867400000000000157e-02 -6.301800000000000457e-02
-3.966379999999999906e-01 -2.500709999999999877e-01 -2.483779999999999877e-01
6.112560000000000215e-01 5.944800000000000084e-02 -2.347190000000000110e-01
3.407859999999999778e-01 3.224599999999999689e-02 1.179719999999999935e-01
6.082469999999999821e-01 -2.422140000000000126e-01 -1.079719999999999985e-01
-2.821919999999999984e-01 -2.978430000000000244e-01 -1.342839999999999867e-01
-1.416650000000000131e-01 1.631420000000000092e-01 -1.194989999999999941e-01
-7.550670000000000437e-01 -5.085000000000000110e-03 1.823699999999999974e-02
-6.042859999999999898e-01 6.736300000000000621e-02 8.771700000000000330e-02
6.647370000000000223e-01 -2.467830000000000024e-01 -8.047600000000000586e-02
-3.252419999999999756e-01 -5.919900000000000162e-02 5.613300000000000234e-02
-1.863799999999999832e-02 -3.529450000000000087e-01 9.365700000000000414e-02
-2.780960000000000099e-01 -3.390900000000000164e-02 1.993409999999999904e-01
4.902730000000000143e-01 -2.584750000000000103e-01 1.029449999999999948e-01
-1.112699999999999939e-01 4.433600000000000041e-02 1.987160000000000037e-01
1.637579999999999869e-01 -8.396999999999999950e-03 1.135150000000000048e-01
-2.978640000000000176e-01 -2.860110000000000152e-01 -2.336070000000000091e-01
6.376030000000000308e-01 3.699899999999999717e-02 2.433839999999999892e-01
8.539080000000000004e-01 -3.443649999999999767e-01 2.779900000000000079e-02
-1.110690000000000011e-01 3.729500000000000176e-02 -3.027900000000000036e-02
6.720199999999999507e-01 -4.177379999999999982e-01 -3.264299999999999841e-02
-1.276279999999999915e-01 2.437580000000000024e-01 1.700280000000000125e-01
-4.904740000000000211e-01 1.575809999999999989e-01 2.822399999999999909e-02
-1.867020000000000068e-01 -2.563000000000000000e-02 -3.178600000000000175e-02
-2.061179999999999957e-01 8.879900000000000293e-02 -8.669200000000000517e-02
5.575710000000000388e-01 2.793519999999999892e-01 1.763999999999999943e-02
-6.364699999999999525e-02 1.566740000000000077e-01 -8.425000000000000544e-02
-3.183600000000000319e-02 2.821949999999999736e-01 -2.252699999999999841e-02
-2.509919999999999929e-01 -1.296200000000000130e-01 -8.527700000000000558e-02
5.422059999999999658e-01 8.211300000000000543e-02 7.533299999999999719e-02
4.515910000000000202e-01 -1.794850000000000056e-01 9.903700000000000003e-02
2.946650000000000102e-01 -2.461540000000000117e-01 3.265500000000000347e-02
-2.296330000000000038e-01 1.256299999999999951e-02 2.042279999999999929e-01
-2.981869999999999798e-01 1.930640000000000134e-01 -9.308500000000000107e-02
6.876600000000000490e-01 4.722300000000000109e-02 -1.921100000000000030e-01
3.605979999999999741e-01 -1.163079999999999947e-01 -9.634099999999999608e-02
4.747900000000000037e-02 8.273099999999999898e-02 -9.159000000000000474e-02
3.629499999999999948e-01 -1.973630000000000106e-01 9.416299999999999670e-02
2.324100000000000055e-01 -2.113669999999999993e-01 6.898400000000000365e-02
7.171049999999999924e-01 -1.167839999999999989e-01 -1.931839999999999946e-01
5.324000000000000260e-02 1.690039999999999876e-01 1.896700000000000053e-01
9.061409999999999743e-01 -1.835179999999999867e-01 -2.387130000000000085e-01
7.937279999999999891e-01 3.252700000000000036e-02 -3.955399999999999888e-02
1.646399999999999947e-02 2.168140000000000067e-01 1.057730000000000059e-01
-1.480180000000000107e-01 -2.394580000000000042e-01 1.675180000000000002e-01
-3.532549999999999857e-01 -1.228339999999999987e-01 -1.411530000000000007e-01
-4.288299999999999751e-02 9.603699999999999737e-02 2.115609999999999991e-01
-1.070640000000000064e-01 3.765899999999999803e-02 -8.325899999999999967e-02
-7.724990000000000467e-01 2.810509999999999953e-01 5.925199999999999911e-02
4.721790000000000154e-01 -1.052999999999999900e-03 -5.700600000000000112e-02
-2.105029999999999957e-01 -7.051899999999999835e-02 -1.583849999999999980e-01
4.415200000000000236e-01 -5.840399999999999758e-02 1.035709999999999964e-01
8.307940000000000325e-01 -6.362700000000000300e-02 1.752599999999999991e-02
-5.818389999999999951e-01 -1.340770000000000017e-01 4.299499999999999850e-02
2.075400000000000161e-02 8.830599999999999561e-02 -1.735510000000000108e-01
-6.562559999999999505e-01 -2.577300000000000146e-01 1.294410000000000005e-01
4.876989999999999936e-01 3.176500000000000157e-02 9.305599999999999983e-02
-8.361920000000000464e-01 3.526110000000000078e-01 7.222699999999999954e-02
-2.444250000000000034e-01 1.204719999999999958e-01 1.787899999999999906e-02
7.806130000000000013e-01 -2.178750000000000131e-01 7.747800000000000520e-02
-1.688790000000000013e-01 -2.673150000000000248e-01 -1.640089999999999881e-01
-3.392339999999999800e-01 4.424999999999999767e-02 -1.104720000000000008e-01
1.704299999999999912e-02 1.663340000000000096e-01 -1.522769999999999957e-01
-4.454710000000000059e-01 -1.480970000000000064e-01 -2.190560000000000007e-01
-1.890860000000000041e-01 -3.732499999999999707e-02 2.042080000000000006e-01
3.623060000000000169e-01 -2.076109999999999900e-01 -3.627699999999999675e-02
5.929759999999999476e-01 -2.231789999999999885e-01 -1.011439999999999978e-01
6.425849999999999618e-01 -2.268299999999999830e-02 1.669599999999999904e-02
3.822220000000000062e-01 -1.217260000000000009e-01 -1.109289999999999998e-01
1.709179999999999866e-01 -1.337359999999999938e-01 1.215090000000000059e-01
6.808640000000000247e-01 6.441999999999999810e-03 1.558970000000000078e-01
5.627680000000000460e-01 -3.186269999999999936e-01 1.336320000000000008e-01
-4.183830000000000049e-01 -6.094299999999999717e-02 1.785309999999999953e-01
4.182390000000000274e-01 2.865349999999999842e-01 -3.821900000000000297e-02
4.538539999999999797e-01 5.374000000000000304e-02 -2.308100000000000082e-02
-6.982540000000000413e-01 -2.138120000000000021e-01 -8.119800000000000628e-02
4.211059999999999803e-01 1.258110000000000062e-01 1.118220000000000047e-01
5.169179999999999886e-01 1.164720000000000061e-01 -1.912050000000000138e-01
-4.264660000000000117e-01 3.494430000000000036e-01 1.649700000000000125e-02
-5.983700000000000130e-02 -1.592349999999999877e-01 1.554750000000000021e-01
-9.345560000000000533e-01 1.306120000000000059e-01 -6.485000000000000313e-03
-5.891629999999999923e-01 -3.492230000000000056e-01 1.289059999999999928e-01
-2.446349999999999913e-01 1.057769999999999960e-01 -1.901100000000000012e-02
-1.446479999999999988e-01 3.135500000000000093e-02 -9.452999999999999597e-03
-4.215139999999999998e-01 -2.777279999999999749e-01 -2.435130000000000072e-01
2.750909999999999744e-01 2.619489999999999874e-01 1.051779999999999937e-01
-1.647510000000000085e-01 -2.469040000000000123e-01 1.660800000000000054e-01
3.790680000000000160e-01 7.570100000000000440e-02 -4.642099999999999699e-02
-5.557389999999999830e-01 9.165800000000000336e-02 1.258110000000000062e-01
-1.299909999999999954e-01 1.883400000000000005e-02 1.976019999999999999e-01
4.399199999999999777e-01 -1.935089999999999866e-01 -1.497149999999999870e-01
-2.680150000000000032e-01 -1.321509999999999907e-01 1.848770000000000135e-01
-3.140430000000000166e-01 -4.098720000000000141e-01 -1.675260000000000082e-01
2.430090000000000028e-01 2.004740000000000133e-01 -1.090109999999999968e-01
8.731389999999999985e-01 2.560600000000000029e-02 -3.818499999999999672e-02
3.181829999999999936e-01 -1.234009999999999968e-01 1.078159999999999952e-01
-3.751070000000000237e-01 -6.598400000000000098e-02 1.940870000000000095e-01
-3.971290000000000098e-01 -5.332599999999999840e-02 1.819989999999999941e-01
8.544400000000000606e-02 -1.042119999999999991e-01 -9.576900000000000690e-02
-1.338800000000000059e-02 2.860119999999999885e-01 -2.752200000000000132e-02
-9.663199999999999568e-02 1.077589999999999937e-01 1.191649999999999932e-01
1.847860000000000058e-01 1.609770000000000090e-01 1.501329999999999887e-01
-5.302729999999999944e-01 8.118999999999999828e-02 -7.353899999999999326e-02
-6.531209999999999516e-01 -1.181100000000000066e-01 6.545800000000000229e-02
5.635139999999999594e-01 7.836300000000000210e-02 4.735199999999999826e-02
6.517370000000000108e-01 1.477189999999999892e-01 1.432400000000000062e-01
-6.229959999999999942e-01 7.753400000000000569e-02 9.521699999999999608e-02
-2.005830000000000113e-01 -1.732259999999999911e-01 -1.633459999999999912e-01
-4.135429999999999939e-01 2.703200000000000047e-02 -4.274800000000000127e-02
-2.840679999999999872e-01 3.571480000000000210e-01 6.428899999999999892e-02
7.718279999999999585e-01 2.221000000000000058e-02 4.115300000000000208e-02
2.024000000000000191e-03 2.102390000000000092e-01 1.884409999999999974e-01
-3.394309999999999827e-01 -3.304259999999999975e-01 5.997999999999999859e-02
1.322480000000000044e-01 2.048059999999999881e-01 -1.158000000000000002e-01
-2.962000000000000050e-02 3.315699999999999897e-02 -5.954999999999999877e-02
5.853140000000000009e-01 3.297109999999999763e-01 4.381899999999999684e-02
5.823260000000000103e-01 -2.951349999999999807e-01 1.411999999999999922e-01
7.595589999999999842e-01 -4.118890000000000051e-01 -5.706000000000000134e-03
-5.819100000000000383e-01 -1.184339999999999976e-01 -9.349699999999999678e-02
6.665799999999999503e-02 -4.598700000000000010e-02 -1.184869999999999951e-01
-5.207730000000000414e-01 -9.383199999999999874e-02 -1.442759999999999876e-01
-1.235509999999999942e-01 -8.685800000000000465e-02 2.108750000000000069e-01
-4.199740000000000140e-01 1.632199999999999970e-02 1.603070000000000050e-01
6.084140000000000104e-01 4.433309999999999751e-01 4.811000000000000172e-03
7.980530000000000124e-01 2.875130000000000186e-01 7.533299999999999719e-02
-1.810499999999999887e-01 -2.189909999999999912e-01 -3.683499999999999969e-02
-3.221530000000000227e-01 -8.603099999999999636e-02 -1.016890000000000016e-01
5.929680000000000506e-01 -2.337609999999999966e-01 -1.032560000000000006e-01
5.235530000000000461e-01 -5.011999999999999789e-02 5.880599999999999716e-02
7.334070000000000311e-01 -7.454900000000000415e-02 1.444469999999999921e-01
4.004110000000000169e-01 2.145990000000000120e-01 1.789600000000000080e-01
3.948519999999999808e-01 -1.413470000000000004e-01 1.107999999999999957e-02
5.172899999999999721e-02 -2.332259999999999889e-01 1.456099999999999894e-01
9.907199999999999340e-02 2.091399999999999926e-01 1.231089999999999962e-01
-4.269350000000000089e-01 -2.304470000000000129e-01 9.467699999999999727e-02
-1.042259999999999992e-01 1.546190000000000064e-01 -8.412000000000000033e-02
3.620209999999999817e-01 2.622950000000000004e-01 -1.720400000000000054e-02
-4.638320000000000221e-01 2.094469999999999943e-01 8.885999999999999802e-03
-7.290029999999999566e-01 -1.815500000000000100e-02 5.212999999999999752e-03
-8.244320000000000537e-01 2.258000000000000007e-01 -9.752999999999999517e-03
2.619170000000000109e-01 -1.248189999999999994e-01 3.217199999999999921e-02
-2.332599999999999951e-01 -9.252900000000000014e-02 4.808400000000000174e-02
2.795179999999999887e-01 3.695899999999999880e-02 -9.620800000000000185e-02
-1.242390000000000022e-01 3.682159999999999878e-01 8.431299999999999906e-02
6.315250000000000030e-01 1.935109999999999886e-01 2.653300000000000103e-02
5.575360000000000316e-01 -2.909399999999999833e-02 8.481999999999999956e-03
-2.673369999999999913e-01 -1.178870000000000057e-01 -1.413590000000000124e-01
1.949999999999999910e-03 -7.057599999999999985e-02 1.538349999999999995e-01
3.033000000000000140e-01 -1.642359999999999931e-01 1.457630000000000037e-01
8.888380000000000170e-01 -1.450079999999999980e-01 -1.837290000000000034e-01
6.725090000000000234e-01 4.170510000000000050e-01 -2.294900000000000065e-02
4.411439999999999806e-01 -2.318489999999999995e-01 3.921199999999999686e-02
-2.273630000000000095e-01 -1.102670000000000039e-01 -1.737999999999999962e-02
4.901860000000000106e-01 -3.638310000000000155e-01 -8.826699999999999824e-02
-1.351050000000000029e-01 1.289629999999999943e-01 1.690300000000000136e-01
7.434539999999999482e-01 -4.180670000000000219e-01 -1.350600000000000064e-02
-4.711250000000000160e-01 2.445259999999999934e-01 -1.080300000000000010e-02
-4.792959999999999998e-01 -1.984360000000000013e-01 -9.509499999999999897e-02
3.815490000000000270e-01 -2.692229999999999901e-01 1.949100000000000138e-02
-6.590500000000000524e-02 1.901309999999999945e-01 -8.263900000000000412e-02
-2.445219999999999894e-01 5.184500000000000219e-02 3.213000000000000144e-03
4.982079999999999842e-01 -2.752789999999999959e-01 -8.899899999999999478e-02
-2.315470000000000028e-01 1.819890000000000119e-01 -8.209800000000000431e-02
-2.347090000000000010e-01 -1.498559999999999892e-01 -4.066000000000000170e-02
2.212799999999999837e-02 -7.222800000000000054e-02 -1.835569999999999979e-01
6.273419999999999552e-01 3.372149999999999870e-01 2.585000000000000058e-03
-6.776200000000000001e-01 4.257830000000000226e-01 7.620799999999999796e-02
4.495480000000000032e-01 -5.581200000000000050e-02 1.036500000000000060e-01
2.414800000000000002e-01 2.798999999999999839e-03 -1.259979999999999989e-01
5.739170000000000105e-01 -3.692899999999999655e-02 1.599599999999999980e-02
-1.460819999999999896e-01 -3.016999999999999890e-02 7.274899999999999423e-02
-4.910399999999999765e-01 3.601100000000000134e-02 -1.067599999999999973e-02
-2.042529999999999901e-01 1.599089999999999956e-01 -5.443800000000000028e-02
3.794080000000000230e-01 6.798600000000000476e-02 1.194619999999999987e-01
-1.436800000000000056e-02 7.720899999999999985e-02 -1.738840000000000108e-01
-5.093670000000000142e-01 -1.210480000000000028e-01 1.733520000000000061e-01
-3.107659999999999867e-01 -2.163190000000000113e-01 2.512019999999999809e-01
-2.919350000000000001e-01 -1.884770000000000056e-01 -2.441190000000000027e-01
-6.674930000000000030e-01 1.543730000000000102e-01 5.673399999999999971e-02
7.758439999999999781e-01 2.636299999999999755e-01 2.161400000000000127e-02
-1.901390000000000025e-01 6.804000000000000326e-02 -1.213980000000000059e-01
-8.026099999999999901e-02 1.565910000000000080e-01 -5.471000000000000169e-02
4.162819999999999854e-01 1.623749999999999916e-01 -1.125860000000000055e-01
-2.448130000000000028e-01 1.692440000000000055e-01 -5.301700000000000162e-02
-4.809370000000000034e-01 -1.046649999999999942e-01 1.729950000000000099e-01
-3.916910000000000114e-01 3.041710000000000247e-01 4.280599999999999683e-02
1.951469999999999871e-01 -9.479500000000000426e-02 -1.422970000000000068e-01
-8.911369999999999569e-01 -1.651199999999999890e-02 5.408999999999999746e-03
-3.577139999999999764e-01 -1.131769999999999998e-01 1.173779999999999962e-01
8.360800000000000176e-02 1.066300000000000026e-01 1.089999999999999997e-01
-6.904270000000000129e-01 8.402300000000000046e-02 7.887999999999999179e-03
-1.804369999999999863e-01 1.012599999999999958e-02 1.184639999999999999e-01
-5.255760000000000431e-01 -2.505850000000000022e-01 2.191500000000000115e-01
7.326899999999999524e-01 3.022980000000000111e-01 1.275500000000000071e-02
-5.403850000000000042e-01 4.065369999999999817e-01 -1.425000000000000051e-02
5.844679999999999875e-01 -2.353439999999999976e-01 3.200599999999999973e-02
-3.957200000000000301e-02 -1.359869999999999968e-01 2.068599999999999953e-02
-7.097999999999999865e-01 -2.500069999999999792e-01 -4.176799999999999957e-02
1.005380000000000024e-01 -2.687300000000000105e-02 1.083130000000000065e-01
5.062429999999999986e-01 -2.107989999999999864e-01 3.715799999999999659e-02
-4.563329999999999886e-01 3.813179999999999903e-01 3.091899999999999857e-02
-3.667139999999999844e-01 -4.149470000000000103e-01 -1.365000000000000102e-01
-5.697330000000000449e-01 1.180210000000000009e-01 6.129600000000000326e-02
7.223850000000000549e-01 3.804890000000000216e-01 8.299600000000000033e-02
1.726650000000000129e-01 -1.565130000000000132e-01 -6.120300000000000046e-02
4.212199999999999833e-01 -2.376129999999999909e-01 4.474899999999999711e-02
3.220390000000000197e-01 -2.019259999999999944e-01 6.979200000000000681e-02
2.965369999999999950e-01 1.531389999999999973e-01 -9.737999999999999434e-02
-1.762019999999999975e-01 1.412700000000000067e-01 1.767789999999999917e-01
4.583119999999999972e-01 -1.795110000000000039e-01 9.347300000000000053e-02
-2.385660000000000003e-01 -2.061999999999999944e-01 -1.203800000000000009e-01
-3.998900000000000232e-01 -1.028069999999999956e-01 -1.151699999999999946e-02
3.773670000000000080e-01 4.960300000000000126e-02 -1.031119999999999953e-01
-9.700899999999999801e-02 2.793370000000000020e-01 4.582800000000000068e-02
-2.430519999999999903e-01 -1.585090000000000110e-01 -1.031159999999999993e-01
4.338429999999999787e-01 1.024359999999999993e-01 1.391830000000000012e-01
8.029979999999999896e-01 2.081820000000000059e-01 1.500600000000000024e-02
6.152630000000000043e-01 1.108610000000000012e-01 2.322700000000000112e-02
-1.328900000000000081e-01 3.577429999999999777e-01 9.143500000000000238e-02
8.165940000000000420e-01 -2.213489999999999902e-01 1.988810000000000022e-01
4.748820000000000263e-01 2.450779999999999903e-01 9.036000000000000629e-03
-2.728180000000000049e-01 3.418399999999999911e-02 1.239399999999999946e-01
-2.432199999999999918e-01 2.197020000000000084e-01 1.072270000000000029e-01
-2.265270000000000061e-01 4.473099999999999993e-02 1.168850000000000028e-01
7.985659999999999981e-01 -4.014510000000000023e-01 -1.169500000000000053e-02
-1.972490000000000077e-01 3.109299999999999911e-02 -1.273900000000000032e-02
4.176499999999999657e-02 -3.442060000000000120e-01 1.695500000000000132e-02
-5.185549999999999882e-01 3.049699999999999980e-02 4.367000000000000222e-03
-3.230540000000000078e-01 8.880499999999999505e-02 -1.475059999999999982e-01
1.662480000000000069e-01 -1.323320000000000052e-01 1.177860000000000018e-01
-4.042330000000000090e-01 3.065430000000000099e-01 6.457699999999999552e-02
-2.645419999999999994e-01 -6.540999999999999939e-03 -4.985999999999999981e-03
9.589539999999999731e-01 -2.134639999999999871e-01 -1.810130000000000072e-01
-3.702039999999999775e-01 -3.617349999999999732e-01 -2.230090000000000128e-01
-6.370500000000000052e-01 -3.619979999999999865e-01 -4.834800000000000209e-02
-3.869150000000000089e-01 -3.276080000000000103e-01 -9.704000000000000820e-03
-1.463619999999999921e-01 -4.095399999999999735e-02 -1.457589999999999997e-01
-7.136519999999999531e-01 1.100990000000000024e-01 6.172600000000000309e-02
5.682199999999999751e-02 -3.319400000000000128e-01 -1.488800000000000019e-02
-6.351800000000000501e-02 2.512380000000000169e-01 1.179250000000000020e-01
2.532099999999999976e-02 9.813299999999999801e-02 -5.809399999999999981e-02
-7.571899999999999464e-02 -2.184570000000000123e-01 1.972210000000000074e-01
8.507569999999999855e-01 -8.059700000000000197e-02 -3.060000000000000111e-04
1.275739999999999930e-01 1.057629999999999959e-01 -1.115820000000000006e-01
3.510559999999999792e-01 8.854399999999999771e-02 1.267270000000000063e-01
-2.433039999999999925e-01 -4.400099999999999845e-02 -1.379650000000000043e-01
1.968930000000000125e-01 -1.653599999999999862e-02 -1.048639999999999989e-01
5.520580000000000487e-01 6.246299999999999769e-02 1.132200000000000012e-01
-1.432579999999999965e-01 3.806530000000000191e-01 -1.703100000000000100e-02
-6.301769999999999872e-01 -1.346900000000000042e-01 5.284699999999999814e-02
3.881169999999999898e-01 1.832759999999999945e-01 7.865199999999999969e-02
2.495599999999999902e-02 1.593259999999999954e-01 -7.605299999999999561e-02
2.146609999999999907e-01 -1.277129999999999932e-01 3.373799999999999716e-02
-4.333179999999999810e-01 -2.965840000000000143e-01 2.245899999999999980e-02
-6.965050000000000407e-01 7.330200000000000604e-02 1.706500000000000031e-02
-5.427920000000000522e-01 4.281909999999999883e-01 4.338499999999999995e-02
3.753730000000000122e-01 4.333000000000000046e-02 1.183069999999999955e-01
-3.209779999999999855e-01 1.558849999999999958e-01 1.307240000000000069e-01
-1.547929999999999862e-01 2.974299999999999861e-02 2.539699999999999944e-02
-6.934639999999999693e-01 -2.632820000000000160e-01 -6.943100000000000660e-02
9.124959999999999738e-01 -2.856879999999999975e-01 1.639730000000000076e-01
-3.594109999999999805e-01 -1.478079999999999949e-01 1.177559999999999996e-01
-8.003810000000000091e-01 2.334179999999999866e-01 1.564099999999999865e-02
-5.974329999999999918e-01 7.560000000000000053e-02 -7.441399999999999404e-02
5.581040000000000445e-01 1.472719999999999863e-01 -1.121759999999999979e-01
4.894540000000000002e-01 3.099180000000000268e-01 -2.598699999999999968e-02
-2.977230000000000154e-01 -3.667399999999999827e-02 -9.543100000000000194e-02
-6.704949999999999521e-01 3.977649999999999797e-01 9.175600000000000422e-02
5.753289999999999793e-01 1.192519999999999969e-01 -1.728139999999999954e-01
6.601010000000000488e-01 2.065680000000000016e-01 2.754699999999999857e-02
8.347100000000000353e-02 1.414690000000000114e-01 1.004400000000000015e-01
6.430019999999999625e-01 1.542810000000000015e-01 1.240659999999999957e-01
-1.667659999999999976e-01 1.335000000000000032e-03 7.728899999999999659e-02
8.142030000000000101e-01 -2.260300000000000087e-01 -8.624999999999999334e-02
-1.279019999999999879e-01 2.204409999999999981e-01 1.238490000000000008e-01
-3.501610000000000000e-01 -3.602690000000000059e-01 -3.093299999999999869e-02
1.094989999999999991e-01 2.409340000000000093e-01 -3.423500000000000154e-02
8.442920000000000424e-01 -2.438690000000000024e-01 2.058719999999999994e-01
1.953149999999999886e-01 1.443959999999999966e-01 1.485879999999999979e-01
7.638139999999999930e-01 -6.537300000000000055e-02 -2.401790000000000036e-01
-6.387400000000000022e-02 7.487499999999999711e-02 -8.815499999999999725e-02
6.802049999999999486e-01 -1.808799999999999991e-02 1.670400000000000010e-02
1.460359999999999991e-01 -1.350480000000000014e-01 5.244200000000000250e-02
6.313659999999999828e-01 1.767120000000000080e-01 3.176899999999999863e-02
1.363499999999999955e-02 1.386680000000000135e-01 -5.609299999999999703e-02
4.939180000000000237e-01 -1.692099999999999854e-02 -9.203699999999999382e-02
-1.857070000000000110e-01 -1.872929999999999873e-01 8.476899999999999713e-02
-2.545600000000000085e-01 -2.410980000000000067e-01 1.514770000000000005e-01
6.763240000000000363e-01 -2.576620000000000021e-01 -1.347270000000000134e-01
-4.958699999999999913e-02 -1.549069999999999891e-01 1.546160000000000034e-01
-1.668560000000000043e-01 -3.150169999999999915e-01 1.496639999999999915e-01
-5.307239999999999736e-01 -4.077660000000000173e-01 1.146569999999999950e-01
3.118489999999999873e-01 1.570500000000000021e-02 -1.009759999999999963e-01
-2.476700000000000013e-01 2.918680000000000163e-01 -6.089900000000000174e-02
5.219920000000000115e-01 -2.199820000000000109e-01 5.294399999999999801e-02
-4.924109999999999876e-01 2.630919999999999925e-01 8.829999999999999958e-04
-1.343070000000000097e-01 2.332009999999999916e-01 1.216170000000000029e-01
-1.360649999999999915e-01 3.154089999999999949e-01 -7.677799999999999903e-02
4.967770000000000241e-01 7.311999999999999923e-03 -9.488699999999999912e-02
7.464859999999999829e-01 -2.345069999999999932e-01 -5.446100000000000246e-02
1.629480000000000095e-01 1.360119999999999940e-01 -1.289770000000000083e-01
-5.295320000000000027e-01 5.688300000000000300e-02 1.240040000000000031e-01
-1.822320000000000051e-01 2.783410000000000051e-01 7.779400000000000204e-02
-2.014980000000000104e-01 2.446510000000000074e-01 -7.497299999999999798e-02
-8.294270000000000254e-01 1.278970000000000107e-01 5.264900000000000135e-02
-6.366070000000000340e-01 1.282159999999999966e-01 -5.081299999999999706e-02
-2.285600000000000132e-01 -1.944809999999999872e-01 -1.104689999999999978e-01
2.264589999999999936e-01 -1.073520000000000030e-01 1.661299999999999999e-01
-1.837449999999999917e-01 -1.927979999999999972e-01 -2.910999999999999959e-03
3.448780000000000179e-01 2.351290000000000047e-01 1.557540000000000036e-01
-3.670490000000000141e-01 1.986989999999999867e-01 -2.193000000000000158e-02
-2.515669999999999851e-01 -1.529699999999999983e-02 5.896499999999999658e-02
-9.355130000000000390e-01 1.965919999999999890e-01 2.113299999999999901e-02
7.511130000000000306e-01 2.825309999999999766e-01 3.066400000000000028e-02
-8.996999999999999442e-02 -1.591859999999999942e-01 9.494800000000000462e-02
-7.762900000000000356e-02 -1.420440000000000036e-01 -1.307349999999999901e-01
-5.707999999999999741e-01 -1.212270000000000014e-01 -3.675199999999999995e-02
-2.018939999999999901e-01 2.798769999999999869e-01 4.816000000000000142e-02
1.638989999999999891e-01 9.970500000000000196e-02 -9.333800000000000430e-02
4.292059999999999764e-01 -1.217929999999999985e-01 -1.289230000000000098e-01
8.037469999999999892e-01 -7.918200000000000238e-02 2.001719999999999888e-01
-2.824130000000000251e-01 -2.778699999999999920e-02 -1.808250000000000135e-01
3.020399999999999752e-01 -7.435600000000000542e-02 1.139599999999999988e-02
-1.797390000000000099e-01 4.833400000000000196e-02 1.240929999999999950e-01
3.918679999999999941e-01 1.388719999999999954e-01 1.468480000000000063e-01
2.598210000000000242e-01 -1.987939999999999985e-01 1.235760000000000053e-01
1.760009999999999908e-01 -1.201330000000000037e-01 1.307099999999999929e-01
-2.006890000000000063e-01 2.753099999999999992e-02 5.957599999999999701e-02
4.555399999999999727e-02 3.834900000000000114e-02 -6.866999999999999840e-03
-7.055630000000000512e-01 -1.925459999999999949e-01 -3.859800000000000036e-02
-6.115369999999999973e-01 1.175569999999999948e-01 -5.437800000000000272e-02
4.187719999999999776e-01 2.402279999999999971e-01 1.733220000000000038e-01
1.637919999999999932e-01 -5.617199999999999971e-02 -1.196999999999999930e-03
-5.042900000000000160e-02 3.452859999999999818e-01 -6.289200000000000346e-02
-2.287540000000000129e-01 -2.475019999999999998e-01 -1.576990000000000058e-01
4.950049999999999728e-01 2.730899999999999994e-02 -6.235700000000000270e-02
2.636640000000000095e-01 -5.500599999999999934e-02 -1.512670000000000126e-01
-3.010660000000000003e-01 1.416149999999999909e-01 1.611750000000000127e-01
-2.542789999999999773e-01 -2.374300000000000022e-02 -9.909500000000000253e-02
7.671869999999999523e-01 2.253390000000000115e-01 1.682600000000000068e-02
6.499719999999999942e-01 -3.163200000000000039e-02 -2.253219999999999945e-01
6.877790000000000292e-01 -4.037100000000000133e-01 4.561699999999999783e-02
3.565499999999999919e-02 -2.608590000000000075e-01 -1.474729999999999930e-01
-2.498839999999999950e-01 9.038000000000000200e-02 1.545439999999999869e-01
-6.285209999999999964e-01 -3.382510000000000239e-01 -9.448600000000000054e-02
-7.621600000000000597e-02 7.407800000000000495e-02 -8.812399999999999400e-02
-4.618559999999999888e-01 -9.039300000000000113e-02 1.744789999999999952e-01
4.414049999999999918e-01 -1.765039999999999942e-01 1.585540000000000005e-01
-3.434329999999999883e-01 -1.174639999999999990e-01 6.088999999999999968e-02
3.586150000000000171e-01 -2.540999999999999856e-02 6.403999999999999970e-02
-2.356040000000000079e-01 -2.078089999999999937e-01 -4.234999999999999876e-02
7.460830000000000517e-01 3.091960000000000264e-01 6.755500000000000393e-02
4.849780000000000202e-01 -3.947999999999999843e-01 -1.308699999999999967e-02
-1.995329999999999881e-01 1.171900000000000025e-01 -1.783679999999999988e-01
1.259609999999999896e-01 3.123839999999999950e-01 2.861599999999999908e-02
2.875400000000000178e-01 3.020570000000000199e-01 9.690000000000000262e-04
7.410999999999999810e-01 -2.714730000000000198e-01 9.579999999999999974e-03
1.594800000000000037e-02 -3.561420000000000141e-01 -1.801000000000000170e-02
1.362760000000000082e-01 3.070700000000000165e-02 1.501029999999999864e-01
9.089139999999999997e-01 1.206139999999999990e-01 4.836100000000000121e-02
2.050299999999999900e-01 -1.643169999999999908e-01 1.457600000000000007e-01
7.464739999999999709e-01 2.882649999999999935e-01 3.096399999999999847e-02
6.504100000000000159e-02 3.799290000000000167e-01 -6.800999999999999754e-03
-2.511329999999999951e-01 9.629799999999999471e-02 -1.261670000000000014e-01
-2.420269999999999921e-01 -3.223799999999999999e-01 -2.549770000000000092e-01
-3.068779999999999841e-01 -1.731010000000000049e-01 -1.059340000000000004e-01
5.338610000000000300e-01 1.108630000000000032e-01 1.277669999999999917e-01
-1.102940000000000031e-01 3.870310000000000139e-01 -1.102900000000000061e-02
-5.421920000000000073e-01 1.192310000000000036e-01 -6.354100000000000026e-02
-3.125569999999999737e-01 -6.313599999999999768e-02 -2.542799999999999921e-02
4.955500000000000183e-02 8.621499999999999997e-02 1.982389999999999985e-01
2.569690000000000030e-01 8.174800000000000122e-02 -1.223709999999999937e-01
4.012129999999999863e-01 3.296950000000000158e-01 -1.328000000000000014e-02
1.020760000000000001e-01 2.377710000000000101e-01 -1.088700000000000084e-02
-1.796449999999999991e-01 -3.299279999999999990e-01 -1.251079999999999970e-01
3.699040000000000106e-01 -2.062140000000000084e-01 -1.096570000000000045e-01
3.856609999999999761e-01 -1.818140000000000034e-01 -1.564649999999999930e-01
5.703400000000000136e-02 6.187800000000000245e-02 1.952540000000000109e-01
-1.757410000000000083e-01 3.315499999999999697e-02 -4.384400000000000103e-02
-4.114600000000000202e-02 4.490899999999999753e-02 2.061219999999999997e-01
2.188049999999999995e-01 -1.401219999999999966e-01 1.152460000000000012e-01
-3.308799999999999936e-02 -3.710519999999999929e-01 3.894600000000000145e-02
1.353380000000000138e-01 3.114480000000000026e-01 -6.786999999999999977e-02
4.635110000000000063e-01 -6.447999999999999565e-02 9.381000000000000449e-02
-3.390440000000000120e-01 2.868700000000000139e-01 2.031999999999999952e-03
-8.640200000000000657e-02 -3.857000000000000185e-03 2.018129999999999924e-01
-2.794510000000000050e-01 -1.529179999999999984e-01 -1.429640000000000077e-01
-3.421449999999999769e-01 -3.208230000000000248e-01 7.750899999999999457e-02
-4.771369999999999778e-01 6.137900000000000300e-02 -1.745999999999999939e-03
6.292759999999999465e-01 -2.673579999999999846e-01 1.080720000000000014e-01
-6.612519999999999509e-01 9.329300000000000093e-02 2.842400000000000135e-02
8.098180000000000378e-01 1.697009999999999907e-01 4.525300000000000156e-02
-2.245260000000000034e-01 -1.138750000000000040e-01 2.259760000000000102e-01
3.278440000000000243e-01 1.293350000000000055e-01 3.086699999999999861e-02
-8.741300000000000459e-02 -2.029519999999999935e-01 -1.972460000000000047e-01
-2.835989999999999900e-01 -1.705510000000000081e-01 1.520630000000000037e-01
4.628010000000000179e-01 5.101499999999999785e-02 6.849999999999999535e-04
3.603279999999999816e-01 -1.986799999999999955e-01 -3.728100000000000164e-02
6.809650000000000425e-01 -3.527410000000000267e-01 9.980700000000000682e-02
-2.417380000000000084e-01 -1.729340000000000044e-01 -9.297199999999999909e-02
-2.444439999999999946e-01 4.843000000000000083e-02 1.736100000000000143e-02
6.129040000000000044e-01 -2.235399999999999887e-01 -9.222700000000000342e-02
3.148170000000000135e-01 -2.112860000000000016e-01 8.081199999999999495e-02
3.937010000000000232e-01 4.635199999999999737e-02 -4.813499999999999723e-02
-3.504780000000000117e-01 -7.268000000000000155e-03 4.254899999999999655e-02
-3.663040000000000185e-01 -3.661139999999999950e-01 -9.194299999999999695e-02
-1.080779999999999935e-01 6.309800000000000131e-02 1.761089999999999878e-01
2.774400000000000199e-01 -1.214540000000000064e-01 -4.604899999999999965e-02
-2.759289999999999798e-01 -1.163529999999999981e-01 2.255639999999999867e-01
-5.018080000000000318e-01 -1.029219999999999996e-01 4.477099999999999830e-02
8.646279999999999522e-01 -1.657999999999999969e-03 -3.414999999999999980e-02
5.877029999999999754e-01 -2.247740000000000016e-01 -1.087260000000000032e-01
9.259009999999999740e-01 -1.910109999999999864e-01 -1.680389999999999939e-01
-1.050529999999999936e-01 5.324099999999999666e-02 -1.252220000000000000e-01
-2.208779999999999910e-01 8.040300000000000225e-02 2.098530000000000117e-01
8.157050000000000134e-01 -7.783600000000000241e-02 -2.130350000000000021e-01
3.888920000000000154e-01 -1.263410000000000089e-01 9.612400000000000111e-02
-7.648099999999999343e-02 -1.811750000000000027e-01 2.084360000000000102e-01
-4.213129999999999931e-01 1.770200000000000107e-01 -3.352999999999999731e-02
3.468339999999999756e-01 6.685499999999999776e-02 -2.386599999999999833e-02
4.702799999999999758e-01 1.023929999999999979e-01 1.273660000000000070e-01
-2.250209999999999988e-01 -7.301599999999999757e-02 7.210999999999999355e-02
5.220799999999999746e-02 -7.503200000000000147e-02 -1.178649999999999975e-01
-6.623539999999999983e-01 -1.776490000000000014e-01 1.129990000000000022e-01
-1.770509999999999862e-01 3.703029999999999933e-01 7.700400000000000300e-02
-2.583670000000000133e-01 -1.195029999999999981e-01 5.858399999999999719e-02
-4.427719999999999989e-01 1.536550000000000138e-01 6.521100000000000507e-02
-5.124539999999999651e-01 -1.457350000000000034e-01 8.545600000000000418e-02
5.120670000000000499e-01 -2.124330000000000107e-01 -1.306279999999999941e-01
-2.319960000000000078e-01 1.320310000000000095e-01 -8.707900000000000362e-02
4.176860000000000017e-01 -1.354049999999999976e-01 -8.692099999999999826e-02
-1.344170000000000087e-01 1.522739999999999927e-01 1.720100000000000101e-02
-4.050630000000000064e-01 1.420500000000000096e-01 -4.084100000000000230e-02
-3.442370000000000152e-01 1.457080000000000042e-01 3.591199999999999948e-02
1.252340000000000120e-01 1.793359999999999954e-01 4.917699999999999849e-02
-5.121890000000000054e-01 3.679709999999999925e-01 8.870699999999999419e-02
-1.333350000000000091e-01 -3.001860000000000084e-01 1.587969999999999937e-01
-4.502699999999999758e-02 1.781570000000000098e-01 -1.578320000000000001e-01
8.116649999999999698e-01 -2.708409999999999984e-01 -8.837599999999999623e-02
2.341789999999999983e-01 -2.305409999999999959e-01 5.151900000000000229e-02
-4.408340000000000036e-01 -2.837239999999999762e-01 2.281599999999999948e-02
-2.600379999999999914e-01 -1.512600000000000056e-02 -7.490000000000000130e-03
-5.541369999999999907e-01 -3.454050000000000176e-01 1.605340000000000100e-01
8.180889999999999551e-01 -2.564759999999999818e-01 -1.459099999999999980e-02
-3.941250000000000031e-01 -2.000520000000000076e-01 2.485259999999999969e-01
3.483229999999999937e-01 -2.136369999999999936e-01 -5.887300000000000172e-02
-5.545430000000000081e-01 -1.111049999999999954e-01 1.498490000000000100e-01
-3.177479999999999749e-01 -3.013859999999999872e-01 1.158639999999999948e-01
3.295599999999999918e-02 -9.400999999999999635e-03 1.366680000000000117e-01
2.569609999999999950e-01 -2.311600000000000044e-01 -6.939399999999999735e-02
9.585439999999999516e-01 -2.305399999999999949e-01 1.572000000000000064e-01
5.699309999999999654e-01 -3.481299999999999673e-02 -2.785899999999999835e-02
9.069700000000000539e-01 -2.704030000000000045e-01 2.281999999999999862e-01
4.465600000000000125e-02 3.798830000000000262e-01 2.601399999999999893e-02
6.266019999999999923e-01 -2.392829999999999957e-01 -2.105800000000000033e-02
4.640989999999999838e-01 1.827030000000000043e-01 -1.168890000000000068e-01
4.423639999999999795e-01 -2.628000000000000128e-03 6.706299999999999761e-02
-5.702359999999999651e-01 3.418499999999999872e-01 7.890300000000000091e-02
1.242700000000000055e-01 3.464650000000000230e-01 9.850200000000000622e-02
-2.225979999999999903e-01 -3.527420000000000000e-01 -2.643150000000000222e-01
5.427099999999999980e-02 1.647440000000000015e-01 1.210399999999999948e-01
5.640730000000000466e-01 1.612999999999999851e-02 1.829210000000000003e-01
-8.087980000000000169e-01 -1.006879999999999997e-01 7.775999999999999926e-03
8.559649999999999759e-01 1.793799999999999908e-02 -4.631199999999999900e-02
8.042610000000000037e-01 -1.278630000000000044e-01 -5.908299999999999663e-02
-2.358760000000000023e-01 -9.047399999999999887e-02 -1.783649999999999958e-01
-2.125080000000000024e-01 1.587890000000000135e-01 -1.397950000000000026e-01
-3.217400000000000260e-01 3.731999999999999901e-02 -9.534199999999999620e-02
2.692959999999999798e-01 2.925800000000000067e-01 -1.513800000000000041e-02
1.389440000000000119e-01 -2.663799999999999848e-02 1.223010000000000069e-01
-5.034459999999999491e-01 -1.426199999999999968e-01 -8.575699999999999990e-02
5.305999999999999953e-03 2.188900000000000012e-01 1.224549999999999944e-01
4.765809999999999769e-01 -6.200000000000000270e-05 -5.028699999999999837e-02
3.308240000000000069e-01 1.138060000000000044e-01 3.381599999999999884e-02
-3.856570000000000276e-01 -3.087710000000000177e-01 8.345299999999999940e-02
-3.104759999999999742e-01 -1.148300000000000015e-02 -3.175499999999999851e-02
5.703150000000000164e-01 3.770769999999999955e-01 8.692199999999999926e-02
5.981199999999999850e-01 4.336999999999999744e-01 -8.906000000000000721e-03
6.014920000000000266e-01 9.892800000000000205e-02 1.225679999999999964e-01
-8.395970000000000377e-01 2.824699999999999989e-01 -3.108800000000000105e-02
-2.451299999999999868e-01 -1.764860000000000040e-01 3.893699999999999939e-02
-2.777180000000000204e-01 -5.256500000000000061e-02 -5.088499999999999968e-02
-6.720789999999999820e-01 7.746100000000000207e-02 1.185499999999999922e-02
-2.678229999999999777e-01 3.507089999999999930e-01 -1.639200000000000032e-02
5.005330000000000057e-01 1.800900000000000070e-02 -1.953000000000000092e-03
7.329010000000000247e-01 -3.788650000000000073e-01 6.784600000000000353e-02
2.267530000000000101e-01 1.006459999999999994e-01 -1.107360000000000011e-01
-3.756289999999999907e-01 2.548270000000000257e-01 -1.079300000000000051e-02
4.445500000000000007e-01 -2.268699999999999883e-01 -8.772699999999999942e-02
1.952149999999999996e-01 -4.608500000000000096e-02 1.210559999999999969e-01
4.423920000000000075e-01 1.116069999999999979e-01 1.115880000000000066e-01
-5.462209999999999566e-01 -2.230650000000000133e-01 2.116439999999999988e-01
-1.103399999999999936e-01 6.533799999999999331e-02 -1.184800000000000020e-01
4.376709999999999767e-01 1.127179999999999988e-01 1.278720000000000134e-01
3.138909999999999756e-01 2.852370000000000183e-01 -5.254799999999999749e-02
-5.112360000000000237e-01 -3.183940000000000103e-01 -1.200000000000000025e-02
-2.479480000000000017e-01 -1.062160000000000049e-01 6.128399999999999820e-02
6.450190000000000090e-01 -5.609999999999999709e-02 -4.374299999999999716e-02
-7.111900000000000166e-02 -3.521799999999999931e-01 -9.678200000000000691e-02
3.757229999999999737e-01 2.699100000000000110e-02 -3.689699999999999924e-02
8.729999999999999982e-01 2.419989999999999919e-01 7.120700000000000640e-02
-3.673210000000000086e-01 -4.123470000000000191e-01 8.330300000000000205e-02
-6.345460000000000544e-01 9.008700000000000041e-02 1.116830000000000045e-01
-1.905229999999999979e-01 1.430999999999999980e-02 -3.399499999999999744e-02
-8.365350000000000286e-01 3.733230000000000159e-01 3.609799999999999814e-02
4.707499999999999879e-02 2.027710000000000068e-01 1.476270000000000082e-01
-3.790140000000000176e-01 2.557309999999999861e-01 -1.478600000000000053e-02
5.399080000000000545e-01 4.599299999999999916e-02 -1.029140000000000055e-01
-6.160299999999999665e-01 -1.237410000000000038e-01 -3.962199999999999750e-02
-2.510649999999999826e-01 1.147539999999999949e-01 1.992490000000000094e-01
7.244319999999999649e-01 -1.100409999999999999e-01 -4.474500000000000005e-02
-1.905239999999999989e-01 3.154400000000000259e-02 -8.503999999999999407e-03
-1.117510000000000031e-01 -2.345750000000000057e-01 1.693330000000000113e-01
4.633669999999999733e-01 2.132529999999999981e-01 1.608700000000000130e-01
-2.006199999999999928e-01 -1.991469999999999907e-01 -5.920000000000000262e-02
-1.114460000000000034e-01 -2.311539999999999984e-01 1.695490000000000053e-01
6.049560000000000493e-01 6.197300000000000031e-02 1.516889999999999905e-01
-5.153499999999999748e-02 9.862600000000000533e-02 1.184759999999999980e-01
3.600130000000000274e-01 -2.207880000000000120e-01 -1.024719999999999936e-01
-1.698250000000000037e-01 -3.282519999999999882e-01 -1.287260000000000071e-01
-4.697149999999999936e-01 -3.764449999999999741e-01 1.859409999999999952e-01
-2.242280000000000106e-01 -1.488589999999999913e-01 3.235199999999999881e-02
5.860490000000000421e-01 -4.115860000000000074e-01 3.238100000000000006e-02
-5.591490000000000071e-01 4.197890000000000232e-01 -1.037700000000000081e-02
-2.255439999999999945e-01 -3.501049999999999995e-01 -2.467989999999999906e-01
-3.323229999999999795e-01 -1.935449999999999948e-01 2.489939999999999931e-01
-7.942719999999999780e-01 8.363600000000000201e-02 1.607000000000000095e-02
-1.061269999999999991e-01 -8.262400000000000300e-02 -2.029229999999999923e-01
5.965829999999999744e-01 4.991000000000000297e-02 -2.350909999999999944e-01
-2.709409999999999874e-01 -1.401630000000000098e-01 1.724120000000000097e-01
5.238749999999999796e-01 -2.187669999999999892e-01 -1.695059999999999900e-01
4.178910000000000124e-01 -2.194470000000000032e-01 9.846399999999999597e-02
-7.775680000000000369e-01 -7.454199999999999715e-02 6.928600000000000037e-02
-1.077820000000000028e-01 1.007030000000000008e-01 1.271049999999999958e-01
5.605350000000000055e-01 1.205029999999999990e-01 1.935240000000000016e-01
7.935000000000000386e-02 2.729739999999999944e-01 -2.532299999999999829e-02
-6.479549999999999477e-01 -3.399630000000000152e-01 -6.309399999999999731e-02
-3.908030000000000115e-01 -2.387579999999999980e-01 7.419099999999999306e-02
1.186969999999999970e-01 2.848999999999999866e-01 1.290969999999999895e-01
1.024919999999999998e-01 2.062180000000000124e-01 -1.252890000000000115e-01
7.162800000000000278e-01 -2.436200000000000171e-02 -1.439410000000000134e-01
6.188829999999999609e-01 -1.163769999999999943e-01 -5.349899999999999795e-02
-9.182540000000000147e-01 1.990510000000000057e-01 -1.932899999999999896e-02
3.051710000000000256e-01 -1.006780000000000036e-01 -9.528300000000000658e-02
-6.341579999999999995e-01 1.351219999999999921e-01 -5.251399999999999818e-02
1.930810000000000026e-01 2.885179999999999967e-01 -6.192700000000000288e-02
-2.130309999999999981e-01 -1.394269999999999954e-01 -3.936699999999999922e-02
6.157569999999999988e-01 -3.822099999999999942e-01 7.921499999999999375e-02
3.799460000000000059e-01 -1.152679999999999955e-01 9.719899999999999374e-02
