6.099588871002197266e-01 1.564944982528686523e-01 -1.076421141624450684e-01
5.991461873054504395e-01 1.445182561874389648e-01 -1.030872762203216553e-01
6.278587579727172852e-01 1.500040739774703979e-01 -9.985587745904922485e-02
6.167018413543701172e-01 1.398387402296066284e-01 -9.640540927648544312e-02
-4.976046383380889893e-01 -2.062478214502334595e-01 -2.343402802944183350e-01
-5.078249573707580566e-01 -2.373867779970169067e-01 -2.246877998113632202e-01
-4.638050496578216553e-01 -2.172485291957855225e-01 -2.417393177747726440e-01
-4.744419157505035400e-01 -2.500466704368591309e-01 -2.337581962347030640e-01
6.305328607559204102e-01 1.473724395036697388e-01 -5.087028816342353821e-02
6.148651838302612305e-01 1.427856385707855225e-01 -4.497426375746726990e-02
6.466944217681884766e-01 1.479710638523101807e-01 -4.429121315479278564e-02
6.309500336647033691e-01 1.432306766510009766e-01 -3.795121237635612488e-02
-2.352902442216873169e-01 8.011808246374130249e-02 6.786699593067169189e-02
-2.353877723217010498e-01 6.486436724662780762e-02 7.152881473302841187e-02
-2.313569933176040649e-01 8.859460055828094482e-02 8.133908361196517944e-02
-2.319034487009048462e-01 7.209315150976181030e-02 8.304446190595626831e-02
1.859132200479507446e-01 7.649917900562286377e-02 1.220376044511795044e-01
1.796448826789855957e-01 5.957154184579849243e-02 1.255989521741867065e-01
1.989533901214599609e-01 6.953269988298416138e-02 1.293272823095321655e-01
1.928779631853103638e-01 5.214755609631538391e-02 1.333782374858856201e-01
-1.699208915233612061e-01 -1.710987389087677002e-01 1.899688839912414551e-01
-1.771026700735092163e-01 -1.897557079792022705e-01 1.953976601362228394e-01
-1.538449823856353760e-01 -1.764308810234069824e-01 1.863360702991485596e-01
-1.606308966875076294e-01 -1.955707371234893799e-01 1.917705684900283813e-01
4.503212869167327881e-01 -2.428191006183624268e-01 -3.526610881090164185e-02
4.455387890338897705e-01 -2.527891695499420166e-01 -2.051679790019989014e-02
4.571489393711090088e-01 -2.463431358337402344e-01 -2.127005532383918762e-02
4.522757232189178467e-01 -2.565125823020935059e-01 -6.860421039164066315e-03
-4.691576957702636719e-01 -2.821935415267944336e-01 -8.383355103433132172e-03
-4.709221124649047852e-01 -3.013209700584411621e-01 -1.228633802384138107e-02
-4.521828591823577881e-01 -2.825971841812133789e-01 -2.459293231368064880e-03
-4.548526406288146973e-01 -3.011451959609985352e-01 -7.130092941224575043e-03
6.740435212850570679e-02 -1.103253290057182312e-01 -6.679917126893997192e-02
4.923044145107269287e-02 -1.139796227216720581e-01 -5.985242873430252075e-02
8.684331923723220825e-02 -1.178933456540107727e-01 -5.640821158885955811e-02
6.979417055845260620e-02 -1.197530552744865417e-01 -4.955254867672920227e-02
1.038619428873062134e-01 2.373542785644531250e-01 -8.332394063472747803e-02
8.757772296667098999e-02 2.451370060443878174e-01 -7.932958751916885376e-02
1.150710284709930420e-01 2.365491837263107300e-01 -7.406365871429443359e-02
9.978954493999481201e-02 2.471492290496826172e-01 -6.585043668746948242e-02
-1.430713683366775513e-01 5.687554553151130676e-02 -1.940980106592178345e-01
-1.552644073963165283e-01 7.312410324811935425e-02 -1.870733052492141724e-01
-1.304603815078735352e-01 5.667159706354141235e-02 -1.834650486707687378e-01
-1.427585780620574951e-01 7.314266264438629150e-02 -1.765419840812683105e-01
-1.966019421815872192e-01 8.047157526016235352e-02 1.954901367425918579e-01
-2.019730955362319946e-01 6.231523677706718445e-02 1.966569572687149048e-01
-1.846822947263717651e-01 7.910766452550888062e-02 2.014976143836975098e-01
-1.895609796047210693e-01 6.122887134552001953e-02 2.036664783954620361e-01
8.205285072326660156e-01 -2.700595259666442871e-01 -1.000210791826248169e-01
8.032606244087219238e-01 -2.670232951641082764e-01 -9.486116468906402588e-02
8.338874578475952148e-01 -2.710005939006805420e-01 -8.915819227695465088e-02
8.173810839653015137e-01 -2.680470943450927734e-01 -8.328692615032196045e-02
-5.566266179084777832e-01 -3.879745006561279297e-01 -1.129650250077247620e-01
-5.807090401649475098e-01 -3.848003745079040527e-01 -9.094152599573135376e-02
-5.434783101081848145e-01 -4.148759543895721436e-01 -9.476623684167861938e-02
-5.694887638092041016e-01 -4.085065424442291260e-01 -7.388240098953247070e-02
-3.511737883090972900e-01 -1.260494589805603027e-01 -1.157539933919906616e-01
-3.663932979106903076e-01 -1.288851946592330933e-01 -1.106754019856452942e-01
-3.399113714694976807e-01 -1.194067373871803284e-01 -1.058421209454536438e-01
-3.548092544078826904e-01 -1.212124824523925781e-01 -1.020168438553810120e-01
-2.947934567928314209e-01 8.513298630714416504e-02 1.723056435585021973e-01
-2.976558506488800049e-01 6.229268014430999756e-02 1.777077764272689819e-01
-2.836043834686279297e-01 7.877958565950393677e-02 1.927703171968460083e-01
-2.867264151573181152e-01 5.651190131902694702e-02 1.974251270294189453e-01
-4.709218740463256836e-01 -1.921211779117584229e-01 2.360526323318481445e-01
-4.772331118583679199e-01 -2.110501080751419067e-01 2.360863983631134033e-01
-4.561547338962554932e-01 -2.063921689987182617e-01 2.398443371057510376e-01
-4.625785946846008301e-01 -2.252682745456695557e-01 2.395298331975936890e-01
1.741092652082443237e-01 -1.226872056722640991e-01 -1.286339759826660156e-02
1.577419936656951904e-01 -1.192550212144851685e-01 -7.137265522032976151e-03
1.887867152690887451e-01 -1.233106479048728943e-01 1.428665360435843468e-03
1.745203435420989990e-01 -1.251703649759292603e-01 5.330663174390792847e-03
1.013126149773597717e-01 2.415163516998291016e-01 2.654507011175155640e-02
9.048512578010559082e-02 2.492509782314300537e-01 3.296700865030288696e-02
1.137458309531211853e-01 2.440200895071029663e-01 4.093697667121887207e-02
1.058391928672790527e-01 2.434017211198806763e-01 4.476356506347656250e-02
-6.804863214492797852e-01 -1.810735315084457397e-01 1.175942271947860718e-02
-6.986874938011169434e-01 -1.750612556934356689e-01 2.514729835093021393e-02
-6.636524796485900879e-01 -1.850531995296478271e-01 2.101970463991165161e-02
-6.827412843704223633e-01 -1.791466325521469116e-01 3.485000133514404297e-02
-4.680546224117279053e-01 -1.290483921766281128e-01 -1.983558982610702515e-01
-4.874145388603210449e-01 -1.336354166269302368e-01 -1.904889643192291260e-01
-4.537188410758972168e-01 -1.122176796197891235e-01 -1.941764652729034424e-01
-4.738688170909881592e-01 -1.139046847820281982e-01 -1.858466118574142456e-01
-6.498403549194335938e-01 1.720009744167327881e-01 7.996998727321624756e-02
-6.479755043983459473e-01 1.514326184988021851e-01 8.149939775466918945e-02
-6.393407583236694336e-01 1.645556837320327759e-01 9.142411500215530396e-02
-6.367108225822448730e-01 1.451279819011688232e-01 9.157856553792953491e-02
-5.721620917320251465e-01 -1.359590888023376465e-01 1.559969335794448853e-01
-5.779073834419250488e-01 -1.563204824924468994e-01 1.635854244232177734e-01
-5.592051744461059570e-01 -1.358711719512939453e-01 1.685178279876708984e-01
-5.651547908782958984e-01 -1.526985913515090942e-01 1.750097274780273438e-01
-4.875070750713348389e-01 -2.165104150772094727e-01 2.375820428133010864e-01
-4.935960769653320312e-01 -2.351399809122085571e-01 2.373711019754409790e-01
-4.708619415760040283e-01 -2.259382456541061401e-01 2.412195503711700439e-01
-4.771255552768707275e-01 -2.444416582584381104e-01 2.405320256948471069e-01
1.340597569942474365e-01 2.318587750196456909e-01 3.903823718428611755e-02
1.361495107412338257e-01 2.053788006305694580e-01 3.647392615675926208e-02
1.479771435260772705e-01 2.332961410284042358e-01 4.932752996683120728e-02
1.506545841693878174e-01 2.072511166334152222e-01 4.747548326849937439e-02
-2.551790177822113037e-01 1.743997931480407715e-01 1.688951402902603149e-01
-2.629861235618591309e-01 1.505994498729705811e-01 1.785622835159301758e-01
-2.372775673866271973e-01 1.706878989934921265e-01 1.839589178562164307e-01
-2.454295456409454346e-01 1.483197212219238281e-01 1.930494159460067749e-01
6.354598402976989746e-01 -2.430485785007476807e-01 -1.984922587871551514e-02
6.267589926719665527e-01 -2.403073608875274658e-01 -1.005838811397552490e-02
6.405103206634521484e-01 -2.440096288919448853e-01 -7.359313312917947769e-03
6.319996118545532227e-01 -2.416960000991821289e-01 3.488304093480110168e-03
3.508996665477752686e-01 -7.960157841444015503e-02 -5.430614948272705078e-02
3.349241614341735840e-01 -7.481222599744796753e-02 -4.582602903246879578e-02
3.654347658157348633e-01 -7.527372986078262329e-02 -4.347911104559898376e-02
3.493921160697937012e-01 -7.219578325748443604e-02 -3.454777598381042480e-02
-6.557051539421081543e-01 4.620109796524047852e-01 3.292512521147727966e-02
-6.655552983283996582e-01 4.505348205566406250e-01 4.246245697140693665e-02
-6.334973573684692383e-01 4.459577798843383789e-01 3.703806549310684204e-02
-6.441854238510131836e-01 4.374222457408905029e-01 4.610984772443771362e-02
8.006337285041809082e-01 -5.722135677933692932e-02 5.392911285161972046e-02
7.847771048545837402e-01 -5.922928825020790100e-02 6.388022005558013916e-02
8.121907711029052734e-01 -2.980141155421733856e-02 5.859409645199775696e-02
7.967557311058044434e-01 -3.544396907091140747e-02 6.835711747407913208e-02
1.434430629014968872e-01 1.027052551507949829e-01 -6.275674700736999512e-02
1.399772018194198608e-01 9.796350449323654175e-02 -5.309748649597167969e-02
1.396763473749160767e-01 1.004619076848030090e-01 -4.829359427094459534e-02
1.406372785568237305e-01 9.062603116035461426e-02 -4.011176526546478271e-02
-5.704209804534912109e-01 -3.776858374476432800e-02 -7.106396555900573730e-02
-5.809768438339233398e-01 -4.900756478309631348e-02 -6.678950041532516479e-02
-5.531346201896667480e-01 -3.449280932545661926e-02 -7.461866736412048340e-02
-5.672844648361206055e-01 -4.277656599879264832e-02 -6.935395300388336182e-02
-2.546144723892211914e-01 -1.164432093501091003e-01 -1.105076968669891357e-01
-2.598414123058319092e-01 -1.307978481054306030e-01 -1.115968599915504456e-01
-2.424468547105789185e-01 -1.169752031564712524e-01 -1.024340167641639709e-01
-2.457733005285263062e-01 -1.323888152837753296e-01 -1.026819199323654175e-01
-9.991905093193054199e-02 3.205642104148864746e-01 1.191614046692848206e-01
-1.107941120862960815e-01 3.068773746490478516e-01 1.262512654066085815e-01
-7.397084683179855347e-02 3.119542002677917480e-01 1.278097778558731079e-01
-8.471876382827758789e-02 2.996223866939544678e-01 1.354008167982101440e-01
-4.838501513004302979e-01 -1.959318071603775024e-01 -9.019804745912551880e-02
-4.842624366283416748e-01 -2.144305109977722168e-01 -9.152046591043472290e-02
-4.670567810535430908e-01 -2.047881484031677246e-01 -7.761003077030181885e-02
-4.678420126438140869e-01 -2.226309925317764282e-01 -7.892070710659027100e-02
-2.437775284051895142e-01 -1.716814935207366943e-01 -1.817977279424667358e-01
-2.474679350852966309e-01 -1.890266835689544678e-01 -1.815045922994613647e-01
-2.298862040042877197e-01 -1.757855564355850220e-01 -1.799015849828720093e-01
-2.338285148143768311e-01 -1.918380111455917358e-01 -1.809671670198440552e-01
-1.146193519234657288e-01 5.783051252365112305e-02 -1.653641462326049805e-01
-1.262420415878295898e-01 7.439117133617401123e-02 -1.592321097850799561e-01
-1.049902960658073425e-01 5.705520883202552795e-02 -1.542750597000122070e-01
-1.156778037548065186e-01 7.412831485271453857e-02 -1.483718454837799072e-01
-6.851282715797424316e-01 -3.556210547685623169e-02 -2.650899998843669891e-02
-7.017735838890075684e-01 -3.146409988403320312e-02 -1.587782800197601318e-02
-6.707607507705688477e-01 -3.547896817326545715e-02 -1.776011660695075989e-02
-6.875923871994018555e-01 -3.235097974538803101e-02 -8.712910115718841553e-03
-4.612250328063964844e-01 2.303506247699260712e-03 1.403653621673583984e-01
-4.658987224102020264e-01 -1.383216679096221924e-02 1.451338082551956177e-01
-4.471998810768127441e-01 -9.046429768204689026e-04 1.499537527561187744e-01
-4.523413777351379395e-01 -1.741139963269233704e-02 1.549303233623504639e-01
4.785583615303039551e-01 1.719118356704711914e-01 -1.392382681369781494e-01
4.593600630760192871e-01 1.706926077604293823e-01 -1.276281923055648804e-01
4.985024929046630859e-01 1.584702432155609131e-01 -1.389812678098678589e-01
4.825835525989532471e-01 1.504164040088653564e-01 -1.299021989107131958e-01
-2.313452064990997314e-01 -1.064634919166564941e-01 2.149423956871032715e-01
-2.425069957971572876e-01 -1.195233762264251709e-01 2.227935791015625000e-01
-2.172693759202957153e-01 -1.071823388338088989e-01 2.203009128570556641e-01
-2.265875935554504395e-01 -1.228247731924057007e-01 2.268606126308441162e-01
-3.904541134834289551e-01 -3.811041116714477539e-01 -1.768557429313659668e-01
-4.066546261310577393e-01 -3.801598548889160156e-01 -1.562506258487701416e-01
-3.771739602088928223e-01 -3.841517567634582520e-01 -1.664704978466033936e-01
-3.932991027832031250e-01 -3.831056058406829834e-01 -1.459368020296096802e-01
-4.163633882999420166e-01 -3.245690464973449707e-01 2.296786904335021973e-01
-4.374303221702575684e-01 -3.097086846828460693e-01 2.342506051063537598e-01
-3.946103155612945557e-01 -3.194359242916107178e-01 2.372163087129592896e-01
-4.166726768016815186e-01 -3.033256530761718750e-01 2.416475266218185425e-01
-3.701241910457611084e-01 -4.306428432464599609e-01 -1.178407594561576843e-01
-3.842992782592773438e-01 -4.253830909729003906e-01 -1.023020669817924500e-01
-3.620824813842773438e-01 -4.307838678359985352e-01 -1.007388681173324585e-01
-3.764815330505371094e-01 -4.249733984470367432e-01 -8.663976192474365234e-02
-1.883118152618408203e-01 1.463678479194641113e-01 1.834225207567214966e-01
-2.030266076326370239e-01 1.300813257694244385e-01 1.931383460760116577e-01
-1.680274307727813721e-01 1.468318551778793335e-01 1.892601251602172852e-01
-1.836857795715332031e-01 1.318737417459487915e-01 2.001981884241104126e-01
-7.831404805183410645e-01 1.635320484638214111e-01 3.268945217132568359e-02
-7.837178707122802734e-01 1.404007226228713989e-01 2.909905649721622467e-02
-7.767173051834106445e-01 1.701882928609848022e-01 4.050454869866371155e-02
-7.787218093872070312e-01 1.470976620912551880e-01 3.732077404856681824e-02
3.141086399555206299e-01 -7.811722904443740845e-02 -1.055699363350868225e-01
3.014958500862121582e-01 -8.630067110061645508e-02 -1.048233732581138611e-01
3.393145203590393066e-01 -7.194919884204864502e-02 -1.037486344575881958e-01
3.267670273780822754e-01 -8.220504224300384521e-02 -1.035425961017608643e-01
4.289547502994537354e-01 -1.540069282054901123e-01 5.053783580660820007e-02
4.202536940574645996e-01 -1.487784981727600098e-01 6.054405122995376587e-02
4.377717971801757812e-01 -1.589236408472061157e-01 5.987843871116638184e-02
4.289638102054595947e-01 -1.541239023208618164e-01 6.979151070117950439e-02
-1.919691115617752075e-01 3.568100929260253906e-02 -9.993113577365875244e-02
-2.065334171056747437e-01 3.893630579113960266e-02 -9.076496958732604980e-02
-1.851969659328460693e-01 3.593948855996131897e-02 -8.994414657354354858e-02
-1.995781809091567993e-01 3.976495191454887390e-02 -8.046211302280426025e-02
4.614183902740478516e-01 -2.462464123964309692e-01 -3.953361138701438904e-02
4.561883211135864258e-01 -2.568746209144592285e-01 -2.465374395251274109e-02
4.730157256126403809e-01 -2.522257864475250244e-01 -2.769538946449756622e-02
4.672324061393737793e-01 -2.616351842880249023e-01 -1.235431712120771408e-02
7.104254364967346191e-01 -2.130903303623199463e-02 -1.470231264829635620e-01
6.970357894897460938e-01 -6.954274605959653854e-03 -1.414812207221984863e-01
7.276409268379211426e-01 -3.306972607970237732e-02 -1.426613926887512207e-01
7.122514247894287109e-01 -1.948836445808410645e-02 -1.360172033309936523e-01
2.523764371871948242e-01 1.901489943265914917e-01 -1.121368929743766785e-01
2.459631562232971191e-01 1.693005859851837158e-01 -1.121425703167915344e-01
2.745052874088287354e-01 1.798493266105651855e-01 -1.133978590369224548e-01
2.675545811653137207e-01 1.581223458051681519e-01 -1.130895018577575684e-01
1.512543708086013794e-01 3.064714968204498291e-01 2.174008451402187347e-02
1.321361511945724487e-01 3.010211884975433350e-01 2.880398184061050415e-02
1.773696541786193848e-01 3.052310943603515625e-01 2.776319161057472229e-02
1.596597284078598022e-01 2.950761318206787109e-01 3.374429047107696533e-02
-3.867481946945190430e-01 -3.766245841979980469e-01 -1.824494153261184692e-01
-4.028796851634979248e-01 -3.755269944667816162e-01 -1.616986095905303955e-01
-3.731782436370849609e-01 -3.799409270286560059e-01 -1.720443665981292725e-01
-3.893977403640747070e-01 -3.790842592716217041e-01 -1.512757688760757446e-01
5.722368955612182617e-01 9.141872823238372803e-02 -5.055347830057144165e-02
5.632373690605163574e-01 8.259288221597671509e-02 -4.390610009431838989e-02
5.864017605781555176e-01 9.041652083396911621e-02 -4.340248927474021912e-02
5.766819715499877930e-01 8.206219971179962158e-02 -3.447955846786499023e-02
1.473273187875747681e-01 1.705035269260406494e-01 9.646913409233093262e-02
1.325680911540985107e-01 1.865550577640533447e-01 1.084752082824707031e-01
1.583645790815353394e-01 1.643759012222290039e-01 1.033076122403144836e-01
1.444378644227981567e-01 1.793119758367538452e-01 1.150618866086006165e-01
4.777388274669647217e-01 -1.866000145673751831e-01 8.555162698030471802e-02
4.709022343158721924e-01 -1.865618824958801270e-01 9.724004566669464111e-02
4.846544861793518066e-01 -1.955789178609848022e-01 9.370128810405731201e-02
4.781015813350677490e-01 -1.953413635492324829e-01 1.049344539642333984e-01
1.355114728212356567e-01 1.166424825787544250e-01 -3.571543097496032715e-02
1.379814296960830688e-01 1.046083867549896240e-01 -2.833714708685874939e-02
1.366605311632156372e-01 1.097917854785919189e-01 -2.390244603157043457e-02
1.395354121923446655e-01 9.787587076425552368e-02 -1.685412414371967316e-02
4.064754247665405273e-01 1.144038662314414978e-01 1.174869462847709656e-01
3.917217254638671875e-01 1.209132522344589233e-01 1.235448643565177917e-01
4.200361371040344238e-01 1.239771321415901184e-01 1.252971738576889038e-01
4.055081903934478760e-01 1.303069144487380981e-01 1.310190260410308838e-01
4.458743035793304443e-01 7.666522264480590820e-02 1.141539365053176880e-01
4.305813312530517578e-01 8.448021858930587769e-02 1.187514960765838623e-01
4.621305763721466064e-01 8.079899847507476807e-02 1.198105439543724060e-01
4.481958150863647461e-01 8.759780973196029663e-02 1.235583946108818054e-01
8.654302358627319336e-01 -1.211610659956932068e-01 -2.199676930904388428e-01
8.428673744201660156e-01 -1.050392836332321167e-01 -2.096237391233444214e-01
8.812599182128906250e-01 -1.337583363056182861e-01 -2.139362990856170654e-01
8.586925864219665527e-01 -1.172942966222763062e-01 -2.029899805784225464e-01
-1.907577812671661377e-01 -1.999265849590301514e-01 3.755291923880577087e-02
-1.961486339569091797e-01 -2.068659216165542603e-01 4.847874119877815247e-02
-1.845193505287170410e-01 -2.051127701997756958e-01 5.048486590385437012e-02
-1.895471513271331787e-01 -2.109198570251464844e-01 6.293778121471405029e-02
2.553920745849609375e-01 -1.877205520868301392e-01 -3.199715912342071533e-02
2.496466934680938721e-01 -1.879994124174118042e-01 -1.216823887079954147e-02
2.589867115020751953e-01 -1.920751333236694336e-01 -1.248895749449729919e-02
2.527577579021453857e-01 -1.924311369657516479e-01 7.204251363873481750e-03
-2.941927611827850342e-01 -2.234395593404769897e-01 2.680918574333190918e-02
-3.018233180046081543e-01 -2.302228063344955444e-01 4.446082189679145813e-02
-2.871870398521423340e-01 -2.205328047275543213e-01 4.528737068176269531e-02
-2.948773503303527832e-01 -2.272363901138305664e-01 6.265900284051895142e-02
-3.450136482715606689e-01 -4.025443196296691895e-01 -9.001288563013076782e-02
-3.611539006233215332e-01 -3.998666703701019287e-01 -7.867126911878585815e-02
-3.407743573188781738e-01 -3.915415108203887939e-01 -7.592088729143142700e-02
-3.569285571575164795e-01 -3.891567289829254150e-01 -6.443537771701812744e-02
7.406553030014038086e-01 -4.059711098670959473e-01 3.269130736589431763e-02
7.187671661376953125e-01 -3.985360264778137207e-01 4.462123662233352661e-02
7.489716410636901855e-01 -3.896698653697967529e-01 5.564291775226593018e-02
7.255550622940063477e-01 -3.807135522365570068e-01 6.700147688388824463e-02
-2.445265501737594604e-01 -1.367075592279434204e-01 1.109149679541587830e-01
-2.508980333805084229e-01 -1.359740346670150757e-01 1.201373189687728882e-01
-2.353280484676361084e-01 -1.405131667852401733e-01 1.189583167433738708e-01
-2.420438975095748901e-01 -1.393284797668457031e-01 1.276873350143432617e-01
-3.745878934860229492e-01 -5.539151281118392944e-02 8.212574571371078491e-02
-3.810229897499084473e-01 -6.575136631727218628e-02 8.735690265893936157e-02
-3.660328388214111328e-01 -4.946398735046386719e-02 9.233700484037399292e-02
-3.733327090740203857e-01 -5.891219526529312134e-02 9.730701148509979248e-02
-2.277350276708602905e-01 -1.447215080261230469e-01 3.290029242634773254e-02
-2.339382767677307129e-01 -1.485790610313415527e-01 4.346891492605209351e-02
-2.260696738958358765e-01 -1.437133103609085083e-01 4.587429016828536987e-02
-2.326582670211791992e-01 -1.457862555980682373e-01 5.706363171339035034e-02
3.795528411865234375e-01 -2.287292331457138062e-01 6.945130974054336548e-02
3.679533302783966064e-01 -2.244716584682464600e-01 7.723306864500045776e-02
3.899898529052734375e-01 -2.317242175340652466e-01 7.949810475111007690e-02
3.776350915431976318e-01 -2.254127562046051025e-01 8.774203807115554810e-02
8.388057947158813477e-01 2.625051736831665039e-01 7.129561156034469604e-02
8.130925893783569336e-01 2.815747857093811035e-01 8.268968760967254639e-02
8.561106920242309570e-01 2.451248317956924438e-01 7.670702040195465088e-02
8.293367028236389160e-01 2.632737457752227783e-01 8.742307871580123901e-02
2.238136678934097290e-01 3.247881531715393066e-01 -1.757586002349853516e-02
2.119200825691223145e-01 3.046807348728179932e-01 -1.953348144888877869e-02
2.400260418653488159e-01 3.242339491844177246e-01 -1.328815240412950516e-02
2.291126996278762817e-01 3.048888742923736572e-01 -1.228293497115373611e-02
-6.380649805068969727e-01 1.890568286180496216e-01 4.877988249063491821e-02
-6.368628144264221191e-01 1.662568897008895874e-01 5.260316282510757446e-02
-6.291030645370483398e-01 1.877882331609725952e-01 5.727873370051383972e-02
-6.292379498481750488e-01 1.661122888326644897e-01 6.060262396931648254e-02
-5.090592056512832642e-02 -3.310157060623168945e-01 1.314260959625244141e-01
-7.113234698772430420e-02 -3.266395628452301025e-01 1.426714509725570679e-01
-4.104921966791152954e-02 -3.242094814777374268e-01 1.448498964309692383e-01
-6.198094412684440613e-02 -3.191554248332977295e-01 1.567082405090332031e-01
2.857549488544464111e-01 -1.635238826274871826e-01 -1.125897765159606934e-01
2.756509184837341309e-01 -1.670424193143844604e-01 -9.274196624755859375e-02
2.944197058677673340e-01 -1.689150184392929077e-01 -9.829770773649215698e-02
2.844026684761047363e-01 -1.715796291828155518e-01 -7.892236858606338501e-02
6.648110747337341309e-01 -1.005026139318943024e-02 -1.428939998149871826e-01
6.517649292945861816e-01 -3.285554004833102226e-03 -1.415939629077911377e-01
6.863263845443725586e-01 -2.306756749749183655e-02 -1.423812955617904663e-01
6.731755733489990234e-01 -1.346341986209154129e-02 -1.393413543701171875e-01
1.968119889497756958e-01 -3.904650360345840454e-02 1.098667830228805542e-02
1.922814697027206421e-01 -6.432740390300750732e-02 6.508737802505493164e-03
2.131679058074951172e-01 -3.693635761737823486e-02 2.027826383709907532e-02
2.096254825592041016e-01 -6.204504519701004028e-02 1.710122637450695038e-02
5.010271668434143066e-01 -2.614468336105346680e-01 -6.963392719626426697e-03
4.906893670558929443e-01 -2.676970958709716797e-01 7.787196431308984756e-03
5.051900148391723633e-01 -2.669559717178344727e-01 1.078027114272117615e-02
4.943729639053344727e-01 -2.712024152278900146e-01 2.577424235641956329e-02
-7.445009890943765640e-03 -2.579803466796875000e-01 1.622984260320663452e-01
-3.017015941441059113e-02 -2.582686245441436768e-01 1.737889498472213745e-01
6.462364457547664642e-03 -2.277027219533920288e-01 1.663633286952972412e-01
-1.167289167642593384e-02 -2.354752868413925171e-01 1.742099672555923462e-01
-6.652047038078308105e-01 3.276971280574798584e-01 3.134916350245475769e-02
-6.768717765808105469e-01 3.325363099575042725e-01 4.460458084940910339e-02
-6.577957868576049805e-01 3.352627158164978027e-01 4.546539857983589172e-02
-6.697833538055419922e-01 3.404141068458557129e-01 5.892381444573402405e-02
-3.055073320865631104e-01 3.087461180984973907e-02 1.789643317461013794e-01
-3.092003762722015381e-01 8.545847609639167786e-03 1.860563606023788452e-01
-2.857470214366912842e-01 2.927012369036674500e-02 1.953326612710952759e-01
-2.885833382606506348e-01 6.717689335346221924e-03 2.005894631147384644e-01
-2.076931148767471313e-01 4.548665508627891541e-02 1.091360971331596375e-01
-2.114558368921279907e-01 3.026266209781169891e-02 1.117974072694778442e-01
-1.982171535491943359e-01 4.671085253357887268e-02 1.165552809834480286e-01
-2.009188234806060791e-01 3.172040730714797974e-02 1.200357601046562195e-01
-4.571077525615692139e-01 -2.533189356327056885e-01 2.409566938877105713e-01
-4.641821086406707764e-01 -2.694233357906341553e-01 2.404914796352386475e-01
-4.345460534095764160e-01 -2.574337422847747803e-01 2.438204288482666016e-01
-4.447717666625976562e-01 -2.665092945098876953e-01 2.438677847385406494e-01
-3.429213538765907288e-04 -3.348951339721679688e-01 1.170584112405776978e-01
-2.033199742436408997e-02 -3.315421044826507568e-01 1.282732188701629639e-01
6.766214035451412201e-03 -3.266845047473907471e-01 1.301461011171340942e-01
-1.475957408547401428e-02 -3.220511674880981445e-01 1.427018046379089355e-01
-5.921238660812377930e-01 7.913704961538314819e-02 5.761061981320381165e-02
-5.955676436424255371e-01 5.950128659605979919e-02 5.665152519941329956e-02
-5.759563446044921875e-01 7.424101233482360840e-02 6.174371391534805298e-02
-5.804281830787658691e-01 5.562248453497886658e-02 6.120660901069641113e-02
8.498426675796508789e-01 2.362742573022842407e-01 7.020530104637145996e-02
8.229381442070007324e-01 2.542626261711120605e-01 8.067532628774642944e-02
8.625017404556274414e-01 2.187032997608184814e-01 7.573988288640975952e-02
8.365030884742736816e-01 2.353939265012741089e-01 8.530979603528976440e-02
2.090722769498825073e-01 3.075811546295881271e-03 -1.324201971292495728e-01
2.020026445388793945e-01 -1.636784523725509644e-02 -1.314014941453933716e-01
2.340662479400634766e-01 3.349826205521821976e-03 -1.320627480745315552e-01
2.267860174179077148e-01 -1.324126869440078735e-02 -1.314725130796432495e-01
-4.705988168716430664e-01 2.395916432142257690e-01 6.117016822099685669e-02
-4.752066731452941895e-01 2.312058955430984497e-01 6.901024281978607178e-02
-4.609792828559875488e-01 2.382768839597702026e-01 6.992113590240478516e-02
-4.672214090824127197e-01 2.269246131181716919e-01 7.686833292245864868e-02
-3.227197825908660889e-01 -3.808976411819458008e-01 -1.891630291938781738e-01
-3.374528288841247559e-01 -3.868156075477600098e-01 -1.765764802694320679e-01
-3.037047982215881348e-01 -3.926074206829071045e-01 -1.714529842138290405e-01
-3.182653188705444336e-01 -3.986236751079559326e-01 -1.603702604770660400e-01
-2.344225645065307617e-01 4.859145358204841614e-02 3.724788874387741089e-02
-2.346240282058715820e-01 4.310950264334678650e-02 5.357868224382400513e-02
-2.312370836734771729e-01 4.964026808738708496e-02 5.035560578107833862e-02
-2.317556291818618774e-01 4.324524477124214172e-02 6.484530866146087646e-02
5.867422819137573242e-01 5.495879799127578735e-02 3.367843106389045715e-02
5.735927820205688477e-01 4.628406092524528503e-02 4.222615808248519897e-02
5.950456857681274414e-01 6.335744261741638184e-02 4.497581347823143005e-02
5.821475386619567871e-01 5.547100678086280823e-02 5.225196480751037598e-02
-5.917346477508544922e-01 3.070775568485260010e-01 2.124436944723129272e-02
-6.051154136657714844e-01 3.156717121601104736e-01 3.403345122933387756e-02
-5.795224905014038086e-01 3.114842176437377930e-01 3.947930037975311279e-02
-5.932120084762573242e-01 3.196208178997039795e-01 5.132173374295234680e-02
-3.610640466213226318e-01 -3.741620108485221863e-02 1.290047466754913330e-01
-3.696136474609375000e-01 -4.743539541959762573e-02 1.351516097784042358e-01
-3.533371686935424805e-01 -3.801384195685386658e-02 1.407234370708465576e-01
-3.611301481723785400e-01 -4.872466996312141418e-02 1.477481573820114136e-01
-5.235107615590095520e-02 3.093771822750568390e-02 -1.939508877694606781e-02
-6.407889723777770996e-02 2.118841558694839478e-02 -1.333738956600427628e-02
-4.569462686777114868e-02 3.418637812137603760e-02 -6.430198438465595245e-03
-5.978266522288322449e-02 2.601752243936061859e-02 1.837002113461494446e-03
8.245067596435546875e-01 -3.322576880455017090e-01 -7.702583819627761841e-02
8.126521110534667969e-01 -3.499029576778411865e-01 -6.507375091314315796e-02
8.408368229866027832e-01 -3.398377001285552979e-01 -6.049399822950363159e-02
8.292922377586364746e-01 -3.572404980659484863e-01 -4.923510923981666565e-02
1.947377771139144897e-01 -1.683924347162246704e-02 -1.041882708668708801e-01
1.883819252252578735e-01 -3.889854997396469116e-02 -1.007304042577743530e-01
2.178515940904617310e-01 -1.330436579883098602e-02 -1.005565002560615540e-01
2.119923681020736694e-01 -3.241705894470214844e-02 -9.909982979297637939e-02
-2.161584347486495972e-01 -1.924156099557876587e-01 5.233177170157432556e-02
-2.203555554151535034e-01 -1.948131471872329712e-01 6.394577026367187500e-02
-2.105709612369537354e-01 -1.985463798046112061e-01 6.627808511257171631e-02
-2.143905162811279297e-01 -2.004093676805496216e-01 7.790578901767730713e-02
2.362554222345352173e-01 8.139574527740478516e-02 -1.217926219105720520e-01
2.294837534427642822e-01 5.681519955396652222e-02 -1.146787106990814209e-01
2.571145594120025635e-01 8.634571731090545654e-02 -1.167431548237800598e-01
2.504144906997680664e-01 6.064641848206520081e-02 -1.101466864347457886e-01
-1.094021648168563843e-01 2.804071307182312012e-01 1.194783821702003479e-01
-1.216868460178375244e-01 2.662372887134552002e-01 1.259937584400177002e-01
-9.198277443647384644e-02 2.682482004165649414e-01 1.268383860588073730e-01
-1.031105220317840576e-01 2.531255185604095459e-01 1.333034336566925049e-01
1.231524273753166199e-01 2.917926907539367676e-01 -6.472149491310119629e-02
1.023266762495040894e-01 2.976047992706298828e-01 -6.177986040711402893e-02
1.482845097780227661e-01 2.965256273746490479e-01 -4.714493453502655029e-02
1.279687732458114624e-01 2.998637557029724121e-01 -4.483140632510185242e-02
-3.519948720932006836e-01 3.715794533491134644e-02 -1.599956005811691284e-01
-3.707766234874725342e-01 3.035360388457775116e-02 -1.481244266033172607e-01
-3.373831510543823242e-01 4.640544578433036804e-02 -1.521889567375183105e-01
-3.560000956058502197e-01 4.006498679518699646e-02 -1.403570473194122314e-01
-2.039509862661361694e-01 3.899731934070587158e-01 1.520468294620513916e-02
-2.188587635755538940e-01 3.810265958309173584e-01 3.000472858548164368e-02
-1.831900328397750854e-01 3.839640617370605469e-01 3.213905543088912964e-02
-1.958960145711898804e-01 3.734387755393981934e-01 4.808996245265007019e-02
6.716001629829406738e-01 2.529858052730560303e-01 2.500150352716445923e-02
6.598182320594787598e-01 2.477093338966369629e-01 3.372344002127647400e-02
6.935814619064331055e-01 2.423835098743438721e-01 2.654000744223594666e-02
6.799595952033996582e-01 2.459032833576202393e-01 3.516196832060813904e-02
-1.499370783567428589e-01 9.962958097457885742e-02 -1.712747663259506226e-01
-1.640920639038085938e-01 1.054054200649261475e-01 -1.664370000362396240e-01
-1.359032094478607178e-01 1.084283739328384399e-01 -1.610546857118606567e-01
-1.490458548069000244e-01 1.089166402816772461e-01 -1.586555093526840210e-01
1.191046535968780518e-01 -1.232121288776397705e-01 -3.193682059645652771e-02
1.050555706024169922e-01 -1.218976005911827087e-01 -2.661969512701034546e-02
1.409407556056976318e-01 -1.198394894599914551e-01 -2.414322830736637115e-02
1.271542012691497803e-01 -1.177559122443199158e-01 -1.928147859871387482e-02
-2.807292938232421875e-01 -1.724092364311218262e-01 -7.179100997745990753e-03
-2.881681323051452637e-01 -1.670437455177307129e-01 8.010212332010269165e-03
-2.708113193511962891e-01 -1.702733635902404785e-01 7.252197246998548508e-03
-2.786629796028137207e-01 -1.642191857099533081e-01 2.161083370447158813e-02
1.700245030224323273e-02 2.716620452702045441e-02 1.085755974054336548e-01
-8.548698388040065765e-03 3.361490741372108459e-02 1.177259311079978943e-01
3.095239773392677307e-02 3.684373572468757629e-02 1.171623170375823975e-01
1.029118336737155914e-02 3.727288544178009033e-02 1.239304542541503906e-01
5.988886356353759766e-01 1.939062476158142090e-01 -1.246093958616256714e-01
5.881689190864562988e-01 1.814990043640136719e-01 -1.177142783999443054e-01
6.171424388885498047e-01 1.856825351715087891e-01 -1.202840954065322876e-01
6.063386797904968262e-01 1.754910349845886230e-01 -1.152746379375457764e-01
3.984421119093894958e-02 1.374276429414749146e-01 -7.974927127361297607e-02
3.567408025264739990e-02 1.131821349263191223e-01 -7.787022739648818970e-02
5.450791120529174805e-02 1.468937247991561890e-01 -8.107566088438034058e-02
5.189798772335052490e-02 1.220089644193649292e-01 -8.047936111688613892e-02
3.574542403221130371e-01 -8.208088576793670654e-03 9.287711977958679199e-02
3.479653298854827881e-01 -2.958955708891153336e-03 1.026788875460624695e-01
3.652790784835815430e-01 -1.304430421441793442e-02 1.088040620088577271e-01
3.561587631702423096e-01 -9.951100684702396393e-03 1.180786266922950745e-01
5.668186768889427185e-02 5.029471963644027710e-02 1.051852554082870483e-01
4.587718471884727478e-02 3.765561431646347046e-02 1.071759387850761414e-01
6.768167018890380859e-02 5.353616178035736084e-02 1.088526472449302673e-01
5.915940552949905396e-02 3.772712871432304382e-02 1.101923808455467224e-01
-3.875916004180908203e-01 -2.164589054882526398e-02 9.431223385035991669e-03
-4.028392732143402100e-01 -3.283384814858436584e-02 1.719136908650398254e-02
-3.854570388793945312e-01 -1.296427007764577866e-02 2.549321763217449188e-02
-4.007047414779663086e-01 -2.415222860872745514e-02 3.325336053967475891e-02
4.232589900493621826e-02 -1.922733634710311890e-01 1.542917191982269287e-01
2.323780581355094910e-02 -1.997516900300979614e-01 1.629547327756881714e-01
5.174029991030693054e-02 -1.678184717893600464e-01 1.557140946388244629e-01
3.638466075062751770e-02 -1.739790439605712891e-01 1.629141867160797119e-01
6.873102188110351562e-01 1.661883592605590820e-01 -7.981256581842899323e-03
6.715363264083862305e-01 1.589174568653106689e-01 1.096634753048419952e-02
7.007405161857604980e-01 1.593376100063323975e-01 7.578986696898937225e-03
6.846491098403930664e-01 1.520848423242568970e-01 2.841229364275932312e-02
-2.972476780414581299e-01 -2.992347180843353271e-01 -1.299777030944824219e-01
-3.165909051895141602e-01 -3.086922466754913330e-01 -1.140356659889221191e-01
-2.835548818111419678e-01 -3.080015182495117188e-01 -1.237823367118835449e-01
-3.031622767448425293e-01 -3.187078237533569336e-01 -1.069463416934013367e-01
-1.383929401636123657e-01 8.105257153511047363e-02 -1.063862368464469910e-01
-1.415359377861022949e-01 7.613234221935272217e-02 -1.010716855525970459e-01
-1.314536929130554199e-01 9.047741442918777466e-02 -8.854172378778457642e-02
-1.309631168842315674e-01 7.415975630283355713e-02 -8.416764438152313232e-02
-2.473603636026382446e-01 -1.329084206372499466e-02 -1.757181733846664429e-01
-2.594399750232696533e-01 -2.807378768920898438e-02 -1.720759868621826172e-01
-2.273560762405395508e-01 -6.237868219614028931e-03 -1.751100569963455200e-01
-2.388968616724014282e-01 -2.120123058557510376e-02 -1.715347170829772949e-01
8.068845868110656738e-01 2.140660434961318970e-01 -2.517747320234775543e-02
7.961128950119018555e-01 2.214225977659225464e-01 -1.851575449109077454e-02
8.161268830299377441e-01 1.997911632061004639e-01 -1.799173653125762939e-02
8.057110309600830078e-01 2.062974274158477783e-01 -8.055686950683593750e-03
-8.101013302803039551e-01 1.300059854984283447e-01 8.625327609479427338e-03
-8.094353079795837402e-01 1.043051853775978088e-01 6.427263375371694565e-03
-7.997500896453857422e-01 1.409570127725601196e-01 1.978138647973537445e-02
-7.993279099464416504e-01 1.159308403730392456e-01 1.729251444339752197e-02
-6.498537659645080566e-01 -2.213899791240692139e-02 -1.677052676677703857e-02
-6.688805818557739258e-01 -2.052609622478485107e-02 -9.846622124314308167e-03
-6.368224024772644043e-01 -2.641051821410655975e-02 -1.459711231291294098e-03
-6.560463309288024902e-01 -2.585560269653797150e-02 4.254223778843879700e-03
-7.869297862052917480e-01 -6.093427538871765137e-02 -4.255053028464317322e-02
-8.140102624893188477e-01 -5.321373790502548218e-02 -3.548493236303329468e-02
-7.596126794815063477e-01 -7.226666063070297241e-02 -4.350834339857101440e-02
-7.865376472473144531e-01 -6.353611499071121216e-02 -3.452617302536964417e-02
-9.890806674957275391e-02 2.463852465152740479e-01 -2.475122362375259399e-02
-1.124345883727073669e-01 2.481885552406311035e-01 -7.747747004032135010e-03
-7.867646962404251099e-02 2.453324943780899048e-01 -6.417633034288883209e-03
-9.208576381206512451e-02 2.480023950338363647e-01 1.072842627763748169e-02
-6.770803928375244141e-01 -6.075217202305793762e-02 4.818236082792282104e-02
-6.923441886901855469e-01 -6.301293522119522095e-02 5.690928548574447632e-02
-6.595705747604370117e-01 -6.506643444299697876e-02 5.661544203758239746e-02
-6.749173402786254883e-01 -6.717142462730407715e-02 6.567824631929397583e-02
-5.551393032073974609e-01 -1.848649084568023682e-01 1.997410655021667480e-01
-5.599558353424072266e-01 -2.008836418390274048e-01 2.018762677907943726e-01
-5.425037741661071777e-01 -1.837141364812850952e-01 2.064070105552673340e-01
-5.473495125770568848e-01 -1.997921466827392578e-01 2.082182317972183228e-01
-3.313774466514587402e-01 -1.585709750652313232e-01 1.225142925977706909e-01
-3.416766226291656494e-01 -1.674125641584396362e-01 1.325418800115585327e-01
-3.260277509689331055e-01 -1.625212728977203369e-01 1.327109187841415405e-01
-3.324635624885559082e-01 -1.751840710639953613e-01 1.422546505928039551e-01
5.692416429519653320e-01 1.173031479120254517e-01 7.043066620826721191e-02
5.581900477409362793e-01 1.059599071741104126e-01 8.076988160610198975e-02
5.750608444213867188e-01 1.199958696961402893e-01 8.688353747129440308e-02
5.641077756881713867e-01 1.082802861928939819e-01 9.767886996269226074e-02
1.759760528802871704e-01 -7.550593465566635132e-02 -1.224521026015281677e-01
1.700209826231002808e-01 -9.525437653064727783e-02 -1.194248199462890625e-01
1.931170374155044556e-01 -8.109896630048751831e-02 -1.229497641324996948e-01
1.864186525344848633e-01 -1.006265580654144287e-01 -1.188830658793449402e-01
3.077845573425292969e-01 -3.718584403395652771e-02 9.931357204914093018e-02
2.997029125690460205e-01 -4.451824724674224854e-02 1.043505817651748657e-01
3.195895552635192871e-01 -5.091007798910140991e-02 1.034583225846290588e-01
3.103443980216979980e-01 -5.606008693575859070e-02 1.095690652728080750e-01
-4.563461840152740479e-01 -3.015088438987731934e-01 -2.885055728256702423e-04
-4.589883685111999512e-01 -3.192211389541625977e-01 -4.503741860389709473e-03
-4.403699338436126709e-01 -2.992971539497375488e-01 6.757074967026710510e-03
-4.439453482627868652e-01 -3.168280720710754395e-01 2.501222770661115646e-03
8.763033151626586914e-02 1.741999834775924683e-01 -6.852949410676956177e-02
8.877101540565490723e-02 1.524104177951812744e-01 -6.840103119611740112e-02
8.752558380365371704e-02 1.741513609886169434e-01 -5.905275046825408936e-02
8.866905421018600464e-02 1.545571088790893555e-01 -5.418218299746513367e-02
2.584414780139923096e-01 -1.071518510580062866e-01 1.330952532589435577e-02
2.403558790683746338e-01 -1.042301282286643982e-01 2.657725289463996887e-02
2.753925025463104248e-01 -1.077469438314437866e-01 2.761218138039112091e-02
2.581783533096313477e-01 -1.046572551131248474e-01 3.938889503479003906e-02
3.750372529029846191e-01 1.542837917804718018e-01 -5.184530466794967651e-02
3.724135160446166992e-01 1.299136430025100708e-01 -4.674321785569190979e-02
3.803070485591888428e-01 1.622433960437774658e-01 -4.435994476079940796e-02
3.760978281497955322e-01 1.393526047468185425e-01 -3.777107223868370056e-02
-2.568971514701843262e-01 3.875730633735656738e-01 1.199912559241056442e-02
-2.719137966632843018e-01 3.778904080390930176e-01 2.621270157396793365e-02
-2.414779365062713623e-01 3.862248063087463379e-01 2.893930487334728241e-02
-2.566668391227722168e-01 3.760334849357604980e-01 4.477551206946372986e-02
-7.854788750410079956e-02 -1.933926045894622803e-01 1.734278947114944458e-01
-8.280417323112487793e-02 -2.174007147550582886e-01 1.768008023500442505e-01
-5.703192949295043945e-02 -1.881594210863113403e-01 1.690750271081924438e-01
-6.185379251837730408e-02 -2.124933153390884399e-01 1.720479279756546021e-01
-5.338490009307861328e-01 -2.459987998008728027e-01 2.140791714191436768e-01
-5.418444871902465820e-01 -2.612249255180358887e-01 2.140875607728958130e-01
-5.167248845100402832e-01 -2.501620054244995117e-01 2.217410504817962646e-01
-5.244783759117126465e-01 -2.654364109039306641e-01 2.213410139083862305e-01
2.495122328400611877e-02 5.574787780642509460e-02 -1.596222519874572754e-01
1.140595041215419769e-02 3.996392711997032166e-02 -1.622125208377838135e-01
4.865983873605728149e-02 5.499165505170822144e-02 -1.560286283493041992e-01
3.496223688125610352e-02 3.965267911553382874e-02 -1.584157794713973999e-01
-5.266720056533813477e-01 -3.427536785602569580e-01 1.836417019367218018e-01
-5.426890850067138672e-01 -3.206891715526580811e-01 1.882170885801315308e-01
-5.112671852111816406e-01 -3.290745615959167480e-01 2.029805928468704224e-01
-5.274011492729187012e-01 -3.066517412662506104e-01 2.072036564350128174e-01
-2.923150360584259033e-01 -3.769867494702339172e-02 7.580468058586120605e-02
-2.985334098339080811e-01 -4.591022431850433350e-02 9.118154644966125488e-02
-2.775166928768157959e-01 -3.499769046902656555e-02 8.160395920276641846e-02
-2.835496366024017334e-01 -4.675327241420745850e-02 9.615249186754226685e-02
5.666597485542297363e-01 3.673702776432037354e-01 -2.620322443544864655e-02
5.488214492797851562e-01 3.598363101482391357e-01 -2.116017602384090424e-02
5.859847068786621094e-01 3.754429221153259277e-01 -1.875096559524536133e-02
5.682399868965148926e-01 3.695346117019653320e-01 -1.304944138973951340e-02
3.899215757846832275e-01 -1.115926355123519897e-01 9.388243407011032104e-02
3.819636106491088867e-01 -1.006778329610824585e-01 1.026555672287940979e-01
3.989539146423339844e-01 -1.178871467709541321e-01 1.013264134526252747e-01
3.893373906612396240e-01 -1.072861850261688232e-01 1.090893149375915527e-01
3.523159623146057129e-01 -7.828700542449951172e-02 2.038224041461944580e-02
3.451522886753082275e-01 -6.514880061149597168e-02 3.947136551141738892e-02
3.615016043186187744e-01 -8.542430400848388672e-02 3.778723627328872681e-02
3.541775345802307129e-01 -7.094498723745346069e-02 5.668978393077850342e-02
-3.573785424232482910e-01 -4.338817596435546875e-01 1.183631569147109985e-01
-3.616264462471008301e-01 -4.563906192779541016e-01 1.164909899234771729e-01
-3.359832763671875000e-01 -4.357160329818725586e-01 1.314048320055007935e-01
-3.442918062210083008e-01 -4.515469074249267578e-01 1.334129571914672852e-01
8.293063044548034668e-01 -1.375470459461212158e-01 -1.611916422843933105e-01
8.086817860603332520e-01 -1.198775991797447205e-01 -1.492044925689697266e-01
8.466671109199523926e-01 -1.495167613029479980e-01 -1.526232212781906128e-01
8.254398107528686523e-01 -1.315683126449584961e-01 -1.400299668312072754e-01
-6.308128125965595245e-03 2.400201186537742615e-02 6.091714650392532349e-02
-3.192828968167304993e-02 2.714757993817329407e-02 7.041313499212265015e-02
1.345005352050065994e-02 2.678197063505649567e-02 7.335291057825088501e-02
-1.350224856287240982e-02 3.305167704820632935e-02 8.328118175268173218e-02
3.026685416698455811e-01 -2.300847321748733521e-01 -3.744721040129661560e-02
2.918375730514526367e-01 -2.252876460552215576e-01 -1.967251300811767578e-02
3.166899085044860840e-01 -2.435144931077957153e-01 -2.400472387671470642e-02
3.051028847694396973e-01 -2.385949641466140747e-01 -6.135978735983371735e-03
-6.475991010665893555e-02 2.248478829860687256e-01 1.806582510471343994e-01
-7.863645255565643311e-02 2.071734815835952759e-01 1.933438330888748169e-01
-3.836654871702194214e-02 2.117748111486434937e-01 1.832329183816909790e-01
-5.315704643726348877e-02 1.944988816976547241e-01 1.962658613920211792e-01
-6.900472939014434814e-02 1.388371288776397705e-01 -8.108211308717727661e-02
-7.375087589025497437e-02 1.209067031741142273e-01 -8.006145060062408447e-02
-5.299386009573936462e-02 1.371279209852218628e-01 -7.618992030620574951e-02
-5.803317949175834656e-02 1.197224780917167664e-01 -7.483192533254623413e-02
3.087848424911499023e-01 1.262818425893783569e-01 1.291119307279586792e-01
3.028576970100402832e-01 1.084022521972656250e-01 1.259852945804595947e-01
3.278926908969879150e-01 1.313081979751586914e-01 1.303763836622238159e-01
3.207741975784301758e-01 1.145571842789649963e-01 1.276498287916183472e-01
-4.417663812637329102e-01 9.070783853530883789e-02 5.232881009578704834e-02
-4.480136930942535400e-01 6.670676171779632568e-02 5.501352250576019287e-02
-4.243816435337066650e-01 9.653968364000320435e-02 6.322987377643585205e-02
-4.295048415660858154e-01 7.310414314270019531e-02 6.703323870897293091e-02
3.948802351951599121e-01 -2.588518857955932617e-01 -4.849193617701530457e-03
3.836102783679962158e-01 -2.571786940097808838e-01 1.714584231376647949e-02
4.028981626033782959e-01 -2.703004777431488037e-01 1.678202301263809204e-02
3.929125070571899414e-01 -2.698677182197570801e-01 3.711283206939697266e-02
2.066415697336196899e-01 1.456931382417678833e-01 1.299924105405807495e-01
1.928103417158126831e-01 1.450441926717758179e-01 1.385399252176284790e-01
2.172498703002929688e-01 1.343781948089599609e-01 1.358938962221145630e-01
2.043370157480239868e-01 1.324018687009811401e-01 1.443087607622146606e-01
3.296918570995330811e-01 -1.307805329561233521e-01 1.511319577693939209e-01
3.262946009635925293e-01 -1.427615582942962646e-01 1.544755250215530396e-01
3.390661180019378662e-01 -1.301317363977432251e-01 1.502217650413513184e-01
3.360456824302673340e-01 -1.464664489030838013e-01 1.529692858457565308e-01
5.313829183578491211e-01 -2.096731811761856079e-01 -7.723835110664367676e-02
5.272624492645263672e-01 -2.119393795728683472e-01 -6.418181210756301880e-02
5.413886308670043945e-01 -2.165888994932174683e-01 -6.887749582529067993e-02
5.369312167167663574e-01 -2.176461070775985718e-01 -5.547064542770385742e-02
-1.085706651210784912e-01 8.662283420562744141e-02 -8.930931240320205688e-02
-1.081405654549598694e-01 6.997726112604141235e-02 -8.591059595346450806e-02
-1.018211171030998230e-01 8.558078110218048096e-02 -7.416544109582901001e-02
-1.018925532698631287e-01 6.866297870874404907e-02 -7.037300616502761841e-02
-5.238850712776184082e-01 -1.363694369792938232e-01 1.868517994880676270e-01
-5.301329493522644043e-01 -1.497699916362762451e-01 1.915626078844070435e-01
-5.057569742202758789e-01 -1.426037102937698364e-01 1.983631849288940430e-01
-5.129396915435791016e-01 -1.566941291093826294e-01 2.022027671337127686e-01
3.660233616828918457e-01 -7.555992901325225830e-02 -8.658469468355178833e-02
3.497585952281951904e-01 -7.152972370386123657e-02 -8.046855032444000244e-02
3.818506896495819092e-01 -6.822933256626129150e-02 -7.944948971271514893e-02
3.658376336097717285e-01 -6.522019207477569580e-02 -7.375268638134002686e-02
5.539310574531555176e-01 -2.170652747154235840e-01 5.608564987778663635e-02
5.476163625717163086e-01 -2.154783010482788086e-01 6.827467679977416992e-02
5.595321059226989746e-01 -2.184282392263412476e-01 6.690968573093414307e-02
