-5.247757956385612488e-02 -4.221491813659667969e-01 -1.587737053632736206e-01
-5.647861585021018982e-02 -4.316200613975524902e-01 -1.559338569641113281e-01
-4.399309679865837097e-02 -4.215447306632995605e-01 -1.550633758306503296e-01
-4.817322269082069397e-02 -4.323962330818176270e-01 -1.534397900104522705e-01
3.050587773323059082e-01 7.486508488655090332e-01 -1.721287667751312256e-01
3.009184300899505615e-01 7.402036190032958984e-01 -1.709149479866027832e-01
3.129225671291351318e-01 7.512796521186828613e-01 -1.655203402042388916e-01
3.095597028732299805e-01 7.417110204696655273e-01 -1.644122004508972168e-01
2.965986430644989014e-01 6.879187822341918945e-01 -1.825227886438369751e-01
2.946862280368804932e-01 6.750447154045104980e-01 -1.820022016763687134e-01
2.970578074455261230e-01 7.012616395950317383e-01 -1.743392050266265869e-01
2.950162887573242188e-01 6.877750158309936523e-01 -1.733388751745223999e-01
-2.431359142065048218e-02 -2.100261002779006958e-01 -5.007136240601539612e-02
-2.957709878683090210e-02 -2.130409181118011475e-01 -4.739166796207427979e-02
-2.183871157467365265e-02 -2.042347043752670288e-01 -4.905042052268981934e-02
-2.700828574597835541e-02 -2.072582244873046875e-01 -4.634219035506248474e-02
-1.357380300760269165e-02 3.619098663330078125e-01 -1.659393310546875000e-01
-1.645203866064548492e-02 3.516647815704345703e-01 -1.623231023550033569e-01
-8.813003078103065491e-03 3.670246601104736328e-01 -1.696108579635620117e-01
-1.141902338713407516e-02 3.570914864540100098e-01 -1.659453213214874268e-01
8.069928735494613647e-03 5.614809319376945496e-02 -1.187775656580924988e-01
3.147772047668695450e-03 4.601368308067321777e-02 -1.181965693831443787e-01
1.589219830930233002e-02 5.559343099594116211e-02 -1.119135022163391113e-01
1.104799658060073853e-02 4.556303843855857849e-02 -1.111247390508651733e-01
1.940830349922180176e-01 -4.589802920818328857e-01 5.989063158631324768e-02
1.901854276657104492e-01 -4.664966762065887451e-01 6.110464036464691162e-02
1.985630095005035400e-01 -4.558942914009094238e-01 6.742738932371139526e-02
1.946997344493865967e-01 -4.635883867740631104e-01 6.867057830095291138e-02
-5.872851982712745667e-02 1.008209437131881714e-01 1.527540385723114014e-01
-6.043278425931930542e-02 8.696332573890686035e-02 1.521947979927062988e-01
-4.522199928760528564e-02 9.779202193021774292e-02 1.491495221853256226e-01
-4.738942906260490417e-02 8.442027866840362549e-02 1.487821191549301147e-01
1.285335863940417767e-03 4.873978197574615479e-01 2.784781530499458313e-02
-3.001315519213676453e-03 4.816568791866302490e-01 3.079246915876865387e-02
4.082825966179370880e-03 4.916209876537322998e-01 3.468604013323783875e-02
-1.654910156503319740e-04 4.858655929565429688e-01 3.784243017435073853e-02
8.697076886892318726e-02 -3.235310018062591553e-01 9.695963561534881592e-02
7.860904932022094727e-02 -3.144524991512298584e-01 1.024648100137710571e-01
9.380952268838882446e-02 -3.222338855266571045e-01 1.071890220046043396e-01
8.436430990695953369e-02 -3.118307590484619141e-01 1.122240573167800903e-01
1.899022236466407776e-02 -6.110937148332595825e-02 -4.522274434566497803e-02
2.252920903265476227e-02 -7.080795615911483765e-02 -4.174395650625228882e-02
1.909527368843555450e-02 -5.966536700725555420e-02 -3.420761227607727051e-02
2.169157005846500397e-02 -6.828791648149490356e-02 -3.023053146898746490e-02
1.287744045257568359e-01 5.814151167869567871e-01 -4.993128404021263123e-02
1.256711035966873169e-01 5.710551142692565918e-01 -5.019812658429145813e-02
1.378273814916610718e-01 5.746966600418090820e-01 -4.742813482880592346e-02
1.348731070756912231e-01 5.640425086021423340e-01 -4.751352965831756592e-02
-2.284434288740158081e-01 -7.509005069732666016e-01 -1.741492152214050293e-01
-2.347876280546188354e-01 -7.437527179718017578e-01 -1.686144471168518066e-01
-2.223298102617263794e-01 -7.527295351028442383e-01 -1.612447649240493774e-01
-2.280550748109817505e-01 -7.444170117378234863e-01 -1.552363932132720947e-01
-6.888196617364883423e-02 2.657411098480224609e-01 1.737949103116989136e-01
-7.617050409317016602e-02 2.612494528293609619e-01 1.771663874387741089e-01
-6.148573756217956543e-02 2.644847631454467773e-01 1.780020147562026978e-01
-7.077962905168533325e-02 2.619619369506835938e-01 1.818630397319793701e-01
-1.119037568569183350e-01 2.954793572425842285e-01 3.613119199872016907e-02
-1.146195903420448303e-01 2.888108789920806885e-01 4.092310369014739990e-02
-1.135740876197814941e-01 2.993658781051635742e-01 4.648260027170181274e-02
-1.162890866398811340e-01 2.925240695476531982e-01 5.146830901503562927e-02
2.193951793015003204e-02 -3.914862871170043945e-01 -2.584947645664215088e-01
1.827532239258289337e-02 -3.998866379261016846e-01 -2.580597400665283203e-01
3.344895690679550171e-02 -3.928396105766296387e-01 -2.536095380783081055e-01
2.988006360828876495e-02 -4.010681509971618652e-01 -2.533216476440429688e-01
5.670458078384399414e-02 6.941399574279785156e-01 5.675333738327026367e-02
5.059498548507690430e-02 6.900441646575927734e-01 6.309410184621810913e-02
6.599649041891098022e-02 6.892083287239074707e-01 6.294140964746475220e-02
6.010639667510986328e-02 6.846588253974914551e-01 7.003958523273468018e-02
-1.986001282930374146e-01 -1.083248183131217957e-01 1.155392006039619446e-01
-1.988061964511871338e-01 -1.129394322633743286e-01 1.109480410814285278e-01
-1.896763741970062256e-01 -1.068228110671043396e-01 1.229083761572837830e-01
-1.923731565475463867e-01 -1.118457242846488953e-01 1.187674775719642639e-01
-7.620395720005035400e-02 5.435898900032043457e-02 -1.581207215785980225e-01
-8.162269741296768188e-02 4.563551023602485657e-02 -1.601046770811080933e-01
-6.561758369207382202e-02 5.394799634814262390e-02 -1.557503044605255127e-01
-7.142442464828491211e-02 4.522684589028358459e-02 -1.571281403303146362e-01
2.848224341869354248e-02 -2.251951098442077637e-01 -1.189686954021453857e-01
2.628806605935096741e-02 -2.340874075889587402e-01 -1.151605769991874695e-01
2.406359836459159851e-02 -2.218405306339263916e-01 -1.104291155934333801e-01
2.197628282010555267e-02 -2.301898747682571411e-01 -1.062038093805313110e-01
6.431624293327331543e-02 -3.299768865108489990e-01 -1.846602857112884521e-01
6.433966010808944702e-02 -3.394092023372650146e-01 -1.816827952861785889e-01
6.444533169269561768e-02 -3.298978507518768311e-01 -1.738599538803100586e-01
6.470853090286254883e-02 -3.399409949779510498e-01 -1.695974767208099365e-01
5.213703960180282593e-02 2.472015768289566040e-01 1.672298461198806763e-01
4.124207422137260437e-02 2.518592178821563721e-01 1.717635542154312134e-01
6.006804853677749634e-02 2.560443878173828125e-01 1.670554131269454956e-01
4.999789223074913025e-02 2.596401870250701904e-01 1.714674681425094604e-01
-1.386506259441375732e-01 1.288564223796129227e-02 1.495431214570999146e-01
-1.434958279132843018e-01 1.255933195352554321e-03 1.527539342641830444e-01
-1.286761611700057983e-01 8.964517153799533844e-03 1.551729291677474976e-01
-1.336034834384918213e-01 -2.771449042484164238e-03 1.584745794534683228e-01
1.208731383085250854e-01 -2.379258573055267334e-01 5.672185681760311127e-03
1.135198473930358887e-01 -2.370889186859130859e-01 3.408627118915319443e-03
1.288971304893493652e-01 -2.348968386650085449e-01 1.232940424233675003e-02
1.207512840628623962e-01 -2.300986647605895996e-01 1.065823249518871307e-02
1.509406864643096924e-01 -3.435340225696563721e-01 1.209707036614418030e-01
1.487223505973815918e-01 -3.581427931785583496e-01 1.206725165247917175e-01
1.618201881647109985e-01 -3.418441116809844971e-01 1.187043860554695129e-01
1.591114252805709839e-01 -3.568866848945617676e-01 1.182340011000633240e-01
-1.472921967506408691e-01 1.265460997819900513e-01 -7.820022851228713989e-02
-1.510751694440841675e-01 1.189837604761123657e-01 -7.249066233634948730e-02
-1.466095298528671265e-01 1.283457875251770020e-01 -6.631083041429519653e-02
-1.500263065099716187e-01 1.203647032380104065e-01 -6.079159304499626160e-02
1.933479905128479004e-01 -4.572667181491851807e-01 1.025660037994384766e-01
1.880082488059997559e-01 -4.628412723541259766e-01 1.062216684222221375e-01
1.945446580648422241e-01 -4.449470043182373047e-01 1.060743108391761780e-01
1.891761422157287598e-01 -4.511383771896362305e-01 1.097918078303337097e-01
2.290663868188858032e-02 1.024585068225860596e-01 1.192480698227882385e-01
1.403135620057582855e-02 1.017813608050346375e-01 1.249840408563613892e-01
2.516686543822288513e-02 1.126451268792152405e-01 1.212755739688873291e-01
1.626061089336872101e-02 1.116969510912895203e-01 1.266673505306243896e-01
1.964466869831085205e-01 -4.354474544525146484e-01 4.536320269107818604e-02
1.926285028457641602e-01 -4.430828094482421875e-01 4.642590135335922241e-02
1.997743248939514160e-01 -4.368529319763183594e-01 5.377507209777832031e-02
1.959413141012191772e-01 -4.441637694835662842e-01 5.477931350469589233e-02
-1.109580174088478088e-01 2.969326376914978027e-01 3.152123838663101196e-02
-1.142049059271812439e-01 2.904980778694152832e-01 3.574189543724060059e-02
-1.122034639120101929e-01 3.018665611743927002e-01 4.147379845380783081e-02
-1.149735897779464722e-01 2.951149046421051025e-01 4.616905376315116882e-02
-7.580724358558654785e-02 3.701300621032714844e-01 2.405945509672164917e-01
-8.174955844879150391e-02 3.615691661834716797e-01 2.436958849430084229e-01
-6.780640035867691040e-02 3.694544434547424316e-01 2.438251376152038574e-01
-7.339610904455184937e-02 3.605569005012512207e-01 2.467641532421112061e-01
-2.463102154433727264e-02 -4.691748321056365967e-02 1.314038336277008057e-01
-2.990946546196937561e-02 -5.046835169196128845e-02 1.374861150979995728e-01
-2.088938467204570770e-02 -5.588528886437416077e-02 1.363804936408996582e-01
-2.615508809685707092e-02 -5.907606333494186401e-02 1.424475014209747314e-01
5.788027192465960979e-04 -1.690198332071304321e-01 -3.775127232074737549e-02
-1.484235515817999840e-03 -1.767620295286178589e-01 -3.454623371362686157e-02
5.800094921141862869e-03 -1.660610884428024292e-01 -3.021295368671417236e-02
3.761984175071120262e-03 -1.746573597192764282e-01 -2.805044502019882202e-02
-1.577016264200210571e-01 -1.546732485294342041e-01 -1.756045073270797729e-01
-1.654475629329681396e-01 -1.538399606943130493e-01 -1.684364974498748779e-01
-1.588859856128692627e-01 -1.684516817331314087e-01 -1.684456765651702881e-01
-1.654102653264999390e-01 -1.652904599905014038e-01 -1.609061509370803833e-01
1.431695222854614258e-01 -4.352371990680694580e-01 1.304599270224571228e-02
1.375552862882614136e-01 -4.458070695400238037e-01 1.288961805403232574e-02
1.519540697336196899e-01 -4.326636493206024170e-01 1.390082761645317078e-02
1.463509500026702881e-01 -4.432644844055175781e-01 1.370704546570777893e-02
8.851993829011917114e-02 -1.915752291679382324e-01 1.382562145590782166e-02
8.236518502235412598e-02 -1.904680728912353516e-01 1.119586545974016190e-02
1.011083200573921204e-01 -1.931452751159667969e-01 2.053651027381420135e-02
9.326712787151336670e-02 -1.882715672254562378e-01 1.888853870332241058e-02
1.061066910624504089e-01 6.424465179443359375e-01 -5.071523785591125488e-02
9.993116557598114014e-02 6.433365941047668457e-01 -5.148743093013763428e-02
1.151072755455970764e-01 6.430488824844360352e-01 -4.689770936965942383e-02
1.070578843355178833e-01 6.495993733406066895e-01 -4.663929715752601624e-02
4.655796661972999573e-02 6.764367222785949707e-01 8.131771534681320190e-02
4.008516296744346619e-02 6.697286963462829590e-01 8.713588118553161621e-02
5.771830677986145020e-02 6.690201163291931152e-01 8.825743943452835083e-02
5.116546899080276489e-02 6.626999378204345703e-01 9.434809535741806030e-02
-1.007156074047088623e-01 2.457485795021057129e-01 1.403356492519378662e-01
-1.014557331800460815e-01 2.366881966590881348e-01 1.377482861280441284e-01
-9.307494014501571655e-02 2.478952407836914062e-01 1.473427265882492065e-01
-9.400064498186111450e-02 2.385708242654800415e-01 1.446768343448638916e-01
1.421609520912170410e-01 4.379950761795043945e-01 -2.327846139669418335e-01
1.367719918489456177e-01 4.309345483779907227e-01 -2.283410429954528809e-01
1.477230489253997803e-01 4.353172779083251953e-01 -2.252888083457946777e-01
1.422972828149795532e-01 4.284894466400146484e-01 -2.208146750926971436e-01
-1.820886284112930298e-01 4.275752231478691101e-02 -8.874394744634628296e-02
-1.869045943021774292e-01 3.749936446547508240e-02 -8.109850436449050903e-02
-1.825368404388427734e-01 4.616619274020195007e-02 -7.693348824977874756e-02
-1.873375177383422852e-01 4.075934365391731262e-02 -6.909915804862976074e-02
-1.116517782211303711e-01 -2.315300852060317993e-01 -2.063131928443908691e-01
-1.160972788929939270e-01 -2.357016056776046753e-01 -2.022846192121505737e-01
-1.053747609257698059e-01 -2.470980733633041382e-01 -2.073708623647689819e-01
-1.102599650621414185e-01 -2.485179454088211060e-01 -2.027826756238937378e-01
-9.126944467425346375e-03 -2.827399075031280518e-01 -8.448197692632675171e-02
-1.920455135405063629e-02 -2.842755615711212158e-01 -7.944650202989578247e-02
-6.974185351282358170e-03 -2.697207331657409668e-01 -8.018761873245239258e-02
-1.556495483964681625e-02 -2.710300683975219727e-01 -7.604569196701049805e-02
-1.388043910264968872e-01 -1.673012673854827881e-01 -1.952154040336608887e-01
-1.465516239404678345e-01 -1.688718646764755249e-01 -1.866804361343383789e-01
-1.379979401826858521e-01 -1.778494268655776978e-01 -1.911787092685699463e-01
-1.463428139686584473e-01 -1.769734025001525879e-01 -1.821611225605010986e-01
-1.838352084159851074e-01 9.759259223937988281e-02 2.328301221132278442e-01
-1.888123899698257446e-01 8.787083625793457031e-02 2.360265403985977173e-01
-1.749266982078552246e-01 9.650035947561264038e-02 2.345294952392578125e-01
-1.796643733978271484e-01 8.662603795528411865e-02 2.377027422189712524e-01
-2.939212024211883545e-01 -7.171965241432189941e-01 -1.291830390691757202e-01
-3.015645146369934082e-01 -7.090766429901123047e-01 -1.235431209206581116e-01
-2.900282740592956543e-01 -7.131298184394836426e-01 -1.202745512127876282e-01
-2.975412309169769287e-01 -7.048165798187255859e-01 -1.145545095205307007e-01
-2.134965509176254272e-01 -1.118627041578292847e-01 8.871609717607498169e-02
-2.112002074718475342e-01 -1.182084381580352783e-01 8.681074529886245728e-02
-2.099363803863525391e-01 -1.062101870775222778e-01 1.003066375851631165e-01
-2.077813297510147095e-01 -1.146182566881179810e-01 9.575890749692916870e-02
1.071625724434852600e-01 1.347653567790985107e-01 -4.318268969655036926e-02
1.048576310276985168e-01 1.266605108976364136e-01 -3.983885794878005981e-02
1.102408319711685181e-01 1.352220922708511353e-01 -3.206971287727355957e-02
1.078319847583770752e-01 1.276751458644866943e-01 -2.791407145559787750e-02
6.502683460712432861e-02 3.537609279155731201e-01 1.597052812576293945e-01
6.091348826885223389e-02 3.445790112018585205e-01 1.642214357852935791e-01
6.078157946467399597e-02 3.555891811847686768e-01 1.665693819522857666e-01
5.633461475372314453e-02 3.472658693790435791e-01 1.713012754917144775e-01
-3.567336499691009521e-02 4.016649127006530762e-01 -1.288518011569976807e-01
-4.193289577960968018e-02 3.958573341369628906e-01 -1.241316422820091248e-01
-3.671256825327873230e-02 4.107550978660583496e-01 -1.177744939923286438e-01
-4.323219507932662964e-02 4.050123989582061768e-01 -1.123832613229751587e-01
9.479444473981857300e-02 4.871419966220855713e-01 -3.453797847032546997e-02
9.233979880809783936e-02 4.775585234165191650e-01 -3.537229448556900024e-02
1.040269732475280762e-01 4.836782813072204590e-01 -3.153730183839797974e-02
1.009894683957099915e-01 4.742906689643859863e-01 -3.207944333553314209e-02
-2.318277023732662201e-02 -2.545172572135925293e-01 -2.417887449264526367e-01
-2.586431615054607391e-02 -2.691877186298370361e-01 -2.420812249183654785e-01
-9.575461037456989288e-03 -2.626489102840423584e-01 -2.463261336088180542e-01
-1.221579592674970627e-02 -2.761951088905334473e-01 -2.473517954349517822e-01
3.032892709597945213e-03 -3.532820940017700195e-01 -1.162926852703094482e-01
-8.484026417136192322e-03 -3.531603813171386719e-01 -1.111855134367942810e-01
8.051670156419277191e-03 -3.390638232231140137e-01 -1.134704127907752991e-01
-2.619842300191521645e-03 -3.399668335914611816e-01 -1.090230569243431091e-01
3.345665037631988525e-01 7.280414104461669922e-01 -1.276501119136810303e-01
3.310359418392181396e-01 7.205502390861511230e-01 -1.264665573835372925e-01
3.426386713981628418e-01 7.295154929161071777e-01 -1.173527613282203674e-01
3.378845751285552979e-01 7.230008244514465332e-01 -1.173747405409812927e-01
-1.446589678525924683e-01 1.590301543474197388e-01 1.906224526464939117e-02
-1.479555666446685791e-01 1.523109972476959229e-01 2.478010207414627075e-02
-1.444858908653259277e-01 1.621612012386322021e-01 2.846002206206321716e-02
-1.471521407365798950e-01 1.560449898242950439e-01 3.482947498559951782e-02
1.664617359638214111e-01 -2.199507057666778564e-01 5.595374479889869690e-02
1.601829975843429565e-01 -2.120863199234008789e-01 6.075289100408554077e-02
1.712434440851211548e-01 -2.218735516071319580e-01 6.496005505323410034e-02
1.650667935609817505e-01 -2.158115357160568237e-01 7.052958011627197266e-02
-1.749574765563011169e-02 -2.720059454441070557e-02 9.223911911249160767e-02
-2.372680976986885071e-02 -2.730266936123371124e-02 1.023210883140563965e-01
-1.785415969789028168e-02 -3.348114341497421265e-02 1.001755446195602417e-01
-2.443692088127136230e-02 -3.499624133110046387e-02 1.098260357975959778e-01
-1.423142105340957642e-01 1.635718494653701782e-01 8.846786618232727051e-02
-1.428750306367874146e-01 1.564695984125137329e-01 8.926314115524291992e-02
-1.383372694253921509e-01 1.646426469087600708e-01 9.529892355203628540e-02
-1.390414983034133911e-01 1.570533961057662964e-01 9.527172148227691650e-02
7.416898757219314575e-02 2.028281092643737793e-01 1.354061961174011230e-01
6.561538577079772949e-02 2.029535174369812012e-01 1.409523338079452515e-01
7.823348790407180786e-02 2.133409231901168823e-01 1.400312483310699463e-01
6.895685940980911255e-02 2.138374596834182739e-01 1.457964479923248291e-01
1.503415107727050781e-01 4.731069803237915039e-01 -1.107414904981851578e-02
1.454445272684097290e-01 4.666558504104614258e-01 -8.701823651790618896e-03
1.582436114549636841e-01 4.741385877132415771e-01 -4.087995737791061401e-03
1.533627659082412720e-01 4.681428968906402588e-01 -1.043780939653515816e-03
-8.761592209339141846e-02 2.170097231864929199e-01 2.568976879119873047e-01
-9.252451360225677490e-02 2.119018584489822388e-01 2.600213885307312012e-01
-8.611206710338592529e-02 2.251837700605392456e-01 2.640326321125030518e-01
-9.113991260528564453e-02 2.201568633317947388e-01 2.662981152534484863e-01
-7.211596518754959106e-02 4.076693356037139893e-01 3.541633486747741699e-02
-7.712050527334213257e-02 4.023445546627044678e-01 3.904087841510772705e-02
-7.073739916086196899e-02 4.158543050289154053e-01 4.469336569309234619e-02
-7.667241990566253662e-02 4.101983308792114258e-01 4.866895824670791626e-02
-2.098215967416763306e-01 -1.410809159278869629e-01 4.169297870248556137e-03
-2.141487002372741699e-01 -1.349418908357620239e-01 1.206974498927593231e-02
-2.081541419029235840e-01 -1.445257216691970825e-01 1.568702980875968933e-02
-2.121804207563400269e-01 -1.377335190773010254e-01 2.454057894647121429e-02
1.911253333091735840e-01 -2.645326852798461914e-01 3.695723786950111389e-02
1.858133673667907715e-01 -2.566319108009338379e-01 3.988312184810638428e-02
1.948247700929641724e-01 -2.648208141326904297e-01 4.293245077133178711e-02
1.908052265644073486e-01 -2.580145299434661865e-01 4.775220900774002075e-02
1.022762246429920197e-02 5.470034480094909668e-01 6.358420103788375854e-02
1.263911649584770203e-02 5.353208780288696289e-01 6.252764910459518433e-02
1.609697006642818451e-02 5.458824038505554199e-01 7.225599139928817749e-02
1.754806935787200928e-02 5.340097546577453613e-01 7.117547094821929932e-02
1.094015166163444519e-01 4.630952179431915283e-01 -1.048216521739959717e-01
1.019828990101814270e-01 4.643502831459045410e-01 -9.789732843637466431e-02
1.148877516388893127e-01 4.558765292167663574e-01 -1.018431186676025391e-01
1.073401570320129395e-01 4.570152163505554199e-01 -9.512346237897872925e-02
-1.488397568464279175e-01 1.416293382644653320e-01 2.238136529922485352e-02
-1.520461887121200562e-01 1.349489837884902954e-01 2.858749590814113617e-02
-1.495837718248367310e-01 1.455039083957672119e-01 3.262602537870407104e-02
-1.517910510301589966e-01 1.392234563827514648e-01 3.999331220984458923e-02
5.004837177693843842e-03 -7.356780171394348145e-01 6.498178839683532715e-02
-3.111261408776044846e-03 -7.368397712707519531e-01 6.377964466810226440e-02
1.483011431992053986e-02 -7.357815504074096680e-01 6.955283135175704956e-02
7.055365014821290970e-03 -7.376161813735961914e-01 6.797649711370468140e-02
-1.854729056358337402e-01 4.998292308300733566e-03 -1.381077766418457031e-01
-1.907069236040115356e-01 -2.760536503046751022e-03 -1.356902718544006348e-01
-1.847304254770278931e-01 1.201460231095552444e-02 -1.338589042425155640e-01
-1.900736093521118164e-01 4.458564333617687225e-03 -1.312781423330307007e-01
-2.386947423219680786e-01 -5.731922984123229980e-01 -1.845858693122863770e-01
-2.453043460845947266e-01 -5.797295570373535156e-01 -1.812536418437957764e-01
-2.311610877513885498e-01 -5.768693089485168457e-01 -1.851544976234436035e-01
-2.374528497457504272e-01 -5.834656357765197754e-01 -1.817786842584609985e-01
-1.682966798543930054e-01 -5.709587931632995605e-01 -1.419303715229034424e-01
-1.780633926391601562e-01 -5.695728063583374023e-01 -1.363389492034912109e-01
-1.636409163475036621e-01 -5.632529854774475098e-01 -1.369896978139877319e-01
-1.742397695779800415e-01 -5.608592033386230469e-01 -1.308575719594955444e-01
2.844479978084564209e-01 7.465575933456420898e-01 -1.418654322624206543e-01
2.816386520862579346e-01 7.397181391716003418e-01 -1.393142938613891602e-01
2.895883023738861084e-01 7.483155131340026855e-01 -1.342412978410720825e-01
2.864800691604614258e-01 7.415757775306701660e-01 -1.318094730377197266e-01
7.736394554376602173e-02 6.510529518127441406e-01 -5.004052817821502686e-02
6.881000101566314697e-02 6.555292010307312012e-01 -4.798297584056854248e-02
8.513696491718292236e-02 6.572272181510925293e-01 -4.771854355931282043e-02
7.653661072254180908e-02 6.612974405288696289e-01 -4.631863906979560852e-02
-1.048695966601371765e-01 2.880976200103759766e-01 -3.638366982340812683e-02
-1.068338304758071899e-01 2.721855938434600830e-01 -3.610233962535858154e-02
-1.022221520543098450e-01 2.961944937705993652e-01 -3.011462651193141937e-02
-1.041845381259918213e-01 2.802561521530151367e-01 -2.979820035398006439e-02
1.366543471813201904e-01 5.617745518684387207e-01 -2.496446371078491211e-01
1.300304234027862549e-01 5.588361024856567383e-01 -2.422909140586853027e-01
1.362153887748718262e-01 5.635604262351989746e-01 -2.412725090980529785e-01
1.295388042926788330e-01 5.605343580245971680e-01 -2.332493811845779419e-01
1.362812817096710205e-01 -5.610721111297607422e-01 8.081991970539093018e-02
1.306704729795455933e-01 -5.681921243667602539e-01 8.456989377737045288e-02
1.364765763282775879e-01 -5.544884800910949707e-01 8.675353974103927612e-02
1.310954093933105469e-01 -5.613241791725158691e-01 9.028069674968719482e-02
-2.666279673576354980e-01 -7.537143826484680176e-01 -1.582050919532775879e-01
-2.750832736492156982e-01 -7.476199865341186523e-01 -1.532961279153823853e-01
-2.597970068454742432e-01 -7.530707120895385742e-01 -1.474489569664001465e-01
-2.687441110610961914e-01 -7.469174265861511230e-01 -1.424668282270431519e-01
-1.434128079563379288e-02 5.768123641610145569e-02 1.267464905977249146e-01
-2.512357197701931000e-02 5.948738008737564087e-02 1.340459287166595459e-01
-9.657165035605430603e-03 6.736712157726287842e-02 1.281835585832595825e-01
-1.931077800691127777e-02 6.904751807451248169e-02 1.344160586595535278e-01
1.176194548606872559e-01 -3.151361346244812012e-01 1.216484084725379944e-01
1.068444848060607910e-01 -3.070344924926757812e-01 1.235307678580284119e-01
1.277306526899337769e-01 -3.053128421306610107e-01 1.279966980218887329e-01
1.179289147257804871e-01 -2.987378239631652832e-01 1.298579126596450806e-01
1.527084857225418091e-01 -7.796897888183593750e-01 3.802748769521713257e-02
1.456448435783386230e-01 -7.811516523361206055e-01 4.481780529022216797e-02
1.587387621402740479e-01 -7.817212939262390137e-01 4.289072751998901367e-02
1.528634279966354370e-01 -7.841396331787109375e-01 5.066329985857009888e-02
1.843948066234588623e-01 -3.801115751266479492e-01 1.206265613436698914e-01
1.821445971727371216e-01 -3.950317800045013428e-01 1.222257837653160095e-01
1.937409192323684692e-01 -3.811383843421936035e-01 1.164504885673522949e-01
1.917677223682403564e-01 -3.952717185020446777e-01 1.175152584910392761e-01
-1.251927614212036133e-01 1.254822760820388794e-01 -1.249574497342109680e-01
-1.335071623325347900e-01 1.196319311857223511e-01 -1.185690462589263916e-01
-1.265157610177993774e-01 1.391041129827499390e-01 -1.198392882943153381e-01
-1.338792592287063599e-01 1.324431747198104858e-01 -1.138647571206092834e-01
3.524593263864517212e-02 -8.671690523624420166e-02 1.056913137435913086e-01
2.910598181188106537e-02 -8.497767150402069092e-02 1.152178570628166199e-01
3.869497030973434448e-02 -9.291629493236541748e-02 1.139002367854118347e-01
3.253118693828582764e-02 -9.162300825119018555e-02 1.234155818819999695e-01
-9.053679555654525757e-02 -4.144596755504608154e-01 -1.847771108150482178e-01
-9.308275580406188965e-02 -4.213713109493255615e-01 -1.730528622865676880e-01
-8.495449274778366089e-02 -4.148665964603424072e-01 -1.769124716520309448e-01
-8.718553185462951660e-02 -4.223288297653198242e-01 -1.660063564777374268e-01
1.417226344347000122e-01 4.042686522006988525e-01 -1.234322264790534973e-01
1.416162550449371338e-01 3.974153697490692139e-01 -1.179293021559715271e-01
1.424967497587203979e-01 3.975228667259216309e-01 -1.130079701542854309e-01
1.421097368001937866e-01 3.907012641429901123e-01 -1.069141179323196411e-01
-1.935524344444274902e-01 3.238743916153907776e-02 4.909969493746757507e-02
-1.977369636297225952e-01 2.587063796818256378e-02 5.170856788754463196e-02
-1.897524595260620117e-01 3.763160854578018188e-02 5.787998437881469727e-02
-1.937787234783172607e-01 3.114611096680164337e-02 6.045974418520927429e-02
6.092528253793716431e-02 -3.344407975673675537e-01 -2.102987170219421387e-01
6.177702546119689941e-02 -3.445855379104614258e-01 -2.117064893245697021e-01
6.525593996047973633e-02 -3.336881697177886963e-01 -2.019084692001342773e-01
6.573672592639923096e-02 -3.431340157985687256e-01 -2.019428163766860962e-01
3.305114433169364929e-02 -2.424698509275913239e-02 -1.803944446146488190e-02
2.859297581017017365e-02 -3.007670305669307709e-02 -1.251484733074903488e-02
3.101057559251785278e-02 -2.054587006568908691e-02 -6.241408176720142365e-03
2.667048946022987366e-02 -2.643115073442459106e-02 -6.852346123196184635e-04
3.541584685444831848e-02 1.362669169902801514e-01 -1.274427622556686401e-01
3.235013410449028015e-02 1.275532096624374390e-01 -1.265092790126800537e-01
4.203199222683906555e-02 1.366426944732666016e-01 -1.232770383358001709e-01
3.919954225420951843e-02 1.275417059659957886e-01 -1.218730434775352478e-01
9.541999548673629761e-02 -5.775930285453796387e-01 1.004915609955787659e-01
8.834566175937652588e-02 -5.676801204681396484e-01 1.048521548509597778e-01
1.000442653894424438e-01 -5.678122043609619141e-01 1.018293723464012146e-01
9.223724901676177979e-02 -5.587542057037353516e-01 1.065049320459365845e-01
1.503642648458480835e-01 4.706777632236480713e-01 -8.540429174900054932e-03
1.455384343862533569e-01 4.642663002014160156e-01 -6.275059189647436142e-03
1.582348495721817017e-01 4.716347157955169678e-01 -1.982875633984804153e-03
1.531985849142074585e-01 4.659424126148223877e-01 1.305607846006751060e-03
-4.602109640836715698e-02 -2.768518328666687012e-01 -2.422346323728561401e-01
-4.878181219100952148e-02 -2.917262017726898193e-01 -2.405919134616851807e-01
-3.194031119346618652e-02 -2.840284407138824463e-01 -2.462479025125503540e-01
-3.426902741193771362e-02 -2.991717457771301270e-01 -2.457617223262786865e-01
2.053142338991165161e-02 -1.434928476810455322e-01 -1.102340593934059143e-02
1.951455883681774139e-02 -1.523832976818084717e-01 -1.118685770779848099e-02
2.650814130902290344e-02 -1.441167891025543213e-01 -3.745444351807236671e-03
2.556692808866500854e-02 -1.530814617872238159e-01 -3.715393133461475372e-03
7.449170202016830444e-02 2.678333520889282227e-01 -1.438926756381988525e-01
7.118336111307144165e-02 2.572270929813385010e-01 -1.427351832389831543e-01
8.245924115180969238e-02 2.628944814205169678e-01 -1.380610764026641846e-01
7.943101972341537476e-02 2.520687878131866455e-01 -1.366697102785110474e-01
-3.019087016582489014e-01 -7.129233479499816895e-01 -1.300542354583740234e-01
-3.091844916343688965e-01 -7.054049372673034668e-01 -1.248472332954406738e-01
-2.969182133674621582e-01 -7.108688354492187500e-01 -1.214020550251007080e-01
-3.045425117015838623e-01 -7.025477886199951172e-01 -1.159280017018318176e-01
-7.838035374879837036e-02 7.902791351079940796e-02 1.536571681499481201e-01
-7.905426621437072754e-02 6.270887702703475952e-02 1.513709276914596558e-01
-6.410869210958480835e-02 7.586465030908584595e-02 1.512868255376815796e-01
-6.573372334241867065e-02 6.162270158529281616e-02 1.499077081680297852e-01
-4.607039690017700195e-02 -2.529019415378570557e-01 1.110734716057777405e-01
-5.376576632261276245e-02 -2.464915812015533447e-01 1.146822348237037659e-01
-3.959158807992935181e-02 -2.463036924600601196e-01 1.237803772091865540e-01
-4.772549122571945190e-02 -2.397425323724746704e-01 1.263594776391983032e-01
-1.059028357267379761e-01 1.868318170309066772e-01 -1.137444749474525452e-01
-1.118919923901557922e-01 1.789862662553787231e-01 -1.095946431159973145e-01
-1.080095469951629639e-01 1.995819807052612305e-01 -1.049401387572288513e-01
-1.138153523206710815e-01 1.896736472845077515e-01 -1.013486608862876892e-01
-6.484419107437133789e-02 4.116772115230560303e-01 1.995331197977066040e-01
-6.926083564758300781e-02 4.055245220661163330e-01 2.045234441757202148e-01
-5.839983373880386353e-02 4.100034236907958984e-01 2.051398158073425293e-01
-6.358397752046585083e-02 4.032408297061920166e-01 2.109753787517547607e-01
7.481404393911361694e-02 1.797650009393692017e-01 -1.092834174633026123e-01
7.207546383142471313e-02 1.705860048532485962e-01 -1.095223799347877502e-01
8.272796869277954102e-02 1.816706210374832153e-01 -1.022959202527999878e-01
8.048424124717712402e-02 1.712590754032135010e-01 -1.019780635833740234e-01
-1.293646693229675293e-01 -4.242443293333053589e-02 -1.849168688058853149e-01
-1.412206441164016724e-01 -4.061170667409896851e-02 -1.815663427114486694e-01
-1.221488565206527710e-01 -3.012654371559619904e-02 -1.868120282888412476e-01
-1.334813982248306274e-01 -2.838608808815479279e-02 -1.842026859521865845e-01
-1.633757203817367554e-01 -5.143531560897827148e-01 -2.286519259214401245e-01
-1.680561602115631104e-01 -5.238298773765563965e-01 -2.250688076019287109e-01
-1.585200428962707520e-01 -5.123720169067382812e-01 -2.290357202291488647e-01
-1.626403480768203735e-01 -5.235334038734436035e-01 -2.249729484319686890e-01
1.999335139989852905e-01 -3.141945600509643555e-01 1.171469390392303467e-01
1.920929402112960815e-01 -3.234447240829467773e-01 1.209383085370063782e-01
2.062739729881286621e-01 -3.198204040527343750e-01 1.157031580805778503e-01
1.982851028442382812e-01 -3.279737234115600586e-01 1.195641607046127319e-01
-1.031191796064376831e-01 3.184784948825836182e-01 1.528017371892929077e-01
-1.019304320216178894e-01 3.068056404590606689e-01 1.561610698699951172e-01
-1.031045317649841309e-01 3.206439018249511719e-01 1.620468497276306152e-01
-1.028606146574020386e-01 3.093841671943664551e-01 1.653422713279724121e-01
-1.969149559736251831e-01 -5.455547571182250977e-01 -2.093243747949600220e-01
-2.051384896039962769e-01 -5.543867349624633789e-01 -2.037467956542968750e-01
-1.879283338785171509e-01 -5.447486042976379395e-01 -2.094766497611999512e-01
-1.965055316686630249e-01 -5.535798668861389160e-01 -2.037939727306365967e-01
-2.337150834500789642e-02 -2.133185863494873047e-01 -5.080170929431915283e-02
-2.867379039525985718e-02 -2.162305712699890137e-01 -4.844668507575988770e-02
-2.125483006238937378e-02 -2.069694399833679199e-01 -5.030181631445884705e-02
-2.642440609633922577e-02 -2.099929600954055786e-01 -4.759358614683151245e-02
-9.484387934207916260e-02 -2.623246014118194580e-01 -5.922621116042137146e-02
-1.033677458763122559e-01 -2.541470825672149658e-01 -5.755052715539932251e-02
-8.494158089160919189e-02 -2.552743554115295410e-01 -5.259683728218078613e-02
-9.406397491693496704e-02 -2.503966689109802246e-01 -5.183263123035430908e-02
-8.503279834985733032e-02 -2.464697808027267456e-01 3.148695081472396851e-02
-8.944573998451232910e-02 -2.453014552593231201e-01 4.042162001132965088e-02
-8.179944753646850586e-02 -2.494609355926513672e-01 4.318426176905632019e-02
-8.626853674650192261e-02 -2.481297999620437622e-01 5.199627578258514404e-02
3.625057265162467957e-02 -9.314139932394027710e-02 3.719329088926315308e-02
3.407118096947669983e-02 -8.776978403329849243e-02 4.664229229092597961e-02
3.901158273220062256e-02 -9.327476471662521362e-02 4.899692162871360779e-02
3.648964688181877136e-02 -8.776398748159408569e-02 5.841812118887901306e-02
1.054995954036712646e-01 -3.496737480163574219e-01 6.160586327314376831e-02
1.002604663372039795e-01 -3.492472171783447266e-01 6.397419422864913940e-02
1.097896918654441833e-01 -3.476628065109252930e-01 7.234582304954528809e-02
1.054570451378822327e-01 -3.488791584968566895e-01 7.383706420660018921e-02
-4.898609593510627747e-02 4.101001322269439697e-01 -2.314166165888309479e-02
-5.479337647557258606e-02 3.992883563041687012e-01 -2.217092178761959076e-02
-4.627346247434616089e-02 4.161552786827087402e-01 -1.561857387423515320e-02
-5.218108743429183960e-02 4.060721397399902344e-01 -1.470600534230470657e-02
2.861716225743293762e-02 4.058415591716766357e-01 1.928256303071975708e-01
2.125280164182186127e-02 4.065311253070831299e-01 1.998312175273895264e-01
2.898829057812690735e-02 3.958965539932250977e-01 1.993655562400817871e-01
2.158418670296669006e-02 3.957978188991546631e-01 2.056038975715637207e-01
3.049024194478988647e-02 1.714860461652278900e-02 6.665740907192230225e-02
2.324121817946434021e-02 1.580044440925121307e-02 7.487890124320983887e-02
2.835316210985183716e-02 2.203388139605522156e-02 7.414862513542175293e-02
2.109586261212825775e-02 2.087536454200744629e-02 8.247295767068862915e-02
1.161849405616521835e-02 2.463191151618957520e-01 -1.665578931570053101e-01
4.946250934153795242e-03 2.358337193727493286e-01 -1.633608043193817139e-01
2.115515992045402527e-02 2.426511049270629883e-01 -1.661401689052581787e-01
1.458663679659366608e-02 2.329206466674804688e-01 -1.634279191493988037e-01
-2.061536014080047607e-01 -1.195492222905158997e-01 -1.278743147850036621e-01
-2.119277268648147583e-01 -1.157308146357536316e-01 -1.193340271711349487e-01
-2.087968140840530396e-01 -1.275863051414489746e-01 -1.166547313332557678e-01
-2.143627703189849854e-01 -1.237030774354934692e-01 -1.074770167469978333e-01
2.278778851032257080e-01 5.892080068588256836e-01 -2.992237806320190430e-01
2.242362797260284424e-01 5.781928896903991699e-01 -3.006493449211120605e-01
2.348410338163375854e-01 5.883951783180236816e-01 -2.990670204162597656e-01
2.316690534353256226e-01 5.781831145286560059e-01 -2.996509969234466553e-01
-2.226531505584716797e-01 -2.999605238437652588e-02 -7.946519181132316589e-03
-2.251181155443191528e-01 -3.900646418333053589e-02 -5.049683619290590286e-03
-2.225048243999481201e-01 -2.809099480509757996e-02 2.806118689477443695e-03
-2.255204021930694580e-01 -3.641725704073905945e-02 5.832700990140438080e-03
1.435157656669616699e-01 -3.166097998619079590e-01 1.267110705375671387e-01
1.358707100152969360e-01 -3.183602690696716309e-01 1.274259090423583984e-01
1.530617922544479370e-01 -3.097645342350006104e-01 1.273717582225799561e-01
1.470196098089218140e-01 -3.166406750679016113e-01 1.275686919689178467e-01
8.386979997158050537e-02 4.498268961906433105e-01 -3.630999475717544556e-02
8.068842440843582153e-02 4.423166811466217041e-01 -3.673990443348884583e-02
9.215254336595535278e-02 4.464093148708343506e-01 -3.225870802998542786e-02
8.895131200551986694e-02 4.389106333255767822e-01 -3.264747560024261475e-02
3.895512968301773071e-02 -6.285405158996582031e-01 2.691119536757469177e-02
3.571807965636253357e-02 -6.404848694801330566e-01 2.751260064542293549e-02
5.068198591470718384e-02 -6.266165375709533691e-01 2.645639888942241669e-02
4.748332127928733826e-02 -6.384647488594055176e-01 2.651466242969036102e-02
1.624871790409088135e-01 5.827495455741882324e-01 -2.893427908420562744e-01
1.549963951110839844e-01 5.799456238746643066e-01 -2.851393520832061768e-01
1.675104796886444092e-01 5.873727202415466309e-01 -2.915576696395874023e-01
1.602209657430648804e-01 5.852266550064086914e-01 -2.872958779335021973e-01
-8.309014141559600830e-02 1.320904940366744995e-01 -1.495832651853561401e-01
-9.095393866300582886e-02 1.315046399831771851e-01 -1.455009877681732178e-01
-7.211643457412719727e-02 1.429113745689392090e-01 -1.515926271677017212e-01
-7.861715555191040039e-02 1.399698853492736816e-01 -1.488795876502990723e-01
2.683113142848014832e-02 6.237146854400634766e-01 -4.761709272861480713e-02
1.871268264949321747e-02 6.241148114204406738e-01 -4.172058776021003723e-02
2.778661996126174927e-02 6.316207647323608398e-01 -4.751519858837127686e-02
1.864149607717990875e-02 6.341119408607482910e-01 -4.093275219202041626e-02
-2.054942548274993896e-01 -1.043780893087387085e-01 2.421123534440994263e-01
-2.061336487531661987e-01 -1.159712374210357666e-01 2.463725358247756958e-01
-2.031199336051940918e-01 -9.906347095966339111e-02 2.530428767204284668e-01
-2.034343034029006958e-01 -1.108440309762954712e-01 2.569927275180816650e-01
4.637925699353218079e-02 -3.138927221298217773e-01 -1.404571533203125000e-01
4.001710191369056702e-02 -3.197028040885925293e-01 -1.356727629899978638e-01
4.112301394343376160e-02 -2.997191846370697021e-01 -1.345298141241073608e-01
3.567145019769668579e-02 -3.052989542484283447e-01 -1.302310228347778320e-01
4.392417520284652710e-02 -4.556170105934143066e-01 -2.138152122497558594e-01
3.945125266909599304e-02 -4.617018997669219971e-01 -2.100903093814849854e-01
4.448728263378143311e-02 -4.511665701866149902e-01 -2.051655948162078857e-01
3.934138268232345581e-02 -4.571120738983154297e-01 -2.017668038606643677e-01
-1.574581861495971680e-01 1.109441742300987244e-01 9.391564130783081055e-02
-1.601785123348236084e-01 1.019529327750205994e-01 9.446071088314056396e-02
-1.514541804790496826e-01 1.130546778440475464e-01 1.038052290678024292e-01
-1.538402587175369263e-01 1.029279679059982300e-01 1.046277135610580444e-01
8.415311574935913086e-02 -7.023379206657409668e-01 2.425369806587696075e-02
8.310218900442123413e-02 -7.178510427474975586e-01 2.373008243739604950e-02
9.639455378055572510e-02 -7.012222409248352051e-01 2.563766948878765106e-02
9.532119333744049072e-02 -7.168830037117004395e-01 2.512950077652931213e-02
-1.019893586635589600e-01 3.728307485580444336e-01 2.120628952980041504e-01
-1.078663691878318787e-01 3.626930713653564453e-01 2.159971594810485840e-01
-9.679606556892395020e-02 3.751800060272216797e-01 2.190676629543304443e-01
-1.026710420846939087e-01 3.647707402706146240e-01 2.235284894704818726e-01
-3.151767551898956299e-01 -6.641438603401184082e-01 -1.612042933702468872e-01
-3.246276974678039551e-01 -6.541962027549743652e-01 -1.566143184900283813e-01
-3.075177967548370361e-01 -6.609346866607666016e-01 -1.623428761959075928e-01
-3.168897032737731934e-01 -6.514562964439392090e-01 -1.580656319856643677e-01
3.481419384479522705e-01 7.736212611198425293e-01 -1.459586769342422485e-01
3.454891741275787354e-01 7.663434743881225586e-01 -1.444489210844039917e-01
3.529162108898162842e-01 7.718774676322937012e-01 -1.373723447322845459e-01
3.504242300987243652e-01 7.647325396537780762e-01 -1.358805149793624878e-01
3.141134604811668396e-02 3.900243937969207764e-01 1.982932090759277344e-01
2.378084510564804077e-02 3.908450305461883545e-01 2.050281465053558350e-01
3.134764730930328369e-02 3.812496364116668701e-01 2.036984115839004517e-01
2.311904169619083405e-02 3.822151422500610352e-01 2.103928178548812866e-01
6.870422512292861938e-02 -3.762125968933105469e-01 -2.034339010715484619e-01
6.439530104398727417e-02 -3.828694224357604980e-01 -1.998894512653350830e-01
6.742224097251892090e-02 -3.703137338161468506e-01 -1.937398910522460938e-01
6.255195289850234985e-02 -3.766384720802307129e-01 -1.891243308782577515e-01
6.052454560995101929e-02 -3.757043778896331787e-01 -1.812448799610137939e-01
5.516015738248825073e-02 -3.820690214633941650e-01 -1.767353266477584839e-01
5.967214331030845642e-02 -3.697465956211090088e-01 -1.730530112981796265e-01
5.448409169912338257e-02 -3.761691749095916748e-01 -1.683045327663421631e-01
6.934310495853424072e-02 6.292468309402465820e-01 1.033100932836532593e-01
6.604296714067459106e-02 6.187011003494262695e-01 1.050188541412353516e-01
7.847053557634353638e-02 6.222004890441894531e-01 1.017048135399818420e-01
7.540422677993774414e-02 6.110554337501525879e-01 1.032902523875236511e-01
1.465862244367599487e-01 2.723549008369445801e-01 -3.271637856960296631e-02
1.457107216119766235e-01 2.640807926654815674e-01 -3.121417015790939331e-02
1.449353843927383423e-01 2.768656611442565918e-01 -2.291377633810043335e-02
1.443164944648742676e-01 2.690229415893554688e-01 -2.158909663558006287e-02
2.099320292472839355e-02 -7.135279476642608643e-02 -2.541601285338401794e-02
2.374770678579807281e-02 -7.915412634611129761e-02 -2.044372819364070892e-02
2.085593156516551971e-02 -7.086478173732757568e-02 -1.337291300296783447e-02
2.365334145724773407e-02 -7.755419611930847168e-02 -7.398202084004878998e-03
1.506110280752182007e-01 4.573513865470886230e-01 1.777029410004615784e-02
1.442793309688568115e-01 4.541406035423278809e-01 2.318587899208068848e-02
1.555095463991165161e-01 4.632405936717987061e-01 2.608137950301170349e-02
1.491497009992599487e-01 4.601623415946960449e-01 3.159389644861221313e-02
6.661294400691986084e-02 6.712749600410461426e-01 -3.659434244036674500e-02
5.837390199303627014e-02 6.742734909057617188e-01 -3.566972538828849792e-02
7.543067634105682373e-02 6.760983467102050781e-01 -3.414944559335708618e-02
6.722269207239151001e-02 6.786403059959411621e-01 -3.362488374114036560e-02
-1.162074804306030273e-01 2.943890094757080078e-01 1.682679951190948486e-01
-1.155407354235649109e-01 2.815666794776916504e-01 1.716888993978500366e-01
-1.158456206321716309e-01 2.929230928421020508e-01 1.768589913845062256e-01
-1.153766587376594543e-01 2.806024551391601562e-01 1.806616038084030151e-01
-2.558942735195159912e-01 -6.759631037712097168e-01 -1.448300629854202271e-01
-2.579949796199798584e-01 -6.810232400894165039e-01 -1.465794891119003296e-01
-2.504547834396362305e-01 -6.774522662162780762e-01 -1.390701234340667725e-01
-2.534583806991577148e-01 -6.798658967018127441e-01 -1.396812051534652710e-01
-1.778852492570877075e-01 -1.746719926595687866e-01 -5.843862146139144897e-02
-1.827245801687240601e-01 -1.689486950635910034e-01 -5.030469223856925964e-02
-1.730600893497467041e-01 -1.774251312017440796e-01 -4.863786697387695312e-02
-1.779352873563766479e-01 -1.717097014188766479e-01 -4.038108512759208679e-02
-1.539415568113327026e-01 1.088197380304336548e-01 -5.378827452659606934e-02
-1.567341089248657227e-01 1.015322580933570862e-01 -4.767886549234390259e-02
-1.534722596406936646e-01 1.105595529079437256e-01 -4.396173357963562012e-02
-1.561028063297271729e-01 1.031485646963119507e-01 -3.764218837022781372e-02
-1.122577264904975891e-01 3.458735942840576172e-01 2.438591271638870239e-01
-1.169346868991851807e-01 3.356499075889587402e-01 2.490428239107131958e-01
-1.081609725952148438e-01 3.406700491905212402e-01 2.510651350021362305e-01
-1.129374578595161438e-01 3.303503096103668213e-01 2.558338344097137451e-01
1.160904839634895325e-01 3.787861466407775879e-01 -1.574010401964187622e-01
1.125165745615959167e-01 3.730154633522033691e-01 -1.563748270273208618e-01
1.204304322600364685e-01 3.813416063785552979e-01 -1.496034860610961914e-01
1.176818013191223145e-01 3.750002384185791016e-01 -1.477018445730209351e-01
3.400322198867797852e-01 7.487153410911560059e-01 -1.442576944828033447e-01
3.383410573005676270e-01 7.397507429122924805e-01 -1.418594717979431152e-01
3.463023602962493896e-01 7.476829290390014648e-01 -1.368147134780883789e-01
3.444260358810424805e-01 7.388628125190734863e-01 -1.342922598123550415e-01
1.242633983492851257e-01 4.069799780845642090e-01 -1.986802518367767334e-01
1.201483011245727539e-01 4.015316367149353027e-01 -1.924599111080169678e-01
1.291956752538681030e-01 4.085524082183837891e-01 -1.910811364650726318e-01
1.247832775115966797e-01 4.030003547668457031e-01 -1.844124197959899902e-01
1.852637343108654022e-02 -6.457830220460891724e-02 8.310840278863906860e-02
1.222290284931659698e-02 -6.325884163379669189e-02 9.200856834650039673e-02
1.961970701813697815e-02 -6.989636272192001343e-02 9.283059835433959961e-02
1.332843862473964691e-02 -6.831043958663940430e-02 1.016196012496948242e-01
-6.028074398636817932e-02 3.559167683124542236e-01 -1.096486076712608337e-01
-6.645200401544570923e-02 3.486961722373962402e-01 -1.035960242152214050e-01
-6.295982748270034790e-02 3.629300594329833984e-01 -1.010838150978088379e-01
-6.899973750114440918e-02 3.559495508670806885e-01 -9.527470171451568604e-02
3.484509140253067017e-02 -2.223597913980484009e-01 -1.604425907135009766e-02
2.584119141101837158e-02 -2.325802445411682129e-01 -1.426177192479372025e-02
4.719593375921249390e-02 -2.223581969738006592e-01 -1.540335640311241150e-02
3.845693543553352356e-02 -2.326999902725219727e-01 -1.368069928139448166e-02
1.059118732810020447e-01 4.569378793239593506e-01 -9.587392210960388184e-02
9.912551939487457275e-02 4.570431411266326904e-01 -8.994731307029724121e-02
1.111332327127456665e-01 4.496173858642578125e-01 -9.294371306896209717e-02
1.048672348260879517e-01 4.495227932929992676e-01 -8.742482215166091919e-02
1.162286847829818726e-01 -5.684713125228881836e-01 9.788427501916885376e-02
1.085254028439521790e-01 -5.649092197418212891e-01 1.023303940892219543e-01
1.216193884611129761e-01 -5.578202605247497559e-01 9.851495921611785889e-02
1.140131726861000061e-01 -5.568097233772277832e-01 1.025501042604446411e-01
-6.436549872159957886e-02 1.785196363925933838e-01 -1.465881615877151489e-01
-6.825558096170425415e-02 1.691600680351257324e-01 -1.455447226762771606e-01
-5.557109415531158447e-02 1.764040440320968628e-01 -1.489113718271255493e-01
-5.951605364680290222e-02 1.668380647897720337e-01 -1.480064392089843750e-01
5.838964879512786865e-02 3.964698612689971924e-01 1.243654415011405945e-01
5.276537686586380005e-02 3.959655761718750000e-01 1.317145377397537231e-01
5.739852413535118103e-02 3.885771334171295166e-01 1.305256187915802002e-01
5.113585665822029114e-02 3.895909488201141357e-01 1.378469318151473999e-01
5.760905891656875610e-02 -5.725452303886413574e-01 9.360270202159881592e-02
5.526756495237350464e-02 -5.830653309822082520e-01 9.120915085077285767e-02
6.135244295001029968e-02 -5.725291371345520020e-01 9.728317707777023315e-02
5.802609398961067200e-02 -5.698800683021545410e-01 9.891533106565475464e-02
1.414235383272171021e-01 -7.815900444984436035e-01 7.254160195589065552e-02
1.335447132587432861e-01 -7.820377945899963379e-01 7.722047716379165649e-02
1.454278975725173950e-01 -7.803238034248352051e-01 7.957842946052551270e-02
1.374045461416244507e-01 -7.806234359741210938e-01 8.411443978548049927e-02
-1.466144621372222900e-01 -2.253035753965377808e-01 -9.100030362606048584e-02
-1.522630900144577026e-01 -2.152097821235656738e-01 -8.460603654384613037e-02
-1.406630426645278931e-01 -2.272675186395645142e-01 -7.978268712759017944e-02
