-5.888600000000000084e-02 4.378610000000000002e-01 1.345689999999999942e-01
-1.126299999999999940e-01 -2.482499999999999984e-02 -1.842380000000000129e-01
9.694099999999999939e-02 1.091160000000000047e-01 -4.886200000000000265e-02
-1.688669999999999893e-01 -4.864749999999999908e-01 -2.196160000000000057e-01
8.876299999999999468e-02 -1.750899999999999956e-01 2.651099999999999984e-02
-3.779799999999999827e-02 3.333340000000000192e-01 -1.463419999999999999e-01
-5.446999999999999759e-02 -1.175090000000000023e-01 -2.114439999999999931e-01
-1.602320000000000133e-01 5.693100000000000244e-02 -1.216190000000000049e-01
1.471109999999999918e-01 -2.124099999999999877e-01 3.944099999999999689e-02
-1.764699999999999949e-02 3.154939999999999967e-01 -1.628239999999999965e-01
-1.539719999999999978e-01 -1.848940000000000028e-01 -1.673600000000000088e-01
-1.589139999999999997e-01 1.774940000000000129e-01 3.062670000000000115e-01
-2.348700000000000093e-02 -2.284360000000000002e-01 -5.472699999999999787e-02
7.598900000000000099e-02 6.671010000000000550e-01 -4.158699999999999897e-02
4.901200000000000001e-02 -4.321829999999999838e-01 -1.946440000000000115e-01
2.097640000000000060e-01 -4.329470000000000263e-01 8.148700000000000387e-02
-2.828590000000000271e-01 -5.802150000000000363e-01 -1.600070000000000103e-01
3.235099999999999781e-02 -1.014560000000000045e-01 -4.428399999999999698e-02
-1.094299999999999960e-02 6.350449999999999706e-01 5.688900000000000207e-02
1.587330000000000130e-01 -2.047549999999999926e-01 7.308699999999999919e-02
-2.183990000000000098e-01 -1.172300000000000078e-02 4.386500000000000121e-02
-4.499800000000000327e-02 2.599650000000000016e-01 1.693399999999999905e-01
-1.967480000000000062e-01 -4.223999999999999977e-02 1.253209999999999880e-01
3.027859999999999996e-01 7.153119999999999479e-01 -1.918930000000000080e-01
2.021120000000000139e-01 -2.606919999999999793e-01 7.562699999999999978e-02
-6.469800000000000550e-02 4.258009999999999851e-01 1.621239999999999903e-01
-1.429459999999999897e-01 -2.331040000000000056e-01 -1.515080000000000038e-01
-9.067799999999999472e-02 2.300250000000000072e-01 1.460650000000000004e-01
-4.394000000000000336e-03 -4.672899999999999970e-02 8.301799999999999458e-02
1.738419999999999965e-01 4.629849999999999799e-01 -2.207840000000000080e-01
1.757110000000000061e-01 6.035930000000000462e-01 -1.021900000000000065e-02
6.744699999999999307e-02 -4.065840000000000010e-01 -2.200290000000000024e-01
-9.180900000000000172e-02 2.889610000000000234e-01 1.672399999999999998e-01
-5.651599999999999679e-02 3.149250000000000105e-01 2.577729999999999744e-01
1.718490000000000018e-01 6.403940000000000188e-01 2.161899999999999933e-02
1.412700000000000067e-02 -2.156629999999999936e-01 -2.273950000000000138e-01
1.330220000000000014e-01 4.974669999999999925e-01 7.231500000000000428e-02
-1.109659999999999952e-01 -4.526589999999999780e-01 -2.407080000000000053e-01
3.987999999999999878e-02 8.023900000000000476e-02 9.407200000000000284e-02
-1.818390000000000006e-01 4.993000000000000216e-02 -4.415499999999999980e-02
-6.485299999999999399e-02 -3.357299999999999729e-01 -1.045399999999999940e-01
-1.374099999999999974e-02 2.353510000000000046e-01 1.671999999999999875e-01
-6.120000000000000223e-04 2.810940000000000105e-01 1.714259999999999950e-01
1.638789999999999969e-01 6.098000000000000087e-01 -2.624690000000000079e-01
-1.640749999999999986e-01 2.600480000000000014e-01 2.293769999999999976e-01
-2.337229999999999863e-01 -5.866599999999999593e-01 -1.201399999999999968e-01
-5.562099999999999683e-02 1.948040000000000049e-01 1.574810000000000099e-01
1.892880000000000118e-01 5.249650000000000150e-01 -1.957359999999999933e-01
1.460319999999999951e-01 -5.390810000000000324e-01 9.383800000000000474e-02
-2.158400000000000041e-01 -5.777000000000000017e-03 3.483100000000000085e-02
7.744099999999999595e-02 3.086889999999999912e-01 -1.626720000000000110e-01
1.366469999999999907e-01 4.153709999999999902e-01 -1.982269999999999865e-01
1.196080000000000060e-01 6.789730000000000487e-01 -1.478499999999999953e-02
1.258670000000000067e-01 5.682730000000000281e-01 9.028400000000000314e-02
3.706530000000000102e-01 7.750209999999999599e-01 -1.035480000000000012e-01
1.721219999999999972e-01 -2.675230000000000108e-01 2.097200000000000106e-02
-2.052599999999999980e-01 5.964999999999999816e-03 8.182699999999999696e-02
-2.195149999999999879e-01 -1.184639999999999999e-01 -7.552000000000000379e-02
1.912069999999999881e-01 -2.478990000000000082e-01 7.911700000000000677e-02
3.749129999999999963e-01 7.733609999999999651e-01 -1.202290000000000025e-01
-1.003190000000000054e-01 3.963349999999999929e-01 1.462739999999999874e-01
-6.196800000000000225e-02 3.585880000000000178e-01 2.511019999999999919e-01
1.540819999999999967e-01 -2.236470000000000125e-01 1.183619999999999950e-01
-1.830499999999999836e-02 -6.441800000000000304e-02 -1.645060000000000133e-01
-5.063499999999999945e-02 -6.068199999999999983e-02 -1.865279999999999994e-01
2.142499999999999960e-02 -1.643920000000000103e-01 -1.203300000000000029e-02
1.369809999999999917e-01 2.944390000000000063e-01 -1.958999999999999804e-03
8.467999999999999833e-03 1.303140000000000132e-01 -1.430019999999999902e-01
1.213100000000000012e-01 -4.893759999999999777e-01 1.231960000000000000e-01
-2.262200000000000044e-01 -8.262899999999999412e-02 -4.126699999999999813e-02
-2.026810000000000000e-01 -5.394600000000000090e-02 -1.396959999999999869e-01
3.252399999999999736e-02 2.342800000000000091e-02 6.934700000000000586e-02
1.604799999999999977e-02 2.450380000000000058e-01 1.663719999999999921e-01
3.988300000000000178e-02 -2.208930000000000060e-01 -2.087749999999999884e-01
-4.888100000000000084e-02 4.406059999999999977e-01 3.400700000000000250e-02
-5.380100000000000160e-02 3.920390000000000263e-01 2.319450000000000123e-01
-2.255199999999999913e-02 6.017100000000000226e-02 -1.440069999999999961e-01
3.328600000000000309e-02 -3.841410000000000102e-01 -1.446099999999999886e-01
1.598999999999999944e-03 -7.555800000000000016e-02 -1.346809999999999952e-01
2.378200000000000106e-02 -7.804500000000000326e-02 -4.324299999999999672e-02
3.442830000000000057e-01 7.503499999999999615e-01 -1.238989999999999952e-01
-1.773669999999999969e-01 1.485430000000000084e-01 3.094219999999999748e-01
-1.482670000000000099e-01 -1.383149999999999935e-01 -1.887230000000000019e-01
6.412700000000000344e-02 5.569269999999999499e-01 1.031310000000000004e-01
2.133500000000000119e-01 -2.743709999999999760e-01 7.025000000000000688e-02
-1.769399999999999862e-01 -4.961619999999999919e-01 -2.169929999999999914e-01
2.759500000000000147e-02 -3.044109999999999872e-01 8.625700000000000034e-02
2.420699999999999935e-02 -2.045200000000000143e-02 3.352399999999999824e-02
-3.980999999999999817e-02 4.242850000000000232e-01 1.929829999999999879e-01
-2.429810000000000025e-01 -1.456419999999999937e-01 2.993020000000000125e-01
-1.911680000000000046e-01 -4.871899999999999842e-02 -1.535189999999999888e-01
1.235190000000000038e-01 -5.423499999999999988e-01 3.173499999999999932e-02
1.458199999999999948e-02 -2.661259999999999737e-01 -1.007320000000000021e-01
1.103630000000000028e-01 4.318540000000000156e-01 1.271800000000000014e-02
-8.311699999999999644e-02 2.340280000000000138e-01 2.626319999999999766e-01
2.503899999999999876e-02 -2.629639999999999755e-01 -1.137050000000000005e-01
1.768629999999999924e-01 -7.544199999999999795e-01 5.385100000000000303e-02
-2.867839999999999834e-01 -6.105199999999999516e-01 -1.596220000000000139e-01
-1.313650000000000095e-01 2.364839999999999998e-01 6.173499999999999821e-02
-1.207050000000000067e-01 -1.899790000000000090e-01 -2.052849999999999953e-01
3.030100000000000154e-02 -4.372869999999999813e-01 -1.686560000000000004e-01
5.671299999999999952e-02 2.694750000000000201e-01 -1.604760000000000075e-01
-1.228810000000000041e-01 1.573519999999999919e-01 2.790449999999999875e-01
9.159399999999999487e-02 4.397809999999999775e-01 -2.381109999999999893e-01
1.530800000000000043e-02 -1.586329999999999962e-01 -7.975100000000000244e-02
1.849770000000000025e-01 5.273130000000000317e-01 1.557200000000000077e-02
-1.826440000000000008e-01 -5.269679999999999920e-01 -2.173579999999999957e-01
1.120509999999999978e-01 -7.273960000000000425e-01 2.191799999999999998e-02
1.073049999999999976e-01 4.819860000000000255e-01 -2.554960000000000009e-01
9.857799999999999896e-02 9.769200000000000106e-02 -1.669700000000000004e-02
-2.528799999999999937e-01 -5.569779999999999731e-01 -1.758419999999999983e-01
1.240219999999999934e-01 2.884140000000000037e-01 -1.057189999999999935e-01
-5.349500000000000088e-02 4.031040000000000179e-01 -7.779999999999999416e-02
-1.651980000000000115e-01 8.119700000000000528e-02 -4.348500000000000282e-02
-1.297719999999999985e-01 -2.691000000000000059e-01 -1.433780000000000054e-01
2.589199999999999835e-02 4.169309999999999961e-01 -1.937109999999999943e-01
1.485489999999999866e-01 4.436999999999999833e-01 -2.336969999999999881e-01
8.050699999999999523e-02 4.013439999999999785e-01 7.294499999999999595e-02
1.155840000000000062e-01 6.072990000000000332e-01 -5.247999999999999887e-02
-1.843600000000000100e-02 3.016229999999999745e-01 -1.627609999999999890e-01
8.706400000000000250e-02 4.756170000000000120e-01 7.409100000000000408e-02
-4.822699999999999904e-02 3.037670000000000092e-01 2.530359999999999832e-01
2.091099999999999903e-01 -2.707060000000000022e-01 8.165400000000000436e-02
-1.119890000000000052e-01 3.448019999999999974e-01 7.402499999999999358e-02
-6.204300000000000093e-02 -6.528899999999999981e-02 -1.923090000000000077e-01
1.264740000000000031e-01 6.821089999999999653e-01 4.375699999999999729e-02
-1.557890000000000108e-01 2.837439999999999962e-01 2.217449999999999977e-01
-6.416299999999999781e-02 4.378449999999999842e-01 6.857800000000000007e-02
-1.005619999999999986e-01 3.170839999999999770e-01 1.612500000000000044e-02
-6.374599999999999711e-02 1.252739999999999965e-01 1.512620000000000076e-01
1.261180000000000079e-01 3.981669999999999932e-01 -1.579010000000000136e-01
3.967799999999999799e-02 -2.418520000000000114e-01 -1.354940000000000033e-01
4.101400000000000184e-02 -1.139300000000000035e-01 2.205199999999999869e-02
1.021930000000000061e-01 1.859220000000000039e-01 7.707700000000000662e-02
1.360199999999999951e-02 4.615110000000000046e-01 -1.189110000000000028e-01
-7.407999999999999308e-02 -4.702129999999999921e-01 -2.546950000000000047e-01
-1.451900000000000135e-01 -1.171780000000000044e-01 1.534119999999999928e-01
2.690299999999999983e-02 5.163029999999999564e-01 6.668100000000000416e-02
6.746199999999999419e-02 3.767260000000000053e-01 1.294990000000000030e-01
-1.178900000000000087e-02 6.089139999999999553e-01 5.798400000000000082e-02
-1.252530000000000032e-01 2.410349999999999993e-01 2.918709999999999916e-01
-1.783180000000000043e-01 -5.851819999999999800e-01 -1.833490000000000120e-01
1.115600000000000064e-01 5.347509999999999764e-01 -5.068799999999999695e-02
8.695400000000000351e-02 -1.334220000000000128e-01 1.148919999999999941e-01
2.251890000000000003e-01 6.404300000000000548e-01 -2.835289999999999755e-01
5.638599999999999862e-02 -7.618479999999999697e-01 8.416700000000000570e-02
4.847999999999999879e-03 4.425499999999999989e-01 1.434999999999999887e-01
-1.167200000000000008e-02 -1.193860000000000060e-01 -1.993219999999999992e-01
-1.388050000000000117e-01 -4.417769999999999753e-01 -2.101919999999999900e-01
-1.731910000000000116e-01 1.022799999999999959e-01 2.352660000000000029e-01
1.345659999999999912e-01 -4.543189999999999729e-01 1.106799999999999971e-02
-9.475100000000000189e-02 1.340439999999999965e-01 1.440780000000000116e-01
-1.796870000000000134e-01 5.938600000000000129e-02 4.044299999999999978e-02
-5.403100000000000264e-02 5.761999999999999761e-03 -1.572590000000000099e-01
-1.009099999999999997e-01 -9.783999999999999295e-03 1.572900000000000131e-01
-1.019089999999999996e-01 2.875099999999999878e-02 1.500579999999999969e-01
-1.059459999999999985e-01 -8.923899999999999888e-02 1.717710000000000070e-01
-2.845059999999999811e-01 -6.514429999999999943e-01 -9.855800000000000671e-02
2.966750000000000220e-01 6.855830000000000535e-01 -1.794789999999999996e-01
-3.290399999999999991e-01 -6.368030000000000079e-01 -1.506699999999999984e-01
-1.147000000000000016e-03 4.336899999999999783e-02 -1.223420000000000063e-01
-8.282799999999999885e-02 -4.205039999999999889e-01 -1.653719999999999912e-01
6.858499999999999319e-02 2.479200000000000015e-01 -1.428820000000000090e-01
1.630830000000000057e-01 5.654869999999999619e-01 -2.958040000000000114e-01
1.119999999999999989e-02 -1.642440000000000011e-01 -5.036899999999999711e-02
-4.655600000000000016e-02 -1.124560000000000004e-01 -2.087459999999999871e-01
4.562700000000000089e-02 -2.867069999999999896e-01 3.772000000000000179e-03
-1.898249999999999937e-01 9.979200000000000570e-02 3.113779999999999881e-01
-2.759599999999999900e-02 2.472399999999999876e-01 1.695579999999999865e-01
5.323599999999999860e-02 3.146780000000000133e-01 -1.773760000000000059e-01
1.870650000000000091e-01 -2.444999999999999951e-01 5.621199999999999808e-02
-1.818770000000000109e-01 1.266480000000000106e-01 2.281299999999999994e-01
1.841780000000000084e-01 4.841210000000000235e-01 -2.550180000000000224e-01
4.417599999999999999e-02 -6.557220000000000271e-01 2.280700000000000088e-02
-8.728700000000000347e-02 3.930150000000000032e-01 4.921199999999999880e-02
-2.724000000000000032e-02 -1.154830000000000023e-01 -2.045520000000000116e-01
-2.078109999999999957e-01 -7.331100000000000116e-02 3.049649999999999861e-01
-2.695469999999999811e-01 -6.942260000000000097e-01 -1.650619999999999865e-01
4.463799999999999712e-02 -1.541750000000000065e-01 4.176000000000000024e-03
-1.039810000000000040e-01 1.912230000000000041e-01 2.346969999999999890e-01
-1.655349999999999877e-01 8.462000000000000077e-02 9.340199999999999891e-02
1.325620000000000132e-01 2.189790000000000070e-01 -2.845400000000000013e-02
1.005600000000000070e-02 5.181459999999999955e-01 5.194900000000000212e-02
4.921400000000000080e-02 1.032730000000000037e-01 9.833000000000000074e-02
-1.861349999999999949e-01 -8.480000000000000124e-04 3.002670000000000061e-01
-2.600830000000000086e-01 -6.376209999999999933e-01 -1.491449999999999998e-01
1.003959999999999991e-01 1.734759999999999913e-01 -7.728999999999999759e-02
1.035309999999999980e-01 4.115079999999999849e-01 1.881899999999999892e-02
-2.732000000000000053e-03 -4.928370000000000251e-01 -2.361139999999999906e-01
6.376700000000000423e-02 -7.656749999999999945e-01 4.473499999999999699e-02
1.357530000000000125e-01 -1.936150000000000093e-01 1.195739999999999997e-01
2.648800000000000113e-02 -2.110239999999999894e-01 -1.165489999999999998e-01
6.583799999999999375e-02 4.968500000000000139e-01 -1.668590000000000073e-01
2.417159999999999864e-01 6.265690000000000426e-01 -2.007009999999999905e-01
-2.863500000000000073e-02 3.795209999999999972e-01 2.415839999999999932e-01
-1.414299999999999932e-02 4.395020000000000038e-01 -1.237089999999999995e-01
4.933699999999999891e-02 1.587550000000000072e-01 -1.247380000000000017e-01
-1.369599999999999984e-02 5.758839999999999515e-01 4.001500000000000196e-02
-7.757500000000000506e-02 2.273340000000000083e-01 2.057930000000000037e-01
1.252340000000000120e-01 2.379850000000000021e-01 5.121400000000000258e-02
-1.809159999999999935e-01 4.651099999999999679e-02 -8.470600000000000351e-02
-3.233400000000000163e-02 -4.461970000000000103e-01 -1.490569999999999951e-01
-1.444519999999999971e-01 1.056139999999999995e-01 -1.106359999999999982e-01
-2.453899999999999831e-02 3.112269999999999759e-01 -1.578390000000000071e-01
-7.904100000000000015e-02 1.548180000000000112e-01 -1.436169999999999947e-01
6.026999999999999719e-02 -3.033299999999999885e-01 -1.694189999999999863e-01
1.929210000000000091e-01 6.514739999999999975e-01 -2.455680000000000085e-01
8.738500000000000434e-02 5.749079999999999746e-01 -5.335999999999999771e-02
-2.821399999999999950e-02 -1.464560000000000028e-01 -2.156270000000000131e-01
-2.006139999999999868e-01 -6.866400000000000281e-02 -1.449469999999999925e-01
-1.580560000000000020e-01 -1.894440000000000013e-01 -5.912599999999999800e-02
1.398260000000000058e-01 -4.941519999999999802e-01 1.187269999999999992e-01
1.451739999999999975e-01 -4.881170000000000231e-01 1.190969999999999945e-01
-1.020699999999999941e-01 -2.138819999999999888e-01 -2.164149999999999963e-01
9.900100000000000566e-02 4.479739999999999833e-01 -8.184800000000000408e-02
-3.538200000000000234e-01 -6.727659999999999751e-01 -1.074490000000000028e-01
-2.944669999999999788e-01 -7.343460000000000543e-01 -1.806770000000000043e-01
1.593110000000000082e-01 4.692830000000000057e-01 3.637800000000000061e-02
2.836299999999999932e-01 6.570169999999999622e-01 -2.380400000000000016e-01
9.328799999999999593e-02 -5.563850000000000184e-01 1.073380000000000029e-01
6.439999999999999891e-02 -1.381769999999999943e-01 4.003799999999999720e-02
-1.595000000000000064e-03 1.549800000000000066e-01 1.463939999999999964e-01
1.683790000000000009e-01 -4.220459999999999767e-01 1.269230000000000080e-01
-1.665000000000000030e-03 5.321709999999999496e-01 2.878700000000000009e-02
2.886599999999999930e-02 -3.299750000000000183e-01 -1.264830000000000121e-01
-6.296000000000000381e-03 -3.453060000000000018e-01 -1.098989999999999967e-01
3.636000000000000343e-02 -2.002120000000000011e-01 -1.420949999999999991e-01
-2.241400000000000059e-01 1.116000000000000048e-01 2.638860000000000094e-01
7.740400000000000058e-02 -7.060060000000000224e-01 1.771899999999999864e-02
-2.201029999999999931e-01 1.125799999999999995e-01 2.904200000000000115e-01
-6.619800000000000684e-02 -4.055549999999999988e-01 -1.940149999999999930e-01
-5.559999999999999621e-04 2.828330000000000011e-01 -1.700750000000000040e-01
-1.349499999999999866e-01 2.211120000000000030e-01 6.516500000000000070e-02
-8.172599999999999310e-02 -3.396660000000000235e-01 -1.956289999999999973e-01
1.122299999999999964e-01 3.732309999999999794e-01 -1.583739999999999870e-01
-1.396729999999999916e-01 1.988320000000000087e-01 3.041280000000000094e-01
1.883859999999999979e-01 5.497290000000000232e-01 2.643600000000000116e-02
-9.962699999999999334e-02 2.182800000000000018e-01 1.368530000000000024e-01
-1.239549999999999957e-01 1.170110000000000039e-01 1.342279999999999862e-01
-8.086400000000000532e-02 -6.248299999999999688e-02 1.699420000000000097e-01
-9.600999999999999812e-02 1.140690000000000037e-01 -1.509860000000000091e-01
-1.860439999999999872e-01 2.573200000000000140e-02 -1.125680000000000014e-01
3.198299999999999754e-02 -2.432509999999999950e-01 -2.239369999999999972e-01
-1.331199999999999883e-01 1.874929999999999930e-01 -3.256499999999999673e-02
-1.336399999999999914e-02 3.317699999999999816e-02 -1.269379999999999953e-01
1.886829999999999896e-01 -4.687220000000000275e-01 6.201500000000000068e-02
-1.379869999999999985e-01 -8.280500000000000360e-02 -1.908670000000000089e-01
1.224829999999999947e-01 3.617659999999999765e-01 -1.244090000000000057e-01
-2.218219999999999914e-01 -2.286399999999999891e-02 2.324100000000000124e-02
7.802000000000000601e-02 -2.215280000000000027e-01 1.536119999999999985e-01
5.171300000000000202e-02 2.727189999999999892e-01 1.760589999999999933e-01
-1.217120000000000007e-01 2.138309999999999933e-01 -1.596200000000000049e-02
1.129700000000000010e-01 -4.013280000000000181e-01 1.156340000000000007e-01
2.455509999999999915e-01 6.126230000000000286e-01 -2.114939999999999876e-01
1.690200000000000036e-02 -1.356159999999999866e-01 -1.813210000000000099e-01
-4.511699999999999738e-02 -1.266110000000000013e-01 1.739159999999999873e-01
-8.867200000000000082e-02 -1.655999999999999972e-01 -2.194830000000000114e-01
-1.523680000000000034e-01 -1.924299999999999899e-01 9.635299999999999421e-02
2.310949999999999949e-01 -3.230589999999999851e-01 5.349700000000000288e-02
2.655290000000000150e-01 6.547140000000000182e-01 -1.879149999999999987e-01
-1.266019999999999923e-01 1.895189999999999930e-01 2.159000000000000086e-01
9.268700000000000550e-02 6.471839999999999815e-01 9.612300000000000011e-02
1.473140000000000005e-01 -7.823149999999999826e-01 8.440000000000000280e-02
-5.077500000000000069e-02 2.683349999999999902e-01 1.700609999999999900e-01
1.207349999999999951e-01 -5.836289999999999534e-01 7.590700000000000225e-02
-1.237010000000000054e-01 2.544759999999999800e-01 7.744800000000000295e-02
-1.700460000000000027e-01 -4.935050000000000270e-01 -1.346670000000000089e-01
3.467400000000000343e-02 -2.275429999999999953e-01 -1.519599999999999944e-02
7.032700000000000062e-02 -1.150530000000000025e-01 1.075020000000000003e-01
1.273819999999999952e-01 3.362600000000000033e-01 -1.108200000000000018e-01
-9.062800000000000022e-02 3.125339999999999785e-01 2.689659999999999829e-01
2.295879999999999865e-01 -3.522480000000000055e-01 1.040050000000000002e-01
-6.128999999999999899e-03 6.581930000000000280e-01 5.020700000000000163e-02
-1.317020000000000135e-01 1.450740000000000085e-01 1.142439999999999983e-01
8.366000000000000172e-03 3.451790000000000136e-01 2.304620000000000002e-01
-7.514999999999999979e-03 5.666390000000000038e-01 4.998400000000000065e-02
5.617599999999999677e-02 5.318799999999999917e-02 6.279500000000000359e-02
1.360180000000000000e-01 -4.496740000000000181e-01 1.301460000000000117e-01
9.143999999999999351e-02 3.932979999999999809e-01 6.201099999999999668e-02
-1.992730000000000057e-01 -1.503980000000000039e-01 -9.155999999999999209e-03
1.808770000000000100e-01 5.141550000000000287e-01 2.789600000000000066e-02
-1.774199999999999944e-01 -1.643749999999999933e-01 -1.409539999999999960e-01
1.128880000000000022e-01 3.860649999999999915e-01 -7.863999999999999463e-03
5.925099999999999811e-02 5.906080000000000219e-01 1.078699999999999937e-01
-2.226700000000000068e-01 -1.008570000000000022e-01 7.122900000000000065e-02
1.004069999999999963e-01 4.841659999999999853e-01 -2.495149999999999868e-01
-2.590950000000000197e-01 -5.556809999999999805e-01 -1.253350000000000020e-01
-2.137000000000000011e-02 -4.554670000000000107e-01 -1.519840000000000080e-01
-9.083399999999999808e-02 -9.643699999999999495e-02 -2.059030000000000027e-01
3.872199999999999948e-02 5.863610000000000211e-01 9.609299999999999786e-02
1.588100000000000067e-01 -3.865810000000000080e-01 1.232929999999999998e-01
-2.048250000000000071e-01 -1.441989999999999938e-01 -9.624000000000000610e-03
-1.662349999999999939e-01 1.983729999999999938e-01 2.250020000000000076e-01
7.810999999999999888e-02 3.962539999999999951e-01 8.599099999999999799e-02
-2.110849999999999949e-01 -1.459000000000000019e-01 2.694540000000000268e-01
4.822599999999999804e-02 1.813790000000000124e-01 -1.362069999999999947e-01
-6.280700000000000172e-02 5.045499999999999985e-02 -1.549439999999999984e-01
5.813999999999999724e-03 4.913120000000000265e-01 -8.510999999999999469e-03
-4.758500000000000230e-02 1.970330000000000137e-01 -1.514969999999999928e-01
-3.064200000000000257e-01 -6.257380000000000164e-01 -1.562580000000000080e-01
-7.751800000000000357e-02 -2.324680000000000080e-01 -2.290949999999999931e-01
4.940599999999999853e-02 -5.392660000000000231e-01 8.286599999999999522e-02
-3.884100000000000052e-02 3.529390000000000027e-01 -1.421060000000000101e-01
-2.451349999999999918e-01 -5.941699999999999759e-01 -1.755079999999999973e-01
1.239080000000000042e-01 -4.334020000000000095e-01 1.277200000000000037e-02
4.521200000000000219e-02 2.844899999999999859e-02 -6.088999999999999968e-02
1.310620000000000118e-01 -3.603230000000000044e-01 2.865499999999999992e-02
-1.305790000000000006e-01 -2.174679999999999946e-01 4.367499999999999855e-02
4.276100000000000040e-02 5.678450000000000442e-01 -5.092399999999999705e-02
1.684460000000000124e-01 5.984760000000000080e-01 -2.326699999999999949e-02
-7.707500000000000462e-02 2.463789999999999869e-01 1.901899999999999979e-01
1.436040000000000094e-01 5.193149999999999711e-01 -2.804829999999999823e-01
-4.148600000000000204e-02 -4.776460000000000150e-01 -2.550859999999999794e-01
1.423349999999999893e-01 4.370020000000000016e-01 -1.440599999999999936e-01
1.981300000000000075e-02 4.558209999999999762e-01 -1.420490000000000086e-01
1.684460000000000124e-01 5.497840000000000504e-01 -1.993089999999999862e-01
-3.235400000000000081e-02 -2.492290000000000061e-01 1.234179999999999999e-01
-2.820000000000000241e-04 1.215090000000000059e-01 -1.451810000000000045e-01
-7.909399999999999764e-02 2.193229999999999902e-01 2.473899999999999988e-01
1.307939999999999936e-01 4.297329999999999761e-01 -2.285739999999999994e-01
-2.882719999999999727e-01 -7.350769999999999804e-01 -1.530340000000000034e-01
-2.135880000000000001e-01 -3.185199999999999837e-02 3.078409999999999758e-01
1.334460000000000091e-01 6.241989999999999483e-01 -4.410700000000000037e-02
-3.758859999999999979e-01 -6.369430000000000369e-01 -9.768699999999999606e-02
-5.704999999999999655e-02 -4.185220000000000051e-01 -2.374209999999999932e-01
-1.977889999999999926e-01 2.745099999999999971e-02 -9.891000000000000486e-03
-1.957409999999999983e-01 1.397600000000000058e-02 -1.062519999999999992e-01
-7.874399999999999455e-02 4.125670000000000170e-01 5.654599999999999904e-02
-1.392809999999999881e-01 1.631489999999999885e-01 -4.118900000000000339e-02
6.614799999999999847e-02 4.647789999999999977e-01 -9.080199999999999383e-02
-3.141700000000000048e-02 -1.996680000000000121e-01 -4.260900000000000104e-02
-1.987939999999999985e-01 4.488999999999999935e-03 1.015360000000000013e-01
-2.147439999999999904e-01 -1.346940000000000082e-01 2.823099999999999915e-02
-1.627500000000000127e-02 5.860830000000000206e-01 3.851799999999999669e-02
-1.827120000000000133e-01 -5.690100000000000158e-01 -2.029839999999999978e-01
1.019100000000000006e-01 3.061849999999999850e-01 -1.294210000000000083e-01
1.547729999999999939e-01 -2.784019999999999828e-01 1.312949999999999950e-01
-2.283999999999999919e-01 -5.757259999999999600e-01 -1.881619999999999959e-01
6.443200000000000316e-02 3.458169999999999855e-01 -1.826290000000000135e-01
2.806300000000000114e-02 -3.866820000000000257e-01 -1.402609999999999968e-01
6.931400000000000061e-02 -5.097960000000000269e-01 1.048260000000000025e-01
2.719880000000000075e-01 6.729399999999999826e-01 -2.461949999999999972e-01
1.207600000000000062e-01 -2.482240000000000002e-01 3.628000000000000148e-03
6.333999999999999353e-02 6.538169999999999815e-01 -4.955899999999999889e-02
-1.762009999999999965e-01 -1.683129999999999904e-01 -4.751000000000000015e-03
1.219400000000000067e-01 3.226930000000000076e-01 4.112699999999999689e-02
-2.092000000000000109e-02 -5.068709999999999605e-01 -2.284090000000000009e-01
1.495599999999999985e-01 -2.048679999999999946e-01 1.084309999999999996e-01
3.605979999999999741e-01 7.616929999999999534e-01 -7.482300000000000062e-02
1.031040000000000012e-01 3.409059999999999868e-01 9.312199999999999644e-02
3.216700000000000115e-02 -1.373679999999999901e-01 -4.210300000000000153e-02
1.434719999999999884e-01 4.801119999999999832e-01 -2.703840000000000132e-01
3.650199999999999972e-02 -8.423700000000000632e-02 7.970399999999999707e-02
3.283099999999999907e-02 -9.970099999999999796e-02 1.121800000000000054e-02
2.390999999999999896e-03 -6.716710000000000180e-01 4.937600000000000322e-02
1.203660000000000008e-01 -3.165930000000000133e-01 1.220320000000000016e-01
-1.332520000000000093e-01 1.236540000000000000e-01 2.638639999999999874e-01
-1.674269999999999925e-01 8.945100000000000273e-02 7.610899999999999610e-02
1.726610000000000089e-01 6.254680000000000240e-01 -2.509839999999999849e-01
1.226600000000000051e-01 3.213929999999999843e-01 3.837600000000000039e-02
1.190000000000000058e-04 4.576180000000000248e-01 1.181910000000000044e-01
-1.243969999999999937e-01 2.560629999999999851e-01 7.133399999999999463e-02
1.223989999999999939e-01 5.415769999999999751e-01 -2.060289999999999899e-01
9.704799999999999538e-02 -2.956960000000000144e-01 -6.220000000000000485e-04
-4.882899999999999741e-02 2.212739999999999985e-01 -1.488130000000000008e-01
-3.408550000000000191e-01 -6.898760000000000447e-01 -1.443290000000000128e-01
4.964699999999999669e-02 3.450880000000000059e-01 1.806899999999999895e-01
2.927669999999999995e-01 6.850089999999999790e-01 -2.182580000000000076e-01
1.002399999999999992e-02 1.182219999999999938e-01 1.322909999999999919e-01
-1.155729999999999952e-01 7.936600000000000599e-02 1.477469999999999895e-01
-2.273900000000000088e-01 -7.111399999999999666e-02 -4.414599999999999774e-02
1.991839999999999999e-01 5.751939999999999831e-01 -2.267349999999999921e-01
1.097599999999999965e-01 1.809369999999999867e-01 4.563799999999999801e-02
-1.838499999999999857e-02 -5.059289999999999621e-01 -1.974049999999999971e-01
5.387299999999999728e-02 4.027100000000000124e-02 5.335100000000000259e-02
1.586809999999999887e-01 -2.067279999999999951e-01 8.685700000000000365e-02
-2.242719999999999991e-01 -9.805600000000000427e-02 -8.054000000000000395e-03
-8.319600000000000606e-02 3.832590000000000163e-01 3.090700000000000044e-02
1.201569999999999999e-01 3.221760000000000179e-01 5.187200000000000144e-02
-2.184689999999999965e-01 1.343840000000000034e-01 2.629859999999999975e-01
6.217500000000000110e-02 2.866119999999999779e-01 -1.637530000000000097e-01
3.524499999999999855e-02 -2.394830000000000014e-01 -1.285499999999999976e-01
1.881750000000000089e-01 6.180080000000000018e-01 -2.882330000000000170e-01
3.073100000000000137e-02 -1.871579999999999910e-01 -1.331259999999999943e-01
-1.766520000000000035e-01 -5.433500000000000135e-02 -1.671350000000000058e-01
-5.635199999999999931e-02 -2.167109999999999870e-01 1.437479999999999869e-01
-7.618600000000000372e-02 2.802720000000000211e-01 -1.084070000000000034e-01
1.027779999999999944e-01 4.371959999999999735e-01 -7.439199999999999979e-02
1.273249999999999937e-01 -2.130170000000000119e-01 2.429100000000000009e-02
1.198509999999999992e-01 2.796000000000000152e-01 9.990799999999999681e-02
1.923199999999999910e-02 9.976799999999999558e-02 1.194690000000000057e-01
3.422000000000000042e-02 6.958860000000000046e-01 1.189499999999999932e-02
2.377599999999999852e-02 -1.046999999999999971e-03 6.146900000000000280e-02
-1.421830000000000038e-01 -1.915729999999999933e-01 1.108709999999999973e-01
-5.594099999999999767e-02 -7.851400000000000046e-02 1.700530000000000097e-01
1.350629999999999886e-01 2.329900000000000027e-01 -7.219599999999999629e-02
8.966599999999999571e-02 2.176369999999999971e-01 -1.124379999999999963e-01
-1.352150000000000019e-01 1.831750000000000045e-01 9.326600000000000168e-02
-2.291899999999999840e-02 -4.704659999999999953e-01 -2.555839999999999779e-01
3.509700000000000319e-02 2.338520000000000043e-01 1.619339999999999946e-01
-9.272999999999999993e-03 1.982379999999999975e-01 1.595260000000000011e-01
6.931600000000000261e-02 4.904200000000000226e-01 -1.384380000000000055e-01
1.029759999999999981e-01 2.772580000000000044e-01 -1.218670000000000031e-01
-2.628909999999999858e-01 -6.622120000000000228e-01 -1.428049999999999875e-01
-1.418999999999999984e-01 1.486969999999999958e-01 9.664100000000000468e-02
-1.946839999999999959e-01 3.185199999999999837e-02 4.043599999999999972e-02
-1.841969999999999996e-01 -1.721830000000000027e-01 -8.105800000000000505e-02
7.213100000000000067e-02 4.806389999999999829e-01 -1.140970000000000040e-01
1.229630000000000029e-01 2.529339999999999922e-01 1.011579999999999979e-01
2.076139999999999930e-01 -2.831049999999999955e-01 4.590600000000000236e-02
7.622800000000000409e-02 -4.734149999999999747e-01 2.809599999999999945e-02
2.827370000000000161e-01 7.203319999999999723e-01 -2.020190000000000041e-01
1.158269999999999994e-01 6.913869999999999738e-01 1.317899999999999974e-02
-2.241670000000000051e-01 -3.731199999999999795e-02 7.280200000000000560e-02
-4.053500000000000159e-02 1.080499999999999933e-01 -1.555269999999999986e-01
-3.769899999999999918e-01 -6.371660000000000101e-01 -1.116599999999999954e-01
9.767499999999999793e-02 -2.089979999999999893e-01 1.047200000000000041e-02
1.030599999999999988e-01 -1.578980000000000106e-01 1.251359999999999972e-01
-1.995999999999999858e-02 -4.817629999999999968e-01 -2.522499999999999742e-01
1.362400000000000069e-02 4.260800000000000143e-01 -1.783289999999999875e-01
2.074330000000000063e-01 -2.685080000000000244e-01 6.134200000000000069e-02
-1.162949999999999956e-01 2.601979999999999849e-01 1.246300000000000012e-02
-2.130640000000000034e-01 -3.985500000000000154e-02 3.082710000000000172e-01
-1.771840000000000082e-01 -8.782600000000000129e-02 1.392869999999999941e-01
2.314479999999999871e-01 -3.307339999999999725e-01 1.061160000000000020e-01
4.551700000000000190e-02 4.719630000000000214e-01 -1.109239999999999948e-01
-1.572689999999999921e-01 -1.976449999999999874e-01 5.282400000000000290e-02
1.592800000000000119e-02 1.261999999999999927e-02 8.157100000000000461e-02
-9.759099999999999719e-02 -4.394179999999999753e-01 -1.490319999999999978e-01
3.443600000000000133e-02 6.793209999999999527e-01 -2.506699999999999900e-02
-1.949899999999999897e-02 1.559379999999999933e-01 1.509659999999999891e-01
1.978310000000000068e-01 6.559479999999999755e-01 -2.474959999999999938e-01
-8.988899999999999668e-02 2.906940000000000079e-01 -8.287100000000000022e-02
-2.077559999999999962e-01 -1.124819999999999987e-01 -1.284089999999999954e-01
-3.904200000000000031e-02 3.933329999999999882e-01 -1.266579999999999928e-01
1.280229999999999979e-01 2.568010000000000015e-01 4.948600000000000221e-02
-5.368999999999999641e-03 -7.370459999999999789e-01 1.209000000000000005e-02
1.573050000000000004e-01 5.038740000000000441e-01 -2.431600000000000081e-02
5.639199999999999768e-02 1.724209999999999909e-01 1.213179999999999953e-01
-4.972499999999999837e-02 4.274990000000000179e-01 1.770199999999999899e-02
-7.755800000000000194e-02 -2.707289999999999974e-01 -6.000699999999999784e-02
-1.918380000000000085e-01 -7.789289999999999825e-01 -1.534919999999999896e-01
-2.570189999999999975e-01 -6.717119999999999758e-01 -1.371380000000000099e-01
-3.581999999999999768e-02 3.190729999999999955e-01 -1.487259999999999971e-01
-2.213330000000000020e-01 -1.145820000000000033e-01 7.509000000000000050e-03
-8.405999999999999583e-02 2.314060000000000006e-01 1.996090000000000086e-01
-3.409309999999999841e-01 -6.887499999999999734e-01 -1.479729999999999934e-01
4.882999999999999841e-02 1.938999999999999890e-01 -1.407349999999999990e-01
8.549400000000000055e-02 7.772900000000000642e-02 -4.129300000000000331e-02
3.699600000000000111e-02 -2.289720000000000089e-01 -1.339079999999999993e-01
-1.417899999999999994e-01 1.745210000000000095e-01 3.048549999999999871e-01
-6.036600000000000299e-02 4.336099999999999954e-01 1.471550000000000080e-01
1.827040000000000053e-01 -3.249000000000000221e-01 1.223300000000000082e-02
1.900110000000000132e-01 6.293760000000000465e-01 -2.197099999999999886e-01
-2.943300000000000083e-02 2.995650000000000257e-01 -1.547389999999999877e-01
-1.048270000000000035e-01 -2.274339999999999973e-01 -2.128659999999999997e-01
2.616999999999999969e-03 -1.691960000000000131e-01 -5.265700000000000242e-02
-1.231259999999999993e-01 3.722400000000000014e-02 1.484020000000000061e-01
-1.726989999999999914e-01 -1.826589999999999880e-01 -1.278620000000000034e-01
4.920399999999999774e-02 4.892460000000000142e-01 -3.993599999999999928e-02
4.420799999999999730e-02 4.900959999999999761e-01 -3.840199999999999864e-02
-2.190449999999999897e-01 -5.545959999999999779e-01 -1.963850000000000040e-01
-8.096000000000000765e-03 -3.108330000000000259e-01 -9.694899999999999352e-02
-1.054630000000000012e-01 -1.470319999999999960e-01 1.621450000000000113e-01
1.148219999999999935e-01 5.587800000000000544e-01 9.264999999999999625e-02
-1.010800000000000032e-01 -2.174429999999999974e-01 5.916000000000000252e-03
-1.755829999999999891e-01 -1.621730000000000116e-01 1.068810000000000038e-01
6.502900000000000347e-02 -7.159969999999999946e-01 7.338000000000000078e-02
-1.779080000000000106e-01 -1.776639999999999886e-01 7.902700000000000002e-02
7.865800000000000569e-02 -7.737910000000000066e-01 7.195300000000000307e-02
2.451700000000000060e-02 -2.492510000000000003e-01 -1.116909999999999986e-01
-2.809800000000000145e-02 4.654710000000000236e-01 6.654899999999999705e-02
-1.237140000000000045e-01 -2.222600000000000131e-01 4.059800000000000214e-02
1.055979999999999974e-01 -4.657270000000000021e-01 1.258279999999999954e-01
-1.678000000000000021e-03 -3.142809999999999770e-01 -1.022799999999999959e-01
4.162500000000000228e-02 1.131329999999999975e-01 -1.134460000000000052e-01
3.687599999999999906e-02 -3.057469999999999910e-01 -2.324990000000000112e-01
2.053800000000000070e-02 -1.559500000000000053e-01 -4.519999999999999712e-02
-1.618749999999999911e-01 2.673690000000000233e-01 2.662919999999999732e-01
-1.876099999999999990e-02 -2.027720000000000078e-01 -2.409299999999999983e-02
5.551699999999999691e-02 2.314329999999999998e-01 -1.478810000000000124e-01
-1.028469999999999940e-01 8.741200000000000359e-02 1.510859999999999981e-01
-7.996799999999999742e-02 3.506279999999999952e-01 -4.594600000000000073e-02
4.481000000000000261e-02 -9.301399999999999946e-02 9.216000000000000580e-02
6.948100000000000109e-02 4.674479999999999746e-01 -2.194450000000000012e-01
4.662499999999999978e-02 -2.855670000000000153e-01 2.948999999999999799e-03
1.452019999999999977e-01 4.566379999999999884e-01 1.563000000000000153e-02
-1.018180000000000057e-01 3.046700000000000103e-02 -1.630409999999999915e-01
4.070999999999999966e-03 -4.836639999999999828e-01 -2.415960000000000052e-01
5.495699999999999891e-02 3.737900000000000250e-02 4.726899999999999852e-02
2.882859999999999867e-01 7.363089999999999913e-01 -1.298630000000000062e-01
-2.178519999999999901e-01 -1.289780000000000093e-01 3.820899999999999991e-02
1.446070000000000133e-01 3.132170000000000232e-01 -5.938700000000000229e-02
-7.783199999999999841e-02 2.286040000000000016e-01 2.533030000000000004e-01
1.362990000000000035e-01 -2.710009999999999919e-01 2.546000000000000086e-03
-1.172779999999999934e-01 2.333639999999999881e-01 -6.909099999999999964e-02
1.278640000000000054e-01 4.074559999999999849e-01 -1.902850000000000097e-01
-1.797980000000000134e-01 -5.208110000000000239e-01 -1.251809999999999867e-01
7.160600000000000298e-02 -1.261950000000000016e-01 6.285899999999999821e-02
-1.382300000000000022e-02 -6.977079999999999949e-01 2.914800000000000030e-02
-7.487999999999999864e-03 6.391199999999999659e-02 -1.357299999999999895e-01
2.936349999999999794e-01 7.533640000000000336e-01 -1.610489999999999977e-01
-1.164349999999999968e-01 -2.202230000000000021e-01 1.011429999999999968e-01
-2.092930000000000068e-01 -5.311129999999999463e-01 -1.271029999999999938e-01
1.431679999999999897e-01 -5.458730000000000526e-01 6.133899999999999769e-02
-2.288989999999999914e-01 -6.439000000000000279e-02 1.667999999999999995e-03
-1.121889999999999971e-01 -3.050039999999999973e-01 -1.425780000000000103e-01
-1.601390000000000036e-01 -2.863600000000000173e-02 -1.724430000000000129e-01
-6.951300000000000534e-02 -4.696870000000000211e-01 -1.370049999999999879e-01
1.338030000000000053e-01 4.134559999999999902e-01 -1.469999999999999918e-01
1.271839999999999915e-01 3.792949999999999933e-01 -1.270209999999999950e-01
-2.144800000000000040e-01 -4.022999999999999667e-03 5.442299999999999915e-02
-2.245739999999999958e-01 -6.038949999999999596e-01 -1.336320000000000008e-01
-4.366000000000000089e-03 5.553580000000000183e-01 5.084799999999999737e-02
1.214670000000000055e-01 -3.859929999999999750e-01 1.098650000000000043e-01
-1.452519999999999922e-01 -4.684349999999999903e-01 -2.297669999999999990e-01
-1.307999999999999918e-03 3.827799999999999953e-02 1.108869999999999995e-01
1.521139999999999992e-01 4.870220000000000105e-01 -2.736879999999999868e-01
2.444689999999999919e-01 6.583780000000000188e-01 -1.859399999999999942e-01
-1.853680000000000050e-01 1.564000000000000069e-03 -1.406189999999999940e-01
1.133400000000000032e-02 -1.823599999999999874e-02 6.325300000000000367e-02
-6.673199999999999965e-02 -3.261290000000000022e-01 -9.802800000000000402e-02
-5.759800000000000336e-02 3.707710000000000172e-01 -1.069429999999999964e-01
-2.048979999999999968e-01 -1.084790000000000060e-01 2.795549999999999979e-01
1.611019999999999952e-01 -2.348409999999999942e-01 3.225900000000000295e-02
2.295639999999999903e-01 -3.278829999999999800e-01 1.079159999999999980e-01
2.299100000000000102e-02 4.296849999999999836e-01 1.416840000000000044e-01
-7.771200000000000330e-02 9.286099999999999910e-02 1.533869999999999956e-01
4.355099999999999943e-02 4.160539999999999794e-01 1.165569999999999939e-01
5.294200000000000295e-02 5.391190000000000149e-01 -4.566900000000000126e-02
-2.886000000000000110e-03 6.095140000000000002e-01 -2.586400000000000157e-02
4.290399999999999769e-02 4.647249999999999992e-01 -5.520400000000000307e-02
9.090700000000000169e-02 4.263299999999999867e-01 -2.339310000000000000e-01
-1.613449999999999884e-01 -5.141250000000000542e-01 -1.245170000000000027e-01
-2.526000000000000120e-02 -3.834400000000000031e-01 -2.507929999999999882e-01
7.951600000000000334e-02 3.751510000000000122e-01 -1.901579999999999937e-01
-1.581760000000000110e-01 1.174319999999999947e-01 3.659799999999999859e-02
5.691399999999999931e-02 -5.551009999999999556e-01 3.012000000000000094e-02
-9.142899999999999638e-02 -1.534250000000000058e-01 -2.173130000000000062e-01
-9.611999999999999711e-02 3.195599999999999830e-02 -1.623880000000000046e-01
6.030999999999999903e-03 6.672329999999999650e-01 -1.312699999999999978e-02
-1.071529999999999982e-01 3.282120000000000037e-01 4.152000000000000135e-02
-2.101169999999999982e-01 -1.312180000000000013e-01 2.810110000000000108e-01
1.160149999999999931e-01 2.921699999999999853e-01 1.017570000000000002e-01
4.739600000000000063e-02 -3.108389999999999764e-01 3.252200000000000230e-02
9.153999999999999637e-02 5.059010000000000451e-01 8.278399999999999648e-02
1.319740000000000080e-01 -7.386509999999999465e-01 6.562800000000000578e-02
4.298899999999999944e-02 6.935459999999999958e-01 -7.527999999999999969e-03
2.790469999999999895e-01 6.914759999999999796e-01 -2.297399999999999998e-01
1.143430000000000002e-01 -3.694819999999999771e-01 7.084999999999999631e-02
-2.479570000000000107e-01 -1.198960000000000026e-01 2.708849999999999869e-01
-6.786200000000000565e-02 -5.328450000000000131e-01 -2.249839999999999895e-01
-3.391199999999999770e-02 -1.952919999999999934e-01 -4.044799999999999784e-02
4.127399999999999819e-02 4.733660000000000090e-01 -1.755940000000000001e-01
1.660520000000000052e-01 -7.466420000000000279e-01 3.687800000000000106e-02
1.175600000000000082e-02 -9.058900000000000285e-02 -1.102039999999999964e-01
5.329000000000000403e-03 1.175839999999999941e-01 -1.418750000000000011e-01
-2.222929999999999906e-01 -6.114030000000000298e-01 -1.582780000000000020e-01
-1.637879999999999892e-01 5.802700000000000219e-02 1.165459999999999968e-01
9.892800000000000205e-02 -2.023399999999999921e-01 1.431600000000000060e-02
1.138330000000000036e-01 -3.549160000000000093e-01 6.504500000000000559e-02
1.648219999999999963e-01 -2.146419999999999995e-01 8.428900000000000281e-02
6.811200000000000587e-02 4.831010000000000026e-01 7.837500000000000022e-02
-2.145100000000000132e-02 -3.007500000000000173e-01 -8.632800000000000196e-02
1.009039999999999937e-01 6.860960000000000392e-01 -1.396000000000000019e-02
-2.033270000000000077e-01 1.015600000000000010e-02 7.927599999999999925e-02
4.617799999999999683e-02 1.302280000000000104e-01 -1.159290000000000043e-01
3.274300000000000127e-02 -4.249879999999999769e-01 -1.637990000000000002e-01
-1.862679999999999891e-01 -2.327800000000000008e-02 2.708329999999999904e-01
-1.353300000000000058e-01 1.277349999999999874e-01 2.896940000000000071e-01
3.103699999999999862e-02 4.254669999999999841e-01 1.304309999999999914e-01
5.300000000000000024e-03 4.825619999999999910e-01 -2.239999999999999977e-02
-1.207399999999999966e-02 5.613209999999999589e-01 2.838399999999999951e-02
1.658700000000000105e-02 4.667339999999999822e-01 -1.069169999999999981e-01
1.759000000000000147e-02 5.522399999999999531e-01 7.452200000000000490e-02
-1.749850000000000017e-01 -9.243999999999999440e-02 -1.702299999999999924e-01
1.383400000000000081e-02 4.346119999999999983e-01 1.506949999999999956e-01
2.207760000000000000e-01 -3.068330000000000224e-01 1.065310000000000007e-01
-3.801999999999999824e-02 -3.764649999999999941e-01 -2.410090000000000010e-01
-5.661499999999999866e-02 2.882000000000000117e-01 2.550970000000000182e-01
-1.478530000000000122e-01 -2.054360000000000075e-01 5.859999999999999931e-02
-2.220000000000000029e-01 4.451499999999999901e-02 2.996480000000000254e-01
2.137930000000000108e-01 -2.908009999999999762e-01 4.885400000000000159e-02
9.883999999999999730e-02 4.520629999999999926e-01 -2.252699999999999841e-02
-3.075000000000000042e-03 5.426349999999999785e-01 4.121400000000000063e-02
-1.842350000000000099e-01 4.938800000000000134e-02 1.734000000000000125e-02
-5.982000000000000338e-03 -2.883930000000000105e-01 8.510099999999999609e-02
-2.230020000000000058e-01 -7.526460000000000372e-01 -1.645419999999999938e-01
-6.652500000000000080e-02 3.052019999999999733e-01 -1.159039999999999931e-01
-5.391599999999999865e-02 -5.003389999999999782e-01 -1.544320000000000137e-01
-1.569830000000000114e-01 2.379280000000000006e-01 2.166460000000000052e-01
-1.780190000000000106e-01 4.828500000000000153e-02 3.048250000000000126e-01
1.119560000000000000e-01 2.055079999999999962e-01 8.703600000000000225e-02
1.264599999999999891e-01 3.783860000000000001e-01 -2.819100000000000078e-02
4.160999999999999768e-03 4.514090000000000047e-01 -1.294770000000000088e-01
-6.021699999999999969e-02 -4.382010000000000072e-01 -1.491669999999999940e-01
1.394170000000000131e-01 2.511180000000000079e-01 -1.270400000000000001e-02
1.608229999999999937e-01 4.792420000000000013e-01 -8.406000000000000277e-03
1.101469999999999949e-01 -3.835919999999999885e-01 3.944199999999999789e-02
-1.436810000000000032e-01 2.452229999999999965e-01 2.025550000000000128e-01
2.492959999999999898e-01 5.901399999999999979e-01 -2.771549999999999847e-01
-7.391399999999999360e-02 -5.378739999999999633e-01 -2.200179999999999914e-01
-3.347209999999999908e-01 -6.701820000000000555e-01 -1.591190000000000104e-01
-2.169570000000000110e-01 -6.052720000000000322e-01 -1.438029999999999864e-01
3.015699999999999978e-02 -2.764630000000000143e-01 -2.327349999999999974e-01
-6.432799999999999629e-02 -4.181860000000000022e-01 -2.319460000000000133e-01
-1.290139999999999898e-01 -1.844339999999999868e-01 1.291289999999999938e-01
-1.857360000000000122e-01 -2.454900000000000138e-02 2.816489999999999827e-01
-2.392249999999999932e-01 -1.429920000000000080e-01 3.030769999999999853e-01
-1.503450000000000064e-01 -4.552010000000000223e-01 -1.576349999999999973e-01
1.185950000000000060e-01 -1.599770000000000081e-01 1.017440000000000011e-01
-6.631999999999999874e-03 4.763069999999999804e-01 5.195299999999999918e-02
-8.606199999999999961e-02 -1.999130000000000074e-01 -2.235979999999999912e-01
3.171930000000000027e-01 7.239280000000000159e-01 -1.580290000000000028e-01
5.060800000000000021e-02 -2.507969999999999922e-01 1.465879999999999961e-01
-7.616999999999999639e-03 -2.193519999999999914e-01 -6.419700000000000406e-02
-4.554699999999999721e-02 -2.015280000000000127e-01 1.577669999999999906e-01
4.333300000000000346e-02 1.092029999999999945e-01 1.055259999999999948e-01
1.116319999999999951e-01 2.592070000000000207e-01 1.280070000000000097e-01
1.328060000000000074e-01 2.486539999999999861e-01 -4.360000000000000269e-04
3.182260000000000089e-01 7.573649999999999549e-01 -1.587359999999999882e-01
1.330340000000000134e-01 2.817580000000000084e-01 -9.355099999999999527e-02
3.594169999999999865e-01 7.709759999999999946e-01 -1.272270000000000068e-01
-2.520740000000000203e-01 -1.501599999999999879e-01 2.482820000000000027e-01
3.732900000000000107e-02 -6.426979999999999915e-01 2.593600000000000072e-02
-2.955999999999999947e-02 4.425930000000000142e-01 -3.024900000000000158e-02
-5.094599999999999823e-02 -4.708590000000000275e-01 -2.558449999999999891e-01
