5.773193240165710449e-01 6.438627243041992188e-01 3.910209238529205322e-01
5.814634561538696289e-01 6.294515132904052734e-01 3.906175494194030762e-01
3.048800230026245117e-01 6.751769781112670898e-01 3.206945359706878662e-01
2.931604087352752686e-01 6.803851723670959473e-01 3.270750641822814941e-01
3.111310303211212158e-01 6.832039952278137207e-01 3.307797610759735107e-01
2.990133762359619141e-01 6.903621554374694824e-01 3.389027118682861328e-01
1.963882297277450562e-01 4.098768830299377441e-01 4.935777559876441956e-02
1.942753344774246216e-01 3.980006277561187744e-01 5.378546938300132751e-02
1.905323565006256104e-01 4.134054780006408691e-01 6.008038669824600220e-02
1.880228668451309204e-01 4.006645381450653076e-01 6.506570428609848022e-02
7.354995608329772949e-02 7.815406471490859985e-02 8.425369262695312500e-01
6.597942113876342773e-02 7.795774936676025391e-02 8.480229377746582031e-01
8.272583037614822388e-02 7.914326339960098267e-02 8.501148819923400879e-01
7.499765604734420776e-02 7.833597809076309204e-02 8.557996153831481934e-01
5.999895930290222168e-02 5.073497295379638672e-01 4.311380684375762939e-01
5.912533402442932129e-02 5.007984638214111328e-01 4.359053969383239746e-01
5.941205471754074097e-02 5.073013305664062500e-01 4.411174654960632324e-01
5.864400789141654968e-02 5.004461407661437988e-01 4.461277425289154053e-01
5.918915942311286926e-02 7.184201478958129883e-01 4.986346364021301270e-01
5.564489960670471191e-02 7.107434272766113281e-01 5.030658841133117676e-01
6.261637806892395020e-02 7.257280349731445312e-01 5.099513530731201172e-01
5.874572694301605225e-02 7.183800339698791504e-01 5.149618983268737793e-01
1.633215993642807007e-01 3.831827342510223389e-01 1.892096698284149170e-01
1.633547693490982056e-01 3.751265704631805420e-01 1.955432146787643433e-01
1.593864262104034424e-01 3.830472826957702637e-01 2.025451362133026123e-01
1.590130776166915894e-01 3.749223649501800537e-01 2.106811404228210449e-01
5.899514630436897278e-02 5.947461724281311035e-01 4.666355252265930176e-01
5.867228657007217407e-02 5.834078192710876465e-01 4.703775346279144287e-01
5.797744169831275940e-02 5.941247940063476562e-01 4.805533587932586670e-01
5.784900486469268799e-02 5.826426744461059570e-01 4.837485253810882568e-01
2.428585886955261230e-01 2.841786853969097137e-02 1.593726575374603271e-01
2.345628142356872559e-01 2.844065800309181213e-02 1.659900695085525513e-01
2.536215186119079590e-01 2.729106694459915161e-02 1.694917231798171997e-01
2.452868372201919556e-01 2.731195464730262756e-02 1.760185807943344116e-01
5.226888656616210938e-01 1.615484058856964111e-01 4.028725028038024902e-01
5.162621140480041504e-01 1.643641591072082520e-01 4.115337133407592773e-01
5.319616198539733887e-01 1.556599438190460205e-01 4.106770455837249756e-01
5.249243378639221191e-01 1.592747420072555542e-01 4.183590710163116455e-01
5.213841199874877930e-01 5.711328387260437012e-01 1.793569177389144897e-01
5.225512385368347168e-01 5.557119846343994141e-01 1.793228685855865479e-01
5.233646631240844727e-01 5.743421912193298340e-01 1.968397349119186401e-01
5.247219204902648926e-01 5.592099428176879883e-01 1.966991424560546875e-01
3.448439836502075195e-01 2.800586074590682983e-02 1.919464766979217529e-01
3.344661295413970947e-01 2.822652086615562439e-02 2.022055387496948242e-01
3.556852936744689941e-01 2.751299738883972168e-02 2.054460942745208740e-01
3.452850282192230225e-01 2.778640389442443848e-02 2.156299948692321777e-01
6.314606219530105591e-02 1.068611294031143188e-01 2.228573113679885864e-01
6.024102494120597839e-02 1.034020110964775085e-01 2.302876114845275879e-01
6.759704649448394775e-02 1.099291741847991943e-01 2.342387288808822632e-01
6.663253158330917358e-02 1.038102880120277405e-01 2.407871931791305542e-01
6.031536459922790527e-01 1.457587629556655884e-01 1.120685040950775146e-01
5.922745466232299805e-01 1.477981060743331909e-01 1.174465939402580261e-01
6.112099885940551758e-01 1.441070288419723511e-01 1.237964779138565063e-01
6.014710068702697754e-01 1.464107334613800049e-01 1.298564970493316650e-01
6.273963451385498047e-01 8.696480095386505127e-02 2.423450946807861328e-01
6.278635263442993164e-01 7.396107912063598633e-02 2.456765025854110718e-01
6.281757950782775879e-01 8.730092644691467285e-02 2.543516457080841064e-01
6.288110613822937012e-01 7.526464760303497314e-02 2.575144469738006592e-01
4.565354287624359131e-01 2.839167229831218719e-02 7.682601809501647949e-01
4.460571408271789551e-01 2.553642541170120239e-02 7.780395746231079102e-01
4.648666977882385254e-01 2.522192895412445068e-02 7.779724597930908203e-01
4.542088806629180908e-01 2.308396063745021820e-02 7.870503664016723633e-01
3.197657763957977295e-01 4.765689745545387268e-02 7.149732112884521484e-01
3.079450428485870361e-01 4.623514041304588318e-02 7.199358344078063965e-01
3.317693173885345459e-01 4.368179291486740112e-02 7.243737578392028809e-01
3.203344345092773438e-01 4.228855296969413757e-02 7.295258641242980957e-01
5.757784247398376465e-01 7.310792058706283569e-02 7.607673406600952148e-01
5.639216303825378418e-01 7.338261604309082031e-02 7.675166130065917969e-01
5.865224599838256836e-01 7.246743142604827881e-02 7.679148912429809570e-01
5.767099857330322266e-01 7.196893543004989624e-02 7.759082913398742676e-01
2.603728771209716797e-01 1.465752571821212769e-01 5.468332171440124512e-01
2.506472766399383545e-01 1.447549313306808472e-01 5.575287342071533203e-01
2.692768275737762451e-01 1.411567479372024536e-01 5.593587160110473633e-01
2.591116428375244141e-01 1.387980282306671143e-01 5.699561238288879395e-01
6.577450037002563477e-02 8.633363991975784302e-02 2.064667344093322754e-01
6.275457888841629028e-02 8.681590110063552856e-02 2.146635502576828003e-01
6.964852660894393921e-02 9.080040454864501953e-02 2.182583063840866089e-01
6.847035139799118042e-02 8.733624219894409180e-02 2.261867970228195190e-01
6.146932840347290039e-01 4.802968502044677734e-01 4.256196618080139160e-01
6.153950095176696777e-01 4.669846594333648682e-01 4.263452291488647461e-01
6.170430779457092285e-01 4.816489219665527344e-01 4.395861923694610596e-01
6.172670125961303711e-01 4.692222774028778076e-01 4.405495524406433105e-01
4.715186357498168945e-01 2.951351180672645569e-02 2.220726311206817627e-01
4.616819322109222412e-01 2.849424816668033600e-02 2.318078726530075073e-01
4.791217744350433350e-01 2.767853625118732452e-02 2.316716611385345459e-01
4.705441594123840332e-01 2.654659003019332886e-02 2.432993799448013306e-01
6.149633526802062988e-01 5.985900759696960449e-01 4.489271044731140137e-01
6.156912446022033691e-01 5.882371068000793457e-01 4.495448470115661621e-01
6.154057979583740234e-01 6.006652712821960449e-01 4.588128328323364258e-01
6.154829859733581543e-01 5.905525088310241699e-01 4.596137702465057373e-01
2.659133374691009521e-01 1.576388627290725708e-01 2.072429656982421875e-01
2.583780288696289062e-01 1.617691218852996826e-01 2.175837457180023193e-01
2.717628479003906250e-01 1.606393605470657349e-01 2.209916114807128906e-01
2.641122043132781982e-01 1.644944697618484497e-01 2.308603525161743164e-01
3.330113291740417480e-01 7.202697396278381348e-01 3.597101867198944092e-01
3.213802576065063477e-01 7.219920158386230469e-01 3.643902242183685303e-01
3.381635546684265137e-01 7.251824140548706055e-01 3.720729947090148926e-01
3.271494507789611816e-01 7.276359200477600098e-01 3.773781657218933105e-01
6.089733242988586426e-01 2.878463082015514374e-02 6.222325563430786133e-01
6.047264933586120605e-01 1.844445616006851196e-02 6.242513656616210938e-01
6.180658936500549316e-01 2.944009192287921906e-02 6.224763989448547363e-01
6.131488680839538574e-01 1.923852786421775818e-02 6.254931092262268066e-01
2.645843625068664551e-01 2.574103698134422302e-02 8.414156436920166016e-01
2.567300498485565186e-01 2.460215426981449127e-02 8.524019718170166016e-01
2.699820399284362793e-01 2.540190890431404114e-02 8.507921695709228516e-01
2.628335356712341309e-01 2.422204427421092987e-02 8.639608621597290039e-01
6.388895958662033081e-02 1.187166497111320496e-01 2.875601053237915039e-01
6.336773186922073364e-02 1.111046671867370605e-01 2.953799664974212646e-01
6.322136521339416504e-02 1.211874410510063171e-01 3.009150028228759766e-01
6.289789080619812012e-02 1.134214028716087341e-01 3.092283904552459717e-01
6.129153966903686523e-01 6.802020221948623657e-02 7.143233716487884521e-02
6.081808209419250488e-01 5.758411809802055359e-02 7.199800759553909302e-02
6.227409243583679199e-01 6.770356744527816772e-02 8.152812719345092773e-02
6.182219982147216797e-01 5.665348097681999207e-02 8.262187987565994263e-02
3.630934357643127441e-01 2.275426983833312988e-01 4.013600349426269531e-01
3.563407063484191895e-01 2.216865271329879761e-01 4.038957953453063965e-01
3.739003241062164307e-01 2.279462367296218872e-01 4.050756692886352539e-01
3.678213357925415039e-01 2.214398831129074097e-01 4.070812165737152100e-01
3.603927493095397949e-01 7.406290173530578613e-01 5.501618385314941406e-01
3.525210022926330566e-01 7.346038222312927246e-01 5.566123127937316895e-01
3.709212839603424072e-01 7.363575696945190430e-01 5.554133653640747070e-01
3.631814718246459961e-01 7.295774817466735840e-01 5.616045594215393066e-01
2.490257322788238525e-01 6.884897947311401367e-01 3.682155013084411621e-01
2.363103032112121582e-01 6.900476813316345215e-01 3.710815310478210449e-01
2.560251653194427490e-01 6.951842308044433594e-01 3.799385428428649902e-01
2.437672317028045654e-01 6.951467990875244141e-01 3.806406259536743164e-01
1.711162924766540527e-01 1.607416719198226929e-01 4.890307486057281494e-01
1.647329479455947876e-01 1.598033756017684937e-01 4.961888492107391357e-01
1.784355640411376953e-01 1.594592332839965820e-01 5.006617307662963867e-01
1.721629947423934937e-01 1.585931926965713501e-01 5.069451928138732910e-01
2.477853596210479736e-01 2.704466134309768677e-02 4.529677331447601318e-01
2.397738993167877197e-01 2.603379823267459869e-02 4.644214212894439697e-01
2.529554367065429688e-01 2.715292572975158691e-02 4.714557826519012451e-01
2.446363568305969238e-01 2.583093196153640747e-02 4.819158613681793213e-01
4.183546602725982666e-01 2.357950806617736816e-01 4.210550189018249512e-01
4.087841808795928955e-01 2.360383123159408569e-01 4.250804483890533447e-01
4.270032644271850586e-01 2.377980798482894897e-01 4.283783137798309326e-01
4.171724319458007812e-01 2.378354519605636597e-01 4.325379133224487305e-01
9.786524623632431030e-02 2.812571078538894653e-02 2.562148272991180420e-01
9.039536863565444946e-02 2.797013521194458008e-02 2.653517127037048340e-01
1.056516841053962708e-01 2.750146575272083282e-02 2.672866582870483398e-01
9.827961772680282593e-02 2.749208919703960419e-02 2.763735651969909668e-01
2.052067071199417114e-01 2.668960988521575928e-01 5.417424440383911133e-02
1.980267167091369629e-01 2.664516866207122803e-01 6.523929536342620850e-02
2.096396982669830322e-01 2.636242508888244629e-01 6.439125537872314453e-02
2.018755376338958740e-01 2.628726363182067871e-01 7.385858893394470215e-02
3.080070316791534424e-01 6.317689269781112671e-02 6.377612054347991943e-02
2.954833805561065674e-01 5.810708552598953247e-02 6.809594482183456421e-02
3.209965527057647705e-01 6.291213631629943848e-02 7.090291380882263184e-02
3.088367581367492676e-01 5.770719051361083984e-02 7.512294501066207886e-02
3.427888453006744385e-01 1.460825949907302856e-01 8.292758464813232422e-02
3.307042121887207031e-01 1.441372483968734741e-01 8.466349542140960693e-02
3.558443486690521240e-01 1.466445475816726685e-01 8.675217628479003906e-02
3.435947597026824951e-01 1.473125815391540527e-01 8.885680139064788818e-02
5.082776546478271484e-01 1.618146300315856934e-01 2.911674678325653076e-01
4.986459612846374512e-01 1.634224951267242432e-01 2.989297509193420410e-01
5.172784328460693359e-01 1.592202335596084595e-01 3.009606301784515381e-01
5.074329376220703125e-01 1.606210321187973022e-01 3.085733056068420410e-01
5.594252943992614746e-01 2.788409963250160217e-02 3.116202652454376221e-01
5.471489429473876953e-01 2.801395207643508911e-02 3.215737938880920410e-01
5.711460709571838379e-01 2.694885060191154480e-02 3.255218863487243652e-01
5.588388442993164062e-01 2.705350890755653381e-02 3.352884352207183838e-01
2.557170689105987549e-01 2.169927358627319336e-01 3.186208307743072510e-01
2.556233108043670654e-01 2.039815634489059448e-01 3.215261697769165039e-01
2.579081356525421143e-01 2.190539091825485229e-01 3.303951919078826904e-01
2.583060562610626221e-01 2.064301371574401855e-01 3.335185945034027100e-01
1.912858337163925171e-01 3.359886407852172852e-01 7.210224121809005737e-02
1.877966374158859253e-01 3.312685191631317139e-01 7.735702395439147949e-02
1.879146248102188110e-01 3.351956307888031006e-01 8.170340955257415771e-02
1.866933703422546387e-01 3.286837041378021240e-01 8.617497980594635010e-02
5.504394173622131348e-01 8.107627183198928833e-02 8.261398673057556152e-01
5.434373021125793457e-01 8.069244772195816040e-02 8.335272669792175293e-01
5.556874275207519531e-01 8.177929371595382690e-02 8.379563689231872559e-01
5.489900112152099609e-01 8.094436675310134888e-02 8.459326028823852539e-01
1.771576553583145142e-01 4.018440544605255127e-01 1.262464374303817749e-01
1.761511415243148804e-01 3.920923471450805664e-01 1.331995576620101929e-01
1.734925657510757446e-01 4.008488059043884277e-01 1.415022164583206177e-01
1.722334623336791992e-01 3.910941779613494873e-01 1.489400416612625122e-01
3.273787200450897217e-01 2.841468527913093567e-02 1.402879655361175537e-01
3.187015950679779053e-01 2.812128141522407532e-02 1.509440392255783081e-01
3.328437507152557373e-01 2.826007641851902008e-02 1.541152298450469971e-01
3.241846263408660889e-01 2.790069580078125000e-02 1.651057153940200806e-01
2.353440374135971069e-01 2.806154079735279083e-02 3.041658401489257812e-01
2.258193790912628174e-01 2.796990983188152313e-02 3.115710616111755371e-01
2.441832870244979858e-01 2.680880948901176453e-02 3.202199041843414307e-01
2.330009192228317261e-01 2.782143466174602509e-02 3.276700079441070557e-01
4.257322847843170166e-01 2.126882672309875488e-01 3.333086967468261719e-01
4.242003560066223145e-01 2.057559341192245483e-01 3.399713039398193359e-01
4.240895509719848633e-01 2.150016427040100098e-01 3.483287096023559570e-01
4.225540459156036377e-01 2.078075408935546875e-01 3.545025289058685303e-01
4.788682758808135986e-01 6.025732755661010742e-01 3.882744908332824707e-02
4.753703176975250244e-01 5.892215967178344727e-01 3.728577122092247009e-02
4.902064204216003418e-01 6.013916730880737305e-01 4.745356366038322449e-02
4.865745306015014648e-01 5.876845717430114746e-01 4.556769505143165588e-02
1.001414656639099121e-01 6.981360912322998047e-01 5.664353966712951660e-01
9.600804001092910767e-02 6.892427802085876465e-01 5.676380991935729980e-01
1.118804812431335449e-01 6.983022093772888184e-01 5.684115886688232422e-01
1.078314408659934998e-01 6.881745457649230957e-01 5.684433579444885254e-01
5.399545431137084961e-01 5.138232707977294922e-01 2.997341454029083252e-01
5.397897958755493164e-01 5.012184381484985352e-01 2.995680868625640869e-01
5.426952838897705078e-01 5.158743262290954590e-01 3.129803240299224854e-01
5.430766940116882324e-01 5.032703280448913574e-01 3.132469356060028076e-01
5.608521103858947754e-01 1.459885239601135254e-01 3.218251764774322510e-01
5.501261949539184570e-01 1.453433036804199219e-01 3.274360299110412598e-01
5.726881623268127441e-01 1.439875066280364990e-01 3.316473364830017090e-01
5.628708004951477051e-01 1.434540748596191406e-01 3.376490771770477295e-01
6.135380864143371582e-01 3.541967272758483887e-01 4.905155301094055176e-01
6.149852871894836426e-01 3.401435017585754395e-01 4.929084777832031250e-01
6.130565404891967773e-01 3.580883741378784180e-01 5.025535225868225098e-01
6.143719553947448730e-01 3.442186117172241211e-01 5.054101347923278809e-01
6.098100915551185608e-02 3.119664490222930908e-01 4.307908713817596436e-01
6.028363853693008423e-02 3.014023602008819580e-01 4.361483752727508545e-01
5.923905223608016968e-02 3.104553222656250000e-01 4.439984858036041260e-01
5.892824754118919373e-02 3.009145259857177734e-01 4.492698013782501221e-01
1.743835210800170898e-01 6.116835474967956543e-01 5.643638372421264648e-01
1.635782122611999512e-01 5.950436592102050781e-01 5.663868188858032227e-01
1.909066140651702881e-01 6.119711399078369141e-01 5.632773041725158691e-01
1.815402358770370483e-01 5.958575606346130371e-01 5.648664236068725586e-01
1.113819181919097900e-01 5.959649682044982910e-01 5.631914138793945312e-01
1.074212640523910522e-01 5.839637517929077148e-01 5.638728737831115723e-01
1.245772615075111389e-01 5.858655571937561035e-01 5.618743300437927246e-01
1.198341771960258484e-01 5.737935900688171387e-01 5.625683665275573730e-01
5.250307917594909668e-01 6.522887945175170898e-01 3.120028674602508545e-01
5.163742899894714355e-01 6.563112735748291016e-01 3.156370818614959717e-01
5.330018997192382812e-01 6.556081175804138184e-01 3.244549334049224854e-01
5.242982506752014160e-01 6.595788598060607910e-01 3.280073404312133789e-01
1.207608580589294434e-01 8.082975447177886963e-02 7.129052877426147461e-01
1.074112132191658020e-01 8.223593235015869141e-02 7.193747758865356445e-01
1.316675245761871338e-01 7.783640176057815552e-02 7.236998677253723145e-01
1.197718083858489990e-01 7.928030937910079956e-02 7.302264571189880371e-01
4.729669392108917236e-01 2.881391532719135284e-02 1.198034957051277161e-01
4.659109711647033691e-01 2.904175780713558197e-02 1.312134712934494019e-01
4.798797667026519775e-01 2.743116766214370728e-02 1.334489583969116211e-01
4.731388092041015625e-01 2.788401581346988678e-02 1.442100703716278076e-01
9.787307679653167725e-02 5.929566547274589539e-02 5.889872834086418152e-02
8.959939330816268921e-02 6.103264540433883667e-02 6.987115740776062012e-02
1.073874756693840027e-01 4.963999986648559570e-02 6.454547494649887085e-02
9.906715154647827148e-02 4.912669956684112549e-02 7.460587471723556519e-02
5.830513313412666321e-02 3.791728019714355469e-01 4.848890006542205811e-01
5.774940177798271179e-02 3.699971735477447510e-01 4.880347251892089844e-01
5.795730650424957275e-02 3.863041400909423828e-01 4.949725270271301270e-01
5.775784328579902649e-02 3.745541274547576904e-01 4.982098340988159180e-01
2.993629276752471924e-01 2.866881899535655975e-02 1.668293327093124390e-01
2.922416925430297852e-01 2.662666514515876770e-02 1.803808659315109253e-01
3.063186705112457275e-01 2.962963469326496124e-02 1.849641501903533936e-01
2.994676828384399414e-01 2.787843905389308929e-02 1.991222202777862549e-01
6.217141747474670410e-01 2.881859987974166870e-02 5.008581876754760742e-01
6.148313283920288086e-01 2.405310235917568207e-02 5.094678997993469238e-01
6.224189996719360352e-01 3.037307597696781158e-02 5.128053426742553711e-01
6.163229346275329590e-01 2.441132441163063049e-02 5.212250351905822754e-01
6.092151403427124023e-01 3.298326730728149414e-01 4.378523528575897217e-01
6.101492047309875488e-01 3.159246146678924561e-01 4.374482333660125732e-01
6.118263602256774902e-01 3.300003111362457275e-01 4.490170180797576904e-01
6.125728487968444824e-01 3.154343962669372559e-01 4.494894742965698242e-01
1.647152751684188843e-01 2.186374813318252563e-01 5.456990003585815430e-01
1.544435769319534302e-01 2.233583629131317139e-01 5.537892580032348633e-01
1.726648211479187012e-01 2.187256813049316406e-01 5.550622344017028809e-01
1.619142293930053711e-01 2.238577604293823242e-01 5.626071691513061523e-01
5.769978761672973633e-01 4.151972755789756775e-02 8.447242975234985352e-01
5.672939419746398926e-01 4.142130538821220398e-02 8.530820012092590332e-01
5.875858068466186523e-01 4.066273570060729980e-02 8.527144789695739746e-01
5.763629078865051270e-01 4.022111743688583374e-02 8.589139580726623535e-01
3.503508567810058594e-01 2.399118840694427490e-01 4.367259144783020020e-01
3.399119973182678223e-01 2.390994876623153687e-01 4.448263943195343018e-01
3.603174388408660889e-01 2.372602224349975586e-01 4.449442625045776367e-01
3.509121239185333252e-01 2.358443289995193481e-01 4.538691639900207520e-01
2.993338108062744141e-01 7.365610599517822266e-01 4.469221830368041992e-01
2.911218106746673584e-01 7.360883355140686035e-01 4.567432403564453125e-01
3.028973639011383057e-01 7.365366816520690918e-01 4.623544216156005859e-01
2.950255870819091797e-01 7.359197139739990234e-01 4.730208814144134521e-01
4.715178012847900391e-01 7.871142774820327759e-02 7.443212866783142090e-01
4.625520110130310059e-01 7.965883612632751465e-02 7.503609657287597656e-01
4.824025332927703857e-01 7.962176948785781860e-02 7.544205784797668457e-01
4.731262326240539551e-01 8.047687262296676636e-02 7.598993182182312012e-01
1.560299098491668701e-01 6.055975556373596191e-01 5.630434751510620117e-01
1.455040723085403442e-01 5.895772576332092285e-01 5.648701190948486328e-01
1.742228865623474121e-01 6.074731349945068359e-01 5.619195103645324707e-01
1.638439744710922241e-01 5.910633206367492676e-01 5.639685988426208496e-01
1.774613857269287109e-01 2.268029376864433289e-02 5.932163596153259277e-01
1.667770445346832275e-01 2.481252513825893402e-02 5.978175401687622070e-01
1.855095922946929932e-01 2.654891461133956909e-02 5.975741744041442871e-01
1.748322993516921997e-01 2.886236459016799927e-02 6.021167039871215820e-01
2.510807812213897705e-01 6.123567223548889160e-01 5.669329166412353516e-01
2.440282106399536133e-01 5.990020036697387695e-01 5.679258108139038086e-01
2.658148705959320068e-01 6.094788312911987305e-01 5.656387209892272949e-01
2.583819031715393066e-01 5.958882570266723633e-01 5.665956735610961914e-01
3.915179371833801270e-01 7.338476777076721191e-01 4.306280314922332764e-01
3.772138357162475586e-01 7.341502904891967773e-01 4.351103901863098145e-01
4.018617868423461914e-01 7.329671382904052734e-01 4.417768418788909912e-01
3.878466784954071045e-01 7.335247397422790527e-01 4.460124969482421875e-01
3.070148229598999023e-01 7.142888307571411133e-01 3.547748327255249023e-01
2.958431541919708252e-01 7.168910503387451172e-01 3.602035045623779297e-01
3.165643215179443359e-01 7.215910553932189941e-01 3.653802871704101562e-01
3.051230609416961670e-01 7.233855724334716797e-01 3.700932264328002930e-01
1.324332207441329956e-01 5.453044772148132324e-01 5.620163083076477051e-01
1.277318447828292847e-01 5.313696861267089844e-01 5.625856518745422363e-01
1.455308496952056885e-01 5.384984016418457031e-01 5.624573230743408203e-01
1.406269371509552002e-01 5.244007706642150879e-01 5.631340742111206055e-01
3.792103826999664307e-01 2.165367305278778076e-01 4.996923506259918213e-01
3.718840181827545166e-01 2.156238257884979248e-01 5.081871747970581055e-01
3.900486826896667480e-01 2.156169414520263672e-01 5.104552507400512695e-01
3.818799853324890137e-01 2.150925546884536743e-01 5.183669924736022949e-01
3.741609156131744385e-01 6.831539869308471680e-01 3.252933323383331299e-01
3.618588447570800781e-01 6.924444437026977539e-01 3.335216641426086426e-01
3.788006007671356201e-01 6.942799687385559082e-01 3.372224569320678711e-01
3.677389919757843018e-01 7.048465609550476074e-01 3.456705510616302490e-01
6.127851605415344238e-01 6.917580366134643555e-01 5.509155392646789551e-01
6.124199628829956055e-01 6.782872676849365234e-01 5.548659563064575195e-01
6.115576624870300293e-01 6.951870322227478027e-01 5.615089535713195801e-01
6.114590764045715332e-01 6.813868880271911621e-01 5.650523304939270020e-01
7.939782142639160156e-01 3.229678049683570862e-02 7.808799147605895996e-01
7.863078117370605469e-01 3.394335508346557617e-02 7.852776646614074707e-01
8.013752102851867676e-01 3.284230455756187439e-02 7.883136272430419922e-01
7.935197949409484863e-01 3.432865440845489502e-02 7.925583720207214355e-01
1.746409386396408081e-01 5.817098617553710938e-01 1.299373507499694824e-01
1.739043891429901123e-01 5.658413171768188477e-01 1.387134939432144165e-01
1.708278805017471313e-01 5.830039978027343750e-01 1.448283046483993530e-01
1.697656214237213135e-01 5.676295757293701172e-01 1.544600278139114380e-01
2.051683068275451660e-01 1.614189147949218750e-01 4.655371010303497314e-01
1.970310956239700317e-01 1.611800789833068848e-01 4.700497388839721680e-01
2.130865156650543213e-01 1.598445475101470947e-01 4.757620990276336670e-01
2.055652290582656860e-01 1.593609899282455444e-01 4.806300997734069824e-01
7.693680375814437866e-02 3.082488775253295898e-01 5.662860870361328125e-01
7.601936906576156616e-02 2.890687882900238037e-01 5.673936009407043457e-01
8.634453266859054565e-02 3.121908307075500488e-01 5.702602863311767578e-01
8.297306299209594727e-02 2.946411669254302979e-01 5.718564987182617188e-01
3.088745474815368652e-01 2.541782148182392120e-02 8.701474666595458984e-01
2.982086539268493652e-01 2.511455677449703217e-02 8.822680115699768066e-01
3.205275535583496094e-01 2.459733374416828156e-02 8.838910460472106934e-01
3.091782033443450928e-01 2.450717054307460785e-02 8.952141404151916504e-01
1.803102642297744751e-01 8.864077925682067871e-02 6.082275509834289551e-01
1.757605373859405518e-01 8.072546869516372681e-02 6.093947887420654297e-01
1.903053969144821167e-01 8.166940510272979736e-02 6.090175509452819824e-01
1.856424063444137573e-01 7.333792746067047119e-02 6.103818416595458984e-01
5.537855625152587891e-01 7.213959097862243652e-01 5.781897306442260742e-01
5.457249283790588379e-01 7.114270925521850586e-01 5.802971720695495605e-01
5.649769306182861328e-01 7.155139446258544922e-01 5.787649154663085938e-01
5.580931901931762695e-01 7.041339278221130371e-01 5.804529786109924316e-01
4.686127603054046631e-01 4.751527607440948486e-01 5.715552568435668945e-01
4.590772390365600586e-01 4.631696939468383789e-01 5.719950795173645020e-01
4.852925240993499756e-01 4.761236011981964111e-01 5.711630582809448242e-01
4.757272303104400635e-01 4.641180336475372314e-01 5.715506672859191895e-01
3.809453248977661133e-01 2.957382239401340485e-02 7.494807243347167969e-01
3.749239742755889893e-01 2.474968135356903076e-02 7.622845768928527832e-01
3.904871046543121338e-01 2.570025622844696045e-02 7.607040405273437500e-01
3.844381570816040039e-01 2.106010355055332184e-02 7.733706235885620117e-01
3.273595273494720459e-01 2.457410395145416260e-01 2.249695211648941040e-01
3.193899095058441162e-01 2.440950274467468262e-01 2.329971343278884888e-01
3.304103314876556396e-01 2.404897809028625488e-01 2.371959090232849121e-01
3.211877942085266113e-01 2.392214983701705933e-01 2.447369098663330078e-01
1.393945217132568359e-01 2.816478163003921509e-02 4.302569627761840820e-01
1.330831199884414673e-01 2.664251066744327545e-02 4.419313371181488037e-01
1.457926034927368164e-01 2.850329130887985229e-02 4.457470476627349854e-01
1.403044164180755615e-01 2.614418603479862213e-02 4.565257728099822998e-01
3.753723204135894775e-01 4.157496616244316101e-02 9.600318074226379395e-01
3.660968840122222900e-01 3.574452176690101624e-02 9.679277539253234863e-01
3.850124478340148926e-01 3.971710428595542908e-02 9.659526944160461426e-01
3.757184743881225586e-01 3.455119580030441284e-02 9.736433029174804688e-01
3.520423173904418945e-01 1.591741889715194702e-01 4.675541222095489502e-01
3.357943296432495117e-01 1.571215391159057617e-01 4.731140434741973877e-01
3.700528442859649658e-01 1.572398096323013306e-01 4.767947494983673096e-01
3.527232408523559570e-01 1.550576984882354736e-01 4.817895889282226562e-01
1.423752009868621826e-01 7.079449295997619629e-01 3.860089182853698730e-01
1.336302459239959717e-01 7.120292186737060547e-01 3.926786184310913086e-01
1.547466814517974854e-01 7.137674093246459961e-01 3.998571932315826416e-01
1.443337053060531616e-01 7.184095382690429688e-01 4.071374237537384033e-01
6.259818673133850098e-01 1.073220148682594299e-01 1.265546530485153198e-01
6.156052947044372559e-01 1.086130216717720032e-01 1.320743113756179810e-01
6.290837526321411133e-01 1.056532487273216248e-01 1.394656300544738770e-01
6.213613748550415039e-01 1.045360416173934937e-01 1.456424146890640259e-01
2.611864209175109863e-01 6.951524019241333008e-01 3.791992962360382080e-01
2.489286661148071289e-01 6.950916647911071777e-01 3.798826932907104492e-01
2.679636180400848389e-01 7.008138895034790039e-01 3.882094025611877441e-01
2.557626664638519287e-01 7.005254626274108887e-01 3.883608579635620117e-01
4.180930256843566895e-01 5.332135781645774841e-02 6.576170772314071655e-02
4.095351099967956543e-01 4.472026973962783813e-02 7.317905873060226440e-02
4.301013052463531494e-01 5.095342919230461121e-02 7.229482382535934448e-02
4.219481050968170166e-01 4.116346687078475952e-02 7.830211520195007324e-02
6.800377368927001953e-01 3.912381827831268311e-02 7.982824444770812988e-01
6.731268763542175293e-01 4.023688659071922302e-02 8.108274340629577637e-01
6.880065202713012695e-01 3.671733289957046509e-02 8.090467453002929688e-01
6.807735562324523926e-01 3.763105720281600952e-02 8.219064474105834961e-01
5.771540999412536621e-01 1.166484355926513672e-01 6.154828667640686035e-01
5.647818446159362793e-01 1.146395206451416016e-01 6.240312457084655762e-01
5.885835289955139160e-01 1.040717065334320068e-01 6.175694465637207031e-01
5.770565271377563477e-01 1.031547933816909790e-01 6.261237263679504395e-01
3.654942214488983154e-01 2.104490995407104492e-01 5.347915887832641602e-01
3.554529547691345215e-01 2.143299430608749390e-01 5.401360988616943359e-01
3.742034435272216797e-01 2.143646776676177979e-01 5.420634150505065918e-01
3.639024496078491211e-01 2.188948839902877808e-01 5.473720431327819824e-01
1.104390472173690796e-01 1.076272875070571899e-01 6.012107729911804199e-01
1.060108095407485962e-01 9.654936194419860840e-02 6.026842594146728516e-01
1.195735409855842590e-01 1.026906743645668030e-01 6.012719273567199707e-01
1.150784492492675781e-01 9.129206836223602295e-02 6.028775572776794434e-01
6.634233146905899048e-02 2.416885942220687866e-01 4.378631711006164551e-01
5.876701325178146362e-02 2.457326501607894897e-01 4.482373297214508057e-01
7.222974300384521484e-02 2.395470440387725830e-01 4.486645162105560303e-01
6.473400443792343140e-02 2.434470653533935547e-01 4.592909812927246094e-01
4.465729594230651855e-01 3.262482956051826477e-02 9.334325790405273438e-01
4.398527741432189941e-01 3.332228958606719971e-02 9.418641924858093262e-01
4.543884992599487305e-01 3.249994292855262756e-02 9.433922171592712402e-01
4.475362598896026611e-01 3.293120488524436951e-02 9.517238140106201172e-01
2.568076848983764648e-01 1.150878071784973145e-01 6.075866818428039551e-01
2.477785199880599976e-01 1.009315401315689087e-01 6.111772656440734863e-01
2.707913815975189209e-01 1.179623454809188843e-01 6.083545088768005371e-01
2.615615725517272949e-01 1.030458360910415649e-01 6.118775606155395508e-01
5.345037579536437988e-01 4.945426583290100098e-01 5.738984346389770508e-01
5.224867463111877441e-01 4.779582917690277100e-01 5.740417838096618652e-01
5.552433133125305176e-01 5.023735761642456055e-01 5.724048018455505371e-01
5.431413650512695312e-01 4.848911166191101074e-01 5.726037621498107910e-01
6.151368021965026855e-01 4.769757986068725586e-01 4.611809253692626953e-01
6.151285171508789062e-01 4.649436175823211670e-01 4.626868367195129395e-01
6.163514852523803711e-01 4.779388308525085449e-01 4.766829907894134521e-01
6.159942150115966797e-01 4.663175046443939209e-01 4.790779650211334229e-01
2.377212345600128174e-01 3.744170665740966797e-01 2.593308314681053162e-02
2.313824295997619629e-01 3.593868911266326904e-01 2.847194485366344452e-02
2.524548470973968506e-01 3.687767386436462402e-01 2.453701756894588470e-02
2.455935925245285034e-01 3.540614545345306396e-01 2.706029266119003296e-02
7.080061733722686768e-02 6.473625302314758301e-01 5.678455829620361328e-01
6.635762751102447510e-02 6.367696523666381836e-01 5.657367706298828125e-01
7.982779294252395630e-02 6.485468745231628418e-01 5.704298615455627441e-01
7.595350593328475952e-02 6.377480030059814453e-01 5.693972706794738770e-01
6.148515641689300537e-02 7.276424765586853027e-01 4.565073847770690918e-01
5.595801398158073425e-02 7.209507822990417480e-01 4.624233245849609375e-01
6.669116765260696411e-02 7.341107726097106934e-01 4.653791189193725586e-01
6.134073436260223389e-02 7.277932763099670410e-01 4.717118144035339355e-01
6.050822734832763672e-01 4.492908418178558350e-01 3.990401625633239746e-01
6.059346795082092285e-01 4.349791705608367920e-01 4.005307555198669434e-01
6.070610880851745605e-01 4.495358169078826904e-01 4.126951396465301514e-01
6.078956127166748047e-01 4.358004033565521240e-01 4.142218232154846191e-01
4.429800510406494141e-01 1.614217907190322876e-01 1.845646351575851440e-01
4.346718490123748779e-01 1.627502888441085815e-01 1.927440017461776733e-01
4.516845643520355225e-01 1.613468229770660400e-01 1.971191018819808960e-01
4.427616894245147705e-01 1.624914854764938354e-01 2.044207155704498291e-01
2.618001699447631836e-01 6.213670969009399414e-01 5.662624239921569824e-01
2.546045482158660889e-01 6.080494523048400879e-01 5.672836899757385254e-01
2.778848707675933838e-01 6.188087463378906250e-01 5.659266710281372070e-01
2.703757584095001221e-01 6.049512028694152832e-01 5.668554306030273438e-01
1.122180223464965820e-01 1.414807736873626709e-01 7.252927124500274658e-02
1.041344925761222839e-01 1.435086727142333984e-01 8.429963886737823486e-02
1.177180558443069458e-01 1.460538208484649658e-01 8.545502275228500366e-02
1.095718592405319214e-01 1.470143496990203857e-01 9.671165794134140015e-02
2.503509819507598877e-01 7.085588574409484863e-02 8.108173012733459473e-01
2.424532622098922729e-01 7.214014977216720581e-02 8.192580938339233398e-01
2.593597471714019775e-01 7.079697400331497192e-02 8.211984038352966309e-01
2.513142228126525879e-01 7.233649492263793945e-02 8.296392560005187988e-01
5.040179491043090820e-01 8.192796260118484497e-02 7.087829709053039551e-01
4.947207272052764893e-01 8.312111347913742065e-02 7.157133221626281738e-01
5.153729915618896484e-01 8.198884874582290649e-02 7.180194854736328125e-01
5.056688189506530762e-01 8.357519656419754028e-02 7.235572338104248047e-01
5.468254163861274719e-02 4.993767142295837402e-01 5.267913937568664551e-01
5.710688978433609009e-02 4.844231605529785156e-01 5.332402586936950684e-01
5.673660337924957275e-02 4.994629323482513428e-01 5.414645671844482422e-01
6.027321889996528625e-02 4.836393594741821289e-01 5.483368039131164551e-01
3.705012798309326172e-01 2.597865648567676544e-02 8.620491027832031250e-01
3.616856336593627930e-01 2.606300450861454010e-02 8.706903457641601562e-01
3.753789663314819336e-01 2.521036565303802490e-02 8.732382655143737793e-01
3.685662746429443359e-01 2.524046786129474640e-02 8.858360052108764648e-01
5.395933389663696289e-01 7.875236868858337402e-02 8.493267893791198730e-01
5.323573350906372070e-01 7.815014570951461792e-02 8.569967746734619141e-01
5.449395775794982910e-01 8.066566288471221924e-02 8.597676753997802734e-01
5.378047227859497070e-01 7.961828261613845825e-02 8.674961924552917480e-01
3.242605626583099365e-01 2.667371369898319244e-02 2.759571671485900879e-01
3.148608207702636719e-01 2.741883881390094757e-02 2.832550704479217529e-01
3.330307304859161377e-01 2.702728286385536194e-02 2.911414206027984619e-01
3.233425915241241455e-01 2.747140452265739441e-02 2.974551618099212646e-01
8.297063708305358887e-01 3.116962872445583344e-02 6.812828779220581055e-01
8.185784220695495605e-01 3.068623319268226624e-02 6.912187337875366211e-01
8.364507555961608887e-01 3.182792663574218750e-02 6.922644972801208496e-01
8.266544342041015625e-01 3.191228583455085754e-02 7.018842101097106934e-01
6.155164837837219238e-01 6.493967175483703613e-01 4.343690276145935059e-01
6.163258552551269531e-01 6.385203003883361816e-01 4.347372949123382568e-01
6.180717945098876953e-01 6.518871188163757324e-01 4.457766115665435791e-01
6.185330748558044434e-01 6.412158608436584473e-01 4.460486471652984619e-01
5.839385986328125000e-01 1.450007855892181396e-01 5.727393627166748047e-01
5.729777216911315918e-01 1.467272043228149414e-01 5.791764855384826660e-01
5.941640734672546387e-01 1.412311494350433350e-01 5.797356963157653809e-01
5.832500457763671875e-01 1.429589837789535522e-01 5.861307382583618164e-01
1.957602649927139282e-01 4.275312423706054688e-01 5.045594274997711182e-02
1.932430565357208252e-01 4.153535962104797363e-01 5.569746717810630798e-02
1.898951232433319092e-01 4.298981726169586182e-01 6.243746727705001831e-02
1.870779842138290405e-01 4.170867204666137695e-01 6.787355989217758179e-02
5.000650286674499512e-01 4.371504187583923340e-01 5.716772079467773438e-01
4.934838712215423584e-01 4.245985448360443115e-01 5.725705027580261230e-01
5.142357349395751953e-01 4.305444955825805664e-01 5.722095370292663574e-01
5.083698034286499023e-01 4.176065623760223389e-01 5.727067589759826660e-01
5.137320160865783691e-01 2.437189221382141113e-01 2.872037291526794434e-01
5.030884146690368652e-01 2.426638752222061157e-01 2.949662804603576660e-01
5.228557586669921875e-01 2.437425255775451660e-01 3.007889389991760254e-01
5.106478333473205566e-01 2.426800429821014404e-01 3.066368401050567627e-01
1.984189450740814209e-01 2.656074166297912598e-01 5.688537359237670898e-01
1.916744560003280640e-01 2.571473121643066406e-01 5.687124729156494141e-01
2.134525179862976074e-01 2.670172750949859619e-01 5.700637102127075195e-01
2.044810205698013306e-01 2.604463994503021240e-01 5.701769590377807617e-01
2.933723628520965576e-01 8.085334300994873047e-02 7.172995209693908691e-01
2.807293832302093506e-01 8.158400654792785645e-02 7.222216725349426270e-01
3.049267232418060303e-01 8.228531479835510254e-02 7.275541424751281738e-01
2.922095656394958496e-01 8.352549374103546143e-02 7.324039936065673828e-01
1.378407180309295654e-01 6.378769278526306152e-01 3.170905709266662598e-01
1.316007375717163086e-01 6.268192529678344727e-01 3.233781754970550537e-01
1.345067024230957031e-01 6.484119892120361328e-01 3.251693248748779297e-01
1.268184781074523926e-01 6.405099034309387207e-01 3.330477774143218994e-01
3.985711932182312012e-01 6.283688545227050781e-01 1.444900184869766235e-01
3.879436552524566650e-01 6.283544301986694336e-01 1.601538807153701782e-01
4.075594246387481689e-01 6.320071220397949219e-01 1.579336076974868774e-01
3.973708748817443848e-01 6.310170888900756836e-01 1.754619032144546509e-01
3.728303909301757812e-01 3.091509453952312469e-02 9.520087391138076782e-02
3.626981079578399658e-01 2.863291464745998383e-02 1.037007272243499756e-01
3.822135031223297119e-01 2.645649947226047516e-02 1.102850958704948425e-01
3.718042671680450439e-01 2.490700967609882355e-02 1.188783869147300720e-01
7.132968902587890625e-01 3.143886849284172058e-02 7.394036054611206055e-01
7.067067027091979980e-01 3.109436295926570892e-02 7.427015900611877441e-01
7.180624604225158691e-01 3.198901936411857605e-02 7.450056672096252441e-01
7.114125490188598633e-01 3.144577890634536743e-02 7.483788728713989258e-01
6.317831873893737793e-01 5.463228374719619751e-02 9.246777296066284180e-01
6.219151616096496582e-01 5.379547551274299622e-02 9.354766607284545898e-01
6.397179365158081055e-01 5.152215063571929932e-02 9.342767000198364258e-01
6.288996934890747070e-01 5.002472922205924988e-02 9.452847838401794434e-01
2.766046226024627686e-01 2.749591693282127380e-02 7.738811373710632324e-01
2.594975531101226807e-01 2.634547650814056396e-02 7.790367603302001953e-01
2.939917743206024170e-01 2.488264068961143494e-02 7.839311361312866211e-01
2.749369144439697266e-01 2.439657784998416901e-02 7.879389524459838867e-01
5.330507457256317139e-02 6.464623808860778809e-01 5.614412426948547363e-01
4.943371191620826721e-02 6.356999874114990234e-01 5.588095188140869141e-01
6.371048837900161743e-02 6.479663252830505371e-01 5.690269470214843750e-01
5.895458161830902100e-02 6.373365521430969238e-01 5.660459399223327637e-01
6.155992746353149414e-01 4.373297691345214844e-01 4.859762191772460938e-01
6.143990755081176758e-01 4.266804158687591553e-01 4.913086295127868652e-01
6.154071092605590820e-01 4.342882037162780762e-01 5.024832487106323242e-01
6.141987442970275879e-01 4.236677289009094238e-01 5.081454515457153320e-01
4.845750629901885986e-01 7.312968373298645020e-01 4.215030968189239502e-01
4.757365882396697998e-01 7.350586056709289551e-01 4.296118617057800293e-01
4.888136982917785645e-01 7.374026775360107422e-01 4.310810267925262451e-01
4.802717566490173340e-01 7.399318218231201172e-01 4.388031363487243652e-01
7.991645336151123047e-01 2.927908115088939667e-02 8.059068322181701660e-01
7.910151481628417969e-01 3.101100958883762360e-02 8.100307583808898926e-01
8.045738935470581055e-01 2.936961501836776733e-02 8.142702579498291016e-01
7.968464493751525879e-01 3.088894672691822052e-02 8.184194564819335938e-01
1.004327461123466492e-01 2.705582417547702789e-02 5.153324007987976074e-01
9.308797866106033325e-02 2.958683855831623077e-02 5.293803811073303223e-01
1.077960208058357239e-01 2.674635499715805054e-02 5.300796627998352051e-01
1.012598276138305664e-01 2.927870675921440125e-02 5.450220108032226562e-01
5.036199688911437988e-01 1.165445894002914429e-01 6.143773198127746582e-01
4.921701252460479736e-01 1.087369248270988464e-01 6.176422238349914551e-01
5.198552012443542480e-01 1.145281791687011719e-01 6.181418895721435547e-01
5.084566473960876465e-01 1.049530282616615295e-01 6.197774410247802734e-01
6.303191781044006348e-01 5.335619673132896423e-02 2.070789486169815063e-01
6.282738447189331055e-01 4.482611641287803650e-02 2.134630829095840454e-01
6.298117041587829590e-01 5.418168380856513977e-02 2.214931547641754150e-01
6.284451484680175781e-01 4.411868005990982056e-02 2.274470031261444092e-01
4.071315228939056396e-01 4.987458884716033936e-01 5.704896450042724609e-01
4.000253081321716309e-01 4.833917617797851562e-01 5.709140896797180176e-01
4.227809011936187744e-01 4.845970571041107178e-01 5.697479844093322754e-01
4.160499572753906250e-01 4.700976014137268066e-01 5.704264640808105469e-01
1.286590546369552612e-01 2.614538557827472687e-02 8.957798480987548828e-01
1.174813061952590942e-01 2.339044027030467987e-02 9.104899764060974121e-01
1.381537020206451416e-01 2.657105773687362671e-02 9.086953401565551758e-01
1.261181682348251343e-01 2.448523230850696564e-02 9.216762185096740723e-01
2.668104767799377441e-01 1.628298461437225342e-01 2.356481999158859253e-01
2.584576606750488281e-01 1.669723689556121826e-01 2.451793104410171509e-01
2.743044197559356689e-01 1.657714098691940308e-01 2.479823231697082520e-01
2.658682465553283691e-01 1.698970198631286621e-01 2.561026811599731445e-01
4.274817407131195068e-01 1.642711162567138672e-01 3.032030165195465088e-01
4.209067523479461670e-01 1.649855077266693115e-01 3.111303448677062988e-01
4.345543086528778076e-01 1.606115102767944336e-01 3.120516538619995117e-01
4.295626282691955566e-01 1.605944931507110596e-01 3.194866776466369629e-01
2.515799999237060547e-01 2.420489341020584106e-01 2.946417927742004395e-01
2.415181100368499756e-01 2.415878176689147949e-01 3.007380664348602295e-01
2.549769878387451172e-01 2.436430603265762329e-01 3.074853122234344482e-01
2.467418015003204346e-01 2.412083297967910767e-01 3.118971586227416992e-01
4.087320864200592041e-01 5.735391005873680115e-02 9.066013693809509277e-01
3.995981812477111816e-01 5.978435277938842773e-02 9.144659042358398438e-01
4.196696281433105469e-01 5.692540109157562256e-02 9.179997444152832031e-01
4.097426533699035645e-01 5.896727368235588074e-02 9.253319501876831055e-01
3.637493848800659180e-01 3.895932435989379883e-01 2.879132144153118134e-02
3.505168557167053223e-01 3.762312233448028564e-01 2.944469451904296875e-02
3.798638582229614258e-01 3.899741470813751221e-01 2.938923798501491547e-02
3.660857975482940674e-01 3.764052987098693848e-01 3.017491474747657776e-02
1.892062127590179443e-01 2.416342198848724365e-01 4.145418405532836914e-01
1.784591376781463623e-01 2.407043874263763428e-01 4.233825802803039551e-01
1.961138993501663208e-01 2.396465241909027100e-01 4.265867471694946289e-01
1.868527233600616455e-01 2.394306063652038574e-01 4.354395270347595215e-01
1.867470443248748779e-01 3.757678568363189697e-01 8.490474522113800049e-02
1.867630034685134888e-01 3.644252419471740723e-01 8.809000998735427856e-02
1.819839477539062500e-01 3.774035573005676270e-01 9.747277945280075073e-02
1.825567930936813354e-01 3.666394650936126709e-01 1.005341112613677979e-01
6.746254116296768188e-02 1.123971939086914062e-01 1.134582608938217163e-01
5.899724364280700684e-02 1.209227070212364197e-01 1.260597854852676392e-01
7.206978648900985718e-02 1.171159222722053528e-01 1.267099976539611816e-01
6.366125494241714478e-02 1.231805682182312012e-01 1.395553946495056152e-01
5.740855336189270020e-01 6.646943092346191406e-01 3.734274208545684814e-01
5.723442435264587402e-01 6.595224738121032715e-01 3.743729591369628906e-01
5.759508609771728516e-01 6.722272038459777832e-01 3.862682878971099854e-01
5.764943361282348633e-01 6.610629558563232422e-01 3.856353461742401123e-01
6.200795769691467285e-01 1.352657973766326904e-01 2.572008371353149414e-01
6.123042106628417969e-01 1.367397159337997437e-01 2.648307383060455322e-01
6.226654648780822754e-01 1.296267658472061157e-01 2.686977684497833252e-01
6.151697635650634766e-01 1.324065923690795898e-01 2.768727838993072510e-01
2.237265110015869141e-01 2.892601676285266876e-02 2.236358523368835449e-01
2.146065384149551392e-01 2.776274830102920532e-02 2.265674620866775513e-01
2.315230667591094971e-01 2.777170948684215546e-02 2.307308614253997803e-01
2.225075215101242065e-01 2.695515565574169159e-02 2.333934605121612549e-01
3.274676799774169922e-01 2.419478446245193481e-01 4.260760247707366943e-01
3.159567415714263916e-01 2.435110062360763550e-01 4.338640868663787842e-01
3.370527923107147217e-01 2.437569051980972290e-01 4.343795478343963623e-01
3.256927728652954102e-01 2.449062466621398926e-01 4.420857727527618408e-01
4.972715079784393311e-01 6.482912898063659668e-01 2.628452479839324951e-01
4.886180758476257324e-01 6.507232785224914551e-01 2.682415843009948730e-01
5.053051710128784180e-01 6.490909457206726074e-01 2.748250067234039307e-01
4.968746304512023926e-01 6.517118811607360840e-01 2.790375649929046631e-01
5.471827089786529541e-02 4.918314218521118164e-01 5.398234128952026367e-01
5.821220204234123230e-02 4.760609865188598633e-01 5.465816855430603027e-01
5.712137371301651001e-02 4.914182722568511963e-01 5.521807074546813965e-01
6.046744808554649353e-02 4.757317304611206055e-01 5.585006475448608398e-01
1.918025761842727661e-01 1.609931737184524536e-01 4.923707246780395508e-01
1.855590641498565674e-01 1.603312343358993530e-01 4.980267584323883057e-01
2.003826051950454712e-01 1.584732979536056519e-01 5.000513195991516113e-01
1.940587162971496582e-01 1.576407700777053833e-01 5.067117810249328613e-01
6.142829656600952148e-01 1.325078606605529785e-01 3.510498404502868652e-01
6.087492704391479492e-01 1.367451548576354980e-01 3.608356416225433350e-01
6.181221604347229004e-01 1.264622062444686890e-01 3.665510118007659912e-01
6.153944134712219238e-01 1.275666654109954834e-01 3.764186501502990723e-01
1.419661343097686768e-01 2.374204546213150024e-01 5.327005386352539062e-01
1.316245496273040771e-01 2.421978116035461426e-01 5.421634912490844727e-01
1.530427634716033936e-01 2.354429215192794800e-01 5.398982167243957520e-01
1.431733071804046631e-01 2.394862920045852661e-01 5.472129583358764648e-01
5.528036952018737793e-01 2.556948736310005188e-02 5.599970221519470215e-01
5.417289733886718750e-01 2.700171247124671936e-02 5.715535879135131836e-01
5.596879124641418457e-01 2.529991231858730316e-02 5.716526508331298828e-01
5.490182042121887207e-01 2.660604007542133331e-02 5.839238166809082031e-01
3.905109167098999023e-01 7.138437628746032715e-01 3.573217689990997314e-01
3.803116083145141602e-01 7.202364802360534668e-01 3.644243180751800537e-01
3.995273411273956299e-01 7.189683914184570312e-01 3.697711527347564697e-01
3.895921707153320312e-01 7.241824865341186523e-01 3.762507438659667969e-01
2.059274911880493164e-01 2.611292600631713867e-01 9.746687114238739014e-02
1.970324665307998657e-01 2.613815069198608398e-01 1.053953394293785095e-01
2.149356007575988770e-01 2.588294446468353271e-01 1.060395687818527222e-01
2.061687558889389038e-01 2.593374550342559814e-01 1.137366294860839844e-01
9.030737280845642090e-01 3.863940387964248657e-02 7.360501885414123535e-01
8.912489414215087891e-01 3.791088238358497620e-02 7.452132105827331543e-01
