-2.401218861341476440e-01 -1.795457154512405396e-01 -1.305135432630777359e-02
-2.476042211055755615e-01 -1.766820400953292847e-01 -6.912001874297857285e-03
2.435074150562286377e-01 -6.911720335483551025e-02 -1.345556378364562988e-01
2.372664213180541992e-01 -8.288064599037170410e-02 -1.311873942613601685e-01
2.535938918590545654e-01 -7.573077082633972168e-02 -1.323638558387756348e-01
2.474262863397598267e-01 -8.981476724147796631e-02 -1.290624290704727173e-01
-6.181223392486572266e-01 4.912002384662628174e-02 -5.166795570403337479e-03
-6.251566410064697266e-01 4.886445030570030212e-02 2.055869437754154205e-03
-6.110369563102722168e-01 4.760527610778808594e-02 2.852361649274826050e-04
-6.179977059364318848e-01 4.719741642475128174e-02 7.330723572522401810e-03
-6.959195733070373535e-01 3.997329995036125183e-02 -1.311947708018124104e-04
-6.973052620887756348e-01 3.322278335690498352e-02 -1.216226024553179741e-03
-6.887508630752563477e-01 3.969334438443183899e-02 2.103250939399003983e-03
-6.903654336929321289e-01 3.361694142222404480e-02 9.510162053629755974e-04
-7.351830005645751953e-01 -2.305995859205722809e-02 -9.140642359852790833e-03
-7.376480698585510254e-01 -3.164044395089149475e-02 -8.335216902196407318e-03
-7.285072803497314453e-01 -2.270689606666564941e-02 -6.715094670653343201e-03
-7.305692434310913086e-01 -3.167780116200447083e-02 -6.041889544576406479e-03
-2.032179757952690125e-02 -3.434602171182632446e-02 -1.545810401439666748e-01
-2.623924799263477325e-02 -4.565819352865219116e-02 -1.517272442579269409e-01
-1.195576228201389313e-02 -4.257380962371826172e-02 -1.544530689716339111e-01
-1.781412027776241302e-02 -5.400107428431510925e-02 -1.517043709754943848e-01
2.048559635877609253e-01 -1.849240511655807495e-01 3.587837517261505127e-02
1.976971775293350220e-01 -1.844132244586944580e-01 3.855905681848526001e-02
2.115035951137542725e-01 -1.800274848937988281e-01 4.256607219576835632e-02
2.041876912117004395e-01 -1.794861108064651489e-01 4.522402957081794739e-02
3.974482715129852295e-01 -2.437643706798553467e-05 -1.232145577669143677e-01
3.928703665733337402e-01 -9.366454556584358215e-03 -1.219396963715553284e-01
4.061566889286041260e-01 -3.993306308984756470e-03 -1.222053840756416321e-01
4.017526209354400635e-01 -1.393433194607496262e-02 -1.214020401239395142e-01
3.060625195503234863e-01 3.503239899873733521e-02 1.231950595974922180e-01
2.997063100337982178e-01 2.481781132519245148e-02 1.266726255416870117e-01
3.159696161746978760e-01 3.105796687304973602e-02 1.220919564366340637e-01
3.098390400409698486e-01 2.100305631756782532e-02 1.252084523439407349e-01
-1.471003592014312744e-01 7.800884544849395752e-02 1.373331695795059204e-01
-1.553087532520294189e-01 6.921465694904327393e-02 1.386295258998870850e-01
-1.366191655397415161e-01 7.525928318500518799e-02 1.383702903985977173e-01
-1.445546895265579224e-01 6.691173464059829712e-02 1.398654729127883911e-01
-8.051571249961853027e-01 2.315970696508884430e-02 -1.917790214065462351e-04
-8.135451674461364746e-01 2.112984284758567810e-02 3.714558668434619904e-03
-7.973470687866210938e-01 2.199990674853324890e-02 3.707175608724355698e-03
-8.054580688476562500e-01 1.964898779988288879e-02 7.430813275277614594e-03
7.212428003549575806e-02 -4.885368049144744873e-02 -1.515976935625076294e-01
6.737779825925827026e-02 -5.898553505539894104e-02 -1.496844440698623657e-01
7.965547591447830200e-02 -5.576727911829948425e-02 -1.503726541996002197e-01
7.443046569824218750e-02 -6.831413507461547852e-02 -1.476256251335144043e-01
1.899676173925399780e-01 -3.772902116179466248e-02 -1.480094641447067261e-01
1.834234893321990967e-01 -4.532249644398689270e-02 -1.442347764968872070e-01
1.990407854318618774e-01 -3.875363990664482117e-02 -1.476339548826217651e-01
1.925211101770401001e-01 -4.659470170736312866e-02 -1.438853442668914795e-01
3.593313694000244141e-01 6.549377739429473877e-02 -1.194638237357139587e-01
3.543341159820556641e-01 6.247893720865249634e-02 -1.207694709300994873e-01
3.676062524318695068e-01 6.898704916238784790e-02 -1.171424612402915955e-01
3.629037737846374512e-01 6.600664556026458740e-02 -1.183724105358123779e-01
-7.838422898203134537e-04 1.336849480867385864e-01 1.258650124073028564e-01
-7.676071487367153168e-03 1.253603994846343994e-01 1.306676268577575684e-01
8.411385118961334229e-03 1.278806328773498535e-01 1.278652101755142212e-01
2.029618248343467712e-03 1.190325319766998291e-01 1.328578442335128784e-01
3.005979061126708984e-01 6.581215653568506241e-03 -1.435875296592712402e-01
2.961607575416564941e-01 5.798111669719219208e-03 -1.399062275886535645e-01
3.051794171333312988e-01 4.837901797145605087e-03 -1.402222067117691040e-01
3.006493151187896729e-01 3.768322989344596863e-03 -1.366242617368698120e-01
-2.458802759647369385e-01 1.310913264751434326e-01 9.540502727031707764e-02
-2.521969377994537354e-01 1.239151209592819214e-01 9.927792102098464966e-02
-2.367745637893676758e-01 1.268883198499679565e-01 1.012085899710655212e-01
-2.418114095926284790e-01 1.190493926405906677e-01 1.049818098545074463e-01
2.542003393173217773e-01 -5.925559904426336288e-03 -1.361732780933380127e-01
2.519261837005615234e-01 -1.273710839450359344e-02 -1.346196830272674561e-01
2.613129913806915283e-01 -9.211837314069271088e-03 -1.340681910514831543e-01
2.587544620037078857e-01 -1.629155874252319336e-02 -1.329567730426788330e-01
-6.978315711021423340e-01 3.570791333913803101e-02 1.742491731420159340e-03
-6.990841627120971680e-01 2.871266752481460571e-02 8.385339751839637756e-04
-6.908611059188842773e-01 3.705756366252899170e-02 4.265979398041963577e-03
-6.922839879989624023e-01 3.031014278531074524e-02 3.108637174591422081e-03
5.357672572135925293e-01 -5.087771639227867126e-02 -7.506884634494781494e-02
5.322992205619812012e-01 -5.799451470375061035e-02 -7.380419224500656128e-02
5.408468842506408691e-01 -5.502539500594139099e-02 -7.210585474967956543e-02
5.372526645660400391e-01 -6.154916435480117798e-02 -7.058346271514892578e-02
1.311936676502227783e-01 -1.249401420354843140e-01 9.752259403467178345e-02
1.225965097546577454e-01 -1.208569407463073730e-01 9.998402744531631470e-02
1.358429491519927979e-01 -1.174471080303192139e-01 1.020537167787551880e-01
1.272669285535812378e-01 -1.128832921385765076e-01 1.048411205410957336e-01
-3.604857027530670166e-01 1.260571479797363281e-01 5.208810046315193176e-02
-3.652061820030212402e-01 1.179153025150299072e-01 5.718838050961494446e-02
-3.513353168964385986e-01 1.218190789222717285e-01 5.965188145637512207e-02
-3.557441234588623047e-01 1.139209792017936707e-01 6.530043482780456543e-02
-8.551739454269409180e-01 -3.859780728816986084e-02 -8.246182464063167572e-03
-8.577833771705627441e-01 -4.840175062417984009e-02 -8.163785561919212341e-03
-8.461688756942749023e-01 -3.890845924615859985e-02 -6.930222734808921814e-03
-8.486927747726440430e-01 -4.873080551624298096e-02 -6.810032296925783157e-03
-9.536048173904418945e-01 -1.725294739007949829e-01 -2.483009733259677887e-02
-9.540536999702453613e-01 -1.834238916635513306e-01 -2.475839853286743164e-02
-9.445028305053710938e-01 -1.732470393180847168e-01 -2.452559955418109894e-02
-9.451745152473449707e-01 -1.842546164989471436e-01 -2.461928874254226685e-02
1.604577600955963135e-01 -2.396293133497238159e-01 -9.205477684736251831e-02
1.536727994680404663e-01 -2.345187813043594360e-01 -8.684100955724716187e-02
1.646185666322708130e-01 -2.298763245344161987e-01 -8.462815731763839722e-02
1.577443778514862061e-01 -2.249625772237777710e-01 -7.922302186489105225e-02
3.505048751831054688e-01 -2.286954596638679504e-02 -1.280052512884140015e-01
3.480045795440673828e-01 -3.217117115855216980e-02 -1.273258328437805176e-01
3.595779240131378174e-01 -2.610920555889606476e-02 -1.260482370853424072e-01
3.569264709949493408e-01 -3.554018959403038025e-02 -1.251384466886520386e-01
2.852122187614440918e-01 -2.561612613499164581e-02 1.045313924551010132e-01
2.770147919654846191e-01 -2.677833661437034607e-02 1.065837740898132324e-01
2.940475940704345703e-01 -2.281863428652286530e-02 1.086720749735832214e-01
2.856375873088836670e-01 -2.387713454663753510e-02 1.105641499161720276e-01
-5.425760746002197266e-01 2.650559879839420319e-02 -6.955116987228393555e-06
-5.458502769470214844e-01 1.895513944327831268e-02 -1.130694174207746983e-03
-5.303393602371215820e-01 3.137055039405822754e-02 -4.566074640024453402e-04
-5.332673788070678711e-01 2.340062335133552551e-02 -8.505802834406495094e-04
-7.585583925247192383e-01 1.833054795861244202e-02 -4.433321300894021988e-03
-7.601884007453918457e-01 1.155843213200569153e-02 -4.504584241658449173e-03
-7.530670166015625000e-01 1.818886585533618927e-02 -3.833163529634475708e-03
-7.544329166412353516e-01 1.131895743310451508e-02 -4.047406837344169617e-03
-3.489554524421691895e-01 3.741752356290817261e-02 1.005937606096267700e-01
-3.554339110851287842e-01 2.869644202291965485e-02 1.000893339514732361e-01
-3.382607400417327881e-01 3.545385599136352539e-02 1.024275645613670349e-01
-3.449114859104156494e-01 2.639847993850708008e-02 1.016477644443511963e-01
-3.278049528598785400e-01 -1.300971116870641708e-02 1.009400114417076111e-01
-3.321083486080169678e-01 -2.238780632615089417e-02 9.865083545446395874e-02
-3.164073526859283447e-01 -1.122855674475431442e-02 1.036388501524925232e-01
-3.204135000705718994e-01 -2.195905521512031555e-02 1.014140546321868896e-01
5.340187549591064453e-01 -4.937466979026794434e-02 6.047126650810241699e-02
5.241686701774597168e-01 -4.505179077386856079e-02 6.477683782577514648e-02
5.403841733932495117e-01 -3.744136914610862732e-02 6.206719949841499329e-02
5.309091210365295410e-01 -3.574544563889503479e-02 6.542336195707321167e-02
6.174107193946838379e-01 -2.298068255186080933e-02 -3.523247316479682922e-02
6.121513247489929199e-01 -3.069046698510646820e-02 -2.993639186024665833e-02
6.224713325500488281e-01 -2.202797494828701019e-02 -2.839932590723037720e-02
6.174609065055847168e-01 -2.994437515735626221e-02 -2.312757447361946106e-02
1.971604675054550171e-01 1.427980214357376099e-01 -1.049355417490005493e-01
1.891422420740127563e-01 1.491963118314743042e-01 -9.993739426136016846e-02
2.054538875818252563e-01 1.490757614374160767e-01 -9.463131427764892578e-02
1.972640454769134521e-01 1.546826958656311035e-01 -9.000258892774581909e-02
-4.804124236106872559e-01 9.830733761191368103e-04 6.691367924213409424e-02
-4.830707907676696777e-01 -1.034083776175975800e-02 6.355077028274536133e-02
-4.696460068225860596e-01 3.942249342799186707e-03 7.075154036283493042e-02
-4.714213311672210693e-01 -9.480128064751625061e-03 6.706791371107101440e-02
-8.707217872142791748e-02 8.705203980207443237e-02 -1.451189368963241577e-01
-9.153193235397338867e-02 7.843425124883651733e-02 -1.461469084024429321e-01
-7.520983368158340454e-02 9.241137653589248657e-02 -1.455835849046707153e-01
-8.148622512817382812e-02 8.715341985225677490e-02 -1.456889510154724121e-01
-1.257956027984619141e-01 -1.527740955352783203e-01 -1.090583875775337219e-01
-1.325483024120330811e-01 -1.582663804292678833e-01 -1.034580394625663757e-01
-1.158959344029426575e-01 -1.561639457941055298e-01 -1.081858053803443909e-01
-1.223609000444412231e-01 -1.618438959121704102e-01 -1.025169566273689270e-01
-2.914896607398986816e-01 -1.636973321437835693e-01 -4.323869571089744568e-02
-2.979422211647033691e-01 -1.619430482387542725e-01 -3.822601214051246643e-02
-2.852077782154083252e-01 -1.624533534049987793e-01 -3.886222466826438904e-02
-2.918095290660858154e-01 -1.606937795877456665e-01 -3.393476456403732300e-02
5.853778719902038574e-01 -4.007368162274360657e-02 2.995969355106353760e-02
5.811257958412170410e-01 -4.243849962949752808e-02 3.224311769008636475e-02
5.907062292098999023e-01 -3.761085495352745056e-02 3.340509161353111267e-02
5.867666602134704590e-01 -4.049923643469810486e-02 3.567534685134887695e-02
5.438048243522644043e-01 5.242274701595306396e-02 -6.539968401193618774e-02
5.378102064132690430e-01 5.987985432147979736e-02 -6.223537772893905640e-02
5.476120114326477051e-01 5.808702111244201660e-02 -5.726252123713493347e-02
5.416988134384155273e-01 6.529355049133300781e-02 -5.411482602357864380e-02
2.039961069822311401e-01 1.873714625835418701e-01 -1.059639826416969299e-02
1.954879015684127808e-01 1.895345002412796021e-01 -7.416726090013980865e-03
2.107286155223846436e-01 1.895628720521926880e-01 -6.518652662634849548e-03
2.024037688970565796e-01 1.917087733745574951e-01 -3.342074109241366386e-03
1.452989727258682251e-01 1.980249583721160889e-01 9.055831469595432281e-03
1.390021890401840210e-01 2.011779844760894775e-01 1.195652596652507782e-02
1.503487378358840942e-01 2.003216147422790527e-01 1.338833663612604141e-02
1.441080719232559204e-01 2.039731889963150024e-01 1.616703905165195465e-02
-4.034434556961059570e-01 3.216211125254631042e-02 8.747782558202743530e-02
-4.081728756427764893e-01 2.624403499066829681e-02 8.763699978590011597e-02
-3.968957364559173584e-01 3.085069544613361359e-02 8.837422728538513184e-02
-4.010613858699798584e-01 2.488690428435802460e-02 8.859617263078689575e-02
-1.768370717763900757e-02 2.034775614738464355e-01 2.379222214221954346e-02
-2.210460603237152100e-02 2.047450840473175049e-01 2.881447784602642059e-02
-1.221794728189706802e-02 2.037134170532226562e-01 2.808669395744800568e-02
-1.624513790011405945e-02 2.045502066612243652e-01 3.297126665711402893e-02
-1.113551557064056396e-01 -2.020502686500549316e-01 -5.710803437978029251e-03
-1.224508583545684814e-01 -1.998598724603652954e-01 -8.005286799743771553e-04
-1.055850982666015625e-01 -2.010951340198516846e-01 4.580138716846704483e-03
-1.170222982764244080e-01 -1.989097595214843750e-01 9.676198475062847137e-03
-8.986566960811614990e-02 1.600193977355957031e-01 1.037920117378234863e-01
-9.654054045677185059e-02 1.552433669567108154e-01 1.079904288053512573e-01
-8.225005865097045898e-02 1.564159393310546875e-01 1.076592728495597839e-01
-8.908040821552276611e-02 1.513779908418655396e-01 1.115043610334396362e-01
2.925226390361785889e-01 -8.434630185365676880e-02 -1.250726282596588135e-01
2.899437248706817627e-01 -9.634465724229812622e-02 -1.212082058191299438e-01
3.013012111186981201e-01 -9.069737792015075684e-02 -1.214362084865570068e-01
2.986896336078643799e-01 -1.027448475360870361e-01 -1.170713901519775391e-01
6.216898560523986816e-01 1.884067244827747345e-02 -8.562825620174407959e-03
6.173433661460876465e-01 2.338301204144954681e-02 -2.718952717259526253e-03
6.249909996986389160e-01 1.547804847359657288e-02 -7.460319902747869492e-04
6.206982731819152832e-01 1.866725645959377289e-02 4.267796874046325684e-03
5.874599814414978027e-01 3.391066566109657288e-02 -5.603137239813804626e-02
5.829831361770629883e-01 3.415039926767349243e-02 -5.547887459397315979e-02
5.943318009376525879e-01 3.145604208111763000e-02 -5.150201544165611267e-02
5.889730453491210938e-01 3.606550768017768860e-02 -4.888053610920906067e-02
1.940055042505264282e-01 3.170784562826156616e-02 -2.403429150581359863e-01
1.912644505500793457e-01 2.512010745704174042e-02 -2.318916171789169312e-01
2.025519907474517822e-01 3.003096953034400940e-02 -2.324775010347366333e-01
1.999885439872741699e-01 2.355294302105903625e-02 -2.241323292255401611e-01
-5.781182646751403809e-01 -3.132467344403266907e-02 3.570245206356048584e-02
-5.872874855995178223e-01 -2.074634842574596405e-02 3.824039176106452942e-02
-5.680742263793945312e-01 -2.678972668945789337e-02 3.842008486390113831e-02
-5.775159001350402832e-01 -1.710534654557704926e-02 4.069119319319725037e-02
-4.785830080509185791e-01 7.885055243968963623e-02 5.527789145708084106e-02
-4.812958836555480957e-01 6.911854445934295654e-02 5.662447959184646606e-02
-4.731683135032653809e-01 6.897312402725219727e-02 6.325482577085494995e-02
-4.764982759952545166e-01 5.945339053869247437e-02 6.442356109619140625e-02
5.919589996337890625e-01 -1.912615261971950531e-02 -5.365299805998802185e-02
5.880054235458374023e-01 -2.470743842422962189e-02 -4.920557141304016113e-02
5.964462161064147949e-01 -2.043392881751060486e-02 -4.694785177707672119e-02
5.923169851303100586e-01 -2.612634375691413879e-02 -4.249900206923484802e-02
4.326381385326385498e-01 -9.713563323020935059e-02 -9.233448654413223267e-02
4.217455983161926270e-01 -1.011820584535598755e-01 -9.217558801174163818e-02
4.430980682373046875e-01 -9.697504341602325439e-02 -9.022086858749389648e-02
4.320983588695526123e-01 -1.011312380433082581e-01 -9.005302190780639648e-02
-5.086516141891479492e-01 8.039792627096176147e-02 -1.347913639619946480e-04
-5.123683810234069824e-01 7.557073235511779785e-02 9.641844662837684155e-04
-5.018541216850280762e-01 8.271392434835433960e-02 -3.464600304141640663e-04
-5.054685473442077637e-01 7.740752398967742920e-02 8.953019278123974800e-04
-1.401496827602386475e-01 1.581029891967773438e-01 -1.006707251071929932e-01
-1.504907160997390747e-01 1.603741198778152466e-01 -9.723240882158279419e-02
-1.333419233560562134e-01 1.668138056993484497e-01 -9.189029783010482788e-02
-1.429474502801895142e-01 1.689516305923461914e-01 -8.858930319547653198e-02
-3.153212964534759521e-01 -1.547994315624237061e-01 -9.755992330610752106e-03
-3.230987787246704102e-01 -1.525544971227645874e-01 -6.732665002346038818e-03
-3.084306418895721436e-01 -1.555902212858200073e-01 -6.343018263578414917e-03
-3.169295787811279297e-01 -1.530082225799560547e-01 -2.481770701706409454e-03
-4.913188815116882324e-01 6.031926348805427551e-02 -5.125670228153467178e-03
-4.930174648761749268e-01 5.311422049999237061e-02 -5.134258419275283813e-03
-4.856182336807250977e-01 5.684573203325271606e-02 -5.409807898104190826e-03
-4.869191348552703857e-01 4.920056462287902832e-02 -5.184251349419355392e-03
5.022541284561157227e-01 9.621527791023254395e-02 2.313529327511787415e-02
4.960289299488067627e-01 9.725388139486312866e-02 3.044787421822547913e-02
5.085408687591552734e-01 8.742441236972808838e-02 2.829971350729465485e-02
5.026032924652099609e-01 8.767890930175781250e-02 3.617271035909652710e-02
1.514382362365722656e-01 2.947172224521636963e-01 2.052552066743373871e-02
1.490351259708404541e-01 2.879720032215118408e-01 1.988876610994338989e-02
1.577853411436080933e-01 2.956543564796447754e-01 2.110534347593784332e-02
1.563521325588226318e-01 2.891865074634552002e-01 2.021951042115688324e-02
3.778161108493804932e-01 -1.246950179338455200e-01 6.293287128210067749e-02
3.709404170513153076e-01 -1.214089840650558472e-01 6.718809157609939575e-02
3.835891783237457275e-01 -1.189338266849517822e-01 6.562075018882751465e-02
3.765930831432342529e-01 -1.142740324139595032e-01 7.058832049369812012e-02
-8.790862560272216797e-01 1.108320802450180054e-01 7.120721507817506790e-03
-8.819455504417419434e-01 1.002415493130683899e-01 6.891275756061077118e-03
-8.714317083358764648e-01 1.085714623332023621e-01 5.988476797938346863e-03
-8.741340637207031250e-01 9.772175550460815430e-02 6.049477495253086090e-03
-3.947898373007774353e-02 7.105143368244171143e-02 1.447674036026000977e-01
-4.740123450756072998e-02 6.170572340488433838e-02 1.483504772186279297e-01
-2.792647853493690491e-02 6.337610632181167603e-02 1.461694985628128052e-01
-3.555228188633918762e-02 5.444817990064620972e-02 1.497447788715362549e-01
3.082576990127563477e-01 -1.787368506193161011e-01 2.544651925563812256e-02
2.986641824245452881e-01 -1.750498563051223755e-01 3.137100860476493835e-02
3.119988739490509033e-01 -1.734103262424468994e-01 3.460455313324928284e-02
3.023033142089843750e-01 -1.694851964712142944e-01 4.077778756618499756e-02
-2.559201419353485107e-01 1.464551687240600586e-01 -7.955551892518997192e-02
-2.654734551906585693e-01 1.460198462009429932e-01 -7.571890205144882202e-02
-2.474962323904037476e-01 1.539195477962493896e-01 -7.457604259252548218e-02
-2.565845251083374023e-01 1.527624130249023438e-01 -7.036787271499633789e-02
1.491248905658721924e-01 1.965264528989791870e-01 1.082225609570741653e-02
1.428842246532440186e-01 2.001780271530151367e-01 1.360095944255590439e-02
1.549510061740875244e-01 1.990129649639129639e-01 1.478428207337856293e-02
1.487255543470382690e-01 2.027701437473297119e-01 1.741288229823112488e-02
1.165495514869689941e-01 1.237899586558341980e-01 1.229336708784103394e-01
1.101144328713417053e-01 1.190395951271057129e-01 1.269598305225372314e-01
1.255611032247543335e-01 1.184405833482742310e-01 1.242085695266723633e-01
1.185917481780052185e-01 1.142011210322380066e-01 1.281051039695739746e-01
1.037254929542541504e-01 2.548508644104003906e-01 1.411193516105413437e-02
1.026158779859542847e-01 2.431029081344604492e-01 1.337771117687225342e-02
1.126949712634086609e-01 2.555748820304870605e-01 1.428410038352012634e-02
1.113030165433883667e-01 2.440616637468338013e-01 1.364949252456426620e-02
1.520525813102722168e-01 1.759739369153976440e-01 6.796528398990631104e-02
1.469359397888183594e-01 1.709884554147720337e-01 7.640109956264495850e-02
1.590466499328613281e-01 1.712556332349777222e-01 7.446721941232681274e-02
1.532240062952041626e-01 1.663579493761062622e-01 8.239439874887466431e-02
5.265390872955322266e-01 7.296676188707351685e-02 3.744312375783920288e-02
5.210961699485778809e-01 7.197938859462738037e-02 4.485131800174713135e-02
5.335263013839721680e-01 6.369940191507339478e-02 4.344882443547248840e-02
5.280905961990356445e-01 6.252110749483108521e-02 5.078268796205520630e-02
1.531454473733901978e-01 -2.537173032760620117e-01 2.411485835909843445e-02
1.418669819831848145e-01 -2.568198442459106445e-01 2.873977087438106537e-02
1.639932543039321899e-01 -2.574299871921539307e-01 2.558361925184726715e-02
1.529039740562438965e-01 -2.606656849384307861e-01 3.012511506676673889e-02
-3.344220221042633057e-01 -6.586074084043502808e-02 8.001383394002914429e-02
-3.461481332778930664e-01 -5.245442688465118408e-02 8.295419812202453613e-02
-3.217585086822509766e-01 -6.786070019006729126e-02 8.447117358446121216e-02
-3.340875804424285889e-01 -5.389695987105369568e-02 8.754581958055496216e-02
-5.281156301498413086e-02 -1.708434075117111206e-01 6.814438104629516602e-02
-6.176315248012542725e-02 -1.634026169776916504e-01 7.378487288951873779e-02
-4.627570137381553650e-02 -1.646533757448196411e-01 7.491403818130493164e-02
-5.567964538931846619e-02 -1.574812680482864380e-01 8.048973977565765381e-02
-4.103152453899383545e-01 -2.380132675170898438e-03 -9.368595480918884277e-02
-4.150024652481079102e-01 -1.383537333458662033e-02 -9.291141480207443237e-02
-3.975717723369598389e-01 -8.289995603263378143e-03 -9.717008471488952637e-02
-4.025529623031616211e-01 -1.890039071440696716e-02 -9.561357647180557251e-02
-9.419934824109077454e-03 2.078542709350585938e-01 1.568756811320781708e-02
-1.374052464962005615e-02 2.092054039239883423e-01 2.057290449738502502e-02
-6.465905811637639999e-03 2.080943882465362549e-01 2.113150991499423981e-02
-1.069141738116741180e-02 2.095853388309478760e-01 2.585810050368309021e-02
-4.747333228588104248e-01 -9.914454072713851929e-02 -1.775555126368999481e-02
-4.830671250820159912e-01 -9.611518681049346924e-02 -1.403264049440622330e-02
-4.674760401248931885e-01 -9.790330380201339722e-02 -1.513159088790416718e-02
-4.750752151012420654e-01 -9.535543620586395264e-02 -1.234035100787878036e-02
4.183678627014160156e-01 1.337059773504734039e-02 1.053449958562850952e-01
4.166681170463562012e-01 9.409878402948379517e-04 1.062000691890716553e-01
4.289530813694000244e-01 1.039176527410745621e-02 1.030374839901924133e-01
4.277065396308898926e-01 -2.343164058402180672e-03 1.036710962653160095e-01
2.443072944879531860e-02 8.904142305254936218e-04 1.473307907581329346e-01
2.147273905575275421e-02 -9.597897529602050781e-03 1.466265022754669189e-01
3.691860660910606384e-02 -6.507758516818284988e-03 1.471846401691436768e-01
3.264112398028373718e-02 -1.327348686754703522e-02 1.472034156322479248e-01
3.989177346229553223e-01 9.533530473709106445e-02 8.671883493661880493e-02
3.940308988094329834e-01 8.566972613334655762e-02 9.370118379592895508e-02
4.065332412719726562e-01 8.153998851776123047e-02 9.239407628774642944e-02
4.024544358253479004e-01 7.237748801708221436e-02 9.854739159345626831e-02
6.130508184432983398e-01 -5.226087942719459534e-02 -3.455959260463714600e-02
6.076193451881408691e-01 -5.846336111426353455e-02 -3.263005241751670837e-02
6.168910264968872070e-01 -5.254474282264709473e-02 -2.817054465413093567e-02
6.112112402915954590e-01 -5.907955020666122437e-02 -2.636684849858283997e-02
3.246313333511352539e-01 5.449194088578224182e-02 1.188189238309860229e-01
3.172205984592437744e-01 4.424083232879638672e-02 1.226591318845748901e-01
3.329659700393676758e-01 4.934375360608100891e-02 1.175072938203811646e-01
3.261143565177917480e-01 3.853816166520118713e-02 1.209009662270545959e-01
2.541880905628204346e-01 7.351966202259063721e-02 -3.385017216205596924e-01
2.509086728096008301e-01 7.016652822494506836e-02 -3.311865627765655518e-01
2.572216391563415527e-01 7.102378457784652710e-02 -3.294247388839721680e-01
2.541972994804382324e-01 6.745973229408264160e-02 -3.219643235206604004e-01
-6.334107518196105957e-01 4.333352297544479370e-02 -8.878685534000396729e-03
-6.413000226020812988e-01 4.658917337656021118e-02 -3.997066989541053772e-03
-6.275234222412109375e-01 4.509998112916946411e-02 -3.905205521732568741e-03
-6.351854205131530762e-01 4.688015580177307129e-02 2.060609403997659683e-03
2.299514263868331909e-01 1.370173096656799316e-01 -5.185863375663757324e-01
2.188372761011123657e-01 1.306209713220596313e-01 -5.116654038429260254e-01
2.405348122119903564e-01 1.367657184600830078e-01 -5.104688405990600586e-01
2.293509691953659058e-01 1.303889453411102295e-01 -5.035772323608398438e-01
-2.280310988426208496e-01 3.854671865701675415e-02 1.273431032896041870e-01
-2.353309243917465210e-01 2.740180306136608124e-02 1.279744654893875122e-01
-2.174635380506515503e-01 3.327270969748497009e-02 1.288588792085647583e-01
-2.242199927568435669e-01 2.221281826496124268e-02 1.293900907039642334e-01
-5.367776751518249512e-01 -1.389057002961635590e-02 4.991699382662773132e-02
-5.409774184226989746e-01 -2.107810787856578827e-02 4.763944074511528015e-02
-5.244929790496826172e-01 -1.272925548255443573e-02 5.309398844838142395e-02
-5.292513966560363770e-01 -1.809222623705863953e-02 5.101240798830986023e-02
5.304301381111145020e-01 -5.965048447251319885e-02 -3.004736080765724182e-02
5.264955759048461914e-01 -6.562493741512298584e-02 -2.481120452284812927e-02
5.381171703338623047e-01 -5.871025472879409790e-02 -2.474024146795272827e-02
5.347869396209716797e-01 -6.537036597728729248e-02 -1.925218477845191956e-02
3.276565968990325928e-01 -1.523221433162689209e-01 5.166268348693847656e-02
3.203227221965789795e-01 -1.484258323907852173e-01 5.679295212030410767e-02
3.336549401283264160e-01 -1.462389081716537476e-01 5.550384894013404846e-02
3.268162310123443604e-01 -1.430075764656066895e-01 6.005848199129104614e-02
3.058394789695739746e-02 -1.446047723293304443e-01 -1.194746643304824829e-01
2.763025276362895966e-02 -1.529482156038284302e-01 -1.138194873929023743e-01
3.744837269186973572e-02 -1.520835161209106445e-01 -1.142463982105255127e-01
3.472339361906051636e-02 -1.606743484735488892e-01 -1.084051802754402161e-01
1.113352999091148376e-01 1.592654734849929810e-01 9.570159763097763062e-02
1.053781360387802124e-01 1.541016548871994019e-01 1.009496152400970459e-01
1.204338148236274719e-01 1.550273597240447998e-01 9.917973726987838745e-02
1.140448451042175293e-01 1.499803364276885986e-01 1.040671318769454956e-01
-6.841681003570556641e-01 5.102664232254028320e-02 7.515387842431664467e-04
-6.871258616447448730e-01 4.650400578975677490e-02 -2.579130232334136963e-04
-6.744067668914794922e-01 5.590582638978958130e-02 3.035460365936160088e-03
-6.790042519569396973e-01 5.378923565149307251e-02 2.911176998168230057e-03
-3.110670670866966248e-02 1.615815907716751099e-01 1.037769168615341187e-01
-3.713216260075569153e-02 1.552308648824691772e-01 1.099771261215209961e-01
-1.934226416051387787e-02 1.562440544366836548e-01 1.079765260219573975e-01
-2.665128931403160095e-02 1.501320302486419678e-01 1.136728376150131226e-01
-3.256454467773437500e-01 2.122874706983566284e-01 1.307145878672599792e-02
-3.310842216014862061e-01 2.001196593046188354e-01 1.194049324840307236e-02
-3.121128678321838379e-01 2.069734036922454834e-01 1.409005653113126755e-02
-3.188161849975585938e-01 1.967095583677291870e-01 1.359823904931545258e-02
-1.290628612041473389e-01 9.018402546644210815e-02 1.367632299661636353e-01
-1.357957720756530762e-01 8.261735737323760986e-02 1.388427168130874634e-01
-1.194264292716979980e-01 8.498005568981170654e-02 1.376374363899230957e-01
-1.261584311723709106e-01 7.702093571424484253e-02 1.395277082920074463e-01
4.015642106533050537e-01 7.337408512830734253e-02 -1.005737259984016418e-01
3.951673805713653564e-01 7.063251733779907227e-02 -1.001006662845611572e-01
4.173399806022644043e-01 7.202924787998199463e-02 -1.018410697579383850e-01
4.083288013935089111e-01 7.604220509529113770e-02 -9.878216683864593506e-02
1.660934984683990479e-01 1.775915473699569702e-01 6.288413703441619873e-02
1.593404114246368408e-01 1.735952049493789673e-01 6.980267912149429321e-02
1.754477471113204956e-01 1.707472801208496094e-01 7.023771107196807861e-02
1.676487028598785400e-01 1.669354140758514404e-01 7.651642709970474243e-02
-1.912643909454345703e-01 1.949187219142913818e-01 9.459402412176132202e-03
-1.956117153167724609e-01 1.946687102317810059e-01 1.503955852240324020e-02
-1.855615526437759399e-01 1.956552714109420776e-01 1.705115102231502533e-02
-1.900586038827896118e-01 1.954207271337509155e-01 2.223008126020431519e-02
-6.080670356750488281e-01 -4.928447678685188293e-02 -2.243193611502647400e-02
-6.151335239410400391e-01 -4.785145446658134460e-02 -1.882334612309932709e-02
-5.995324254035949707e-01 -4.930360987782478333e-02 -2.230761200189590454e-02
-6.077232360839843750e-01 -4.593446105718612671e-02 -1.744194515049457550e-02
-6.628404259681701660e-01 1.432383805513381958e-02 -1.104144612327218056e-03
-6.659494638442993164e-01 6.993697024881839752e-03 -1.835313858464360237e-03
-6.533658504486083984e-01 1.968893967568874359e-02 -3.300322685390710831e-03
-6.560469269752502441e-01 1.095016486942768097e-02 -3.868538187816739082e-03
-3.037205040454864502e-01 -1.430821716785430908e-01 3.649158403277397156e-02
-3.114842474460601807e-01 -1.377058327198028564e-01 4.237397387623786926e-02
-2.981434464454650879e-01 -1.408404707908630371e-01 4.633975774049758911e-02
-3.060356974601745605e-01 -1.353476643562316895e-01 5.231118202209472656e-02
-4.244374483823776245e-02 1.778209358453750610e-01 8.541341871023178101e-02
-4.757378995418548584e-02 1.727886497974395752e-01 9.252913296222686768e-02
-3.235384076833724976e-02 1.727497130632400513e-01 9.060245007276535034e-02
-3.764133155345916748e-02 1.674389839172363281e-01 9.754531830549240112e-02
-3.497585356235504150e-01 -1.290417313575744629e-01 -5.492758005857467651e-02
-3.539912402629852295e-01 -1.313790977001190186e-01 -4.979256913065910339e-02
-3.459090590476989746e-01 -1.323725283145904541e-01 -5.217553675174713135e-02
-3.503662347793579102e-01 -1.341349333524703979e-01 -4.721264168620109558e-02
-8.918815255165100098e-01 1.211421191692352295e-01 3.127933712676167488e-03
-8.957337737083435059e-01 1.103982105851173401e-01 3.363492432981729507e-03
-8.821108341217041016e-01 1.199498698115348816e-01 2.879798412322998047e-03
-8.857167959213256836e-01 1.087869033217430115e-01 2.804361749440431595e-03
-4.416072964668273926e-01 -2.116013616323471069e-01 -2.810611389577388763e-02
-4.450610280036926270e-01 -2.219999134540557861e-01 -2.828839235007762909e-02
-4.303789734840393066e-01 -2.093475908041000366e-01 -2.823431417346000671e-02
-4.343212544918060303e-01 -2.197321206331253052e-01 -2.867742441594600677e-02
2.330159842967987061e-01 9.005481004714965820e-02 -1.319012939929962158e-01
2.271412014961242676e-01 8.585054427385330200e-02 -1.346433311700820923e-01
2.446496486663818359e-01 9.435570240020751953e-02 -1.273969858884811401e-01
2.392156273126602173e-01 8.973300457000732422e-02 -1.299936622381210327e-01
-3.177596032619476318e-01 -7.158168405294418335e-02 -1.066369190812110901e-01
-3.248058557510375977e-01 -7.758130878210067749e-02 -1.017314344644546509e-01
-3.087756633758544922e-01 -7.698486745357513428e-02 -1.076685637235641479e-01
-3.158741891384124756e-01 -8.320959657430648804e-02 -1.028353050351142883e-01
-2.420179359614849091e-02 -5.743375793099403381e-02 1.323500573635101318e-01
-3.534986823797225952e-02 -4.784020408987998962e-02 1.359037160873413086e-01
-1.445314660668373108e-02 -5.187133327126502991e-02 1.342157870531082153e-01
-2.573144249618053436e-02 -4.322332888841629028e-02 1.371915638446807861e-01
5.092601105570793152e-02 -5.579104274511337280e-02 1.333150714635848999e-01
3.892740607261657715e-02 -4.569917917251586914e-02 1.372157782316207886e-01
6.161670386791229248e-02 -5.447814241051673889e-02 1.335246860980987549e-01
4.960774630308151245e-02 -4.439023882150650024e-02 1.374034583568572998e-01
4.132611751556396484e-01 -1.493344157934188843e-01 2.124773524701595306e-02
4.065608978271484375e-01 -1.471949517726898193e-01 2.558473683893680573e-02
4.171504676342010498e-01 -1.423718333244323730e-01 2.776454389095306396e-02
4.107590913772583008e-01 -1.396659016609191895e-01 3.168441727757453918e-02
-2.852228879928588867e-01 -1.670313477516174316e-01 -4.976695869117975235e-03
-2.924249768257141113e-01 -1.637364178895950317e-01 8.850987069308757782e-05
-2.791472077369689941e-01 -1.653495430946350098e-01 -3.302070545032620430e-04
-2.868816256523132324e-01 -1.616423875093460083e-01 4.781727679073810577e-03
-4.839868247509002686e-01 1.001584902405738831e-01 -1.280752476304769516e-02
-4.906851053237915039e-01 9.977160394191741943e-02 -9.566723369061946869e-03
-4.778698980808258057e-01 1.035938188433647156e-01 -9.055894799530506134e-03
-4.846700727939605713e-01 1.029573455452919006e-01 -5.857702344655990601e-03
-4.219924211502075195e-01 9.232039004564285278e-02 -7.895675953477621078e-04
-4.257513284683227539e-01 8.373761922121047974e-02 -3.957683511544018984e-04
-4.120221138000488281e-01 9.386113286018371582e-02 -1.585114048793911934e-03
-4.154297709465026855e-01 8.521170169115066528e-02 -8.570099598728120327e-04
-6.128142476081848145e-01 3.196427971124649048e-02 -9.263424202799797058e-03
-6.173402667045593262e-01 2.491318807005882263e-02 -8.233889006078243256e-03
-6.021006107330322266e-01 3.025203570723533630e-02 -8.622700348496437073e-03
-6.064391732215881348e-01 2.347425371408462524e-02 -7.444312795996665955e-03
-1.761986315250396729e-02 -1.579037755727767944e-01 -1.124920845031738281e-01
-2.234830521047115326e-02 -1.646533310413360596e-01 -1.076028496026992798e-01
-1.018491387367248535e-02 -1.639905720949172974e-01 -1.076954156160354614e-01
-1.448036823421716690e-02 -1.710286885499954224e-01 -1.021694988012313843e-01
3.824557960033416748e-01 -1.063968315720558167e-01 7.327358424663543701e-02
3.749537765979766846e-01 -9.937574714422225952e-02 7.868381589651107788e-02
3.888298869132995605e-01 -1.014235168695449829e-01 7.569850981235504150e-02
3.808741569519042969e-01 -9.306551516056060791e-02 8.143585175275802612e-02
-3.921862244606018066e-01 4.449560120701789856e-02 -9.670422971248626709e-02
-4.029320776462554932e-01 5.145949497818946838e-02 -9.173116832971572876e-02
-3.823673129081726074e-01 5.018767341971397400e-02 -9.902931004762649536e-02
-3.931652009487152100e-01 5.743397772312164307e-02 -9.386651217937469482e-02
-9.054291844367980957e-01 -1.157960221171379089e-01 -2.127594500780105591e-02
-9.098326563835144043e-01 -1.277181059122085571e-01 -2.063313312828540802e-02
-8.938143849372863770e-01 -1.178303360939025879e-01 -2.083575725555419922e-02
-8.979965448379516602e-01 -1.297524124383926392e-01 -2.009238675236701965e-02
2.310839593410491943e-01 -1.890979856252670288e-01 2.647445537149906158e-02
2.234394550323486328e-01 -1.875537633895874023e-01 3.012632019817829132e-02
2.355140894651412964e-01 -1.839578747749328613e-01 3.392616286873817444e-02
2.280183285474777222e-01 -1.825896054506301880e-01 3.699544817209243774e-02
1.634837538003921509e-01 1.213335059583187103e-02 1.407118290662765503e-01
1.603224426507949829e-01 1.498946920037269592e-03 1.407342553138732910e-01
1.738021224737167358e-01 8.770909160375595093e-03 1.393645107746124268e-01
1.709831058979034424e-01 -2.248004544526338577e-03 1.391913592815399170e-01
8.096298575401306152e-02 1.997857391834259033e-01 2.727195806801319122e-02
7.419463992118835449e-02 2.001200318336486816e-01 3.112852387130260468e-02
8.847208321094512939e-02 1.999768018722534180e-01 3.198698163032531738e-02
8.231306821107864380e-02 2.004610151052474976e-01 3.626411035656929016e-02
4.974851608276367188e-01 8.079382777214050293e-02 5.225204303860664368e-02
4.902842044830322266e-01 7.865502685308456421e-02 5.931391939520835876e-02
5.068334341049194336e-01 7.198385149240493774e-02 5.379701405763626099e-02
4.991328120231628418e-01 6.963635236024856567e-02 6.072208657860755920e-02
5.116173997521400452e-02 -1.818775385618209839e-01 -8.974733203649520874e-02
4.674323648214340210e-02 -1.888140439987182617e-01 -8.284652978181838989e-02
5.948593094944953918e-02 -1.848488301038742065e-01 -8.493594825267791748e-02
5.485030636191368103e-02 -1.915984451770782471e-01 -7.799080759286880493e-02
-3.056978285312652588e-01 1.588139086961746216e-01 1.374894566833972931e-02
-3.114951848983764648e-01 1.571874767541885376e-01 1.812894456088542938e-02
-2.977513670921325684e-01 1.598284393548965454e-01 2.091779559850692749e-02
-3.039813637733459473e-01 1.572608649730682373e-01 2.528502419590950012e-02
-5.820145010948181152e-01 5.765024945139884949e-02 3.044875338673591614e-02
-5.868986248970031738e-01 5.034583061933517456e-02 3.444480523467063904e-02
-5.738592743873596191e-01 5.369684845209121704e-02 3.600945696234703064e-02
-5.786375403404235840e-01 4.632389917969703674e-02 3.954914957284927368e-02
1.985517144203186035e-01 3.585980832576751709e-02 -2.503930926322937012e-01
1.954504102468490601e-01 2.935841307044029236e-02 -2.418464422225952148e-01
2.073117345571517944e-01 3.355453908443450928e-02 -2.419325560331344604e-01
2.046342939138412476e-01 2.695519290864467621e-02 -2.335157692432403564e-01
-3.207617625594139099e-02 -1.874442398548126221e-01 -8.641005307435989380e-02
-3.585347160696983337e-02 -1.912176460027694702e-01 -7.890019565820693970e-02
-2.850453555583953857e-02 -1.915906667709350586e-01 -7.821443676948547363e-02
-3.224906325340270996e-02 -1.953452378511428833e-01 -7.076293975114822388e-02
-6.085363030433654785e-01 -4.322018474340438843e-02 1.539907511323690414e-02
-6.166054010391235352e-01 -3.643319383263587952e-02 1.797338016331195831e-02
-6.020271778106689453e-01 -4.009032994508743286e-02 1.991304382681846619e-02
-6.104378104209899902e-01 -3.065914288163185120e-02 2.266991138458251953e-02
3.833490014076232910e-01 6.197675690054893494e-02 -1.076691299676895142e-01
3.813549578189849854e-01 5.246511101722717285e-02 -1.099910736083984375e-01
3.969887495040893555e-01 6.424339115619659424e-02 -1.061218976974487305e-01
3.939061760902404785e-01 5.546621233224868774e-02 -1.080695986747741699e-01
5.458115786314010620e-02 4.490584507584571838e-02 1.482916623353958130e-01
4.750685393810272217e-02 3.489886224269866943e-02 1.500087976455688477e-01
6.532912701368331909e-02 4.030421376228332520e-02 1.480509042739868164e-01
5.960040166974067688e-02 3.017248772084712982e-02 1.493157744407653809e-01
2.120738327503204346e-01 -3.226371482014656067e-03 1.356675475835800171e-01
2.065054476261138916e-01 -9.890470653772354126e-03 1.357160061597824097e-01
2.224782109260559082e-01 1.432072836905717850e-03 1.340924501419067383e-01
2.179092615842819214e-01 -6.852202117443084717e-03 1.345271915197372437e-01
-9.542612433433532715e-01 -1.865108162164688110e-01 -2.595809847116470337e-02
-9.547455906867980957e-01 -1.970225423574447632e-01 -2.560246549546718597e-02
-9.444246292114257812e-01 -1.884287744760513306e-01 -2.493147365748882294e-02
-9.453293085098266602e-01 -1.992621421813964844e-01 -2.484689280390739441e-02
4.182965755462646484e-01 1.119371578097343445e-01 6.303650885820388794e-02
4.134587645530700684e-01 1.048215925693511963e-01 7.113226503133773804e-02
4.256715178489685059e-01 9.807167947292327881e-02 7.212074846029281616e-02
4.213467240333557129e-01 8.878932148218154907e-02 8.090472966432571411e-02
-7.054330110549926758e-01 -2.260367944836616516e-02 -1.080106478184461594e-02
-7.084271907806396484e-01 -3.027279675006866455e-02 -1.165626943111419678e-02
-6.978175044059753418e-01 -2.117423526942729950e-02 -8.495824411511421204e-03
-7.021366953849792480e-01 -2.699499018490314484e-02 -9.249942377209663391e-03
-1.972625553607940674e-01 1.082156747579574585e-01 1.217666417360305786e-01
-2.027973979711532593e-01 1.011514365673065186e-01 1.232871413230895996e-01
-1.896567940711975098e-01 1.055986657738685608e-01 1.238842308521270752e-01
-1.952204406261444092e-01 9.835915267467498779e-02 1.254172623157501221e-01
3.035880923271179199e-01 -2.363192476332187653e-02 1.117969378829002380e-01
2.950716912746429443e-01 -2.399862185120582581e-02 1.140181347727775574e-01
3.105618357658386230e-01 -2.013809233903884888e-02 1.165257915854454041e-01
3.024359345436096191e-01 -1.957993768155574799e-02 1.192546114325523376e-01
2.773534357547760010e-01 1.484179198741912842e-01 -8.056032657623291016e-02
2.691200673580169678e-01 1.535990238189697266e-01 -7.487625628709793091e-02
2.833516001701354980e-01 1.504936367273330688e-01 -7.168178260326385498e-02
2.753000259399414062e-01 1.555943340063095093e-01 -6.579837948083877563e-02
-3.556068614125251770e-02 1.581682860851287842e-01 1.072135791182518005e-01
-4.148656129837036133e-02 1.517997086048126221e-01 1.133633181452751160e-01
-2.496033348143100739e-02 1.539187133312225342e-01 1.102380082011222839e-01
-3.192554414272308350e-02 1.476784199476242065e-01 1.158262714743614197e-01
-8.643599748611450195e-01 2.051528729498386383e-02 -7.654958404600620270e-03
-8.700886368751525879e-01 1.463232375681400299e-02 -5.543142557144165039e-03
-8.550261855125427246e-01 2.224715426564216614e-02 -5.128747783601284027e-03
-8.629954457283020020e-01 1.899875700473785400e-02 -1.674439292401075363e-03
-1.593258827924728394e-01 1.548263877630233765e-01 -1.027246788144111633e-01
-1.707825511693954468e-01 1.561876833438873291e-01 -9.963967651128768921e-02
-1.521820574998855591e-01 1.599268168210983276e-01 -9.614257514476776123e-02
-1.629762947559356689e-01 1.612893491983413696e-01 -9.308992326259613037e-02
2.026530802249908447e-01 -2.532230317592620850e-01 2.387514896690845490e-02
1.972273737192153931e-01 -2.594971358776092529e-01 2.737523801624774933e-02
2.119457274675369263e-01 -2.600120007991790771e-01 2.581232599914073944e-02
2.061737179756164551e-01 -2.664504945278167725e-01 2.874049171805381775e-02
2.292288094758987427e-01 -2.560698240995407104e-02 1.780361384153366089e-01
2.228657603263854980e-01 -2.327940985560417175e-02 1.853105723857879639e-01
2.319837808609008789e-01 -2.250856347382068634e-02 1.854387819766998291e-01
2.253982126712799072e-01 -2.036682330071926117e-02 1.923867911100387573e-01
2.835423946380615234e-01 -1.925938576459884644e-01 7.499748375266790390e-03
2.768151760101318359e-01 -1.882370114326477051e-01 1.489895489066839218e-02
2.870099246501922607e-01 -1.865059435367584229e-01 1.975454948842525482e-02
2.794114947319030762e-01 -1.819931268692016602e-01 2.659338712692260742e-02
3.629994392395019531e-01 -1.402029693126678467e-01 -8.536561578512191772e-02
3.588346242904663086e-01 -1.460050791501998901e-01 -8.367946743965148926e-02
3.680579066276550293e-01 -1.416866630315780640e-01 -8.192000538110733032e-02
3.641861975193023682e-01 -1.473640054464340210e-01 -8.009342104196548462e-02
4.752182364463806152e-01 -1.234712004661560059e-01 2.507616765797138214e-02
4.694865643978118896e-01 -1.215955913066864014e-01 2.856206893920898438e-02
4.776538610458374023e-01 -1.176876723766326904e-01 2.913468889892101288e-02
4.717808663845062256e-01 -1.152794063091278076e-01 3.290930762887001038e-02
-7.371776103973388672e-01 2.938407473266124725e-02 -6.590390112251043320e-03
-7.383584380149841309e-01 2.197905257344245911e-02 -6.723783444613218307e-03
-7.308037877082824707e-01 2.884696610271930695e-02 -5.912072956562042236e-03
-7.323349714279174805e-01 2.186053246259689331e-02 -5.884384736418724060e-03
1.660793870687484741e-01 -8.531657606363296509e-02 1.152474582195281982e-01
1.568659693002700806e-01 -7.925170660018920898e-02 1.193364858627319336e-01
1.718422770500183105e-01 -7.453337311744689941e-02 1.179962083697319031e-01
1.627619564533233643e-01 -6.794849783182144165e-02 1.226438805460929871e-01
3.605456054210662842e-01 -1.814886629581451416e-01 -1.530876569449901581e-02
3.530200719833374023e-01 -1.783526986837387085e-01 -3.025510348379611969e-03
3.655287921428680420e-01 -1.789777278900146484e-01 -2.776440000161528587e-03
3.581548929214477539e-01 -1.768161505460739136e-01 7.974063977599143982e-03
2.272264361381530762e-01 6.420877575874328613e-02 -3.134691119194030762e-01
2.257048189640045166e-01 5.853749811649322510e-02 -3.052533566951751709e-01
2.326962649822235107e-01 6.196897476911544800e-02 -3.046647310256958008e-01
2.308612167835235596e-01 5.648030713200569153e-02 -2.963349819183349609e-01
-2.899322509765625000e-01 1.311765611171722412e-01 -8.205318450927734375e-02
-2.991974949836730957e-01 1.327800005674362183e-01 -7.630322873592376709e-02
-2.829080820083618164e-01 1.397064626216888428e-01 -7.645586878061294556e-02
-2.918856441974639893e-01 1.396056711673736572e-01 -7.183744013309478760e-02
3.250978887081146240e-01 7.808697968721389771e-02 -1.217781752347946167e-01
3.150624632835388184e-01 8.690433204174041748e-02 -1.204006373882293701e-01
3.349879682064056396e-01 8.334929496049880981e-02 -1.166870519518852234e-01
3.247725963592529297e-01 9.269571304321289062e-02 -1.151322051882743835e-01
-1.155744399875402451e-02 9.940483421087265015e-02 -1.438793689012527466e-01
-2.201117947697639465e-02 1.079143136739730835e-01 -1.407140344381332397e-01
-1.980735454708337784e-03 1.093898713588714600e-01 -1.418495774269104004e-01
-1.264642551541328430e-02 1.174376234412193298e-01 -1.386795938014984131e-01
6.041862368583679199e-01 -3.258972242474555969e-02 -3.095177002251148224e-02
5.981448888778686523e-01 -4.112780839204788208e-02 -2.651069127023220062e-02
6.121932268142700195e-01 -2.896994538605213165e-02 -2.609643340110778809e-02
6.068263053894042969e-01 -3.715751320123672485e-02 -2.115763537585735321e-02
2.462133467197418213e-01 -1.726274639368057251e-01 -8.532414585351943970e-02
2.391553670167922974e-01 -1.767960935831069946e-01 -8.054969459772109985e-02
2.529760301113128662e-01 -1.760904341936111450e-01 -7.810641825199127197e-02
2.465799003839492798e-01 -1.797615289688110352e-01 -7.296852022409439087e-02
1.127528697252273560e-01 1.920359954237937927e-02 -1.572739183902740479e-01
1.081531867384910583e-01 1.003617607057094574e-02 -1.565774679183959961e-01
1.204516515135765076e-01 1.343629695475101471e-02 -1.575067937374114990e-01
1.160400658845901489e-01 4.364189691841602325e-03 -1.566809862852096558e-01
1.929918527603149414e-01 -2.243696153163909912e-01 -7.930313795804977417e-02
1.842891573905944824e-01 -2.169368416070938110e-01 -7.372762262821197510e-02
1.990654915571212769e-01 -2.179359346628189087e-01 -7.347387075424194336e-02
1.903167814016342163e-01 -2.098649740219116211e-01 -6.784047931432723999e-02
6.173286214470863342e-02 -2.070076912641525269e-01 -8.918573148548603058e-04
5.337955802679061890e-02 -2.089930176734924316e-01 2.359056379646062851e-03
6.788468360900878906e-02 -2.050529867410659790e-01 6.738414522260427475e-03
5.977884680032730103e-02 -2.063830047845840454e-01 1.011380366981029510e-02
-3.899917304515838623e-01 -1.601961255073547363e-02 8.574387431144714355e-02
-3.977761864662170410e-01 -1.913582719862461090e-02 8.384899049997329712e-02
-3.810510337352752686e-01 -1.690793968737125397e-02 8.681292831897735596e-02
-3.892509639263153076e-01 -1.844469085335731506e-02 8.500443398952484131e-02
3.607359826564788818e-01 -1.361559033393859863e-01 5.619715526700019836e-02
