8.784229299999999796e+01 -1.530280300000000011e+02 1.491020049999999912e+02
5.860393899999999689e+01 -2.360610049999999944e+02 8.662831900000000473e+01
7.473039199999999482e+01 -7.362426800000000071e+01 1.282074430000000120e+02
1.301707920000000058e+02 -6.402322399999999902e+01 1.235917050000000046e+02
7.473040000000000305e+01 -2.642074890000000096e+02 4.820599700000000354e+01
7.473040000000000305e+01 -1.933178100000000086e+02 9.373881500000000244e+01
7.256039400000000228e+01 -1.076382140000000049e+02 2.406203999999999787e+00
1.286734769999999912e+02 -5.721798700000000082e+01 7.071506499999999562e+01
1.287400049999999965e+02 -1.619771729999999934e+02 4.119007500000000022e+01
8.680313099999999338e+01 -2.091725920000000087e+02 1.427120060000000024e+02
7.473040000000000305e+01 -2.687315980000000195e+02 7.522014599999999973e+01
4.278705999999999676e+01 -2.574230039999999917e+02 1.480492399999999975e+01
7.473040000000000305e+01 -2.462895049999999912e+02 1.446226599999999962e+01
7.326816599999999369e+01 -6.399175999999999931e+01 2.881382800000000088e+01
7.524446100000000115e+01 -2.569679869999999937e+02 1.939999999999999947e+00
7.348785399999999868e+01 -1.821950070000000039e+02 1.427120060000000024e+02
7.473040000000000305e+01 -1.679551539999999932e+02 5.881707000000000107e+01
8.410840600000000222e+01 -7.337676999999999339e+01 1.939999999999999947e+00
9.044808999999999344e+01 -1.404920500000000061e+02 1.427120060000000024e+02
7.473040000000000305e+01 -2.051399539999999888e+02 2.652666899999999828e+01
1.086045759999999945e+02 -2.509584199999999896e+02 1.427120060000000024e+02
1.198914719999999932e+02 -5.870399499999999904e+01 6.238547499999999957e+01
1.034762800000000027e+02 -1.573123779999999954e+02 1.939999999999999947e+00
4.890721099999999666e+01 -2.584489140000000020e+02 1.050999999999999979e+01
1.287400049999999965e+02 -1.535224000000000046e+02 1.278245699999999943e+02
1.250361560000000054e+02 -5.757899900000000315e+01 1.950369500000000045e+01
4.581291999999999831e+01 -7.866110199999999963e+01 8.859370400000000245e+01
6.426080299999999568e+01 -1.125056150000000059e+02 8.698879999999999768e+01
3.515422099999999972e+01 -1.397478030000000047e+02 7.917687999999999704e+01
1.287400049999999965e+02 -1.260288929999999965e+02 1.021408229999999975e+02
6.551725799999999822e+01 -2.434917450000000088e+02 9.155159799999999848e+01
7.324395800000000634e+01 -5.877651199999999676e+01 1.116393589999999989e+02
7.256040199999999629e+01 -1.829840089999999861e+02 3.407159000000000049e+00
1.106746140000000054e+02 -5.870400200000000268e+01 9.424171400000000176e+01
7.473039199999999482e+01 -1.130685200000000066e+02 6.885661299999999585e+01
4.946937199999999990e+01 -7.359581000000000017e+01 5.386232999999999826e+00
7.473040000000000305e+01 -5.922797800000000024e+01 5.400369999999999671e+00
1.287400049999999965e+02 -2.507447510000000079e+02 4.917638399999999876e+01
1.287400049999999965e+02 -2.614197389999999928e+02 1.253752819999999986e+02
9.069265699999999697e+01 -5.870400200000000268e+01 7.422824900000000525e+01
1.287400049999999965e+02 -2.398761289999999917e+02 1.135552220000000005e+02
3.368350199999999717e+01 -7.193815600000000643e+01 8.869179499999999905e+01
6.854116799999999898e+01 -2.558529969999999878e+02 1.173950810000000047e+02
7.473040000000000305e+01 -1.027533260000000013e+02 1.375152439999999956e+02
1.287400049999999965e+02 -1.891367339999999899e+02 8.628479799999999500e+01
7.056031000000000120e+01 -2.569546199999999772e+02 5.961749999999999972e+01
1.298650049999999965e+02 -2.661292419999999765e+02 7.547216000000000236e+01
1.060098270000000014e+02 -5.870399499999999904e+01 1.089082949999999954e+02
1.302400049999999965e+02 -6.385795600000000150e+01 9.372821000000000424e+01
1.229629520000000014e+02 -9.647813399999999717e+01 1.939999999999999947e+00
1.287400049999999965e+02 -1.251410369999999972e+02 6.737843300000000113e+01
1.287400049999999965e+02 -1.529685670000000073e+02 1.414595180000000028e+02
6.124108900000000233e+01 -2.206897429999999929e+02 8.632189900000000193e+01
5.740943099999999788e+01 -1.872316439999999886e+02 8.632189900000000193e+01
7.366862500000000580e+01 -1.749899749999999869e+02 8.035899399999999559e+01
6.224729200000000162e+01 -1.706979369999999960e+02 9.389650000000000318e+01
4.493835399999999680e+01 -2.642659909999999854e+02 3.271381000000000228e+01
7.473040000000000305e+01 -1.647676700000000096e+02 8.250643900000000031e+01
1.316862790000000132e+02 -2.701224669999999719e+02 1.469334409999999878e+02
3.386600500000000125e+01 -1.149591829999999959e+02 8.046509600000000262e+01
7.473040000000000305e+01 -2.022230529999999931e+02 5.508357199999999665e+01
7.473040000000000305e+01 -1.833380579999999895e+02 8.088693200000000161e+01
5.354616200000000248e+01 -1.150419849999999968e+02 8.632189900000000193e+01
7.473040000000000305e+01 -1.891228330000000142e+02 1.251433600000000013e+01
1.225679930000000013e+02 -5.870399900000000315e+01 3.355808300000000344e+01
7.110141799999999535e+01 -7.646859700000000259e+01 9.296189900000000250e+01
5.825222399999999823e+01 -6.754745499999999936e+01 1.008178329999999931e+02
1.043778690000000040e+02 -7.134635199999999600e+01 1.939999999999999947e+00
1.287400049999999965e+02 -1.213285979999999995e+02 1.010912780000000026e+02
7.412721299999999758e+01 -2.704993900000000053e+02 5.302405000000000257e+00
1.287400049999999965e+02 -1.416938930000000028e+02 6.704777500000000146e+01
1.287400049999999965e+02 -2.594714969999999994e+02 4.563977400000000273e+01
3.803005600000000186e+01 -6.252955599999999947e+01 1.939999999999999947e+00
1.263024369999999976e+02 -1.523384550000000104e+02 1.427120060000000024e+02
1.287400049999999965e+02 -1.006770099999999957e+02 7.878808600000000695e+01
9.881294300000000419e+01 -2.232561039999999934e+02 1.939999999999999947e+00
6.426080299999999568e+01 -2.541512759999999957e+02 9.095946499999999446e+01
4.776133699999999749e+01 -2.630620119999999815e+02 5.774340800000000229e+01
9.518001599999999485e+01 -1.693060910000000092e+02 1.427120060000000024e+02
7.359060700000000566e+01 -2.558529969999999878e+02 6.240096700000000141e+01
6.901132200000000694e+01 -2.177482300000000066e+02 1.086253739999999937e+02
1.287400049999999965e+02 -2.620830990000000043e+02 2.866844599999999943e+01
7.360540000000000305e+01 -6.247440699999999936e+01 1.239128900000000044e+01
4.782325699999999813e+01 -1.049390790000000067e+02 8.803900099999999895e+01
1.274164430000000010e+02 -2.692340090000000146e+02 3.276670099999999763e+01
1.051266629999999935e+02 -5.870399499999999904e+01 1.382755900000000082e+01
6.056204600000000227e+01 -1.166870799999999946e+02 8.632189900000000193e+01
4.725544399999999712e+01 -7.013484200000000612e+01 1.939999999999999947e+00
6.529951499999999953e+01 -2.437903750000000116e+02 8.035900100000000634e+01
7.473040000000000305e+01 -2.011341549999999927e+02 1.264572749999999957e+02
6.178836400000000140e+01 -1.193669969999999978e+02 8.727366600000000574e+01
9.904541000000000395e+01 -8.093296800000000246e+01 1.427120060000000024e+02
8.590152700000000152e+01 -2.692340090000000146e+02 5.233823000000000114e+00
6.751246600000000342e+01 -2.046916809999999884e+02 9.296189900000000250e+01
7.335920699999999783e+01 -6.311928900000000198e+01 6.161278500000000236e+01
8.186614199999999641e+01 -2.055038600000000031e+02 1.939999999999999947e+00
1.255505519999999962e+02 -6.180450400000000144e+01 1.491020049999999912e+02
7.473039199999999482e+01 -1.104378889999999984e+02 1.289659420000000125e+02
7.473040000000000305e+01 -8.358475500000000125e+01 1.054121020000000044e+02
1.287400049999999965e+02 -1.148757169999999945e+02 8.094055199999999672e+01
6.067815800000000337e+01 -1.903159939999999892e+02 8.768103000000000691e+01
4.558407600000000315e+01 -7.201901200000000358e+01 1.939999999999999947e+00
7.647714999999999463e+01 -5.757900200000000268e+01 3.320885499999999979e+01
1.287400049999999965e+02 -2.670469969999999762e+02 9.673958600000000274e+01
7.473040000000000305e+01 -1.163535770000000014e+02 8.287065099999999518e+01
9.663148499999999785e+01 -2.185552669999999864e+02 1.939999999999999947e+00
1.287400210000000129e+02 -2.479686580000000049e+02 5.874741699999999867e+01
6.781053199999999492e+01 -8.092722299999999791e+01 9.296189900000000250e+01
1.272387540000000001e+02 -2.704355469999999855e+02 9.726583899999999971e+01
5.316809500000000099e+01 -1.122549970000000030e+02 8.709010299999999916e+01
1.240031129999999990e+02 -2.707340090000000146e+02 9.806887799999999800e+01
7.473040000000000305e+01 -1.228171389999999974e+02 1.281396330000000034e+02
9.789152500000000146e+01 -2.692340090000000146e+02 1.309514310000000137e+02
6.806842000000000326e+01 -2.023829189999999869e+02 9.296189900000000250e+01
8.850305199999999672e+01 -8.379669199999999307e+01 1.939999999999999947e+00
4.557743800000000078e+01 -7.130890700000000493e+01 7.841760299999999972e+01
1.067434159999999963e+02 -2.676681520000000205e+02 1.427120060000000024e+02
7.473039199999999482e+01 -2.099777980000000071e+02 1.253292309999999929e+02
1.002562259999999981e+02 -8.605783800000000383e+01 1.939999999999999947e+00
9.261625700000000450e+01 -2.010620270000000005e+02 1.939999999999999947e+00
1.287400049999999965e+02 -1.106011890000000051e+02 7.075511899999999343e+01
7.473040000000000305e+01 -1.491954650000000129e+02 1.661329299999999876e+01
3.863523099999999744e+01 -7.094425200000000586e+01 1.273560100000000084e+01
1.287400049999999965e+02 -1.089466630000000009e+02 2.088921500000000009e+01
4.893520399999999881e+01 -1.547860110000000020e+02 8.696691900000000430e+01
1.287400049999999965e+02 -8.392621599999999660e+01 8.119140600000000063e+01
6.269092599999999749e+01 -2.144568179999999984e+02 9.500912499999999739e+01
1.023997880000000009e+02 -2.019290310000000090e+02 1.491020049999999912e+02
1.287400049999999965e+02 -2.619824830000000020e+02 7.293882800000000088e+01
3.796865100000000126e+01 -1.281887049999999988e+02 7.841760299999999972e+01
9.742156199999999444e+01 -2.647599789999999871e+02 1.427120060000000024e+02
1.233705060000000060e+02 -2.706145319999999970e+02 3.341672899999999657e+01
8.056957199999999375e+01 -2.701448359999999980e+02 7.710205100000000300e+01
7.680645800000000634e+01 -8.595047800000000393e+01 1.939999999999999947e+00
1.287400049999999965e+02 -2.648793029999999931e+02 9.867123399999999833e+01
9.924568200000000218e+01 -2.670526120000000105e+02 1.491020049999999912e+02
7.473039199999999482e+01 -2.447832180000000051e+02 1.040113529999999997e+02
1.287400049999999965e+02 -2.216126859999999965e+02 1.202476649999999978e+02
1.287400049999999965e+02 -2.261800540000000126e+02 3.688935500000000189e+01
8.463100400000000434e+01 -2.692340090000000146e+02 7.756033299999999997e+01
5.588581800000000044e+01 -1.291157839999999908e+02 8.035900100000000634e+01
1.267813720000000046e+02 -7.166617599999999300e+01 1.491020049999999912e+02
1.121019059999999996e+02 -2.112701720000000023e+02 1.427120060000000024e+02
7.420198800000000006e+01 -6.175479899999999844e+01 8.917314899999999511e+01
4.270534500000000122e+01 -2.084873049999999921e+02 7.841760299999999972e+01
6.006058500000000322e+01 -2.661839899999999943e+02 9.479730999999999597e+01
1.167422100000000000e+02 -7.033406100000000549e+01 1.939999999999999947e+00
1.236354139999999973e+02 -5.870399900000000315e+01 1.054369600000000062e+01
1.287400049999999965e+02 -1.009826889999999935e+02 4.213433799999999962e+01
6.409713700000000358e+01 -2.496115419999999858e+02 9.303786499999999648e+01
9.395469699999999591e+01 -1.280839389999999867e+02 1.427120060000000024e+02
1.318340000000000032e+02 -2.337802580000000034e+02 1.447806089999999983e+02
7.467683399999999949e+01 -1.195856629999999967e+02 1.427120060000000024e+02
5.560492700000000355e+01 -9.637442000000000064e+01 8.632189900000000193e+01
7.652581800000000101e+01 -2.692340090000000146e+02 9.342564400000000546e+01
3.716193799999999925e+01 -6.024480100000000249e+01 8.506050999999999362e+00
1.287400049999999965e+02 -1.900659180000000106e+02 3.496579400000000248e+01
7.201678499999999872e+01 -1.508564450000000079e+02 9.296190599999999904e+01
1.069120560000000069e+02 -6.697835499999999342e+01 1.427120060000000024e+02
7.473040000000000305e+01 -2.303670040000000085e+02 7.139276099999999303e+01
6.082076599999999900e+01 -2.164027399999999943e+02 8.035900100000000634e+01
4.815182500000000232e+01 -7.167567400000000077e+01 9.977310199999999440e+01
1.263595430000000022e+02 -1.280172579999999982e+02 1.491020049999999912e+02
1.143088379999999944e+02 -2.334463039999999978e+02 1.939999999999999947e+00
7.473040000000000305e+01 -2.105402070000000094e+02 1.321855500000000028e+01
8.011866799999999955e+01 -6.835104400000000169e+01 1.491020200000000102e+02
1.109398800000000023e+02 -1.187990879999999976e+02 1.491020049999999912e+02
1.287400049999999965e+02 -2.036413880000000063e+02 7.108447999999999922e+01
1.017201539999999937e+02 -2.218902589999999861e+02 1.939999999999999947e+00
1.258878859999999946e+02 -5.757899900000000315e+01 3.753617100000000306e+01
1.287400049999999965e+02 -2.006169130000000109e+02 8.319406899999999894e+01
9.275102200000000607e+01 -5.870399900000000315e+01 3.150905799999999957e+01
9.056893900000000031e+01 -8.073426100000000361e+01 1.491020049999999912e+02
4.754228599999999716e+01 -1.218255000000000052e+02 8.803899400000000242e+01
1.287400049999999965e+02 -8.633591499999999996e+01 2.585827799999999854e+01
1.287400049999999965e+02 -7.706351499999999533e+01 6.027252599999999916e+01
1.287400049999999965e+02 -1.944008790000000033e+02 4.414757900000000035e+01
9.411889600000000655e+01 -2.393440860000000043e+02 1.939999999999999947e+00
1.244766850000000034e+02 -1.328639070000000117e+02 1.491020049999999912e+02
1.147877270000000038e+02 -5.870399499999999904e+01 5.745318000000000147e+00
1.126868439999999936e+02 -2.716483150000000251e+02 1.487833559999999977e+02
7.707156399999999508e+01 -8.107134999999999536e+01 1.939999999999999947e+00
8.894059799999999427e+01 -2.692340090000000146e+02 3.630866999999999933e+01
4.409336100000000158e+01 -2.661839899999999943e+02 8.343698100000000295e+01
6.095510900000000021e+01 -2.563444519999999898e+02 7.157215899999999920e+01
6.672466300000000672e+01 -2.454604339999999922e+02 1.036990590000000054e+02
7.779257200000000694e+01 -1.677871550000000127e+02 1.939999999999999947e+00
7.473040000000000305e+01 -1.289387969999999939e+02 8.226304600000000278e+01
5.694283300000000025e+01 -1.238891749999999945e+02 8.632189900000000193e+01
1.287400049999999965e+02 -1.480569460000000106e+02 2.011356699999999975e+01
8.892791699999999366e+01 -2.692340090000000146e+02 3.074644999999999850e+00
1.287400049999999965e+02 -2.340198059999999884e+02 1.169480130000000031e+02
7.473040000000000305e+01 -1.219654689999999988e+02 1.629966699999999946e+01
6.368351400000000240e+01 -2.014463649999999859e+02 8.784411599999999964e+01
1.258953860000000020e+02 -2.703590090000000146e+02 1.006634520000000066e+02
5.222954599999999914e+01 -1.439059599999999932e+02 8.632189900000000193e+01
5.263873699999999900e+01 -1.172885969999999958e+02 8.632189900000000193e+01
4.145312500000000000e+01 -2.044792480000000126e+02 7.841760299999999972e+01
7.338802300000000400e+01 -2.188160249999999962e+02 1.126252900000000068e+02
7.578195200000000398e+01 -7.771303600000000245e+01 1.491020049999999912e+02
1.287400049999999965e+02 -2.014139399999999966e+02 8.606355299999999886e+01
1.175601429999999965e+02 -5.870399900000000315e+01 1.184706189999999992e+02
9.344984399999999880e+01 -5.870399900000000315e+01 1.379347530000000006e+02
7.089672099999999944e+01 -1.303255619999999908e+02 8.035900100000000634e+01
1.287400049999999965e+02 -1.081113280000000003e+02 1.287625730000000033e+02
7.473040000000000305e+01 -2.402394559999999899e+02 1.122344970000000046e+02
4.840888600000000253e+01 -2.654925840000000221e+02 1.939999999999999947e+00
7.899681900000000212e+01 -1.664755859999999927e+02 1.427120060000000024e+02
7.785111999999999455e+01 -1.997919620000000123e+02 1.491020049999999912e+02
7.473040000000000305e+01 -1.023748250000000013e+02 1.086115879999999976e+02
7.403234100000000240e+01 -2.704373780000000238e+02 5.966124299999999891e+01
5.717017700000000247e+01 -2.411249080000000049e+02 8.632189900000000193e+01
1.287400049999999965e+02 -1.509199830000000020e+02 1.092606199999999994e+01
7.643534900000000221e+01 -5.757899900000000315e+01 6.222867600000000010e+01
1.089748079999999959e+02 -7.499671899999999880e+01 1.427120060000000024e+02
7.473040000000000305e+01 -1.871107030000000009e+02 1.101624599999999958e+02
1.287400049999999965e+02 -1.673267360000000110e+02 1.417666930000000036e+02
1.287400049999999965e+02 -1.748892060000000015e+02 9.844781500000000563e+01
6.609957900000000564e+01 -2.036539310000000000e+02 1.023522260000000017e+02
6.912377899999999897e+01 -2.307982790000000080e+02 1.034385220000000061e+02
7.473039199999999482e+01 -9.483137499999999420e+01 2.463675699999999935e+01
8.358327500000000043e+01 -1.117125779999999935e+02 1.427120060000000024e+02
1.287400049999999965e+02 -1.973054960000000051e+02 9.625065600000000643e+01
7.256040199999999629e+01 -1.188633580000000052e+02 7.598109000000000002e+00
1.287400049999999965e+02 -2.305906830000000127e+02 2.890759699999999910e+01
9.649289699999999925e+01 -2.381279600000000016e+02 1.491020049999999912e+02
7.473040000000000305e+01 -1.513068539999999871e+02 9.098063700000000154e+01
1.149436800000000005e+02 -1.466250760000000071e+02 1.939999999999999947e+00
6.477063800000000526e+01 -6.445565000000000566e+01 1.939999999999999947e+00
1.287400049999999965e+02 -1.119972989999999982e+02 6.627429000000000237e+00
6.649529300000000376e+01 -1.356202389999999980e+02 9.777581000000000699e+01
8.637278000000000588e+01 -1.905956730000000050e+02 1.427120060000000024e+02
4.683190199999999948e+01 -1.231311189999999982e+02 8.664386700000000019e+01
8.250021399999999971e+01 -2.692340090000000146e+02 5.311934699999999765e+01
1.287400049999999965e+02 -9.199492600000000664e+01 8.641870900000000688e+01
7.473040000000000305e+01 -1.384482120000000123e+02 1.035721049999999934e+02
9.853985600000000034e+01 -2.004381710000000112e+02 1.939999999999999947e+00
1.287400049999999965e+02 -5.894602199999999925e+01 3.106672700000000020e+01
7.473040000000000305e+01 -2.118808750000000032e+02 8.757751500000000533e+01
6.766048399999999674e+01 -1.946096650000000068e+02 1.002860490000000055e+02
1.312881010000000117e+02 -1.654565890000000081e+02 1.478052059999999983e+02
1.205522380000000027e+02 -1.571545409999999947e+02 1.491020049999999912e+02
1.287400049999999965e+02 -1.651434629999999970e+02 2.472769500000000065e+01
5.892974499999999694e+01 -1.242660829999999947e+02 8.632190699999999595e+01
1.260986330000000066e+02 -2.692340090000000146e+02 9.831933600000000695e+01
6.696151700000000062e+01 -1.957399900000000059e+02 9.878021999999999991e+01
7.500422700000000020e+01 -2.707336119999999937e+02 1.539519499999999930e+01
8.294869199999999410e+01 -2.692340090000000146e+02 4.480709800000000342e+01
7.370703899999999464e+01 -8.032207499999999811e+01 1.133125529999999941e+02
1.287400049999999965e+02 -1.490039669999999887e+02 3.004131100000000032e+01
6.423110200000000702e+01 -8.351624300000000289e+01 9.832714799999999400e+01
5.290655499999999734e+01 -8.610714699999999766e+01 8.632189900000000193e+01
5.121012100000000089e+01 -2.582201230000000010e+02 7.841760299999999972e+01
1.263606869999999986e+02 -1.887425379999999961e+02 1.427120060000000024e+02
6.625650799999999663e+01 -1.093932039999999972e+02 9.726137500000000102e+01
7.780158199999999624e+01 -7.927910599999999874e+01 1.939999999999999947e+00
7.473040000000000305e+01 -9.020118700000000445e+01 1.401270749999999907e+02
6.607802599999999416e+01 -1.311814420000000041e+02 1.190445399999999978e+02
1.078482360000000000e+02 -1.898216250000000116e+02 1.491020049999999912e+02
6.494196300000000122e+01 -2.297127529999999922e+02 9.296189900000000250e+01
4.817974499999999694e+01 -1.256645510000000030e+02 8.803900099999999895e+01
1.287400049999999965e+02 -6.959239200000000380e+01 8.576831000000000316e+00
1.302400049999999965e+02 -2.640570069999999987e+02 8.266266600000000153e+01
1.287400049999999965e+02 -1.452210239999999999e+02 1.149794160000000005e+02
1.287400049999999965e+02 -1.796685029999999870e+02 8.162999000000000649e+01
7.146926899999999705e+01 -1.620907440000000008e+02 8.092449999999999477e+00
1.253108519999999970e+02 -5.757900200000000268e+01 9.823043800000000658e+01
8.581561299999999903e+01 -8.472746999999999673e+01 1.491020049999999912e+02
1.311899410000000046e+02 -9.703115099999999416e+01 1.486900329999999997e+02
7.473039199999999482e+01 -2.520713039999999978e+02 2.419695300000000060e+01
1.311405939999999930e+02 -2.380457309999999893e+02 1.488087920000000111e+02
9.206091299999999933e+01 -5.870399499999999904e+01 1.052949449999999985e+02
9.880297099999999944e+01 -2.692340090000000146e+02 6.763732899999999404e+01
3.368349800000000016e+01 -2.561224060000000122e+02 8.427997600000000489e+01
7.358972199999999475e+01 -1.196939930000000061e+02 9.296189900000000250e+01
1.287400049999999965e+02 -1.515285800000000052e+02 3.480545399999999745e+01
5.236808800000000019e+01 -1.277948609999999974e+02 8.035900100000000634e+01
7.078910799999999881e+01 -6.175479899999999844e+01 1.025834200000000038e+02
1.228649599999999964e+02 -1.063872829999999965e+02 1.427120060000000024e+02
1.049996340000000004e+02 -2.208939359999999965e+02 1.491020049999999912e+02
7.465955399999999997e+01 -2.492423860000000104e+02 1.159549939999999992e+02
1.287400049999999965e+02 -2.158282780000000116e+02 4.932878900000000044e+01
7.535107399999999700e+01 -2.692340090000000146e+02 7.614482900000000143e+01
1.158468170000000015e+02 -2.401166690000000017e+02 1.939999999999999947e+00
7.473040000000000305e+01 -1.106744690000000020e+02 3.365625000000000000e+01
1.229753950000000060e+02 -2.702193909999999732e+02 1.079864429999999942e+02
1.293215480000000071e+02 -2.705100100000000225e+02 1.665661400000000114e+01
5.878123099999999823e+01 -6.024479699999999838e+01 6.963646999999999920e+00
6.852677900000000477e+01 -6.332733499999999793e+01 1.050999999999999979e+01
9.430527499999999463e+01 -5.870399499999999904e+01 6.431176800000000071e+01
5.495056900000000155e+01 -1.184387439999999998e+02 8.632189900000000193e+01
7.454361000000000104e+01 -5.726659800000000189e+01 3.868336099999999789e+01
7.473040799999999706e+01 -1.245635599999999954e+02 5.578924599999999856e+01
6.944190999999999292e+01 -2.640639340000000175e+02 1.024626310000000018e+02
9.726046800000000303e+01 -5.870400200000000268e+01 1.441823699999999953e+01
7.226092500000000030e+01 -1.776207280000000139e+02 8.035900100000000634e+01
7.473040000000000305e+01 -2.421054839999999899e+02 8.590225200000000427e+01
1.287400049999999965e+02 -1.174334640000000007e+02 5.358215299999999814e+01
1.287400049999999965e+02 -1.806932070000000010e+02 4.484145699999999835e+01
5.677899899999999889e+01 -2.107381440000000055e+02 8.035900100000000634e+01
1.301360170000000096e+02 -5.839670900000000131e+01 5.090292699999999826e+01
1.302400049999999965e+02 -2.644396060000000261e+02 1.177465899999999976e+02
1.214690089999999998e+02 -1.827257840000000044e+02 1.491020049999999912e+02
1.088361430000000070e+02 -9.955870099999999923e+01 1.491020049999999912e+02
8.870834399999999675e+01 -6.517053199999999435e+01 1.427120060000000024e+02
1.287400049999999965e+02 -1.588182979999999986e+02 8.906706200000000706e+01
1.016998750000000058e+02 -5.870400200000000268e+01 2.110876000000000197e+00
1.175952910000000031e+02 -1.554274749999999869e+02 1.427120060000000024e+02
1.287400049999999965e+02 -1.228711700000000064e+02 5.079194000000000209e+00
6.318234999999999957e+01 -1.067521820000000048e+02 9.450875100000000373e+01
7.473040000000000305e+01 -1.140633469999999932e+02 7.165887499999999477e+01
7.473040000000000305e+01 -9.326864600000000394e+01 8.891779300000000319e+01
1.311669310000000053e+02 -1.983339839999999867e+02 1.487561340000000030e+02
1.042590480000000071e+02 -5.870399900000000315e+01 6.343989200000000039e+01
7.622950000000000159e+01 -2.692340090000000146e+02 1.637113199999999935e+01
4.439773600000000187e+01 -2.642659909999999854e+02 2.956275700000000128e+01
1.165011599999999987e+02 -1.138308329999999984e+02 1.427120060000000024e+02
1.287400049999999965e+02 -1.976102750000000015e+02 6.475606500000000665e+01
5.133912699999999774e+01 -1.877364959999999883e+02 8.803900099999999895e+01
7.473039199999999482e+01 -2.606997069999999894e+02 5.868124799999999652e+01
6.940713499999999669e+01 -1.900896299999999997e+02 1.184766620000000046e+02
7.473040000000000305e+01 -2.161734920000000102e+02 4.192941700000000083e+01
1.073274920000000066e+02 -2.646010130000000231e+02 1.939999999999999947e+00
7.473040799999999706e+01 -2.126461329999999919e+02 1.137702799999999925e+01
1.318340000000000032e+02 -6.271336399999999855e+01 1.443112639999999942e+02
1.067004239999999982e+02 -2.692340090000000146e+02 1.691969500000000082e+01
3.368349800000000016e+01 -2.059235079999999982e+02 8.105653399999999920e+01
7.563070700000000102e+01 -1.493493499999999869e+02 1.939999999999999947e+00
1.134838790000000017e+02 -7.495915200000000311e+01 1.427120060000000024e+02
7.473040000000000305e+01 -2.299220280000000116e+02 8.890849300000000710e+01
5.132801800000000014e+01 -1.637839050000000043e+02 8.632189200000000540e+01
6.771062499999999318e+01 -1.351081540000000132e+02 1.058230130000000031e+02
7.473040000000000305e+01 -1.325328979999999888e+02 6.205017899999999997e+01
6.426216900000000010e+01 -1.607036290000000065e+02 8.092449999999999477e+00
1.227399979999999999e+02 -2.692763669999999934e+02 5.456125000000000114e+00
1.287400049999999965e+02 -6.067685699999999827e+01 1.110279620000000023e+02
4.798120099999999866e+01 -2.591534419999999841e+02 2.102303300000000164e+01
5.668309800000000109e+01 -2.638171389999999974e+02 1.005871889999999951e+02
3.774243500000000040e+01 -1.683151550000000043e+02 7.841760299999999972e+01
9.160622399999999743e+01 -2.692340090000000146e+02 1.938003900000000002e+01
1.302400049999999965e+02 -6.361722600000000227e+01 1.091529390000000035e+02
7.119883000000000095e+01 -1.222860790000000009e+02 1.133377839999999992e+02
5.746198299999999648e+01 -1.298564000000000078e+02 8.843211399999999855e+01
4.941939200000000199e+01 -2.413127440000000092e+02 8.035900100000000634e+01
7.473040000000000305e+01 -1.956430049999999881e+02 8.321882600000000707e+01
5.479307899999999876e+01 -8.480197099999999466e+01 8.035900100000000634e+01
7.364482099999999321e+01 -1.768485719999999901e+02 1.165091859999999997e+02
6.930384800000000212e+01 -7.077645900000000267e+01 1.024423369999999949e+02
8.759280400000000100e+01 -1.789935000000000116e+02 1.491019900000000007e+02
7.381040199999999629e+01 -1.606298830000000066e+02 1.525418600000000069e+01
4.784545899999999818e+01 -1.818286740000000066e+02 8.632189900000000193e+01
3.998202100000000314e+01 -6.582537100000000407e+01 7.446510299999999916e+01
7.597615100000000155e+01 -2.705259399999999914e+02 2.087558200000000141e+01
9.032778899999999567e+01 -1.096705319999999944e+02 1.939999999999999947e+00
7.452888500000000249e+01 -1.240552749999999946e+02 1.160867460000000051e+02
4.958293900000000320e+01 -1.244069980000000015e+02 8.656614700000000084e+01
7.473040000000000305e+01 -2.254580540000000042e+02 5.119899000000000200e+01
1.000672760000000068e+02 -2.692340090000000146e+02 1.440189200000000014e+01
1.131684719999999942e+02 -6.812113999999999692e+01 1.491020049999999912e+02
8.012888300000000186e+01 -5.735247799999999785e+01 6.560342400000000396e+01
7.231431600000000515e+01 -2.572998660000000086e+02 1.050999999999999979e+01
1.056369090000000028e+02 -2.692340090000000146e+02 1.399673310000000015e+02
6.390888999999999953e+01 -1.732101440000000139e+02 8.632189900000000193e+01
1.287400049999999965e+02 -2.518488460000000089e+02 6.249603700000000117e+01
6.305138000000000176e+01 -2.134993289999999888e+02 8.800291400000000408e+01
7.473040799999999706e+01 -1.116477280000000007e+02 3.256213799999999736e+01
1.076091310000000050e+02 -2.311557459999999935e+02 1.491020049999999912e+02
1.085604170000000011e+02 -5.870399499999999904e+01 1.096059949999999930e+02
7.349369799999999486e+01 -1.452886349999999993e+02 8.035900100000000634e+01
9.601824999999999477e+01 -1.115361860000000007e+02 1.939999999999999947e+00
7.473040000000000305e+01 -7.730741899999999589e+01 1.204184949999999930e+02
1.287400049999999965e+02 -1.123621600000000029e+02 3.871278000000000219e+01
5.517167700000000252e+01 -1.412246089999999867e+02 8.632189900000000193e+01
9.698233799999999860e+01 -2.692340090000000146e+02 9.469790600000000325e+01
6.186504000000000048e+01 -2.085180049999999881e+02 8.685174600000000567e+01
6.046774299999999869e+01 -2.131413119999999992e+02 8.632189900000000193e+01
6.048765900000000073e+01 -6.175479899999999844e+01 9.311782100000000639e+01
6.914717899999999418e+01 -1.601071469999999977e+02 1.160821080000000052e+02
8.051406900000000633e+01 -2.266933899999999937e+02 1.427120060000000024e+02
6.654035899999999515e+01 -2.530026090000000067e+02 9.787289400000000228e+01
5.146355100000000249e+01 -2.114865419999999858e+02 8.632189900000000193e+01
7.323040000000000305e+01 -2.641388549999999782e+02 9.045004299999999375e+01
7.473040799999999706e+01 -8.541795299999999713e+01 4.930302799999999763e+01
5.004081000000000046e+01 -6.399273699999999820e+01 1.050999999999999979e+01
1.131864089999999976e+02 -2.238183899999999937e+02 1.427120060000000024e+02
1.287400049999999965e+02 -2.562400210000000129e+02 8.035398000000000707e+00
7.190064999999999884e+01 -8.466803000000000168e+01 1.094209290000000010e+02
1.287400049999999965e+02 -1.474362179999999967e+02 1.032054059999999964e+02
8.309783199999999681e+01 -5.870399900000000315e+01 9.915260299999999916e+01
8.777613800000000310e+01 -1.403464199999999948e+02 1.491020049999999912e+02
7.473040000000000305e+01 -1.115355069999999955e+02 1.312156369999999868e+02
6.860452999999999690e+01 -1.534162450000000035e+02 1.163339459999999974e+02
3.409740099999999785e+01 -7.840176400000000001e+01 8.376691399999999987e+01
6.750132000000000687e+01 -2.140367280000000108e+02 1.053724289999999968e+02
1.287400049999999965e+02 -6.587191799999999375e+01 1.999764100000000155e+01
5.617259599999999864e+01 -1.723464659999999924e+02 8.818575300000000539e+01
1.287400049999999965e+02 -1.710976870000000076e+02 2.649197600000000108e+01
6.089266200000000140e+01 -2.039080810000000099e+02 8.632189900000000193e+01
1.287400049999999965e+02 -2.436426240000000121e+02 8.963916799999999796e+01
4.123230000000000217e+01 -8.019370999999999583e+01 8.818505100000000141e+01
1.287399900000000059e+02 -1.514854890000000012e+02 4.778026200000000046e+01
8.612900500000000648e+01 -1.142476269999999943e+02 1.491020049999999912e+02
1.074917070000000052e+02 -2.690725709999999822e+02 1.491020049999999912e+02
3.368349800000000016e+01 -7.051597599999999488e+01 9.395101200000000574e+01
7.350418100000000265e+01 -6.422778300000000229e+01 1.276375429999999938e+02
7.473040000000000305e+01 -2.340839229999999986e+02 1.228491819999999990e+02
7.473040000000000305e+01 -1.489974520000000098e+02 8.994396199999999908e+01
1.287400049999999965e+02 -2.016858220000000017e+02 5.383660100000000170e+01
1.273853529999999949e+02 -2.688893429999999967e+02 1.939999999999999947e+00
7.277182799999999929e+01 -1.116592100000000016e+02 9.296189900000000250e+01
4.786610000000000298e+01 -2.592651369999999815e+02 5.629672999999999661e+01
6.503301199999999938e+01 -9.484336899999999559e+01 1.000547710000000023e+02
9.275057200000000535e+01 -1.596594389999999919e+02 1.939999999999999947e+00
5.580376400000000103e+01 -1.156926500000000004e+02 8.035900900000000036e+01
8.054646300000000281e+01 -2.063508150000000114e+02 1.939999999999999947e+00
7.561345699999999681e+01 -2.707340090000000146e+02 1.234043730000000068e+02
7.473039199999999482e+01 -2.467696530000000052e+02 8.842092100000000698e+01
1.189885409999999979e+02 -9.695729099999999789e+01 1.491020049999999912e+02
9.094185600000000136e+01 -2.692340090000000146e+02 6.827101899999999546e+01
8.408886699999999337e+01 -2.651259769999999776e+02 1.427120060000000024e+02
1.287400049999999965e+02 -1.879152530000000070e+02 5.995640199999999709e+01
7.473039199999999482e+01 -2.475961000000000070e+02 9.223850299999999436e+01
1.287400049999999965e+02 -2.313372190000000046e+02 1.009766999999999939e+02
8.653476000000000568e+01 -2.144918519999999944e+02 1.427120060000000024e+02
7.473040000000000305e+01 -1.807390750000000139e+02 8.587008699999999806e+01
8.820162999999999442e+01 -2.692340090000000146e+02 9.515261000000000635e+00
1.287400049999999965e+02 -2.327445679999999868e+02 1.204215090000000004e+02
7.054462399999999889e+01 -1.348419949999999972e+02 1.119287410000000023e+02
9.597699000000000069e+01 -2.692340090000000146e+02 6.765107000000000426e+01
9.633272599999999386e+01 -2.692340090000000146e+02 3.001198600000000027e+01
3.692909999999999826e+01 -2.599797669999999812e+02 1.207507299999999972e+01
6.414717899999999418e+01 -2.177476499999999930e+02 9.484692400000000134e+01
5.970243800000000078e+01 -9.112750200000000689e+01 8.643011500000000069e+01
7.473040000000000305e+01 -1.859520420000000058e+02 1.392729490000000112e+02
7.464125099999999691e+01 -8.475682100000000219e+01 9.296189900000000250e+01
6.437873799999999846e+01 -1.616544340000000091e+02 9.512000000000000455e+00
7.473040000000000305e+01 -1.106801760000000030e+02 1.082933270000000050e+02
9.170584100000000660e+01 -1.410858609999999942e+02 1.427120060000000024e+02
1.287400049999999965e+02 -2.352621310000000108e+02 4.556872899999999760e+01
1.140377270000000038e+02 -2.254538880000000063e+02 1.939999999999999947e+00
1.118723300000000052e+02 -1.722369079999999997e+02 1.491020049999999912e+02
4.588493299999999664e+01 -2.291076349999999877e+02 8.632189900000000193e+01
6.094955800000000323e+01 -2.226319890000000044e+02 8.662972999999999502e+01
7.473040000000000305e+01 -1.264928890000000052e+02 1.288464500000000079e+01
4.879897299999999660e+01 -1.213690030000000064e+02 8.660377499999999884e+01
1.087433470000000000e+02 -1.557355039999999917e+02 1.491020049999999912e+02
7.037800599999999918e+01 -2.621933589999999867e+02 1.939999999999999947e+00
1.287400049999999965e+02 -1.467433470000000000e+02 1.334671629999999993e+02
6.297288900000000211e+01 -2.312512659999999869e+02 9.561660000000000537e+01
1.252266850000000034e+02 -5.898931900000000184e+01 1.491020049999999912e+02
4.767341600000000312e+01 -2.463299560000000099e+02 8.859368899999999769e+01
7.163600200000000484e+01 -8.283871499999999344e+01 1.448303530000000023e+02
1.287400049999999965e+02 -1.095434719999999942e+02 1.884023699999999835e+01
1.177107160000000050e+02 -1.928401639999999873e+02 1.427120060000000024e+02
7.539768999999999721e+01 -2.389452970000000107e+02 1.491020049999999912e+02
3.368349800000000016e+01 -1.178139500000000055e+02 8.220387300000000153e+01
1.287400049999999965e+02 -1.272001039999999961e+02 1.332927549999999997e+02
7.256041000000000452e+01 -1.229762269999999944e+02 3.062406999999999879e+00
7.953072400000000641e+01 -9.428049500000000194e+01 1.491020049999999912e+02
1.301425480000000050e+02 -2.647673649999999839e+02 2.044656200000000013e+01
4.466880799999999851e+01 -1.910922549999999944e+02 7.841760299999999972e+01
7.473040000000000305e+01 -6.469301600000000008e+01 1.029342189999999988e+02
1.287400049999999965e+02 -2.151988680000000045e+02 9.551057400000000541e+01
5.028102899999999664e+01 -2.594109799999999950e+02 7.446510299999999916e+01
6.448613699999999938e+01 -1.070029370000000029e+02 9.887655599999999367e+01
1.294533389999999997e+02 -2.632340090000000146e+02 1.243049620000000033e+02
1.131185609999999997e+02 -1.096002579999999966e+02 1.427120060000000024e+02
7.200665999999999656e+01 -6.175479899999999844e+01 8.914928399999999442e+01
1.073233869999999968e+02 -2.309052120000000059e+02 1.491020049999999912e+02
1.318159789999999987e+02 -2.090296940000000063e+02 1.466494449999999858e+02
5.270330799999999982e+01 -2.409288789999999949e+02 8.632189900000000193e+01
7.040705099999999561e+01 -2.398915709999999990e+02 1.116320189999999997e+02
1.006659010000000052e+02 -1.683611909999999909e+02 1.427120060000000024e+02
1.287400049999999965e+02 -2.043527530000000070e+02 1.204348750000000052e+02
1.237230150000000037e+02 -1.098205949999999973e+02 1.427120060000000024e+02
1.196763380000000012e+02 -7.612270399999999881e+01 1.939999999999999947e+00
7.473040000000000305e+01 -1.442687229999999943e+02 9.078474400000000344e+01
6.303569799999999645e+01 -1.878077999999999861e+02 8.632189900000000193e+01
7.068219000000000563e+01 -2.046979369999999960e+02 1.067959139999999962e+02
1.120334320000000048e+02 -2.550345759999999871e+02 1.427120060000000024e+02
5.108136400000000066e+01 -2.676940309999999954e+02 3.390740000000000087e+00
7.479352599999999995e+01 -2.192529299999999921e+02 1.491020049999999912e+02
1.287400049999999965e+02 -1.626266170000000102e+02 1.450945199999999957e+01
7.774587200000000564e+01 -5.870399499999999904e+01 1.073945539999999994e+02
5.436401699999999693e+01 -1.253990019999999959e+02 8.680961600000000544e+01
6.520547500000000696e+01 -2.206923219999999901e+02 9.131419400000000053e+01
3.630194900000000047e+01 -9.427098800000000267e+01 8.541366600000000631e+01
1.297256769999999904e+02 -5.773393999999999693e+01 5.360602599999999995e+01
7.473040000000000305e+01 -9.390942400000000134e+01 8.276144399999999735e+01
4.343122100000000074e+01 -2.398827210000000036e+02 8.632189900000000193e+01
1.287400049999999965e+02 -1.591898349999999880e+02 1.363394500000000065e+01
1.287400049999999965e+02 -2.465342100000000016e+02 5.509904900000000083e+01
7.473040000000000305e+01 -6.808097100000000523e+01 3.223448199999999986e+01
3.962359200000000214e+01 -2.661839899999999943e+02 8.189280700000000479e+01
7.483855400000000202e+01 -2.043660580000000095e+02 1.427120060000000024e+02
1.287400049999999965e+02 -5.892423999999999751e+01 5.699825299999999828e+01
6.978007499999999652e+01 -2.118604740000000106e+02 1.102815319999999986e+02
7.473040000000000305e+01 -1.056347659999999991e+02 1.359947510000000079e+02
7.473040000000000305e+01 -8.154919399999999996e+01 1.095469819999999999e+02
1.287400049999999965e+02 -6.868762200000000462e+01 1.889500200000000163e+01
7.365502899999999897e+01 -1.015198290000000014e+02 1.939999999999999947e+00
4.502128199999999936e+01 -1.543362730000000056e+02 7.841760299999999972e+01
1.287400049999999965e+02 -2.441641539999999964e+02 2.300115800000000021e+01
1.287400049999999965e+02 -1.869967499999999916e+02 5.264789199999999880e+01
8.074052399999999352e+01 -2.019130250000000046e+02 1.939999999999999947e+00
6.860174600000000567e+01 -2.676939699999999789e+02 1.050734199999999952e+01
3.431624999999999659e+01 -2.088134770000000060e+02 8.001484700000000316e+01
9.437760900000000674e+01 -9.354567699999999775e+01 1.491020049999999912e+02
5.674074900000000099e+01 -2.397593840000000114e+02 8.035900100000000634e+01
5.198946399999999812e+01 -1.970807650000000137e+02 8.632189900000000193e+01
7.796611799999999448e+01 -2.692340090000000146e+02 7.192207299999999748e+01
1.287400049999999965e+02 -1.108759160000000037e+02 1.218048249999999939e+02
4.606336999999999904e+01 -1.053149800000000056e+02 8.632189900000000193e+01
1.247627559999999960e+02 -1.325332950000000096e+02 1.939999999999999947e+00
9.716529099999999630e+01 -2.692340090000000146e+02 1.036495209999999929e+02
1.287400049999999965e+02 -1.507259219999999971e+02 7.093635600000000352e+01
7.461367799999999306e+01 -7.985523200000000088e+01 9.296189900000000250e+01
4.259288800000000208e+01 -6.598537399999999309e+01 4.473440599999999989e+01
1.153728559999999987e+02 -2.176316530000000000e+02 1.427120060000000024e+02
8.241126300000000526e+01 -1.570863040000000126e+02 1.939999999999999947e+00
8.251201600000000269e+01 -2.033892360000000110e+02 1.939999999999999947e+00
1.094418110000000013e+02 -5.870399499999999904e+01 4.102501300000000128e+01
4.391455799999999954e+01 -6.932904800000000023e+01 5.356550599999999918e+01
4.941820500000000038e+01 -6.702220199999999295e+01 1.592163200000000067e+01
1.216121830000000017e+02 -9.871987900000000593e+01 1.427120060000000024e+02
9.887516800000000217e+01 -1.157288740000000047e+02 1.491020049999999912e+02
1.287400049999999965e+02 -8.595092800000000466e+01 1.099676740000000024e+02
7.320219400000000576e+01 -7.440712000000000614e+01 1.491019900000000007e+02
5.089712899999999962e+01 -2.502462309999999945e+02 8.859369700000000591e+01
5.263729899999999873e+01 -1.910814819999999941e+02 8.679072600000000648e+01
6.488604700000000491e+01 -1.085051270000000017e+02 9.973806000000000438e+01
7.473040000000000305e+01 -2.129878539999999987e+02 4.626570099999999996e+01
7.255308499999999583e+01 -1.894684750000000122e+02 1.490327450000000056e+02
7.473040000000000305e+01 -1.829122010000000103e+02 1.376505129999999895e+02
7.391985300000000336e+01 -9.533951600000000326e+01 1.427120060000000024e+02
1.287400049999999965e+02 -1.314827270000000112e+02 5.731896199999999908e+01
4.951506799999999942e+01 -9.696478999999999360e+01 8.035900100000000634e+01
7.473040000000000305e+01 -2.174772189999999910e+02 7.952539799999999559e+01
1.260744710000000026e+02 -2.703590090000000146e+02 7.619247400000000425e+01
3.528528599999999926e+01 -2.625635379999999941e+02 1.939999999999999947e+00
1.223689499999999981e+02 -2.692340090000000146e+02 1.098323440000000062e+02
5.742811199999999872e+01 -2.332148129999999924e+02 8.632189900000000193e+01
8.509565700000000277e+01 -2.692340090000000146e+02 2.222029699999999863e+01
6.934153700000000242e+01 -1.114805369999999982e+02 1.039076539999999937e+02
1.287400049999999965e+02 -7.862574800000000153e+01 1.231786419999999964e+02
1.248931429999999949e+02 -7.566590899999999920e+01 1.427120060000000024e+02
7.118985700000000350e+01 -1.665931699999999864e+02 9.296189900000000250e+01
4.596695299999999662e+01 -1.169124369999999971e+02 8.632189900000000193e+01
7.473040000000000305e+01 -6.915304600000000335e+01 8.293106099999999969e+01
1.149803919999999948e+02 -1.039108429999999998e+02 1.939999999999999947e+00
1.287400049999999965e+02 -2.127218929999999943e+02 9.901783799999999758e+01
3.368349800000000016e+01 -1.642336880000000008e+02 8.158866899999999589e+01
7.978299699999999461e+01 -1.316624759999999981e+02 1.939999999999999947e+00
6.579322100000000262e+01 -1.090644230000000050e+02 8.035900900000000036e+01
1.037272799999999933e+02 -9.682222000000000151e+01 1.491019900000000007e+02
7.473040000000000305e+01 -8.875889599999999291e+01 1.274088519999999960e+02
7.473040000000000305e+01 -1.192340849999999932e+02 1.303937229999999943e+02
7.373195599999999672e+01 -1.115772860000000009e+02 9.296189900000000250e+01
5.964684700000000106e+01 -1.509100039999999865e+02 8.751155099999999720e+01
6.673026299999999367e+01 -1.126342010000000045e+02 1.037110899999999987e+02
5.794444299999999970e+01 -2.661839899999999943e+02 8.530353499999999656e+01
4.679217500000000030e+01 -7.116480300000000625e+01 9.977310199999999440e+01
1.287400049999999965e+02 -2.424882810000000006e+02 6.239110199999999651e+01
7.473040000000000305e+01 -2.226404569999999978e+02 3.939557599999999837e+01
1.287400049999999965e+02 -2.551821899999999914e+02 6.886447099999999466e+01
7.247607399999999700e+01 -1.128235020000000048e+02 1.489826970000000017e+02
7.659771700000000294e+01 -2.703590090000000146e+02 1.356709140000000104e+02
7.328307300000000168e+01 -1.768373719999999878e+02 1.123991699999999980e+02
3.727364000000000033e+01 -7.155012499999999420e+01 1.273559999999999981e+01
7.632661400000000640e+01 -5.755490900000000210e+01 1.365714419999999905e+02
1.056163860000000057e+02 -1.818943940000000055e+02 1.427119899999999859e+02
7.473040000000000305e+01 -2.428960879999999918e+02 8.686705000000000609e+01
7.473040799999999706e+01 -8.394039899999999932e+01 6.957930799999999749e+01
8.476380899999999485e+01 -1.582867740000000083e+02 1.427120060000000024e+02
7.473040000000000305e+01 -1.300062869999999862e+02 8.683711200000000474e+01
8.304637099999999350e+01 -2.692340090000000146e+02 6.763259100000000501e+01
5.651364900000000091e+01 -9.351155099999999720e+01 8.035900900000000036e+01
1.279916989999999970e+02 -2.692340090000000146e+02 8.199083699999999908e+01
1.235618290000000030e+02 -5.720399900000000315e+01 8.818750000000000000e+01
5.058310699999999827e+01 -1.841096949999999879e+02 8.035900900000000036e+01
7.024468199999999740e+01 -1.152935030000000012e+02 9.296189900000000250e+01
7.473040000000000305e+01 -7.402799199999999757e+01 1.391871699999999912e+01
7.473040000000000305e+01 -2.648094790000000103e+02 3.150420000000000087e+01
9.904170200000000079e+01 -5.595124100000000311e+01 1.473578640000000064e+02
3.368349800000000016e+01 -1.805781250000000000e+02 8.096977200000000607e+01
7.473040000000000305e+01 -6.920098900000000697e+01 9.276753200000000277e+01
1.121460649999999930e+02 -2.689930420000000026e+02 1.491020049999999912e+02
7.374336999999999875e+01 -1.824033200000000079e+02 1.164634250000000009e+02
1.061570430000000016e+02 -1.587020420000000058e+02 1.491020200000000102e+02
8.822611999999999455e+01 -2.692340090000000146e+02 8.359046899999999880e+01
7.473040000000000305e+01 -2.510261230000000126e+02 1.548044299999999929e+01
6.181776800000000094e+01 -1.072149959999999993e+02 8.698819000000000301e+01
7.473040000000000305e+01 -1.260106889999999993e+02 8.698178900000000624e+01
7.128240999999999872e+01 -1.615364069999999970e+02 1.144552539999999965e+02
7.328115800000000490e+01 -2.582601619999999798e+02 1.491020049999999912e+02
5.486482999999999777e+01 -2.329350129999999979e+02 8.684581000000000017e+01
5.973962399999999917e+01 -1.070738680000000045e+02 8.802815200000000573e+01
7.473040799999999706e+01 -2.515624239999999929e+02 9.087250500000000386e+01
6.423130799999999851e+01 -2.661840209999999729e+02 9.196057899999999563e+01
1.287400049999999965e+02 -2.215030209999999897e+02 1.814702199999999976e+01
7.055681599999999776e+01 -1.498583680000000129e+02 1.065258100000000070e+02
3.598115500000000111e+01 -1.246438899999999990e+02 8.530366499999999519e+01
7.639984900000000323e+01 -9.713916000000000395e+01 1.427120060000000024e+02
4.373665600000000353e+01 -2.583818660000000023e+02 1.050999999999999979e+01
7.248145300000000191e+01 -1.484152829999999881e+02 1.489870909999999924e+02
6.859738900000000683e+01 -1.985467989999999929e+02 1.023044890000000038e+02
4.387945599999999757e+01 -2.676940000000000168e+02 6.527963999999999878e+00
5.967669699999999722e+01 -6.175479899999999844e+01 7.898837299999999573e+01
3.928731499999999954e+01 -1.877132870000000082e+02 8.632189900000000193e+01
1.287400049999999965e+02 -7.346724700000000041e+01 7.123239900000000091e+01
1.287400210000000129e+02 -1.565248109999999997e+02 4.149686100000000266e+01
7.473040000000000305e+01 -1.851470030000000122e+02 8.098663299999999765e+01
4.384950599999999810e+01 -6.951982900000000143e+01 1.689902100000000118e+01
1.045148389999999949e+02 -5.870399900000000315e+01 5.933142500000000297e+01
7.473040000000000305e+01 -9.488835899999999413e+01 5.349931300000000078e+01
5.572586799999999840e+01 -1.902460020000000043e+02 8.649586499999999489e+01
1.287400049999999965e+02 -2.574389649999999961e+02 7.640332800000000191e+01
1.287400049999999965e+02 -1.579434809999999914e+02 5.517846699999999771e+01
3.582272300000000342e+01 -1.884441219999999930e+02 7.850837699999999586e+01
7.473040000000000305e+01 -1.063307039999999972e+02 4.505363100000000287e+01
7.473040000000000305e+01 -9.798947099999999466e+01 1.860892099999999871e+01
7.551592999999999734e+01 -1.661880040000000065e+02 7.326208000000000276e+00
1.073586729999999960e+02 -2.567738340000000221e+02 1.939999999999999947e+00
7.095749700000000360e+01 -8.033573900000000378e+01 1.150565720000000027e+02
7.473040000000000305e+01 -9.215008500000000424e+01 1.226127620000000036e+02
7.473040000000000305e+01 -1.112395549999999957e+02 2.229936800000000119e+01
1.287400049999999965e+02 -2.090339659999999924e+02 5.013395700000000232e+01
1.287400049999999965e+02 -8.241291800000000478e+01 8.939624000000000592e+01
7.473040000000000305e+01 -2.486670230000000004e+02 1.968563699999999983e+01
7.501769299999999419e+01 -2.692340090000000146e+02 1.033601460000000003e+02
1.288228450000000009e+02 -2.632340090000000146e+02 4.028789900000000301e+01
