4.327313995361328125e+01 -2.603143615722656250e+02 5.123013687133789062e+01
4.121765518188476562e+01 -2.571162414550781250e+02 5.528905487060546875e+01
4.567713165283203125e+01 -2.607060852050781250e+02 5.513793945312500000e+01
4.397459030151367188e+01 -2.579503173828125000e+02 5.855997848510742188e+01
1.287479400634765625e+02 -1.609353027343750000e+02 1.232787399291992188e+02
1.287042541503906250e+02 -1.643644256591796875e+02 1.246651000976562500e+02
1.288770751953125000e+02 -1.620588836669921875e+02 1.265211944580078125e+02
1.288155212402343750e+02 -1.653063354492187500e+02 1.280808868408203125e+02
8.936460876464843750e+01 -1.897080688476562500e+02 1.451158294677734375e+02
8.750004577636718750e+01 -1.925499267578125000e+02 1.447745666503906250e+02
9.371057128906250000e+01 -1.894841156005859375e+02 1.447329864501953125e+02
9.189765930175781250e+01 -1.923292541503906250e+02 1.443697662353515625e+02
1.026794509887695312e+02 -5.837983703613281250e+01 1.326566009521484375e+02
9.942416381835937500e+01 -5.846059036254882812e+01 1.336757354736328125e+02
1.051978759765625000e+02 -5.893712234497070312e+01 1.352194366455078125e+02
1.017896041870117188e+02 -5.900982666015625000e+01 1.362260589599609375e+02
7.654714202880859375e+01 -1.491018829345703125e+02 1.913953423500061035e+00
7.530643463134765625e+01 -1.520642547607421875e+02 2.504072189331054688e+00
7.947325134277343750e+01 -1.497736511230468750e+02 1.832164764404296875e+00
7.809789276123046875e+01 -1.528239288330078125e+02 2.519761323928833008e+00
7.441508483886718750e+01 -1.759268798828125000e+02 1.411896362304687500e+02
7.428408813476562500e+01 -1.793731689453125000e+02 1.411964569091796875e+02
7.620981597900390625e+01 -1.758587493896484375e+02 1.435969696044921875e+02
7.589891815185546875e+01 -1.795706634521484375e+02 1.434747619628906250e+02
6.462841796875000000e+01 -9.796679687500000000e+01 9.863882446289062500e+01
6.501075744628906250e+01 -1.006153106689453125e+02 9.954777526855468750e+01
6.577936553955078125e+01 -9.685748291015625000e+01 1.008207473754882812e+02
6.619952392578125000e+01 -9.956745147705078125e+01 1.017184066772460938e+02
7.386463928222656250e+01 -2.544443359375000000e+02 5.590959167480468750e+01
7.432608032226562500e+01 -2.570487060546875000e+02 5.659495544433593750e+01
7.320674133300781250e+01 -2.540165863037109375e+02 5.932794570922851562e+01
7.364490509033203125e+01 -2.566820678710937500e+02 6.011431503295898438e+01
5.977467727661132812e+01 -6.096868896484375000e+01 9.800742340087890625e+01
5.777676773071289062e+01 -6.214352798461914062e+01 9.931002044677734375e+01
6.186137008666992188e+01 -6.166887664794921875e+01 9.989716339111328125e+01
5.993862152099609375e+01 -6.283399200439453125e+01 1.012776412963867188e+02
6.990062713623046875e+01 -6.179282760620117188e+01 7.252940368652343750e+01
6.891278076171875000e+01 -6.154073333740234375e+01 7.402793884277343750e+01
7.067948913574218750e+01 -6.181936645507812500e+01 7.466661071777343750e+01
6.993803405761718750e+01 -6.182251358032226562e+01 7.644593811035156250e+01
1.275026473999023438e+02 -1.800955657958984375e+02 6.689187049865722656e+00
1.277710418701171875e+02 -1.838102111816406250e+02 6.482016563415527344e+00
1.286535644531250000e+02 -1.799015045166015625e+02 9.313317298889160156e+00
1.289693756103515625e+02 -1.835006561279296875e+02 9.105586051940917969e+00
4.307717514038085938e+01 -2.584947204589843750e+02 1.036280822753906250e+01
4.198325347900390625e+01 -2.600160827636718750e+02 1.060892391204833984e+01
4.531648635864257812e+01 -2.589503479003906250e+02 1.126357841491699219e+01
4.373770141601562500e+01 -2.598225402832031250e+02 1.182737541198730469e+01
1.012309951782226562e+02 -5.841206741333007812e+01 1.037269134521484375e+02
9.777186584472656250e+01 -5.862801742553710938e+01 1.060693435668945312e+02
1.039550933837890625e+02 -5.873891448974609375e+01 1.068428268432617188e+02
1.004787292480468750e+02 -5.889876937866210938e+01 1.089715957641601562e+02
1.051587677001953125e+02 -5.840526199340820312e+01 8.002651214599609375e+00
1.030067214965820312e+02 -5.911753463745117188e+01 1.074470806121826172e+01
1.060801086425781250e+02 -5.803726196289062500e+01 1.148613929748535156e+01
1.043969039916992188e+02 -5.910184097290039062e+01 1.472751998901367188e+01
1.302740783691406250e+02 -1.056540527343750000e+02 1.475846862792968750e+02
1.294346771240234375e+02 -1.102287673950195312e+02 1.477819671630859375e+02
1.331918487548828125e+02 -1.047745590209960938e+02 1.490528411865234375e+02
1.323883056640625000e+02 -1.097277755737304688e+02 1.493936309814453125e+02
1.191437225341796875e+02 -2.697202453613281250e+02 1.353919372558593750e+02
1.173761825561523438e+02 -2.698446960449218750e+02 1.374488372802734375e+02
1.211611480712890625e+02 -2.690993652343750000e+02 1.378732299804687500e+02
1.196194763183593750e+02 -2.696680908203125000e+02 1.396434631347656250e+02
1.039092178344726562e+02 -1.764375762939453125e+02 1.472718658447265625e+02
1.021965026855468750e+02 -1.803203887939453125e+02 1.476215515136718750e+02
1.080536956787109375e+02 -1.764922485351562500e+02 1.468108978271484375e+02
1.065870666503906250e+02 -1.800145263671875000e+02 1.470908660888671875e+02
4.384445953369140625e+01 -2.575506896972656250e+02 1.186595916748046875e+01
4.232217407226562500e+01 -2.585961608886718750e+02 1.253854656219482422e+01
4.588105392456054688e+01 -2.575659484863281250e+02 1.289726734161376953e+01
4.420989227294921875e+01 -2.585218505859375000e+02 1.385758876800537109e+01
7.479454803466796875e+01 -1.814432983398437500e+02 4.405313491821289062e+01
7.456376647949218750e+01 -1.840395202636718750e+02 4.500518417358398438e+01
7.507298278808593750e+01 -1.816070861816406250e+02 4.762615585327148438e+01
7.487001037597656250e+01 -1.841845245361328125e+02 4.842110443115234375e+01
1.154165420532226562e+02 -2.521971588134765625e+02 1.448748931884765625e+02
1.132619171142578125e+02 -2.550871734619140625e+02 1.447975311279296875e+02
1.186994400024414062e+02 -2.511486053466796875e+02 1.447141571044921875e+02
1.172708816528320312e+02 -2.544884185791015625e+02 1.447850646972656250e+02
7.373245239257812500e+01 -2.475883636474609375e+02 1.153259887695312500e+02
7.342929077148437500e+01 -2.503910369873046875e+02 1.166012878417968750e+02
7.523482513427734375e+01 -2.480653839111328125e+02 1.179548034667968750e+02
7.496411132812500000e+01 -2.508946838378906250e+02 1.193263320922851562e+02
5.950006484985351562e+01 -1.793334197998046875e+02 8.762897491455078125e+01
5.884685897827148438e+01 -1.821121673583984375e+02 8.809809875488281250e+01
6.095448684692382812e+01 -1.805430450439453125e+02 8.772976684570312500e+01
6.028922271728515625e+01 -1.832862854003906250e+02 8.820394134521484375e+01
7.491989135742187500e+01 -1.347681884765625000e+02 6.492387390136718750e+01
7.503478240966796875e+01 -1.378726806640625000e+02 6.547967529296875000e+01
7.464484405517578125e+01 -1.350991516113281250e+02 6.823863220214843750e+01
7.481338500976562500e+01 -1.382074584960937500e+02 6.869852447509765625e+01
7.400173187255859375e+01 -2.031173400878906250e+02 9.109162902832031250e+01
7.402394104003906250e+01 -2.060791320800781250e+02 9.166522216796875000e+01
7.401660919189453125e+01 -2.024393310546875000e+02 9.353926849365234375e+01
7.395178222656250000e+01 -2.054662475585937500e+02 9.413845062255859375e+01
1.286744995117187500e+02 -1.677554016113281250e+02 1.189120025634765625e+02
1.285491943359375000e+02 -1.717426910400390625e+02 1.198840942382812500e+02
1.288544616699218750e+02 -1.682206878662109375e+02 1.222071151733398438e+02
1.287089691162109375e+02 -1.719041290283203125e+02 1.236557846069335938e+02
7.440251922607421875e+01 -2.032717132568359375e+02 1.098306274414062500e+01
7.439502716064453125e+01 -2.062147521972656250e+02 1.164955520629882812e+01
7.498556518554687500e+01 -2.032258605957031250e+02 1.370660686492919922e+01
7.500973510742187500e+01 -2.061295928955078125e+02 1.441446399688720703e+01
7.461940002441406250e+01 -1.727412567138671875e+02 1.289490966796875000e+02
7.449085235595703125e+01 -1.760023498535156250e+02 1.289760894775390625e+02
7.509867095947265625e+01 -1.721173706054687500e+02 1.305972137451171875e+02
7.482328796386718750e+01 -1.753640747070312500e+02 1.305911254882812500e+02
7.256251525878906250e+01 -2.216297760009765625e+02 1.457623291015625000e+02
7.245871734619140625e+01 -2.252932281494140625e+02 1.458891448974609375e+02
7.324053192138671875e+01 -2.214394836425781250e+02 1.477141418457031250e+02
7.314842224121093750e+01 -2.253798065185546875e+02 1.479351654052734375e+02
6.835846710205078125e+01 -1.274482421875000000e+02 1.149499053955078125e+02
6.786008453369140625e+01 -1.312549591064453125e+02 1.156230621337890625e+02
6.887726593017578125e+01 -1.263271636962890625e+02 1.167307891845703125e+02
6.843512725830078125e+01 -1.300636291503906250e+02 1.174364013671875000e+02
1.290710449218750000e+02 -2.246786041259765625e+02 1.051534805297851562e+02
1.288159942626953125e+02 -2.267263336181640625e+02 1.063883972167968750e+02
1.289252777099609375e+02 -2.239422912597656250e+02 1.094679183959960938e+02
1.287612762451171875e+02 -2.262588043212890625e+02 1.105970458984375000e+02
1.283216247558593750e+02 -2.697006835937500000e+02 1.089291229248046875e+02
1.261436233520507812e+02 -2.695138854980468750e+02 1.110304031372070312e+02
1.297333374023437500e+02 -2.691322631835937500e+02 1.108102951049804688e+02
1.282165527343750000e+02 -2.697198486328125000e+02 1.127669525146484375e+02
7.817540740966796875e+01 -2.704193725585937500e+02 2.399785423278808594e+01
7.693195343017578125e+01 -2.704968566894531250e+02 2.601267433166503906e+01
7.957884979248046875e+01 -2.702030334472656250e+02 2.611183929443359375e+01
7.843524932861328125e+01 -2.702051696777343750e+02 2.818797302246093750e+01
1.027472991943359375e+02 -5.833075332641601562e+01 1.281439113616943359e+01
1.012015304565429688e+02 -5.958539199829101562e+01 1.640286827087402344e+01
1.042198104858398438e+02 -5.803166580200195312e+01 1.597825050354003906e+01
1.025606384277343750e+02 -5.925889205932617188e+01 1.941012001037597656e+01
1.287240295410156250e+02 -1.537621612548828125e+02 1.246210861206054688e+02
1.287790679931640625e+02 -1.566380310058593750e+02 1.257955245971679688e+02
1.286344146728515625e+02 -1.547118835449218750e+02 1.282750396728515625e+02
1.287739868164062500e+02 -1.576112060546875000e+02 1.292984466552734375e+02
5.560470199584960938e+01 -2.668622436523437500e+02 9.577654266357421875e+01
5.265200805664062500e+01 -2.657492675781250000e+02 9.731953430175781250e+01
5.778554916381835938e+01 -2.662383728027343750e+02 9.799846649169921875e+01
5.491239166259765625e+01 -2.651544494628906250e+02 9.943270111083984375e+01
1.057594146728515625e+02 -2.678186645507812500e+02 1.487169799804687500e+02
1.035558166503906250e+02 -2.684155578613281250e+02 1.494488372802734375e+02
1.086666946411132812e+02 -2.660311279296875000e+02 1.490236358642578125e+02
1.062288513183593750e+02 -2.667421569824218750e+02 1.499961090087890625e+02
7.369065093994140625e+01 -1.139370574951171875e+02 7.978964233398437500e+01
7.388521575927734375e+01 -1.169315719604492188e+02 7.987170410156250000e+01
7.356499481201171875e+01 -1.137019653320312500e+02 8.261849975585937500e+01
7.380841064453125000e+01 -1.166598358154296875e+02 8.271369934082031250e+01
8.019277191162109375e+01 -1.261328430175781250e+02 1.384522438049316406e+00
7.953037261962890625e+01 -1.299115142822265625e+02 1.950614809989929199e+00
8.345690155029296875e+01 -1.262525711059570312e+02 1.700550675392150879e+00
8.213761138916015625e+01 -1.301261749267578125e+02 1.853547334671020508e+00
1.089687805175781250e+02 -1.572216644287109375e+02 1.436757202148437500e+02
1.074186248779296875e+02 -1.603968658447265625e+02 1.433559265136718750e+02
1.133199768066406250e+02 -1.569663238525390625e+02 1.438876953125000000e+02
1.115139312744140625e+02 -1.602531280517578125e+02 1.434951171875000000e+02
8.209736633300781250e+01 -5.753009033203125000e+01 5.373714828491210938e+01
8.045318603515625000e+01 -5.802864837646484375e+01 5.509661865234375000e+01
8.347042846679687500e+01 -5.749406433105468750e+01 5.580869293212890625e+01
8.171990966796875000e+01 -5.810050201416015625e+01 5.717899703979492188e+01
7.210116577148437500e+01 -1.032951126098632812e+02 9.128466796875000000e+01
7.236045074462890625e+01 -1.056762542724609375e+02 9.198594665527343750e+01
7.236965179443359375e+01 -1.021898880004882812e+02 9.348569488525390625e+01
7.256420135498046875e+01 -1.047256317138671875e+02 9.426952362060546875e+01
9.960938262939453125e+01 -2.292719879150390625e+02 1.724272489547729492e+00
9.794230651855468750e+01 -2.338049011230468750e+02 1.913502812385559082e+00
1.038162994384765625e+02 -2.304320678710937500e+02 1.668323755264282227e+00
1.019153671264648438e+02 -2.344804992675781250e+02 2.085479497909545898e+00
9.862842559814453125e+01 -1.571011962890625000e+02 1.442278900146484375e+02
9.755086517333984375e+01 -1.605447082519531250e+02 1.439712829589843750e+02
1.014845962524414062e+02 -1.563076019287109375e+02 1.441746520996093750e+02
1.004774856567382812e+02 -1.597489929199218750e+02 1.439541931152343750e+02
7.506667327880859375e+01 -1.066163482666015625e+02 5.313181686401367188e+01
7.491961669921875000e+01 -1.094034957885742188e+02 5.429401397705078125e+01
7.496868133544921875e+01 -1.060373764038085938e+02 5.704598999023437500e+01
7.490971374511718750e+01 -1.087612304687500000e+02 5.809856033325195312e+01
1.287477111816406250e+02 -2.369331207275390625e+02 5.591429138183593750e+01
1.288260955810546875e+02 -2.401857147216796875e+02 5.604853057861328125e+01
1.284553833007812500e+02 -2.360459899902343750e+02 5.993977355957031250e+01
1.285641174316406250e+02 -2.390776214599609375e+02 5.999613952636718750e+01
7.373234558105468750e+01 -9.517981719970703125e+01 1.318790149688720703e+01
7.410369110107421875e+01 -1.008645019531250000e+02 1.297000122070312500e+01
7.478250885009765625e+01 -9.398338317871093750e+01 1.483223056793212891e+01
7.521857452392578125e+01 -9.990567016601562500e+01 1.457399368286132812e+01
7.210890197753906250e+01 -7.171800231933593750e+01 1.897553920745849609e+00
7.058588409423828125e+01 -7.567951965332031250e+01 2.393934488296508789e+00
7.586878967285156250e+01 -7.169187164306640625e+01 1.798151612281799316e+00
7.424668121337890625e+01 -7.554483032226562500e+01 2.237948894500732422e+00
3.829058837890625000e+01 -7.242884826660156250e+01 8.968145751953125000e+01
3.689767837524414062e+01 -7.144291687011718750e+01 9.204101562500000000e+01
3.994150924682617188e+01 -7.263607025146484375e+01 9.265294647216796875e+01
3.832390213012695312e+01 -7.147585296630859375e+01 9.476940155029296875e+01
1.267272949218750000e+02 -1.723713684082031250e+02 1.401145172119140625e+02
1.256272354125976562e+02 -1.761428070068359375e+02 1.397102966308593750e+02
1.301573638916015625e+02 -1.726295776367187500e+02 1.411437530517578125e+02
1.290387725830078125e+02 -1.765667114257812500e+02 1.406057434082031250e+02
9.184454345703125000e+01 -1.763629913330078125e+02 1.476873931884765625e+02
9.051956939697265625e+01 -1.803873291015625000e+02 1.484674377441406250e+02
9.574650573730468750e+01 -1.772401275634765625e+02 1.483997192382812500e+02
9.418556976318359375e+01 -1.812607269287109375e+02 1.490711975097656250e+02
7.518609619140625000e+01 -2.689244384765625000e+02 1.211507949829101562e+02
7.407907104492187500e+01 -2.681466369628906250e+02 1.230489273071289062e+02
7.634211730957031250e+01 -2.699836425781250000e+02 1.226408462524414062e+02
7.516442108154296875e+01 -2.690287170410156250e+02 1.244851608276367188e+02
7.126919555664062500e+01 -2.367364044189453125e+02 1.168024673461914062e+02
7.091072845458984375e+01 -2.399006958007812500e+02 1.175486679077148438e+02
7.219055175781250000e+01 -2.350033569335937500e+02 1.196509246826171875e+02
7.183860778808593750e+01 -2.382499237060546875e+02 1.203878250122070312e+02
8.998804473876953125e+01 -2.691947021484375000e+02 2.423174858093261719e+01
8.794138336181640625e+01 -2.692068176269531250e+02 2.572281837463378906e+01
9.160517120361328125e+01 -2.692744445800781250e+02 2.645071983337402344e+01
8.952228546142578125e+01 -2.692962341308593750e+02 2.812681579589843750e+01
5.694264602661132812e+01 -2.393580322265625000e+02 8.738195037841796875e+01
5.599701309204101562e+01 -2.414152679443359375e+02 8.752481842041015625e+01
5.939583969116210938e+01 -2.388643341064453125e+02 8.739243316650390625e+01
5.824821472167968750e+01 -2.410384674072265625e+02 8.771000671386718750e+01
1.099949264526367188e+02 -2.586456298828125000e+02 1.444272308349609375e+02
1.080674743652343750e+02 -2.610024108886718750e+02 1.441916046142578125e+02
1.145084762573242188e+02 -2.582693481445312500e+02 1.446232757568359375e+02
1.127654266357421875e+02 -2.609177856445312500e+02 1.444511718750000000e+02
5.262856292724609375e+01 -2.625786437988281250e+02 7.201702117919921875e+01
4.963496780395507812e+01 -2.623614807128906250e+02 7.297071838378906250e+01
5.482906341552734375e+01 -2.625617980957031250e+02 7.352370452880859375e+01
5.192202377319335938e+01 -2.622212524414062500e+02 7.445993804931640625e+01
1.299116210937500000e+02 -2.675390625000000000e+02 1.192574462890625000e+02
1.296233520507812500e+02 -2.699747009277343750e+02 1.207949218750000000e+02
1.299186553955078125e+02 -2.673355102539062500e+02 1.219915618896484375e+02
1.296029205322265625e+02 -2.697549743652343750e+02 1.234633712768554688e+02
7.482265472412109375e+01 -2.329274597167968750e+02 5.406847000122070312e+01
7.463924407958984375e+01 -2.360831604003906250e+02 5.505308151245117188e+01
7.492410278320312500e+01 -2.326909637451171875e+02 5.784257888793945312e+01
7.481755828857421875e+01 -2.358793487548828125e+02 5.870808410644531250e+01
1.094902114868164062e+02 -1.627557373046875000e+02 1.443922882080078125e+02
1.078409118652343750e+02 -1.664254760742187500e+02 1.437643737792968750e+02
1.133808212280273438e+02 -1.622205810546875000e+02 1.446523284912109375e+02
1.118111648559570312e+02 -1.659393463134765625e+02 1.439634094238281250e+02
7.380528259277343750e+01 -1.769951324462890625e+02 1.126438217163085938e+02
7.328654479980468750e+01 -1.800341033935546875e+02 1.128307800292968750e+02
7.460812377929687500e+01 -1.760032806396484375e+02 1.141902847290039062e+02
7.404427337646484375e+01 -1.790132141113281250e+02 1.143504943847656250e+02
1.288441009521484375e+02 -9.953336334228515625e+01 9.834899139404296875e+01
1.289113769531250000e+02 -1.023550491333007812e+02 9.968224334716796875e+01
1.289681243896484375e+02 -9.878746795654296875e+01 1.017501831054687500e+02
1.289979095458984375e+02 -1.015177841186523438e+02 1.025174407958984375e+02
5.754190826416015625e+01 -1.105990295410156250e+02 8.134383392333984375e+01
5.682131576538085938e+01 -1.122488784790039062e+02 8.134320831298828125e+01
6.046202087402343750e+01 -1.115525054931640625e+02 8.071871948242187500e+01
5.987059402465820312e+01 -1.131376800537109375e+02 8.067864990234375000e+01
7.248024749755859375e+01 -1.626054840087890625e+02 9.919132995605468750e+01
7.273880767822265625e+01 -1.651729125976562500e+02 9.927897644042968750e+01
7.368836212158203125e+01 -1.621413879394531250e+02 1.018913497924804688e+02
7.387844848632812500e+01 -1.648143768310546875e+02 1.020570983886718750e+02
8.959445190429687500e+01 -2.448898162841796875e+02 2.060112714767456055e+00
8.882180786132812500e+01 -2.497550048828125000e+02 2.341940641403198242e+00
9.350070953369140625e+01 -2.482804107666015625e+02 1.467600226402282715e+00
9.278524780273437500e+01 -2.534013214111328125e+02 1.684623241424560547e+00
1.291647186279296875e+02 -2.375391693115234375e+02 9.737030029296875000e+01
1.288782653808593750e+02 -2.397209472656250000e+02 9.984779357910156250e+01
1.289359130859375000e+02 -2.376439208984375000e+02 1.025601882934570312e+02
1.287111968994140625e+02 -2.398249206542968750e+02 1.050543975830078125e+02
7.441043090820312500e+01 -8.563536071777343750e+01 1.391127471923828125e+02
7.509251403808593750e+01 -8.817107391357421875e+01 1.399342193603515625e+02
7.514052581787109375e+01 -8.559719848632812500e+01 1.415061798095703125e+02
7.583736419677734375e+01 -8.822229003906250000e+01 1.423165588378906250e+02
5.824094390869140625e+01 -7.367988586425781250e+01 3.816984176635742188e+00
5.610961151123046875e+01 -7.407645416259765625e+01 5.136757373809814453e+00
6.048117446899414062e+01 -7.296472167968750000e+01 5.302672386169433594e+00
5.833446121215820312e+01 -7.325087738037109375e+01 6.598146438598632812e+00
1.076727294921875000e+02 -1.173101425170898438e+02 1.440405120849609375e+02
1.063478088378906250e+02 -1.211227416992187500e+02 1.436041412353515625e+02
1.119649353027343750e+02 -1.166850051879882812e+02 1.440237884521484375e+02
1.105262527465820312e+02 -1.206780548095703125e+02 1.436934967041015625e+02
7.466378021240234375e+01 -2.622681274414062500e+02 8.254206848144531250e+01
7.385738372802734375e+01 -2.612063293457031250e+02 8.424110412597656250e+01
7.531301116943359375e+01 -2.628498535156250000e+02 8.468684387207031250e+01
7.415764617919921875e+01 -2.610389099121093750e+02 8.673194122314453125e+01
5.789313888549804688e+01 -2.563188476562500000e+02 7.909701824188232422e+00
5.535339355468750000e+01 -2.566891479492187500e+02 9.910379409790039062e+00
5.979326248168945312e+01 -2.567049865722656250e+02 9.764717102050781250e+00
5.716067886352539062e+01 -2.570061035156250000e+02 1.180039596557617188e+01
1.272204589843750000e+02 -8.081214904785156250e+01 2.058077812194824219e+00
1.258447418212890625e+02 -8.485472106933593750e+01 2.020918607711791992e+00
1.303063354492187500e+02 -8.213661956787109375e+01 2.473290205001831055e+00
1.291143035888671875e+02 -8.625265502929687500e+01 2.428863048553466797e+00
7.330536651611328125e+01 -2.556117858886718750e+02 7.781197357177734375e+01
7.389170837402343750e+01 -2.579637145996093750e+02 7.893229675292968750e+01
7.372518157958984375e+01 -2.556551818847656250e+02 8.102685546875000000e+01
7.427613067626953125e+01 -2.579472961425781250e+02 8.210881805419921875e+01
7.344492340087890625e+01 -2.039989318847656250e+02 7.825272369384765625e+01
7.393468475341796875e+01 -2.064357452392578125e+02 7.902555084228515625e+01
7.341824340820312500e+01 -2.044868469238281250e+02 8.083259582519531250e+01
7.386282348632812500e+01 -2.068946380615234375e+02 8.161061096191406250e+01
6.973377990722656250e+01 -9.572425079345703125e+01 1.037470703125000000e+02
7.021504211425781250e+01 -9.853565216064453125e+01 1.051898498535156250e+02
7.073870849609375000e+01 -9.483537292480468750e+01 1.069648284912109375e+02
7.129137420654296875e+01 -9.765377807617187500e+01 1.084181518554687500e+02
1.286889190673828125e+02 -2.224588012695312500e+02 1.807261085510253906e+01
1.285380859375000000e+02 -2.260591430664062500e+02 1.823868560791015625e+01
1.285951080322265625e+02 -2.215631103515625000e+02 2.213549041748046875e+01
1.284353942871093750e+02 -2.252151947021484375e+02 2.227523994445800781e+01
6.461199188232421875e+01 -1.069583740234375000e+02 9.797058105468750000e+01
6.421943664550781250e+01 -1.095997161865234375e+02 9.746762084960937500e+01
6.547966766357421875e+01 -1.064760208129882812e+02 9.961879730224609375e+01
6.509930419921875000e+01 -1.091213684082031250e+02 9.914430236816406250e+01
1.243595352172851562e+02 -1.551642303466796875e+02 1.471310424804687500e+02
1.234477310180664062e+02 -1.591159667968750000e+02 1.466873016357421875e+02
1.268824691772460938e+02 -1.536623382568359375e+02 1.488908081054687500e+02
1.259551239013671875e+02 -1.579152832031250000e+02 1.485265045166015625e+02
6.371529006958007812e+01 -2.469044647216796875e+02 8.634125518798828125e+01
6.375984191894531250e+01 -2.487430725097656250e+02 8.665586853027343750e+01
6.405919647216796875e+01 -2.468422393798828125e+02 8.871059417724609375e+01
6.434045410156250000e+01 -2.488090820312500000e+02 8.903424835205078125e+01
3.644310379028320312e+01 -2.182401275634765625e+02 7.792807006835937500e+01
3.590277481079101562e+01 -2.220717773437500000e+02 7.812034606933593750e+01
3.846858596801757812e+01 -2.197464447021484375e+02 7.862117004394531250e+01
3.800624084472656250e+01 -2.236690368652343750e+02 7.887581634521484375e+01
1.284111175537109375e+02 -1.141733703613281250e+02 1.239649810791015625e+02
1.287805480957031250e+02 -1.170820312500000000e+02 1.241221694946289062e+02
1.284523773193359375e+02 -1.123886718750000000e+02 1.275741119384765625e+02
1.286718902587890625e+02 -1.155283355712890625e+02 1.275798416137695312e+02
5.631202316284179688e+01 -1.232063293457031250e+02 8.636785888671875000e+01
5.597457122802734375e+01 -1.246894836425781250e+02 8.641900634765625000e+01
5.767041397094726562e+01 -1.231827697753906250e+02 8.614905548095703125e+01
5.733049774169921875e+01 -1.246222381591796875e+02 8.620230102539062500e+01
9.497180938720703125e+01 -2.690671081542968750e+02 1.487344512939453125e+02
9.271111297607421875e+01 -2.685874633789062500e+02 1.490739440917968750e+02
9.720924377441406250e+01 -2.684101257324218750e+02 1.491567535400390625e+02
9.514823913574218750e+01 -2.681158142089843750e+02 1.495160217285156250e+02
8.461428833007812500e+01 -2.483120422363281250e+02 1.449355926513671875e+02
8.463183593750000000e+01 -2.527126464843750000e+02 1.442477416992187500e+02
8.835958099365234375e+01 -2.485535888671875000e+02 1.451057434082031250e+02
8.776636505126953125e+01 -2.518754730224609375e+02 1.447402648925781250e+02
7.447324371337890625e+01 -1.664244689941406250e+02 1.265424499511718750e+02
7.436669921875000000e+01 -1.695681610107421875e+02 1.269219970703125000e+02
7.466449737548828125e+01 -1.654277038574218750e+02 1.289268493652343750e+02
7.453479766845703125e+01 -1.683566284179687500e+02 1.292287139892578125e+02
1.107420501708984375e+02 -7.387715148925781250e+01 1.482699737548828125e+02
1.104418945312500000e+02 -7.805366516113281250e+01 1.481124877929687500e+02
1.136869201660156250e+02 -7.415112304687500000e+01 1.483078613281250000e+02
1.138736953735351562e+02 -7.859153747558593750e+01 1.481400909423828125e+02
7.059281158447265625e+01 -1.850667877197265625e+02 1.109416961669921875e+02
7.085390472412109375e+01 -1.883002929687500000e+02 1.116602554321289062e+02
7.156040191650390625e+01 -1.855940246582031250e+02 1.128838958740234375e+02
7.185270690917968750e+01 -1.888715057373046875e+02 1.134228973388671875e+02
7.328622436523437500e+01 -2.532194519042968750e+02 1.122111663818359375e+02
7.342045593261718750e+01 -2.564182739257812500e+02 1.129817123413085938e+02
7.403918457031250000e+01 -2.534263916015625000e+02 1.152753524780273438e+02
7.417679595947265625e+01 -2.568058166503906250e+02 1.161435394287109375e+02
1.285193328857421875e+02 -6.300180053710937500e+01 1.194559936523437500e+02
1.291224975585937500e+02 -6.500733184814453125e+01 1.202341690063476562e+02
1.287750549316406250e+02 -6.261505126953125000e+01 1.220299072265625000e+02
1.298631896972656250e+02 -6.591262817382812500e+01 1.223734436035156250e+02
1.287037811279296875e+02 -1.040285797119140625e+02 3.259901428222656250e+01
1.285548858642578125e+02 -1.072031478881835938e+02 3.357407760620117188e+01
1.287317657470703125e+02 -1.032642669677734375e+02 3.688708114624023438e+01
1.285718994140625000e+02 -1.063499832153320312e+02 3.782572937011718750e+01
7.442366790771484375e+01 -6.493113708496093750e+01 1.369061126708984375e+02
7.448722839355468750e+01 -6.736569213867187500e+01 1.380219268798828125e+02
7.483464050292968750e+01 -6.469017791748046875e+01 1.387848510742187500e+02
7.485769653320312500e+01 -6.704444122314453125e+01 1.398013916015625000e+02
1.288630371093750000e+02 -1.238447875976562500e+02 3.694743347167968750e+01
1.287532501220703125e+02 -1.262627105712890625e+02 3.806798934936523438e+01
1.285808105468750000e+02 -1.234790954589843750e+02 4.152411270141601562e+01
1.284896545410156250e+02 -1.259130935668945312e+02 4.257360458374023438e+01
6.415280914306640625e+01 -9.071759033203125000e+01 9.354325866699218750e+01
6.395846176147460938e+01 -9.347763061523437500e+01 9.335119628906250000e+01
6.499261474609375000e+01 -9.050076293945312500e+01 9.543467712402343750e+01
6.488143157958984375e+01 -9.333079528808593750e+01 9.524716186523437500e+01
1.276635437011718750e+02 -1.932047271728515625e+02 1.354231567382812500e+02
1.272711029052734375e+02 -1.966867523193359375e+02 1.356738433837890625e+02
1.295643005371093750e+02 -1.934042053222656250e+02 1.363762359619140625e+02
1.291865844726562500e+02 -1.967881774902343750e+02 1.366258850097656250e+02
5.444267272949218750e+01 -2.598348083496093750e+02 7.695824432373046875e+01
5.200063323974609375e+01 -2.587360839843750000e+02 7.763023376464843750e+01
5.622838592529296875e+01 -2.585064086914062500e+02 7.840275573730468750e+01
5.392720031738281250e+01 -2.572951660156250000e+02 7.925135040283203125e+01
1.233806152343750000e+02 -1.479246063232421875e+02 1.474284057617187500e+02
1.223301849365234375e+02 -1.516138305664062500e+02 1.475209045410156250e+02
1.260526809692382812e+02 -1.475953826904296875e+02 1.488907775878906250e+02
1.251855392456054688e+02 -1.517392730712890625e+02 1.488915252685546875e+02
1.233759002685546875e+02 -2.561201477050781250e+02 1.469630432128906250e+02
1.232096710205078125e+02 -2.600190734863281250e+02 1.474771423339843750e+02
1.248751068115234375e+02 -2.551386413574218750e+02 1.486236572265625000e+02
1.248922653198242188e+02 -2.593114318847656250e+02 1.493399047851562500e+02
5.558201599121093750e+01 -2.255027008056640625e+02 8.751166534423828125e+01
5.469566726684570312e+01 -2.273748779296875000e+02 8.777336883544921875e+01
5.747165679931640625e+01 -2.260138702392578125e+02 8.763825225830078125e+01
5.648251342773437500e+01 -2.277449035644531250e+02 8.789442443847656250e+01
8.284403991699218750e+01 -1.050569381713867188e+02 1.441454315185546875e+02
8.135007476806640625e+01 -1.092689971923828125e+02 1.439729919433593750e+02
8.676350402832031250e+01 -1.043824310302734375e+02 1.444390258789062500e+02
8.507692718505859375e+01 -1.089317703247070312e+02 1.442545928955078125e+02
7.537546539306640625e+01 -2.624956665039062500e+02 1.418305664062500000e+02
7.640362548828125000e+01 -2.657854003906250000e+02 1.428096466064453125e+02
7.657373046875000000e+01 -2.616959838867187500e+02 1.440605010986328125e+02
7.747797393798828125e+01 -2.649056091308593750e+02 1.451297149658203125e+02
6.213958358764648438e+01 -1.490004425048828125e+02 8.736082458496093750e+01
6.135853958129882812e+01 -1.503988647460937500e+02 8.735466003417968750e+01
6.387341690063476562e+01 -1.488410339355468750e+02 8.725830841064453125e+01
6.311626434326171875e+01 -1.503184509277343750e+02 8.719599914550781250e+01
7.668637084960937500e+01 -2.155227203369140625e+02 1.488092803955078125e+02
7.631362915039062500e+01 -2.199667816162109375e+02 1.490561370849609375e+02
7.808232879638671875e+01 -2.143441009521484375e+02 1.497867889404296875e+02
7.760390472412109375e+01 -2.187366180419921875e+02 1.501676025390625000e+02
8.699678039550781250e+01 -1.679142150878906250e+02 1.418600616455078125e+02
8.628014373779296875e+01 -1.716880950927734375e+02 1.420519104003906250e+02
8.966213989257812500e+01 -1.677894897460937500e+02 1.429274291992187500e+02
8.872360992431640625e+01 -1.715594177246093750e+02 1.429775695800781250e+02
1.259368743896484375e+02 -2.624319458007812500e+02 1.404731903076171875e+02
1.254934387207031250e+02 -2.655858764648437500e+02 1.418334960937500000e+02
1.270295333862304688e+02 -2.616567077636718750e+02 1.430222778320312500e+02
1.268003845214843750e+02 -2.649910888671875000e+02 1.443686828613281250e+02
7.477655792236328125e+01 -2.200415496826171875e+02 1.274896087646484375e+02
7.475534057617187500e+01 -2.236167297363281250e+02 1.277504501342773438e+02
7.411167907714843750e+01 -2.187733306884765625e+02 1.297756500244140625e+02
7.414672851562500000e+01 -2.222382659912109375e+02 1.299815216064453125e+02
6.344223785400390625e+01 -1.977693786621093750e+02 9.324541473388671875e+01
6.306004333496093750e+01 -2.001456451416015625e+02 9.340798950195312500e+01
6.490217590332031250e+01 -1.979522247314453125e+02 9.508715057373046875e+01
6.453596496582031250e+01 -2.003750152587890625e+02 9.533555603027343750e+01
3.397160339355468750e+01 -8.594313812255859375e+01 8.359599304199218750e+01
3.317326354980468750e+01 -9.097959899902343750e+01 8.438432312011718750e+01
3.648507308959960938e+01 -8.524272918701171875e+01 8.468865966796875000e+01
3.583537292480468750e+01 -8.958364868164062500e+01 8.552100372314453125e+01
1.287596282958984375e+02 -9.795133972167968750e+01 2.899338150024414062e+01
1.286470184326171875e+02 -1.009665145874023438e+02 3.008922958374023438e+01
1.286430664062500000e+02 -9.675041198730468750e+01 3.336949539184570312e+01
1.284174346923828125e+02 -9.968463897705078125e+01 3.445456314086914062e+01
1.057643127441406250e+02 -2.724545898437500000e+02 1.471813507080078125e+02
1.035752258300781250e+02 -2.724859313964843750e+02 1.480241546630859375e+02
1.083322601318359375e+02 -2.715167846679687500e+02 1.476998596191406250e+02
1.058326339721679688e+02 -2.716170959472656250e+02 1.487423400878906250e+02
1.015225524902343750e+02 -1.837886962890625000e+02 1.447091979980468750e+02
1.000038223266601562e+02 -1.872873992919921875e+02 1.452445678710937500e+02
1.058104400634765625e+02 -1.834727935791015625e+02 1.438494262695312500e+02
1.043674545288085938e+02 -1.869006347656250000e+02 1.444671173095703125e+02
7.470374298095703125e+01 -1.805898590087890625e+02 3.876087188720703125e+01
7.443663787841796875e+01 -1.831235656738281250e+02 3.969358825683593750e+01
7.477162933349609375e+01 -1.811678314208984375e+02 4.239404296875000000e+01
7.457186126708984375e+01 -1.837310638427734375e+02 4.335601806640625000e+01
7.398631286621093750e+01 -2.241283721923828125e+02 1.405304870605468750e+02
7.389575958251953125e+01 -2.273339996337890625e+02 1.405485992431640625e+02
7.464623260498046875e+01 -2.233898620605468750e+02 1.426996154785156250e+02
7.454646301269531250e+01 -2.266055145263671875e+02 1.426822967529296875e+02
9.269085693359375000e+01 -1.850755462646484375e+02 1.474328918457031250e+02
9.103327941894531250e+01 -1.879375610351562500e+02 1.473816070556640625e+02
9.707028961181640625e+01 -1.850131683349609375e+02 1.475346527099609375e+02
9.555839538574218750e+01 -1.881829528808593750e+02 1.478066558837890625e+02
5.295816421508789062e+01 -6.812796020507812500e+01 1.137874126434326172e+01
5.064763259887695312e+01 -6.778811645507812500e+01 1.282026195526123047e+01
5.514834976196289062e+01 -6.773486328125000000e+01 1.209258270263671875e+01
5.263216400146484375e+01 -6.723985290527343750e+01 1.352571773529052734e+01
7.339932250976562500e+01 -2.439993133544921875e+02 1.281687927246093750e+02
7.359651184082031250e+01 -2.471981811523437500e+02 1.283405151367187500e+02
7.468241119384765625e+01 -2.421324462890625000e+02 1.302832794189453125e+02
7.466924285888671875e+01 -2.456753387451171875e+02 1.299480438232421875e+02
9.885842132568359375e+01 -2.689248352050781250e+02 3.630014896392822266e+00
9.747464752197265625e+01 -2.695993347167968750e+02 5.140245437622070312e+00
1.017704238891601562e+02 -2.697358093261718750e+02 5.176369190216064453e+00
1.003227462768554688e+02 -2.700783386230468750e+02 6.938141345977783203e+00
6.753122711181640625e+01 -1.008088607788085938e+02 9.214532470703125000e+01
6.768515777587890625e+01 -1.033200759887695312e+02 9.299843597412109375e+01
6.797288513183593750e+01 -1.010787811279296875e+02 9.394916534423828125e+01
6.815072631835937500e+01 -1.035935363769531250e+02 9.481649017333984375e+01
1.286160583496093750e+02 -8.268149566650390625e+01 9.971762847900390625e+01
1.285106048583984375e+02 -8.601261138916015625e+01 1.006520385742187500e+02
1.285717468261718750e+02 -8.254300689697265625e+01 1.039781188964843750e+02
1.284463653564453125e+02 -8.575507354736328125e+01 1.049403610229492188e+02
9.994825744628906250e+01 -2.577571411132812500e+02 1.441186523437500000e+02
9.847348022460937500e+01 -2.592259521484375000e+02 1.438808288574218750e+02
1.024041595458984375e+02 -2.562557983398437500e+02 1.450477905273437500e+02
1.012319946289062500e+02 -2.589878234863281250e+02 1.446369171142578125e+02
1.286245727539062500e+02 -2.512693481445312500e+02 1.157778778076171875e+02
1.287400207519531250e+02 -2.540461120605468750e+02 1.163227615356445312e+02
1.286150970458984375e+02 -2.501257476806640625e+02 1.191995391845703125e+02
1.286482849121093750e+02 -2.527633209228515625e+02 1.197895202636718750e+02
3.641192626953125000e+01 -1.249348831176757812e+02 7.793057250976562500e+01
3.517925262451171875e+01 -1.297461395263671875e+02 7.816262054443359375e+01
3.942613220214843750e+01 -1.267556686401367188e+02 7.868103790283203125e+01
3.828028488159179688e+01 -1.314911804199218750e+02 7.897423553466796875e+01
7.492772674560546875e+01 -2.107673492431640625e+02 2.167522811889648438e+01
7.472728729248046875e+01 -2.143509063720703125e+02 2.192455673217773438e+01
7.508682250976562500e+01 -2.092322692871093750e+02 2.474842071533203125e+01
7.499191284179687500e+01 -2.125513610839843750e+02 2.491292762756347656e+01
1.291648101806640625e+02 -6.730947113037109375e+01 7.083092498779296875e+01
1.278040618896484375e+02 -6.440473937988281250e+01 7.298165130615234375e+01
1.297552185058593750e+02 -6.795004272460937500e+01 7.435430908203125000e+01
1.286379241943359375e+02 -6.572705078125000000e+01 7.633274078369140625e+01
6.316524887084960938e+01 -2.362865447998046875e+02 8.692743682861328125e+01
6.287510681152343750e+01 -2.381641387939453125e+02 8.714324951171875000e+01
6.388827514648437500e+01 -2.362212219238281250e+02 8.840178680419921875e+01
6.380297088623046875e+01 -2.381035919189453125e+02 8.878189849853515625e+01
7.428343963623046875e+01 -1.465906372070312500e+02 1.150002975463867188e+02
7.403630065917968750e+01 -1.489664001464843750e+02 1.157185134887695312e+02
7.440401458740234375e+01 -1.459770507812500000e+02 1.165520248413085938e+02
7.418663024902343750e+01 -1.483833770751953125e+02 1.172145004272460938e+02
7.512897491455078125e+01 -2.322173614501953125e+02 1.426081390380859375e+02
7.432861328125000000e+01 -2.353469848632812500e+02 1.419961700439453125e+02
7.729894256591796875e+01 -2.307517700195312500e+02 1.442997436523437500e+02
7.642285919189453125e+01 -2.339203338623046875e+02 1.437087097167968750e+02
1.289755096435546875e+02 -1.792645721435546875e+02 2.384766387939453125e+01
1.288347625732421875e+02 -1.818761596679687500e+02 2.437045288085937500e+01
1.288429260253906250e+02 -1.785380554199218750e+02 2.711559486389160156e+01
1.286967010498046875e+02 -1.811936187744140625e+02 2.775470733642578125e+01
7.358590698242187500e+01 -2.652266235351562500e+02 3.994691085815429688e+01
7.266368103027343750e+01 -2.649307861328125000e+02 4.270602798461914062e+01
7.453577423095703125e+01 -2.652051086425781250e+02 4.168392562866210938e+01
7.347361755371093750e+01 -2.649348754882812500e+02 4.444356918334960938e+01
7.463311767578125000e+01 -1.875908966064453125e+02 8.521652221679687500e+01
7.474066925048828125e+01 -1.900746459960937500e+02 8.625221252441406250e+01
7.481507110595703125e+01 -1.875241394042968750e+02 8.818605041503906250e+01
7.496228027343750000e+01 -1.900239562988281250e+02 8.908589172363281250e+01
5.637754821777343750e+01 -8.758303833007812500e+01 8.134600067138671875e+01
5.527753448486328125e+01 -8.955428314208984375e+01 8.139688873291015625e+01
5.873220825195312500e+01 -8.769294738769531250e+01 8.113179016113281250e+01
5.792580795288085938e+01 -8.943782806396484375e+01 8.125485992431640625e+01
7.368332672119140625e+01 -1.762624969482421875e+02 9.239319610595703125e+01
7.369519042968750000e+01 -1.791654510498046875e+02 9.270430755615234375e+01
7.355036926269531250e+01 -1.760220489501953125e+02 9.449841308593750000e+01
7.365644073486328125e+01 -1.790647277832031250e+02 9.479985046386718750e+01
5.757877731323242188e+01 -1.452120513916015625e+02 8.829691314697265625e+01
5.719566345214843750e+01 -1.473218383789062500e+02 8.823362731933593750e+01
5.899391937255859375e+01 -1.449487915039062500e+02 8.813891601562500000e+01
5.851511001586914062e+01 -1.467840423583984375e+02 8.813417053222656250e+01
7.444049835205078125e+01 -1.855882110595703125e+02 1.411444854736328125e+02
7.495769500732421875e+01 -1.886757202148437500e+02 1.422480163574218750e+02
7.507293701171875000e+01 -1.875765991210937500e+02 1.428348693847656250e+02
7.556895446777343750e+01 -1.906378173828125000e+02 1.440296020507812500e+02
1.230001449584960938e+02 -2.708989562988281250e+02 3.241627120971679688e+01
1.215743026733398438e+02 -2.711466979980468750e+02 3.467912292480468750e+01
1.232592086791992188e+02 -2.701405029296875000e+02 3.538037109375000000e+01
1.217917861938476562e+02 -2.702843017578125000e+02 3.760898590087890625e+01
7.264539337158203125e+01 -1.998028259277343750e+02 7.764340209960937500e+01
7.311574554443359375e+01 -2.022877960205078125e+02 7.847776031494140625e+01
7.267691802978515625e+01 -1.999768676757812500e+02 8.045525360107421875e+01
7.318435668945312500e+01 -2.024708557128906250e+02 8.126568603515625000e+01
1.266170043945312500e+02 -5.942487716674804688e+01 6.309109497070312500e+01
1.251162948608398438e+02 -5.617950057983398438e+01 6.548454284667968750e+01
1.277309722900390625e+02 -6.030275344848632812e+01 6.494109344482421875e+01
1.259903411865234375e+02 -5.662156677246093750e+01 6.742324066162109375e+01
1.279467239379882812e+02 -5.893289566040039062e+01 1.082134552001953125e+02
1.266622772216796875e+02 -5.784090423583984375e+01 1.102665710449218750e+02
1.292779846191406250e+02 -6.008126831054687500e+01 1.104249725341796875e+02
1.279164352416992188e+02 -5.854383087158203125e+01 1.123225936889648438e+02
8.336115264892578125e+01 -2.687175598144531250e+02 8.167375564575195312e+00
8.142781829833984375e+01 -2.691947937011718750e+02 9.270019531250000000e+00
8.508359527587890625e+01 -2.693775634765625000e+02 1.002276420593261719e+01
8.330159759521484375e+01 -2.695917663574218750e+02 1.125072860717773438e+01
1.287001037597656250e+02 -6.521987152099609375e+01 2.010961914062500000e+01
1.278199920654296875e+02 -6.541153717041015625e+01 2.216813659667968750e+01
1.296332855224609375e+02 -6.605584716796875000e+01 2.300816726684570312e+01
1.287107849121093750e+02 -6.595870971679687500e+01 2.516673088073730469e+01
1.288681640625000000e+02 -2.214246978759765625e+02 1.650812911987304688e+01
1.287827301025390625e+02 -2.250283050537109375e+02 1.676518821716308594e+01
1.290528717041015625e+02 -2.210710144042968750e+02 2.007808113098144531e+01
1.288757476806640625e+02 -2.246955261230468750e+02 2.027899360656738281e+01
1.167314987182617188e+02 -1.357201995849609375e+02 1.985185623168945312e+00
1.150390930175781250e+02 -1.390925598144531250e+02 2.143870353698730469e+00
1.199485626220703125e+02 -1.377504730224609375e+02 2.094508647918701172e+00
1.186144256591796875e+02 -1.412042236328125000e+02 2.204203367233276367e+00
7.391119384765625000e+01 -1.706795043945312500e+02 1.407986907958984375e+02
7.288504791259765625e+01 -1.742599639892578125e+02 1.404527893066406250e+02
7.590969085693359375e+01 -1.694521484375000000e+02 1.422097778320312500e+02
7.492271423339843750e+01 -1.732173461914062500e+02 1.419486694335937500e+02
7.478651428222656250e+01 -2.063151702880859375e+02 5.012583541870117188e+01
7.459515380859375000e+01 -2.093969726562500000e+02 5.148427200317382812e+01
7.500813293457031250e+01 -2.057741241455078125e+02 5.408327102661132812e+01
7.483831787109375000e+01 -2.089642486572265625e+02 5.533014297485351562e+01
3.751770782470703125e+01 -8.238520050048828125e+01 7.790663909912109375e+01
3.690333938598632812e+01 -8.698735809326171875e+01 7.839202880859375000e+01
3.958082962036132812e+01 -8.151360321044921875e+01 7.923780059814453125e+01
3.908495712280273438e+01 -8.596634674072265625e+01 7.979901123046875000e+01
1.289853668212890625e+02 -9.561814880371093750e+01 7.787158203125000000e+01
1.287111663818359375e+02 -9.851422119140625000e+01 8.007863616943359375e+01
1.287433929443359375e+02 -9.665990447998046875e+01 8.263233184814453125e+01
1.286716156005859375e+02 -9.954286956787109375e+01 8.505699920654296875e+01
5.032520294189453125e+01 -6.308224868774414062e+01 7.306543731689453125e+01
4.814324188232421875e+01 -6.314488983154296875e+01 7.537265777587890625e+01
5.241012954711914062e+01 -6.254563903808593750e+01 7.527581787109375000e+01
5.018212890625000000e+01 -6.255641555786132812e+01 7.783195495605468750e+01
5.902769470214843750e+01 -2.411009216308593750e+02 8.575676727294921875e+01
5.776551055908203125e+01 -2.434414520263671875e+02 8.609435272216796875e+01
6.145935058593750000e+01 -2.412054901123046875e+02 8.602947998046875000e+01
6.044144821166992188e+01 -2.435028686523437500e+02 8.634722900390625000e+01
1.065348968505859375e+02 -2.691871643066406250e+02 8.250388336181640625e+01
1.036083145141601562e+02 -2.690680847167968750e+02 8.455626678466796875e+01
1.087293472290039062e+02 -2.695693054199218750e+02 8.590887451171875000e+01
1.056993942260742188e+02 -2.693149719238281250e+02 8.790753936767578125e+01
1.288649902343750000e+02 -6.057615280151367188e+01 9.364755630493164062e+00
1.287998504638671875e+02 -6.292715072631835938e+01 9.474842071533203125e+00
1.301536407470703125e+02 -6.101760101318359375e+01 1.144090270996093750e+01
1.300677642822265625e+02 -6.324014663696289062e+01 1.191926383972167969e+01
1.287151336669921875e+02 -2.436653594970703125e+02 8.910297393798828125e+01
1.286280517578125000e+02 -2.470479125976562500e+02 9.001556396484375000e+01
1.287960815429687500e+02 -2.432964935302734375e+02 9.314101409912109375e+01
1.287718811035156250e+02 -2.464347381591796875e+02 9.422811126708984375e+01
8.739382934570312500e+01 -2.679146118164062500e+02 1.169761538505554199e+00
8.562674713134765625e+01 -2.694973449707031250e+02 2.005224704742431641e+00
9.025320434570312500e+01 -2.689246826171875000e+02 2.271661520004272461e+00
8.844335174560546875e+01 -2.704424133300781250e+02 3.124168157577514648e+00
8.128454589843750000e+01 -2.708618469238281250e+02 1.418452301025390625e+02
7.982559204101562500e+01 -2.708266296386718750e+02 1.438202819824218750e+02
8.275794982910156250e+01 -2.705580444335937500e+02 1.444208221435546875e+02
8.085894775390625000e+01 -2.700248107910156250e+02 1.458841094970703125e+02
7.479288482666015625e+01 -1.212935867309570312e+02 1.272891235351562500e+02
7.489952850341796875e+01 -1.244039916992187500e+02 1.272973709106445312e+02
7.490075683593750000e+01 -1.199070053100585938e+02 1.296726684570312500e+02
7.494826507568359375e+01 -1.230165328979492188e+02 1.296503906250000000e+02
1.286968841552734375e+02 -1.489046325683593750e+02 1.512955379486083984e+01
1.286539459228515625e+02 -1.514891204833984375e+02 1.603663253784179688e+01
1.288956909179687500e+02 -1.487930755615234375e+02 1.756961822509765625e+01
1.288600006103515625e+02 -1.514102630615234375e+02 1.845450592041015625e+01
5.703560256958007812e+01 -1.339676818847656250e+02 8.075605773925781250e+01
5.639625167846679688e+01 -1.358934631347656250e+02 8.078577423095703125e+01
6.009130096435546875e+01 -1.338731842041015625e+02 8.026445770263671875e+01
5.941377639770507812e+01 -1.362492828369140625e+02 8.017521667480468750e+01
6.037074279785156250e+01 -1.750586242675781250e+02 8.780413055419921875e+01
5.985848999023437500e+01 -1.772244873046875000e+02 8.788751983642578125e+01
6.229624938964843750e+01 -1.751892242431640625e+02 8.771224212646484375e+01
6.176233291625976562e+01 -1.774884490966796875e+02 8.791296386718750000e+01
8.933779907226562500e+01 -2.695010375976562500e+02 1.346187438964843750e+02
8.679959869384765625e+01 -2.687569580078125000e+02 1.380207519531250000e+02
9.050845336914062500e+01 -2.691900939941406250e+02 1.374851074218750000e+02
8.810572052001953125e+01 -2.685402832031250000e+02 1.402155609130859375e+02
7.432671356201171875e+01 -1.784128112792968750e+02 1.619849395751953125e+01
7.264658355712890625e+01 -1.791360626220703125e+02 1.719851303100585938e+01
7.415731048583984375e+01 -1.751815032958984375e+02 1.796606254577636719e+01
7.336116027832031250e+01 -1.770866546630859375e+02 1.880836296081542969e+01
8.666580963134765625e+01 -1.543018493652343750e+02 1.953806042671203613e+00
8.524765777587890625e+01 -1.576080627441406250e+02 2.439106941223144531e+00
8.976035308837890625e+01 -1.548953399658203125e+02 1.810087203979492188e+00
