2.164072841405868530e-01 3.765831142663955688e-02 3.533964231610298157e-02
2.111332863569259644e-01 3.125531598925590515e-02 3.833757340908050537e-02
2.245900928974151611e-01 3.190690651535987854e-02 3.858025744557380676e-02
2.197572588920593262e-01 2.561029419302940369e-02 4.102708771824836731e-02
3.774811029434204102e-01 -1.819743029773235321e-02 -2.279376797378063202e-02
3.712547421455383301e-01 -2.061470411717891693e-02 -1.845943741500377655e-02
3.813540339469909668e-01 -2.131206728518009186e-02 -1.648261956870555878e-02
3.750751614570617676e-01 -2.366231009364128113e-02 -1.191933359950780869e-02
8.503704518079757690e-02 -1.351699326187372208e-02 3.543405234813690186e-02
7.867432385683059692e-02 -1.031453907489776611e-02 3.648208454251289368e-02
9.191197901964187622e-02 -1.279120426625013351e-02 3.810759261250495911e-02
8.594648540019989014e-02 -1.032251864671707153e-02 3.902268409729003906e-02
-3.838952481746673584e-01 5.971662700176239014e-02 -3.326736018061637878e-02
-3.896871507167816162e-01 6.139733642339706421e-02 -3.027561120688915253e-02
-3.778752386569976807e-01 6.182014569640159607e-02 -2.962703630328178406e-02
-3.834734559059143066e-01 6.291258335113525391e-02 -2.631165832281112671e-02
-4.278170764446258545e-01 7.887438684701919556e-02 2.624372579157352448e-02
-4.327568709850311279e-01 7.596444338560104370e-02 2.984938025474548340e-02
-4.210300743579864502e-01 7.744526118040084839e-02 2.976004406809806824e-02
-4.251213669776916504e-01 7.439139485359191895e-02 3.350641578435897827e-02
-3.480888903141021729e-01 2.978004328906536102e-02 -8.266891539096832275e-02
-3.548336029052734375e-01 3.130998462438583374e-02 -8.193545788526535034e-02
-3.413697183132171631e-01 3.213192895054817200e-02 -8.043926954269409180e-02
-3.481316864490509033e-01 3.418453782796859741e-02 -8.001785725355148315e-02
2.048911005258560181e-01 3.854072093963623047e-02 -4.096812754869461060e-02
1.971789151430130005e-01 4.389403387904167175e-02 -3.761048242449760437e-02
2.103889733552932739e-01 4.438959062099456787e-02 -3.720782324671745300e-02
2.028857618570327759e-01 4.987868666648864746e-02 -3.370552510023117065e-02
-1.507142782211303711e-01 4.839245975017547607e-02 -3.633699566125869751e-02
-1.518756598234176636e-01 4.121155664324760437e-02 -3.733318299055099487e-02
-1.441144347190856934e-01 4.929723590612411499e-02 -3.575042262673377991e-02
-1.455324292182922363e-01 4.192000627517700195e-02 -3.684625402092933655e-02
5.097832083702087402e-01 -2.249990589916706085e-02 1.195524074137210846e-02
5.052120685577392578e-01 -2.018326520919799805e-02 1.620116271078586578e-02
5.156650543212890625e-01 -2.174515090882778168e-02 1.698329858481884003e-02
5.109716057777404785e-01 -1.914008893072605133e-02 2.032704651355743408e-02
-1.314883083105087280e-01 -9.414067491888999939e-03 -4.492764919996261597e-02
-1.363065987825393677e-01 -8.536882698535919189e-03 -4.157247021794319153e-02
-1.279459446668624878e-01 -9.328794665634632111e-03 -3.902149945497512817e-02
-1.320127695798873901e-01 -8.492681197822093964e-03 -3.563211485743522644e-02
-9.092248976230621338e-03 -5.687981471419334412e-02 -1.380711793899536133e-02
-1.608528010547161102e-02 -5.790908634662628174e-02 -1.001717615872621536e-02
-6.199798546731472015e-03 -5.934729427099227905e-02 -7.812207564711570740e-03
-1.286386325955390930e-02 -5.920139700174331665e-02 -3.482745261862874031e-03
-4.633192420005798340e-01 -5.854047834873199463e-02 -1.873731613159179688e-03
-4.692519307136535645e-01 -5.970571935176849365e-02 1.144789392128586769e-03
-4.575263857841491699e-01 -5.761718004941940308e-02 2.008424373343586922e-03
-4.626773595809936523e-01 -5.900887772440910339e-02 5.493796896189451218e-03
1.188881844282150269e-01 2.761496789753437042e-02 8.029326796531677246e-02
1.166205778717994690e-01 1.776890829205513000e-02 7.978003472089767456e-02
1.273633539676666260e-01 2.774341404438018799e-02 7.950679212808609009e-02
1.254074126482009888e-01 1.668770983815193176e-02 7.892864942550659180e-02
-5.164061188697814941e-01 3.652871772646903992e-02 -7.589130848646163940e-02
-5.233017802238464355e-01 3.384061902761459351e-02 -7.067801803350448608e-02
-5.099152922630310059e-01 3.731951117515563965e-02 -7.288789004087448120e-02
-5.168833732604980469e-01 3.487889841198921204e-02 -6.748934835195541382e-02
-1.595366448163986206e-01 4.596830531954765320e-02 3.606919571757316589e-02
-1.634707301855087280e-01 4.168925061821937561e-02 3.779577836394309998e-02
-1.541469693183898926e-01 4.412304610013961792e-02 3.850228711962699890e-02
-1.582981497049331665e-01 3.993206098675727844e-02 4.038607701659202576e-02
-2.094920724630355835e-01 3.289685025811195374e-02 -2.867256477475166321e-02
-2.150927484035491943e-01 2.757470868527889252e-02 -3.002670593559741974e-02
-1.985916048288345337e-01 3.336573019623756409e-02 -2.693631313741207123e-02
-2.040148228406906128e-01 2.880368381738662720e-02 -2.789464592933654785e-02
2.728372439742088318e-02 -8.299116045236587524e-03 -3.944895043969154358e-02
2.386822365224361420e-02 -9.964733384549617767e-03 -3.634442389011383057e-02
3.117754124104976654e-02 -8.991377428174018860e-03 -3.546895459294319153e-02
2.723597921431064606e-02 -1.021359208971261978e-02 -3.235328942537307739e-02
-2.140779644250869751e-01 5.101082473993301392e-02 2.528860233724117279e-02
-2.180749624967575073e-01 5.290463194251060486e-02 3.018862567842006683e-02
-2.122506350278854370e-01 5.303299054503440857e-02 3.083064965903759003e-02
-2.165279090404510498e-01 5.495148897171020508e-02 3.599395975470542908e-02
4.517871141433715820e-01 1.983447466045618057e-03 3.483022004365921021e-02
4.450309574604034424e-01 7.797249127179384232e-03 3.811707720160484314e-02
4.597312211990356445e-01 5.753105971962213516e-03 3.956625610589981079e-02
4.529829919338226318e-01 8.471183478832244873e-03 4.081827774643898010e-02
-4.799279272556304932e-01 1.663357252255082130e-03 -3.117788955569267273e-02
-4.852190911769866943e-01 4.279817920178174973e-03 -2.796123549342155457e-02
-4.761621654033660889e-01 5.269818473607301712e-03 -2.627341821789741516e-02
-4.792382717132568359e-01 2.351341303437948227e-03 -2.423563785851001740e-02
1.555374264717102051e-01 3.639163821935653687e-02 6.293910741806030273e-02
1.482375711202621460e-01 3.619166836142539978e-02 6.640704721212387085e-02
1.612263619899749756e-01 3.434232994914054871e-02 6.427152454853057861e-02
1.537733078002929688e-01 3.431559354066848755e-02 6.784912198781967163e-02
9.212091565132141113e-01 -4.721670970320701599e-02 -1.723188906908035278e-02
9.156721830368041992e-01 -5.004791542887687683e-02 -1.287229079753160477e-02
9.245458841323852539e-01 -4.663652181625366211e-02 -9.394106455147266388e-03
9.187086224555969238e-01 -4.985314607620239258e-02 -5.331507883965969086e-03
-4.641618207097053528e-02 4.335423186421394348e-02 -1.139151584357023239e-02
-5.272239446640014648e-02 4.586212337017059326e-02 -7.113262079656124115e-03
-3.987441584467887878e-02 4.219514504075050354e-02 -6.482899188995361328e-03
-4.622873663902282715e-02 4.469389840960502625e-02 -2.422147663310170174e-03
1.613295823335647583e-01 -3.732653334736824036e-02 9.969586506485939026e-03
1.544152647256851196e-01 -3.819157555699348450e-02 1.343104802072048187e-02
1.661656796932220459e-01 -3.485405445098876953e-02 1.365936361253261566e-02
1.596814095973968506e-01 -3.453215211629867554e-02 1.709311082959175110e-02
-1.514345556497573853e-01 -3.740549087524414062e-02 2.508994378149509430e-02
-1.576332449913024902e-01 -3.233109042048454285e-02 2.866572327911853790e-02
-1.456448435783386230e-01 -3.352776914834976196e-02 2.751747146248817444e-02
-1.521115750074386597e-01 -2.877783030271530151e-02 3.080735728144645691e-02
6.622706353664398193e-02 2.244070172309875488e-02 -8.230289071798324585e-02
6.040969863533973694e-02 1.191531680524349213e-02 -8.332026749849319458e-02
7.952235639095306396e-02 2.034134417772293091e-02 -8.106850832700729370e-02
7.445710897445678711e-02 8.956711739301681519e-03 -8.263631165027618408e-02
-1.354353576898574829e-01 4.266154021024703979e-02 -3.641129285097122192e-02
-1.368223428726196289e-01 3.495809063315391541e-02 -3.794617205858230591e-02
-1.279755830764770508e-01 4.415465146303176880e-02 -3.652361780405044556e-02
-1.291645914316177368e-01 3.603786602616310120e-02 -3.812866285443305969e-02
-8.914512395858764648e-02 -5.388312786817550659e-02 -1.580774225294589996e-02
-9.417754411697387695e-02 -5.681466683745384216e-02 -9.498931467533111572e-03
-8.597666770219802856e-02 -5.715386196970939636e-02 -8.056988939642906189e-03
-9.163303673267364502e-02 -5.963246524333953857e-02 -1.799698453396558762e-03
8.865813612937927246e-01 7.348810136318206787e-02 -1.784463599324226379e-02
8.800308704376220703e-01 7.401178777217864990e-02 -1.370744593441486359e-02
8.918315768241882324e-01 7.484655827283859253e-02 -1.160351745784282684e-02
8.854950666427612305e-01 7.534521818161010742e-02 -7.211798802018165588e-03
-3.559077903628349304e-02 1.306661777198314667e-02 3.720553964376449585e-02
-3.598461672663688660e-02 3.462210297584533691e-03 3.592817485332489014e-02
-2.767217531800270081e-02 1.738521270453929901e-02 3.832344710826873779e-02
-2.782432921230792999e-02 6.821064278483390808e-03 3.669124096632003784e-02
4.390965998172760010e-01 2.398572862148284912e-02 -4.735392332077026367e-02
4.359263181686401367e-01 1.555657945573329926e-02 -4.790541902184486389e-02
4.483077526092529297e-01 1.707201078534126282e-02 -4.776424914598464966e-02
4.450351893901824951e-01 9.283640421926975250e-03 -4.802747070789337158e-02
-2.819061875343322754e-01 -1.560632139444351196e-03 1.777503825724124908e-02
-2.875985503196716309e-01 1.140849082730710506e-03 2.091653458774089813e-02
-2.771911323070526123e-01 2.076072851195931435e-03 2.069250307977199554e-02
-2.822575271129608154e-01 1.743662403896450996e-03 2.323535829782485962e-02
-2.872979044914245605e-01 -5.036820843815803528e-02 1.834600605070590973e-02
-2.929869294166564941e-01 -4.536759108304977417e-02 2.224127016961574554e-02
-2.847667634487152100e-01 -4.612352699041366577e-02 2.269333228468894958e-02
-2.905885577201843262e-01 -4.029271379113197327e-02 2.703309245407581329e-02
-1.324337273836135864e-01 5.606340616941452026e-02 3.061443381011486053e-02
-1.380846351385116577e-01 5.555102601647377014e-02 3.235050290822982788e-02
-1.273336112499237061e-01 5.634781718254089355e-02 3.273085877299308777e-02
-1.330749541521072388e-01 5.675759539008140564e-02 3.445525839924812317e-02
-6.350458413362503052e-02 1.005972474813461304e-01 1.276988722383975983e-02
-6.815993040800094604e-02 9.841936826705932617e-02 1.722028851509094238e-02
-5.854648724198341370e-02 9.802655130624771118e-02 1.756410300731658936e-02
-6.324309110641479492e-02 9.561026841402053833e-02 2.231404185295104980e-02
8.296875357627868652e-01 6.045854091644287109e-02 4.089175537228584290e-02
8.245474696159362793e-01 5.627990886569023132e-02 4.424282163381576538e-02
8.363043069839477539e-01 5.470320954918861389e-02 4.402334243059158325e-02
8.309739232063293457e-01 5.033732205629348755e-02 4.714891314506530762e-02
2.179986797273159027e-02 4.812589660286903381e-02 6.889376789331436157e-02
1.447741407901048660e-02 4.555848985910415649e-02 7.204128056764602661e-02
2.987475879490375519e-02 4.275236278772354126e-02 7.164178788661956787e-02
2.240844815969467163e-02 3.968992456793785095e-02 7.466944307088851929e-02
-1.524838805198669434e-01 -9.290932677686214447e-03 3.633769601583480835e-02
-1.585423052310943604e-01 -9.779688902199268341e-03 3.802843764424324036e-02
-1.468261182308197021e-01 -8.952124044299125671e-03 4.033638536930084229e-02
-1.527640223503112793e-01 -1.013037189841270447e-02 4.188280552625656128e-02
9.738661050796508789e-01 1.594522036612033844e-02 1.781321875751018524e-02
9.684590101242065430e-01 1.573237404227256775e-02 2.289649657905101776e-02
9.723033905029296875e-01 1.282863784581422806e-02 2.253238484263420105e-02
9.667440056800842285e-01 1.272038929164409637e-02 2.819465845823287964e-02
-4.354294016957283020e-02 -5.974204279482364655e-03 -2.933610603213310242e-02
-4.838020727038383484e-02 -3.670087549835443497e-03 -2.605286613106727600e-02
-4.037969931960105896e-02 -4.518787376582622528e-03 -2.600998245179653168e-02
-4.549017176032066345e-02 -2.128817141056060791e-03 -2.253864519298076630e-02
-3.225402534008026123e-02 -1.241832971572875977e-03 -6.709672510623931885e-02
-4.044193029403686523e-02 -2.781690564006567001e-03 -6.418898701667785645e-02
-2.476581186056137085e-02 -4.988500848412513733e-03 -6.420867145061492920e-02
-3.277899697422981262e-02 -5.727560259401798248e-03 -6.169712170958518982e-02
8.251703381538391113e-01 8.057191967964172363e-02 -8.985984139144420624e-03
8.200333118438720703e-01 8.002661913633346558e-02 -4.633727483451366425e-03
8.306984901428222656e-01 7.954059541225433350e-02 -2.964549697935581207e-03
8.258888125419616699e-01 7.870454341173171997e-02 1.907963538542389870e-03
1.712322793900966644e-02 -1.082740724086761475e-02 -4.075546190142631531e-02
1.409866753965616226e-02 -1.316715031862258911e-02 -3.795196861028671265e-02
1.918365620076656342e-02 -1.058427337557077408e-02 -3.626073896884918213e-02
1.608256623148918152e-02 -1.300360541790723801e-02 -3.324048593640327454e-02
-3.369576334953308105e-01 1.160961017012596130e-02 -2.727023884654045105e-02
-3.409740924835205078e-01 1.026101130992174149e-02 -2.401180006563663483e-02
-3.320527672767639160e-01 1.259732060134410858e-02 -2.358417212963104248e-02
-3.363643586635589600e-01 1.174583379179239273e-02 -2.043453790247440338e-02
2.665615975856781006e-01 1.276004035025835037e-02 -4.814120754599571228e-02
2.584616839885711670e-01 1.233352627605199814e-02 -4.675029218196868896e-02
2.750018835067749023e-01 1.663581095635890961e-02 -4.689468443393707275e-02
2.666675150394439697e-01 1.533290278166532516e-02 -4.531899094581604004e-02
-2.324947565793991089e-01 1.017256379127502441e-01 1.450687646865844727e-02
-2.356738299131393433e-01 9.866037964820861816e-02 1.908877119421958923e-02
-2.263556122779846191e-01 9.822566807270050049e-02 1.894045062363147736e-02
-2.293206155300140381e-01 9.460929781198501587e-02 2.328582294285297394e-02
-3.172810077667236328e-01 3.707884997129440308e-02 -2.799616940319538116e-02
-3.230787813663482666e-01 3.266157582402229309e-02 -2.625408768653869629e-02
-3.073666095733642578e-01 3.464776650071144104e-02 -2.602692320942878723e-02
-3.135927915573120117e-01 3.177909925580024719e-02 -2.435826323926448822e-02
-4.005396068096160889e-01 2.329131215810775757e-02 -2.334716171026229858e-02
-4.019232988357543945e-01 1.476080249994993210e-02 -2.323771268129348755e-02
-3.953993618488311768e-01 2.431793510913848877e-02 -2.309492416679859161e-02
-3.964460194110870361e-01 1.615602895617485046e-02 -2.322586253285408020e-02
6.037391349673271179e-02 3.170823678374290466e-02 2.032503485679626465e-02
5.562938004732131958e-02 2.685606852173805237e-02 2.053007297217845917e-02
6.612944602966308594e-02 3.176633641123771667e-02 2.326143719255924225e-02
6.089214980602264404e-02 2.857076749205589294e-02 2.382644265890121460e-02
4.617186486721038818e-01 5.862759798765182495e-02 8.877374231815338135e-03
4.560681581497192383e-01 5.764468759298324585e-02 1.227540615946054459e-02
4.694173038005828857e-01 5.684952437877655029e-02 1.417546439915895462e-02
4.628990590572357178e-01 5.540588125586509705e-02 1.770030893385410309e-02
-3.976683318614959717e-01 5.979590117931365967e-02 2.591539733111858368e-02
-4.012700319290161133e-01 5.755953118205070496e-02 2.967368438839912415e-02
-3.931756019592285156e-01 5.816993117332458496e-02 2.901285886764526367e-02
-3.967750668525695801e-01 5.566138401627540588e-02 3.296983987092971802e-02
-3.303604125976562500e-01 1.064454093575477600e-01 7.721913047134876251e-03
-3.349386453628540039e-01 1.031287238001823425e-01 1.280266698449850082e-02
-3.226180672645568848e-01 1.026583239436149597e-01 1.365576498210430145e-02
-3.272728323936462402e-01 9.959167987108230591e-02 1.866164244711399078e-02
-4.196743667125701904e-01 2.856807969510555267e-02 9.817434102296829224e-02
-4.260496497154235840e-01 2.872761338949203491e-02 1.012104675173759460e-01
-4.147520065307617188e-01 2.780317515134811401e-02 1.035824120044708252e-01
-4.214556813240051270e-01 2.761640772223472595e-02 1.073809266090393066e-01
-7.573539018630981445e-02 5.170733854174613953e-02 6.064758077263832092e-02
-8.016651123762130737e-02 4.798238351941108704e-02 6.320682913064956665e-02
-6.801775097846984863e-02 4.907255247235298157e-02 6.124363467097282410e-02
-7.346958667039871216e-02 4.414429143071174622e-02 6.380415707826614380e-02
-3.028083443641662598e-01 -9.056886658072471619e-03 -3.241821005940437317e-02
-3.080650866031646729e-01 -9.133718907833099365e-03 -3.058853186666965485e-02
-2.968704104423522949e-01 -7.337190676480531693e-03 -3.072222694754600525e-02
-3.022157847881317139e-01 -6.969634909182786942e-03 -2.878372371196746826e-02
-2.055525034666061401e-01 -9.863374754786491394e-03 2.624756656587123871e-02
-2.093009948730468750e-01 -9.087515994906425476e-03 3.050568699836730957e-02
-2.025641351938247681e-01 -9.102108888328075409e-03 2.898430079221725464e-02
-2.063102126121520996e-01 -8.550266735255718231e-03 3.328901529312133789e-02
-3.432763218879699707e-01 4.232883825898170471e-02 -4.267425090074539185e-02
-3.479359149932861328e-01 4.546008259057998657e-02 -3.889676928520202637e-02
-3.391883373260498047e-01 4.347913339734077454e-02 -3.922268375754356384e-02
-3.428650200366973877e-01 4.627253115177154541e-02 -3.388714045286178589e-02
3.155145794153213501e-02 4.643948376178741455e-02 9.480620734393596649e-03
2.552220784127712250e-02 4.819743335247039795e-02 1.102502550929784775e-02
3.715522214770317078e-02 4.647305235266685486e-02 1.155007723718881607e-02
3.125791251659393311e-02 4.775325208902359009e-02 1.305262558162212372e-02
4.523735046386718750e-01 -2.689086832106113434e-02 -1.251562125980854034e-02
4.470864832401275635e-01 -2.810434810817241669e-02 -6.208187900483608246e-03
4.565989971160888672e-01 -2.893845736980438232e-02 -5.644264630973339081e-03
4.506475627422332764e-01 -2.712551131844520569e-02 2.119442448019981384e-03
-1.389830708503723145e-01 4.550528898835182190e-02 -2.886687032878398895e-02
-1.403235197067260742e-01 3.749741986393928528e-02 -3.060639649629592896e-02
-1.310148835182189941e-01 4.847123473882675171e-02 -2.858558483421802521e-02
-1.323428303003311157e-01 4.012095555663108826e-02 -3.023415990173816681e-02
2.105345875024795532e-01 -1.151716802269220352e-02 -3.466490656137466431e-02
2.069371491670608521e-01 -1.451683044433593750e-02 -2.857562527060508728e-02
2.161203920841217041e-01 -1.660592481493949890e-02 -2.887887507677078247e-02
2.124933749437332153e-01 -1.954108849167823792e-02 -2.253248915076255798e-02
-3.041625320911407471e-01 -1.502285338938236237e-02 2.677332982420921326e-02
-3.099118769168853760e-01 -1.175618823617696762e-02 3.218333050608634949e-02
-3.008393943309783936e-01 -1.142100989818572998e-02 3.001268953084945679e-02
-3.068467974662780762e-01 -7.884351536631584167e-03 3.533428907394409180e-02
8.658239245414733887e-02 5.152287706732749939e-02 -2.547040954232215881e-02
8.354203402996063232e-02 4.423097521066665649e-02 -2.529701963067054749e-02
9.517850726842880249e-02 4.961881786584854126e-02 -2.291600406169891357e-02
9.114911407232284546e-02 4.400837793946266174e-02 -2.275744080543518066e-02
-2.890417277812957764e-01 5.329764261841773987e-02 4.739057272672653198e-02
-2.952462434768676758e-01 5.452137440443038940e-02 4.972549155354499817e-02
-2.816167771816253662e-01 5.378478020429611206e-02 5.026403069496154785e-02
-2.875056564807891846e-01 5.371721088886260986e-02 5.258599296212196350e-02
5.865701436996459961e-01 6.144550070166587830e-02 -1.094970479607582092e-02
5.823118090629577637e-01 6.154972314834594727e-02 -4.685585387051105499e-03
5.912718772888183594e-01 6.091191992163658142e-02 -2.867856295779347420e-03
5.871224403381347656e-01 6.094793975353240967e-02 3.509326837956905365e-03
2.945966124534606934e-01 -1.945457886904478073e-03 3.467507660388946533e-02
2.879797518253326416e-01 8.217700524255633354e-04 3.683533519506454468e-02
3.020601272583007812e-01 7.453849539160728455e-04 3.546149283647537231e-02
2.945697605609893799e-01 5.413372069597244263e-03 3.781913965940475464e-02
-2.444690763950347900e-01 -1.012974325567483902e-02 2.780299820005893707e-02
-2.479712665081024170e-01 -8.227650076150894165e-03 3.188815712928771973e-02
-2.386563867330551147e-01 -1.032176520675420761e-02 3.286653012037277222e-02
-2.429033815860748291e-01 -6.752906832844018936e-03 3.734498471021652222e-02
-2.294617444276809692e-01 9.659641981124877930e-02 1.908009499311447144e-02
-2.324267476797103882e-01 9.298004955053329468e-02 2.342546731233596802e-02
-2.229809314012527466e-01 9.326542913913726807e-02 2.356381714344024658e-02
-2.265369147062301636e-01 8.958522975444793701e-02 2.806679159402847290e-02
-9.195198118686676025e-02 -6.177545990794897079e-03 -3.124363534152507782e-02
-9.626883268356323242e-02 -3.262861166149377823e-03 -2.705592662096023560e-02
-8.722760528326034546e-02 -4.733507521450519562e-03 -2.647525072097778320e-02
-9.191717952489852905e-02 -2.000866457819938660e-03 -2.295449748635292053e-02
-2.876871824264526367e-02 2.657284261658787727e-03 -7.553610950708389282e-02
-3.647977486252784729e-02 5.438069347292184830e-04 -7.219755649566650391e-02
-1.754923909902572632e-02 -3.700700122863054276e-03 -7.235688716173171997e-02
-2.562839351594448090e-02 -5.244432017207145691e-03 -6.946307420730590820e-02
-1.281608175486326218e-02 -3.787991777062416077e-02 -3.137192130088806152e-02
-1.934329234063625336e-02 -4.127363488078117371e-02 -2.869341894984245300e-02
-6.038103252649307251e-03 -4.165538027882575989e-02 -2.689832821488380432e-02
-1.256085094064474106e-02 -4.438014701008796692e-02 -2.439430728554725647e-02
-2.749488651752471924e-01 1.554087456315755844e-02 -2.627928368747234344e-02
-2.820786535739898682e-01 1.837129704654216766e-02 -2.335784025490283966e-02
-2.661431729793548584e-01 1.937233656644821167e-02 -2.461190894246101379e-02
-2.743450701236724854e-01 2.199359424412250519e-02 -2.206545695662498474e-02
7.207900285720825195e-01 -9.154143743216991425e-03 3.184206783771514893e-02
7.115891575813293457e-01 -4.396300762891769409e-03 3.438113629817962646e-02
7.268590331077575684e-01 -6.093869451433420181e-03 3.408046439290046692e-02
7.185057401657104492e-01 -2.319778082892298698e-03 3.626081719994544983e-02
-4.216176271438598633e-01 1.337114721536636353e-01 -2.023017033934593201e-03
-4.240152537822723389e-01 1.270194798707962036e-01 -1.674846513196825981e-03
-4.153054952621459961e-01 1.310198456048965454e-01 -2.790931146591901779e-03
-4.175513088703155518e-01 1.242930814623832703e-01 -2.633351134136319160e-03
8.743723034858703613e-01 6.573677062988281250e-02 2.882012166082859039e-02
8.704866766929626465e-01 6.284806132316589355e-02 3.382362052798271179e-02
8.807898759841918945e-01 6.214305385947227478e-02 3.384723141789436340e-02
8.770935535430908203e-01 5.874106287956237793e-02 3.858612105250358582e-02
4.723775088787078857e-01 4.405820742249488831e-02 -4.170710965991020203e-02
4.664974212646484375e-01 4.674603790044784546e-02 -3.853978216648101807e-02
4.771165251731872559e-01 4.866306111216545105e-02 -3.713205456733703613e-02
4.711263477802276611e-01 5.145284906029701233e-02 -3.393853455781936646e-02
-4.104480445384979248e-01 1.034318879246711731e-01 9.745665825903415680e-03
-4.145195484161376953e-01 1.007051989436149597e-01 1.123744528740644455e-02
-4.039245545864105225e-01 1.034311279654502869e-01 1.051660813391208649e-02
-4.087131321430206299e-01 1.018199250102043152e-01 1.268903911113739014e-02
-4.090747833251953125e-01 9.691119194030761719e-02 -1.726634614169597626e-02
-4.157487452030181885e-01 1.001797541975975037e-01 -1.478320825845003128e-02
-4.027552604675292969e-01 9.947081655263900757e-02 -1.548879873007535934e-02
-4.102852046489715576e-01 1.041973009705543518e-01 -1.240277383476495743e-02
-2.222962528467178345e-01 8.930517733097076416e-02 -2.958637475967407227e-02
-2.289881706237792969e-01 9.151080995798110962e-02 -2.716288343071937561e-02
-2.183314710855484009e-01 9.601669758558273315e-02 -2.394573017954826355e-02
-2.248997092247009277e-01 9.808403253555297852e-02 -2.098264172673225403e-02
-1.887645386159420013e-02 -9.397699497640132904e-03 2.744892612099647522e-02
-2.189454995095729828e-02 -1.358417887240648270e-02 2.893992885947227478e-02
-1.382843684405088425e-02 -9.542484767735004425e-03 2.854862436652183533e-02
-1.675015315413475037e-02 -1.388364937156438828e-02 2.990750037133693695e-02
8.595070242881774902e-01 7.862109690904617310e-02 -6.485287100076675415e-03
8.546860218048095703e-01 7.848611474037170410e-02 -1.747921807691454887e-03
8.661573529243469238e-01 7.731372863054275513e-02 7.443735376000404358e-05
8.612983822822570801e-01 7.707728445529937744e-02 4.759849514812231064e-03
4.030074551701545715e-02 5.396460369229316711e-02 2.990221604704856873e-02
3.543462604284286499e-02 5.033348873257637024e-02 3.148204460740089417e-02
4.690793529152870178e-02 5.314938351511955261e-02 3.100548312067985535e-02
4.219511151313781738e-02 4.931312054395675659e-02 3.250548988580703735e-02
-4.156680703163146973e-01 4.031288623809814453e-02 3.685980290174484253e-02
-4.199401438236236572e-01 3.779937326908111572e-02 3.987178206443786621e-02
-4.096598923206329346e-01 3.799301758408546448e-02 4.068629816174507141e-02
-4.137538373470306396e-01 3.550334647297859192e-02 4.382066801190376282e-02
-3.863088190555572510e-01 1.062787324190139771e-01 -5.571320652961730957e-03
-3.945759832859039307e-01 1.115084514021873474e-01 -1.652395236305892467e-03
-3.804711401462554932e-01 1.087692975997924805e-01 -1.060998998582363129e-03
-3.893128633499145508e-01 1.139267012476921082e-01 3.128422191366553307e-03
2.352159656584262848e-02 4.336016997694969177e-02 6.227509118616580963e-03
1.764310896396636963e-02 4.562814906239509583e-02 7.981187663972377777e-03
2.854050323367118835e-02 4.305914044380187988e-02 8.167887106537818909e-03
2.263529226183891296e-02 4.438668116927146912e-02 9.457218460738658905e-03
-2.788732051849365234e-01 5.832234770059585571e-02 2.914591506123542786e-02
-2.851634323596954346e-01 5.959655717015266418e-02 3.087485767900943756e-02
-2.735071480274200439e-01 5.847193673253059387e-02 3.384330868721008301e-02
-2.796649634838104248e-01 5.980445817112922668e-02 3.583098202943801880e-02
-2.249151468276977539e-01 -2.208626270294189453e-02 -3.414117917418479919e-02
-2.291269749402999878e-01 -2.675235830247402191e-02 -2.976051345467567444e-02
-2.161484360694885254e-01 -2.635206282138824463e-02 -3.020687215030193329e-02
-2.211255580186843872e-01 -3.034125454723834991e-02 -2.577359974384307861e-02
-4.455558359622955322e-01 1.353614926338195801e-01 2.820207737386226654e-04
-4.469520151615142822e-01 1.287152022123336792e-01 4.865383380092680454e-05
-4.393443763256072998e-01 1.329680085182189941e-01 -4.733052046503871679e-04
-4.407844841480255127e-01 1.263946145772933960e-01 -8.005229756236076355e-04
6.205210089683532715e-01 5.894622206687927246e-02 9.156938176602125168e-04
6.159715652465820312e-01 5.835212394595146179e-02 6.222344469279050827e-03
6.253755688667297363e-01 5.865593254566192627e-02 7.336308248341083527e-03
6.208740472793579102e-01 5.768885836005210876e-02 1.235515996813774109e-02
5.654253363609313965e-01 -4.745100624859333038e-03 -4.061874747276306152e-02
5.597010850906372070e-01 -8.898829109966754913e-03 -3.785165026783943176e-02
5.718861222267150879e-01 -8.571316488087177277e-03 -3.824175521731376648e-02
5.670551657676696777e-01 -1.207457017153501511e-02 -3.504221886396408081e-02
2.057127803564071655e-01 6.618684530258178711e-02 -4.260287620127201080e-03
2.013870328664779663e-01 6.673710793256759644e-02 -4.254204686731100082e-04
2.109024822711944580e-01 6.584673374891281128e-02 1.483554369769990444e-03
2.060839533805847168e-01 6.519581377506256104e-02 5.708672106266021729e-03
-5.098151564598083496e-01 -4.489927366375923157e-02 -1.425142865628004074e-02
-5.192372798919677734e-01 -4.128670692443847656e-02 -1.002890802919864655e-02
-5.007663965225219727e-01 -4.600814357399940491e-02 -1.360634434968233109e-02
-5.096377730369567871e-01 -4.374899715185165405e-02 -1.067992765456438065e-02
5.849149078130722046e-02 9.422375261783599854e-02 1.790675148367881775e-02
5.065570026636123657e-02 9.208738058805465698e-02 2.324464172124862671e-02
6.479024142026901245e-02 8.790614455938339233e-02 2.310987748205661774e-02
5.713409557938575745e-02 8.597084134817123413e-02 2.863910421729087830e-02
-3.687219619750976562e-01 2.452009357511997223e-02 9.001705050468444824e-02
-3.742105960845947266e-01 2.615352161228656769e-02 9.277771413326263428e-02
-3.651528954505920410e-01 2.687981911003589630e-02 9.391770511865615845e-02
-3.705949485301971436e-01 2.846041508018970490e-02 9.668614715337753296e-02
-1.439966410398483276e-01 -7.548816502094268799e-03 2.371473424136638641e-02
-1.496389508247375488e-01 -8.231554180383682251e-03 2.598290517926216125e-02
-1.390099227428436279e-01 -9.217354469001293182e-03 2.608999796211719513e-02
-1.443853974342346191e-01 -1.042034011334180832e-02 2.842336893081665039e-02
9.014917016029357910e-01 1.159584522247314453e-02 5.905491858720779419e-02
8.956064581871032715e-01 2.342143096029758453e-03 6.127355992794036865e-02
9.104045629501342773e-01 8.386053144931793213e-03 5.787375941872596741e-02
9.048931002616882324e-01 -8.337288163602352142e-04 5.985321849584579468e-02
6.678033620119094849e-02 -3.675917163491249084e-02 2.425520680844783783e-02
5.955554917454719543e-02 -3.109407611191272736e-02 2.682808414101600647e-02
7.332699000835418701e-02 -3.336666896939277649e-02 2.840836532413959503e-02
6.599275022745132446e-02 -2.716420032083988190e-02 3.120855987071990967e-02
-2.905964851379394531e-03 -9.780875407159328461e-03 5.623603984713554382e-02
-8.665069006383419037e-03 -7.950116880238056183e-03 5.842481553554534912e-02
2.336149802431464195e-03 -5.417838692665100098e-03 5.990893766283988953e-02
-3.268666099756956100e-03 -3.443486988544464111e-03 6.220019236207008362e-02
-2.238298505544662476e-01 -5.608818307518959045e-02 -4.161787219345569611e-04
-2.311809808015823364e-01 -5.324885249137878418e-02 4.758168943226337433e-03
-2.187957763671875000e-01 -5.690581724047660828e-02 7.181942462921142578e-03
-2.250607907772064209e-01 -5.188245326280593872e-02 1.208073552697896957e-02
1.209345832467079163e-01 -1.598274521529674530e-02 -2.505895309150218964e-02
1.148897558450698853e-01 -1.575663685798645020e-02 -2.368407882750034332e-02
1.261013895273208618e-01 -1.264429837465286255e-02 -2.322619035840034485e-02
1.198602169752120972e-01 -1.230724342167377472e-02 -2.178069204092025757e-02
3.673024103045463562e-02 4.728084802627563477e-02 -2.479421161115169525e-02
3.192324191331863403e-02 4.656910151243209839e-02 -2.031295187771320343e-02
4.053472727537155151e-02 4.591965302824974060e-02 -1.929110102355480194e-02
3.643465787172317505e-02 4.516468197107315063e-02 -1.438716426491737366e-02
-4.518752992153167725e-01 2.545896358788013458e-02 -1.165127605199813843e-01
-4.563650190830230713e-01 2.527892030775547028e-02 -1.140860542654991150e-01
-4.472292959690093994e-01 2.496867999434471130e-02 -1.124318838119506836e-01
-4.523729085922241211e-01 2.488219179213047028e-02 -1.099861636757850647e-01
-1.085499003529548645e-01 6.217036396265029907e-02 -1.223464682698249817e-02
-1.154065877199172974e-01 6.500456482172012329e-02 -1.002988498657941818e-02
-9.977932274341583252e-02 6.472471356391906738e-02 -9.898925200104713440e-03
-1.063301935791969299e-01 6.679267436265945435e-02 -7.715549319982528687e-03
-3.958384692668914795e-01 1.240556985139846802e-01 -3.918852191418409348e-03
-4.032818973064422607e-01 1.279656141996383667e-01 4.048135015182197094e-04
-3.861335515975952148e-01 1.241247951984405518e-01 -1.519936951808631420e-03
-3.942924737930297852e-01 1.290312111377716064e-01 3.557494841516017914e-03
-5.249403715133666992e-01 8.863484486937522888e-03 6.232590600848197937e-02
-5.336499810218811035e-01 1.339632924646139145e-02 6.587579101324081421e-02
-5.174649953842163086e-01 9.623158723115921021e-03 6.698165088891983032e-02
-5.267463922500610352e-01 1.392895076423883438e-02 7.062936574220657349e-02
3.484065830707550049e-01 -1.247536204755306244e-02 -3.542188555002212524e-02
3.415282666683197021e-01 -1.506828237324953079e-02 -3.249007835984230042e-02
3.549150824546813965e-01 -1.588714309036731720e-02 -3.139235824346542358e-02
3.485019207000732422e-01 -1.817398704588413239e-02 -2.798634953796863556e-02
3.009061217308044434e-01 2.110484614968299866e-02 4.298048838973045349e-02
2.945675253868103027e-01 2.153958380222320557e-02 4.444308951497077942e-02
3.081524372100830078e-01 2.083654887974262238e-02 4.286200553178787231e-02
3.004421889781951904e-01 2.478750422596931458e-02 4.471803456544876099e-02
8.130270838737487793e-01 -1.278221607208251953e-03 5.453223735094070435e-02
8.084993362426757812e-01 -4.545797593891620636e-03 5.608914047479629517e-02
8.200127482414245605e-01 -5.610056221485137939e-03 5.453222244977951050e-02
8.152987360954284668e-01 -8.541828952729701996e-03 5.632590502500534058e-02
-3.893637955188751221e-01 -3.648218000307679176e-03 -3.493711724877357483e-02
-3.944849073886871338e-01 -2.443443518131971359e-03 -3.327822312712669373e-02
-3.855628073215484619e-01 -3.082690527662634850e-03 -3.312624990940093994e-02
-3.906834721565246582e-01 -4.458357580006122589e-04 -3.144363313913345337e-02
-4.232737720012664795e-01 4.986214265227317810e-02 -6.358738988637924194e-02
-4.294804334640502930e-01 5.413488298654556274e-02 -6.004421040415763855e-02
-4.182861447334289551e-01 5.375650525093078613e-02 -5.945001542568206787e-02
-4.245732128620147705e-01 5.807408690452575684e-02 -5.590181797742843628e-02
-4.123799204826354980e-01 2.424186654388904572e-02 -9.867984056472778320e-02
-4.178779125213623047e-01 2.654255181550979614e-02 -9.412047266960144043e-02
-4.080220162868499756e-01 2.480351179838180542e-02 -9.339411556720733643e-02
-4.131903648376464844e-01 2.730851806700229645e-02 -8.879528194665908813e-02
8.781730532646179199e-01 2.310908399522304535e-02 -6.463674455881118774e-02
8.715753555297851562e-01 2.895611524581909180e-02 -6.214959919452667236e-02
8.822661638259887695e-01 2.801644243299961090e-02 -6.292127072811126709e-02
8.756762742996215820e-01 3.387122601270675659e-02 -6.043193489313125610e-02
-5.338228940963745117e-01 9.298750758171081543e-02 -2.105708792805671692e-02
-5.409309864044189453e-01 9.291906654834747314e-02 -1.606350950896739960e-02
-5.307385921478271484e-01 9.721480309963226318e-02 -1.822600886225700378e-02
-5.375216603279113770e-01 9.723823517560958862e-02 -1.328289881348609924e-02
-2.106806337833404541e-01 2.437465079128742218e-02 -2.627253904938697815e-02
-2.158975452184677124e-01 1.914839819073677063e-02 -2.615654468536376953e-02
-1.985223591327667236e-01 2.489359490573406219e-02 -2.481033839285373688e-02
-2.030655294656753540e-01 1.983549445867538452e-02 -2.511973120272159576e-02
-8.478378504514694214e-02 1.065495088696479797e-01 1.427234616130590439e-03
-8.955895155668258667e-02 1.056897565722465515e-01 6.217014975845813751e-03
-7.886214554309844971e-02 1.027812510728836060e-01 5.818188190460205078e-03
-8.364208042621612549e-02 1.018177121877670288e-01 1.076644845306873322e-02
-3.337173461914062500e-01 5.049714352935552597e-03 2.175626531243324280e-02
-3.387737274169921875e-01 2.672848058864474297e-03 2.485237643122673035e-02
-3.290733098983764648e-01 3.557428950443863869e-03 2.450550533831119537e-02
-3.345911502838134766e-01 2.398863434791564941e-03 2.809071540832519531e-02
-3.603713214397430420e-01 1.401880476623773575e-02 -8.096834272146224976e-02
-3.663918077945709229e-01 1.384884770959615707e-02 -7.847288995981216431e-02
-3.532966077327728271e-01 1.279711350798606873e-02 -7.783425599336624146e-02
-3.595423400402069092e-01 1.160750910639762878e-02 -7.468087971210479736e-02
-6.315254420042037964e-02 7.028469443321228027e-02 -4.531040787696838379e-03
-6.750528514385223389e-02 6.996424496173858643e-02 -5.584934260696172714e-04
-5.631480738520622253e-02 6.787188351154327393e-02 4.803179763257503510e-04
-6.093404442071914673e-02 6.778154522180557251e-02 4.065676592290401459e-03
5.210331454873085022e-02 4.964536800980567932e-02 5.562120303511619568e-02
4.567033797502517700e-02 4.778176546096801758e-02 5.800306797027587891e-02
6.013966351747512817e-02 4.700279235839843750e-02 5.597363412380218506e-02
5.421892926096916199e-02 4.438278824090957642e-02 5.883137881755828857e-02
-2.293676584959030151e-01 -1.423860085196793079e-03 -4.661522340029478073e-03
-2.360862344503402710e-01 6.541952607221901417e-04 -8.052890188992023468e-04
-2.237553745508193970e-01 -4.065918270498514175e-03 -6.360346451401710510e-04
-2.305067032575607300e-01 -2.053133677691221237e-03 3.743511158972978592e-03
-4.613983333110809326e-01 -3.673598915338516235e-02 -2.950920164585113525e-02
-4.698652625083923340e-01 -3.709017485380172729e-02 -2.465664781630039215e-02
-4.535217583179473877e-01 -4.056172072887420654e-02 -2.776081301271915436e-02
-4.622793793678283691e-01 -4.104882851243019104e-02 -2.300569228827953339e-02
-4.032218456268310547e-01 -1.638102717697620392e-02 -3.239239752292633057e-02
-4.087268412113189697e-01 -1.759457960724830627e-02 -3.105284832417964935e-02
-3.955150544643402100e-01 -1.691114529967308044e-02 -3.018401563167572021e-02
-4.009785354137420654e-01 -1.790962368249893188e-02 -2.891451865434646606e-02
3.402667939662933350e-01 -2.320892736315727234e-02 1.300235185772180557e-02
3.345930874347686768e-01 -2.116036601364612579e-02 1.616695523262023926e-02
3.457672894001007080e-01 -1.907433196902275085e-02 1.940034329891204834e-02
3.393957614898681641e-01 -1.428675372153520584e-02 2.226716652512550354e-02
-6.146166846156120300e-02 5.033857375383377075e-02 -4.119562730193138123e-02
-6.855066120624542236e-02 4.756966978311538696e-02 -3.719225153326988220e-02
-5.674201995134353638e-02 4.784265905618667603e-02 -3.750525787472724915e-02
-6.376548856496810913e-02 4.474954307079315186e-02 -3.385384008288383484e-02
7.776584029197692871e-01 -1.254803128540515900e-02 -5.068273097276687622e-02
7.728762030601501465e-01 -1.763305068016052246e-02 -4.690012708306312561e-02
7.841789126396179199e-01 -1.917802914977073669e-02 -5.004693195223808289e-02
7.789747118949890137e-01 -2.318066731095314026e-02 -4.590250179171562195e-02
-3.086501359939575195e-01 -4.074727743864059448e-02 -2.647828124463558197e-02
-3.160646259784698486e-01 -4.351978003978729248e-02 -2.382399700582027435e-02
-3.012483716011047363e-01 -4.294227808713912964e-02 -2.397469244897365570e-02
-3.084885776042938232e-01 -4.566975310444831848e-02 -2.140689082443714142e-02
1.154801771044731140e-01 -4.790066927671432495e-02 2.027781866490840912e-02
1.086414605379104614e-01 -4.576559364795684814e-02 2.321439981460571289e-02
1.210733726620674133e-01 -4.377752169966697693e-02 2.451074868440628052e-02
1.143846213817596436e-01 -4.223744943737983704e-02 2.700378745794296265e-02
-3.335518836975097656e-01 -2.551319450139999390e-02 2.774932794272899628e-02
-3.385280668735504150e-01 -2.247517183423042297e-02 3.015089966356754303e-02
-3.276968598365783691e-01 -2.318009734153747559e-02 3.005479834973812103e-02
-3.327386379241943359e-01 -2.175793237984180450e-02 3.258471935987472534e-02
-4.659682214260101318e-01 5.693286284804344177e-02 2.895306050777435303e-02
-4.701936542987823486e-01 5.704597383737564087e-02 3.330428898334503174e-02
-4.632432460784912109e-01 5.532498285174369812e-02 3.394806385040283203e-02
-4.677704274654388428e-01 5.532657355070114136e-02 3.809393942356109619e-02
-1.898933053016662598e-01 1.720453379675745964e-03 -9.967794641852378845e-03
-1.985573768615722656e-01 -1.000983174890279770e-04 -8.706920780241489410e-03
-1.807103902101516724e-01 1.361940405331552029e-03 -8.423265069723129272e-03
-1.900584846735000610e-01 1.257452648133039474e-03 -6.961407139897346497e-03
2.014768309891223907e-02 -9.783606976270675659e-03 -4.477348551154136658e-02
1.694164983928203583e-02 -1.204046793282032013e-02 -4.211246967315673828e-02
2.487265132367610931e-02 -1.006919890642166138e-02 -4.115911573171615601e-02
2.174617350101470947e-02 -1.216214895248413086e-02 -3.827603906393051147e-02
5.719857290387153625e-02 1.052687987685203552e-01 -1.082462910562753677e-02
5.048689991235733032e-02 1.049040704965591431e-01 -4.484878852963447571e-03
6.317394226789474487e-02 1.018414348363876343e-01 -3.203450702130794525e-03
5.605461820960044861e-02 1.010335236787796021e-01 2.977726981043815613e-03
-3.892449736595153809e-01 7.367370277643203735e-02 -3.366856649518013000e-02
-3.956217467784881592e-01 7.597097754478454590e-02 -3.058031201362609863e-02
-3.834505677223205566e-01 7.683660835027694702e-02 -3.018959239125251770e-02
-3.899348974227905273e-01 7.885202765464782715e-02 -2.712281234562397003e-02
-2.587941884994506836e-01 5.284234136343002319e-02 2.044193260371685028e-02
-2.654840052127838135e-01 5.010598897933959961e-02 2.187593653798103333e-02
-2.537218630313873291e-01 5.267740786075592041e-02 2.339106053113937378e-02
-2.600955367088317871e-01 4.979860782623291016e-02 2.451036870479583740e-02
8.790551126003265381e-02 -4.015259072184562683e-02 -3.206522762775421143e-02
8.207114785909652710e-02 -4.056278243660926819e-02 -2.796791493892669678e-02
9.433903545141220093e-02 -4.406998306512832642e-02 -2.857082895934581757e-02
8.816880732774734497e-02 -4.486377164721488953e-02 -2.452665753662586212e-02
-8.625022321939468384e-02 7.125828415155410767e-02 -3.237507492303848267e-02
-9.310819208621978760e-02 7.503076642751693726e-02 -2.901004627346992493e-02
-7.977072149515151978e-02 7.438849657773971558e-02 -2.953559532761573792e-02
-8.694917708635330200e-02 7.702033221721649170e-02 -2.589813433587551117e-02
8.838723599910736084e-02 3.411893919110298157e-02 -2.646003477275371552e-02
8.450109511613845825e-02 2.757775597274303436e-02 -2.664276026189327240e-02
9.571844339370727539e-02 3.509364649653434753e-02 -2.294915355741977692e-02
9.161306917667388916e-02 2.868188545107841492e-02 -2.337301336228847504e-02
-2.477746903896331787e-01 1.895656995475292206e-02 1.925087906420230865e-02
-2.499036043882369995e-01 1.158084161579608917e-02 2.164147421717643738e-02
-2.420063465833663940e-01 1.960913464426994324e-02 2.217078022658824921e-02
-2.443712353706359863e-01 1.271684747189283371e-02 2.447612769901752472e-02
-2.483779191970825195e-01 5.307863280177116394e-02 2.047430910170078278e-02
-2.550338804721832275e-01 5.021195113658905029e-02 2.175769023597240448e-02
-2.434031367301940918e-01 5.087888985872268677e-02 2.247478440403938293e-02
-2.494181692600250244e-01 4.837166890501976013e-02 2.377530187368392944e-02
-4.780184924602508545e-01 8.898942917585372925e-02 2.596896328032016754e-02
-4.821735024452209473e-01 8.509637415409088135e-02 2.776379324495792389e-02
-4.674769341945648193e-01 8.596774190664291382e-02 2.701278775930404663e-02
-4.716673791408538818e-01 8.233902603387832642e-02 2.880581654608249664e-02
-3.442555665969848633e-01 1.045536482706665993e-03 -2.613066881895065308e-02
-3.481232523918151855e-01 -8.160597062669694424e-04 -2.262198738753795624e-02
-3.422742784023284912e-01 2.715072128921747208e-03 -2.242190949618816376e-02
-3.464934825897216797e-01 1.166058471426367760e-03 -1.881871931254863739e-02
7.715921998023986816e-01 3.597610071301460266e-02 -4.827243834733963013e-02
7.640384435653686523e-01 3.486507758498191833e-02 -4.802960902452468872e-02
7.761426568031311035e-01 4.010942578315734863e-02 -4.711834713816642761e-02
7.685524821281433105e-01 3.912519291043281555e-02 -4.674377292394638062e-02
-1.252823136746883392e-02 5.497433990240097046e-02 3.166467323899269104e-02
-1.538744568824768066e-02 4.966395720839500427e-02 3.089266456663608551e-02
-7.316132076084613800e-03 5.602135881781578064e-02 3.230927512049674988e-02
-1.013302896171808243e-02 5.153900384902954102e-02 3.175246343016624451e-02
-1.159254610538482666e-01 -1.231797039508819580e-02 -3.907537087798118591e-02
-1.203906014561653137e-01 -1.163763087242841721e-02 -3.535189852118492126e-02
-1.113697662949562073e-01 -1.196671649813652039e-02 -3.375654295086860657e-02
-1.159381270408630371e-01 -1.122500188648700714e-02 -2.939959242939949036e-02
3.099823892116546631e-01 6.152075156569480896e-02 -1.198558509349822998e-02
3.018549978733062744e-01 6.311659514904022217e-02 -7.582744583487510681e-03
3.171711862087249756e-01 6.330067664384841919e-02 -4.363079555332660675e-03
3.091733157634735107e-01 6.453222036361694336e-02 -4.622424021363258362e-04
-2.730652987957000732e-01 2.362402342259883881e-02 8.018755167722702026e-02
-2.743362784385681152e-01 1.350940763950347900e-02 7.794415205717086792e-02
-2.651788890361785889e-01 2.663417533040046692e-02 8.030951023101806641e-02
-2.661928534507751465e-01 1.664480939507484436e-02 7.822832465171813965e-02
6.293091177940368652e-01 -2.407352998852729797e-02 1.028757542371749878e-02
6.224996447563171387e-01 -1.993459090590476990e-02 1.811457052826881409e-02
6.341971158981323242e-01 -2.238022536039352417e-02 1.791999489068984985e-02
6.269584894180297852e-01 -1.767172478139400482e-02 2.566004917025566101e-02
-3.468825668096542358e-02 -1.656123064458370209e-02 2.845842950046062469e-02
-3.743877634406089783e-02 -2.137615531682968140e-02 3.070083819329738617e-02
-3.013789281249046326e-02 -1.817692443728446960e-02 2.942609414458274841e-02
-3.311725705862045288e-02 -2.213400416076183319e-02 3.158417344093322754e-02
-3.241440951824188232e-01 2.945291623473167419e-02 2.223473228514194489e-02
-3.272680342197418213e-01 2.187642455101013184e-02 2.282566577196121216e-02
-3.155260086059570312e-01 2.792308479547500610e-02 2.368613146245479584e-02
-3.188033699989318848e-01 2.006124518811702728e-02 2.433297969400882721e-02
8.723391890525817871e-01 2.875467017292976379e-02 5.611590668559074402e-02
8.668886423110961914e-01 2.001369744539260864e-02 5.891856923699378967e-02
8.798962831497192383e-01 2.671052142977714539e-02 5.572711303830146790e-02
8.742554783821105957e-01 1.758195459842681885e-02 5.853634327650070190e-02
-1.768477633595466614e-02 4.396870359778404236e-02 -7.611490786075592041e-02
-2.674999460577964783e-02 4.783526062965393066e-02 -7.026055455207824707e-02
-1.198655366897583008e-02 4.747492820024490356e-02 -6.823516637086868286e-02
-2.102317847311496735e-02 5.134198442101478577e-02 -6.237352266907691956e-02
-5.089839100837707520e-01 -5.782298278063535690e-03 2.289937576279044151e-03
-5.172954201698303223e-01 -4.558836109936237335e-03 4.378874786198139191e-03
-5.069484710693359375e-01 -5.884360987693071365e-03 6.176461465656757355e-03
-5.138286948204040527e-01 -3.943870775401592255e-03 9.253841824829578400e-03
-1.736276000738143921e-01 1.162330433726310730e-02 -3.893404081463813782e-02
-1.763875037431716919e-01 4.792373161762952805e-03 -3.986989706754684448e-02
-1.674511730670928955e-01 1.268762722611427307e-02 -3.767454624176025391e-02
-1.703609675168991089e-01 6.309254094958305359e-03 -3.882748633623123169e-02
-7.429897040128707886e-02 -5.787992849946022034e-03 3.388460353016853333e-02
-7.511243969202041626e-02 -1.158320810645818710e-02 3.444722667336463928e-02
-7.045397162437438965e-02 -9.471565485000610352e-03 3.489533066749572754e-02
-7.151641696691513062e-02 -1.490062102675437927e-02 3.547327220439910889e-02
-2.000026255846023560e-01 -4.467734601348638535e-03 -3.458961844444274902e-02
-2.043409496545791626e-01 -1.119949668645858765e-02 -3.204789757728576660e-02
-1.945176720619201660e-01 -2.995471470057964325e-03 -3.162878006696701050e-02
-1.983440518379211426e-01 -9.848667308688163757e-03 -3.022009506821632385e-02
6.908706426620483398e-01 1.187397725880146027e-02 -4.603051394224166870e-02
6.875518560409545898e-01 4.012825898826122284e-03 -4.494731873273849487e-02
6.992776989936828613e-01 5.573780741542577744e-03 -4.574722051620483398e-02
6.957425475120544434e-01 -1.282587181776762009e-03 -4.326692223548889160e-02
-2.430334687232971191e-02 1.130159478634595871e-03 6.990221142768859863e-02
-3.120853193104267120e-02 5.042211618274450302e-03 7.500015944242477417e-02
-1.989387720823287964e-02 4.640530794858932495e-03 7.439234852790832520e-02
