8.075548410415649414e-01 -6.397445499897003174e-02 9.631555527448654175e-02
2.426437288522720337e-01 -1.990054696798324585e-01 1.622233390808105469e-01
2.408452332019805908e-01 -2.163136601448059082e-01 1.600590199232101440e-01
2.479133158922195435e-01 -1.895167976617813110e-01 1.743170469999313354e-01
2.465267777442932129e-01 -2.061967402696609497e-01 1.727764457464218140e-01
-3.801659345626831055e-01 1.328331418335437775e-02 2.047809213399887085e-01
-3.930240869522094727e-01 1.399920880794525146e-02 2.163141667842864990e-01
-3.691884577274322510e-01 9.237894788384437561e-03 2.169218957424163818e-01
-3.805125057697296143e-01 7.548565976321697235e-03 2.285698503255844116e-01
-1.391321420669555664e-01 6.543516367673873901e-02 1.147077754139900208e-01
-1.573163866996765137e-01 7.130310684442520142e-02 1.197654455900192261e-01
-1.242043077945709229e-01 6.771953403949737549e-02 1.257072091102600098e-01
-1.419352293014526367e-01 7.412096858024597168e-02 1.299135088920593262e-01
3.726410865783691406e-01 -4.200641512870788574e-01 -1.586105972528457642e-01
3.650088310241699219e-01 -4.363572299480438232e-01 -1.579991281032562256e-01
3.824951052665710449e-01 -4.165728688240051270e-01 -1.410318166017532349e-01
3.763620555400848389e-01 -4.331673979759216309e-01 -1.377360522747039795e-01
6.589300036430358887e-01 2.716925740242004395e-02 5.817607790231704712e-02
6.509999036788940430e-01 1.435712538659572601e-02 6.369061022996902466e-02
6.732224225997924805e-01 1.826492138206958771e-02 5.326405912637710571e-02
6.666364073753356934e-01 5.662547424435615540e-03 5.848075076937675476e-02
4.008739590644836426e-01 1.094961315393447876e-01 2.799836099147796631e-01
3.847373425960540771e-01 1.038902401924133301e-01 2.924698889255523682e-01
4.086290299892425537e-01 8.993526548147201538e-02 2.790251672267913818e-01
3.922079205513000488e-01 8.251097798347473145e-02 2.927398085594177246e-01
3.258910775184631348e-01 3.834389746189117432e-01 -3.862984776496887207e-01
3.152830004692077637e-01 3.668658137321472168e-01 -3.900058567523956299e-01
3.450387120246887207e-01 3.853397667407989502e-01 -3.748573064804077148e-01
3.350881636142730713e-01 3.677448034286499023e-01 -3.793744444847106934e-01
-7.708587683737277985e-03 2.081485092639923096e-01 -3.968343138694763184e-01
-1.090828049927949905e-02 1.963619738817214966e-01 -3.943066895008087158e-01
-6.012655794620513916e-03 2.132536917924880981e-01 -3.831451833248138428e-01
-9.412096813321113586e-03 2.014162391424179077e-01 -3.803360164165496826e-01
7.297828793525695801e-01 -1.710914522409439087e-01 1.234931275248527527e-01
7.229245901107788086e-01 -1.880801916122436523e-01 1.259037554264068604e-01
7.455095052719116211e-01 -1.776001602411270142e-01 1.165014579892158508e-01
7.390636205673217773e-01 -1.944656074047088623e-01 1.189721077680587769e-01
-4.628298282623291016e-01 -4.061791300773620605e-01 1.132607385516166687e-01
-4.722868502140045166e-01 -4.164371192455291748e-01 1.222497075796127319e-01
-4.534492492675781250e-01 -4.071732163429260254e-01 1.299514323472976685e-01
-4.629538357257843018e-01 -4.181516170501708984e-01 1.387460380792617798e-01
-4.831952750682830811e-01 4.513233304023742676e-01 1.815295219421386719e-02
-4.987641870975494385e-01 4.512025117874145508e-01 2.548754401504993439e-02
-4.723398387432098389e-01 4.504933953285217285e-01 2.458112500607967377e-02
-4.874667227268218994e-01 4.500402212142944336e-01 3.216921910643577576e-02
9.298744201660156250e-01 -3.999336659908294678e-01 1.745237736031413078e-03
9.193430542945861816e-01 -3.957143723964691162e-01 1.110926456749439240e-02
9.377391934394836426e-01 -3.970492184162139893e-01 5.677672568708658218e-03
9.268218874931335449e-01 -3.905878663063049316e-01 1.517635677009820938e-02
9.523145556449890137e-01 9.635511040687561035e-02 -6.565154343843460083e-02
9.410298466682434082e-01 8.420646190643310547e-02 -5.763583630323410034e-02
9.642982482910156250e-01 8.805084228515625000e-02 -6.993493437767028809e-02
9.522907733917236328e-01 7.481972128152847290e-02 -6.129471212625503540e-02
2.467871606349945068e-01 -2.259203642606735229e-01 2.939302325248718262e-01
2.459074705839157104e-01 -2.400455474853515625e-01 3.015332818031311035e-01
2.561686933040618896e-01 -2.337375879287719727e-01 2.999148070812225342e-01
2.551368474960327148e-01 -2.477459609508514404e-01 3.076460957527160645e-01
1.013607501983642578e+00 2.272802591323852539e-02 1.782654225826263428e-02
1.001535892486572266e+00 5.528567824512720108e-03 2.467340603470802307e-02
1.029038548469543457e+00 1.680821925401687622e-02 1.270291395485401154e-02
1.016631007194519043e+00 6.257614586502313614e-05 1.914778724312782288e-02
9.448978900909423828e-01 1.758210808038711548e-01 4.172025248408317566e-03
9.301977753639221191e-01 1.728326976299285889e-01 1.300796680152416229e-02
9.600844383239746094e-01 1.621450036764144897e-01 2.339797094464302063e-03
9.453786611557006836e-01 1.597857773303985596e-01 1.085157599300146103e-02
2.389424741268157959e-01 2.826194092631340027e-02 1.139486655592918396e-01
2.383110672235488892e-01 1.337905600666999817e-02 1.145136877894401550e-01
2.456792145967483521e-01 3.164640069007873535e-02 1.289875060319900513e-01
2.451384216547012329e-01 1.655402965843677521e-02 1.295139789581298828e-01
1.130941748619079590e+00 4.772407189011573792e-02 -1.222328916192054749e-01
1.124662756919860840e+00 3.075210005044937134e-02 -1.205931752920150757e-01
1.141444802284240723e+00 4.232692718505859375e-02 -1.183196976780891418e-01
1.136383175849914551e+00 2.482185512781143188e-02 -1.171461492776870728e-01
9.460092782974243164e-01 3.625897467136383057e-01 -6.127973645925521851e-02
9.350603222846984863e-01 3.606943190097808838e-01 -5.365407466888427734e-02
9.553124308586120605e-01 3.525154590606689453e-01 -5.882999300956726074e-02
9.444923996925354004e-01 3.505015969276428223e-01 -5.151328444480895996e-02
2.872092425823211670e-01 -1.831175573170185089e-02 2.778494954109191895e-01
2.838443815708160400e-01 -3.135668113827705383e-02 2.814147472381591797e-01
2.993560433387756348e-01 -2.183398045599460602e-02 2.745933532714843750e-01
2.958906888961791992e-01 -3.489168733358383179e-02 2.779830694198608398e-01
-6.004581451416015625e-01 2.256711013615131378e-02 -2.481745630502700806e-01
-6.138958930969238281e-01 1.900672726333141327e-02 -2.463254183530807495e-01
-5.881604552268981934e-01 2.617686800658702850e-02 -2.430239766836166382e-01
-6.002545952796936035e-01 2.184778079390525818e-02 -2.421034276485443115e-01
2.537011206150054932e-01 3.764108419418334961e-01 -3.952047824859619141e-01
2.368781864643096924e-01 3.811107277870178223e-01 -3.831454813480377197e-01
2.675439417362213135e-01 3.773022294044494629e-01 -3.887919783592224121e-01
2.498928904533386230e-01 3.825394511222839355e-01 -3.777832686901092529e-01
-3.354539573192596436e-01 4.272597432136535645e-01 5.801718235015869141e-01
-3.432397246360778809e-01 4.182108342647552490e-01 5.851000547409057617e-01
-3.253278732299804688e-01 4.238047301769256592e-01 5.896834731101989746e-01
-3.329313993453979492e-01 4.143814444541931152e-01 5.945422649383544922e-01
2.441578805446624756e-01 2.160748690366744995e-01 9.004259854555130005e-02
2.432618439197540283e-01 2.018479555845260620e-01 8.888306468725204468e-02
2.495018988847732544e-01 2.270241677761077881e-01 1.026453077793121338e-01
2.488172203302383423e-01 2.126637399196624756e-01 1.017119958996772766e-01
5.358746647834777832e-01 -3.164921998977661133e-01 1.166126802563667297e-01
5.303976535797119141e-01 -3.312393128871917725e-01 1.207725703716278076e-01
5.497249960899353027e-01 -3.195712268352508545e-01 1.111983060836791992e-01
5.433269143104553223e-01 -3.351476192474365234e-01 1.161611229181289673e-01
7.321022152900695801e-01 -3.272022902965545654e-01 3.660080954432487488e-02
7.248021960258483887e-01 -3.374620676040649414e-01 4.143399372696876526e-02
7.440756559371948242e-01 -3.311139941215515137e-01 3.892187029123306274e-02
7.345829606056213379e-01 -3.375546634197235107e-01 4.508121311664581299e-02
3.470826447010040283e-01 2.343215420842170715e-02 2.467899918556213379e-01
3.319272398948669434e-01 2.821434289216995239e-02 2.573436796665191650e-01
3.557019829750061035e-01 1.284878514707088470e-02 2.442761212587356567e-01
3.384037017822265625e-01 2.151696197688579559e-02 2.558450698852539062e-01
1.411715000867843628e-01 -6.366094201803207397e-02 3.628152012825012207e-01
1.392131894826889038e-01 -8.220385760068893433e-02 3.662500977516174316e-01
1.555810421705245972e-01 -6.777048856019973755e-02 3.557543754577636719e-01
1.533694416284561157e-01 -8.625624328851699829e-02 3.590445220470428467e-01
-2.721795625984668732e-02 -2.571447491645812988e-01 4.951126873493194580e-02
-2.911552414298057556e-02 -2.763727009296417236e-01 5.546534806489944458e-02
-2.023134753108024597e-02 -2.623123526573181152e-01 6.591093540191650391e-02
-2.212547324597835541e-02 -2.816455960273742676e-01 7.136815786361694336e-02
-6.817975044250488281e-01 -7.975784130394458771e-03 -2.156950533390045166e-01
-6.913481950759887695e-01 -9.286342188715934753e-03 -2.029474079608917236e-01
-6.725515723228454590e-01 -1.216121762990951538e-02 -2.081782966852188110e-01
-6.823664307594299316e-01 -1.301588956266641617e-02 -1.955758631229400635e-01
2.928422391414642334e-01 -5.410029739141464233e-02 2.528550922870635986e-01
2.916432917118072510e-01 -7.142232358455657959e-02 2.532861232757568359e-01
2.996042072772979736e-01 -5.843517184257507324e-02 2.548438310623168945e-01
2.985272407531738281e-01 -7.514763623476028442e-02 2.549336850643157959e-01
4.346879720687866211e-01 9.753020852804183960e-02 2.561271190643310547e-01
4.177270829677581787e-01 9.256124496459960938e-02 2.688638567924499512e-01
4.439659714698791504e-01 7.767608016729354858e-02 2.557836174964904785e-01
4.262427091598510742e-01 7.070785760879516602e-02 2.696830034255981445e-01
1.161132216453552246e+00 1.399945914745330811e-01 -7.798910140991210938e-02
1.155238151550292969e+00 1.366623640060424805e-01 -7.121291756629943848e-02
1.163813948631286621e+00 1.288539469242095947e-01 -7.259917259216308594e-02
1.155061483383178711e+00 1.287720203399658203e-01 -6.418002396821975708e-02
5.015975236892700195e-01 -3.976019024848937988e-01 1.227651461958885193e-01
4.996022880077362061e-01 -4.099814593791961670e-01 1.336901783943176270e-01
5.039520263671875000e-01 -3.966933488845825195e-01 1.401544064283370972e-01
5.010794997215270996e-01 -4.079876542091369629e-01 1.504781395196914673e-01
8.562414050102233887e-01 2.358248829841613770e-01 -6.087105348706245422e-02
8.499342799186706543e-01 2.288043051958084106e-01 -5.439894646406173706e-02
8.678908348083496094e-01 2.267391681671142578e-01 -6.185559928417205811e-02
8.597219586372375488e-01 2.201420068740844727e-01 -5.484688654541969299e-02
1.080015420913696289e+00 -1.359988451004028320e-01 -8.942392468452453613e-02
1.073853969573974609e+00 -1.480370908975601196e-01 -8.634836971759796143e-02
1.094953775405883789e+00 -1.446973532438278198e-01 -8.935127407312393188e-02
1.090316176414489746e+00 -1.560716778039932251e-01 -8.812986314296722412e-02
-5.420667529106140137e-01 -3.894503116607666016e-01 1.408077776432037354e-01
-5.521397590637207031e-01 -3.886506259441375732e-01 1.517254710197448730e-01
-5.348885655403137207e-01 -3.913291692733764648e-01 1.469470560550689697e-01
-5.456674098968505859e-01 -3.899046480655670166e-01 1.568714082241058350e-01
2.694136798381805420e-01 1.901322007179260254e-01 1.545704007148742676e-01
2.678009271621704102e-01 1.758699566125869751e-01 1.562765240669250488e-01
2.761935293674468994e-01 1.925130784511566162e-01 1.699265241622924805e-01
2.747285962104797363e-01 1.783189326524734497e-01 1.720068156719207764e-01
-8.143844455480575562e-02 3.596748784184455872e-02 1.163710802793502808e-01
-9.567979723215103149e-02 4.616839438676834106e-02 1.169402822852134705e-01
-7.142519950866699219e-02 3.419667109847068787e-02 1.314708739519119263e-01
-8.496872335672378540e-02 4.302788525819778442e-02 1.311512142419815063e-01
5.040688514709472656e-01 3.665093779563903809e-01 -2.686471864581108093e-02
5.022512674331665039e-01 3.527813255786895752e-01 -1.942154578864574432e-02
5.114543437957763672e-01 3.643150627613067627e-01 -1.234185881912708282e-02
5.092918872833251953e-01 3.512945473194122314e-01 -5.553769413381814957e-03
3.773292899131774902e-02 6.071552634239196777e-02 -3.524111509323120117e-01
3.309739381074905396e-02 4.477638751268386841e-02 -3.553639650344848633e-01
4.969988018274307251e-02 6.104509532451629639e-02 -3.369457721710205078e-01
4.556194692850112915e-02 4.416304081678390503e-02 -3.405603766441345215e-01
1.332853287458419800e-01 2.466429919004440308e-01 7.394604384899139404e-02
1.313516795635223389e-01 2.337034195661544800e-01 7.755049318075180054e-02
1.365274786949157715e-01 2.472784221172332764e-01 8.680730313062667847e-02
1.342837661504745483e-01 2.350561171770095825e-01 9.071266651153564453e-02
1.064181447029113770e+00 2.175137102603912354e-01 -1.389357894659042358e-01
1.056216716766357422e+00 2.116797417402267456e-01 -1.310441642999649048e-01
1.076189160346984863e+00 2.083999216556549072e-01 -1.401652693748474121e-01
1.067779660224914551e+00 2.016583830118179321e-01 -1.326318532228469849e-01
5.565758347511291504e-01 2.632473111152648926e-01 5.791253969073295593e-02
5.483872294425964355e-01 2.524793446063995361e-01 6.610951572656631470e-02
5.687104463577270508e-01 2.499138861894607544e-01 5.470026284456253052e-02
5.610125064849853516e-01 2.388736754655838013e-01 6.285247951745986938e-02
1.517586261034011841e-01 -2.250322401523590088e-01 1.247091144323348999e-01
1.403508931398391724e-01 -2.125755548477172852e-01 1.329346448183059692e-01
1.597680151462554932e-01 -2.226910144090652466e-01 1.448590606451034546e-01
1.487406939268112183e-01 -2.112712264060974121e-01 1.521331220865249634e-01
3.439022973179817200e-02 -1.168701201677322388e-01 -3.227781951427459717e-01
3.277279064059257507e-02 -1.339740306138992310e-01 -3.234866261482238770e-01
4.322608187794685364e-02 -1.236295700073242188e-01 -3.169746100902557373e-01
4.163910448551177979e-02 -1.406513750553131104e-01 -3.178062438964843750e-01
4.776971340179443359e-01 8.650202304124832153e-02 2.209046781063079834e-01
4.618533551692962646e-01 8.766113221645355225e-02 2.317036986351013184e-01
4.796938896179199219e-01 6.820450723171234131e-02 2.247701585292816162e-01
4.648786187171936035e-01 6.677982211112976074e-02 2.355082333087921143e-01
5.200614929199218750e-01 -1.189965680241584778e-01 1.887388527393341064e-01
5.197800993919372559e-01 -1.499930024147033691e-01 1.928709745407104492e-01
5.343095064163208008e-01 -1.137064173817634583e-01 1.807907074689865112e-01
5.339654088020324707e-01 -1.437104344367980957e-01 1.848326474428176880e-01
2.332521975040435791e-01 -1.618509367108345032e-02 1.077419146895408630e-01
2.336722910404205322e-01 -3.233584761619567871e-02 1.098134443163871765e-01
2.401037961244583130e-01 -1.574127189815044403e-02 1.238219439983367920e-01
2.401014715433120728e-01 -3.200525417923927307e-02 1.258070319890975952e-01
-3.041046261787414551e-01 -2.920155879110097885e-03 1.988166868686676025e-01
-3.059222400188446045e-01 -1.499790884554386139e-02 2.034475803375244141e-01
-3.006141185760498047e-01 -3.503134474158287048e-03 2.061809599399566650e-01
-3.025454580783843994e-01 -1.524750329554080963e-02 2.113606482744216919e-01
-6.422743946313858032e-02 7.174165546894073486e-02 -1.394535005092620850e-01
-6.589590013027191162e-02 5.916276946663856506e-02 -1.361256986856460571e-01
-6.775426864624023438e-02 7.911588996648788452e-02 -1.214684993028640747e-01
-6.936810910701751709e-02 6.580436974763870239e-02 -1.169407144188880920e-01
1.043678879737854004e+00 -2.877858579158782959e-01 -7.409973442554473877e-02
1.041496157646179199e+00 -3.032118678092956543e-01 -7.133267074823379517e-02
1.058026194572448730e+00 -2.875275611877441406e-01 -7.924776524305343628e-02
1.056424379348754883e+00 -3.038194477558135986e-01 -7.662115246057510376e-02
2.119294404983520508e-01 2.314499467611312866e-01 3.600848615169525146e-01
1.938397139310836792e-01 2.190755456686019897e-01 3.712516427040100098e-01
2.281864434480667114e-01 2.208471894264221191e-01 3.555280268192291260e-01
2.120785266160964966e-01 2.089696526527404785e-01 3.665048480033874512e-01
6.366385817527770996e-01 1.421003192663192749e-01 5.179424583911895752e-02
6.269674301147460938e-01 1.298868805170059204e-01 5.946657061576843262e-02
6.510295271873474121e-01 1.247879788279533386e-01 4.791550710797309875e-02
6.414356827735900879e-01 1.126111224293708801e-01 5.537492409348487854e-02
1.065776348114013672e+00 -3.370105754584074020e-03 -9.544254839420318604e-02
1.054914832115173340e+00 -1.537112332880496979e-02 -8.937442302703857422e-02
1.081870317459106445e+00 -1.276980340480804443e-02 -9.831634163856506348e-02
1.071356296539306641e+00 -2.514974959194660187e-02 -9.293316304683685303e-02
6.991626024246215820e-01 3.114943504333496094e-01 -2.105806395411491394e-02
6.892532110214233398e-01 3.051517605781555176e-01 -1.177924498915672302e-02
7.113080620765686035e-01 2.987356185913085938e-01 -2.134258300065994263e-02
7.013986706733703613e-01 2.923930287361145020e-01 -1.206376496702432632e-02
4.845142364501953125e-01 3.397889435291290283e-01 1.520107239484786987e-01
4.751092791557312012e-01 3.353421390056610107e-01 1.620492637157440186e-01
4.878337979316711426e-01 3.272756636142730713e-01 1.601548939943313599e-01
4.784361422061920166e-01 3.228250145912170410e-01 1.704217791557312012e-01
1.115662217140197754e+00 3.497052192687988281e-01 -1.682815551757812500e-01
1.108858466148376465e+00 3.468908965587615967e-01 -1.640471816062927246e-01
1.123122692108154297e+00 3.456392288208007812e-01 -1.579459905624389648e-01
1.116114497184753418e+00 3.437895476818084717e-01 -1.528853029012680054e-01
7.131226062774658203e-01 1.431230306625366211e-01 9.513346105813980103e-02
7.005922794342041016e-01 1.294257193803787231e-01 1.038991883397102356e-01
7.275185585021972656e-01 1.379884630441665649e-01 9.114203602075576782e-02
7.150040268898010254e-01 1.236113905906677246e-01 9.971844404935836792e-02
-3.523622155189514160e-01 3.169500231742858887e-01 7.587294280529022217e-02
-3.513813018798828125e-01 3.016709685325622559e-01 7.977024465799331665e-02
-3.483669161796569824e-01 3.145256340503692627e-01 9.196449071168899536e-02
-3.475910425186157227e-01 2.990004420280456543e-01 9.590096771717071533e-02
9.813030064105987549e-02 1.913635432720184326e-01 -2.688153386116027832e-01
9.675423800945281982e-02 1.730822175741195679e-01 -2.700693309307098389e-01
1.046278402209281921e-01 1.981701850891113281e-01 -2.575215995311737061e-01
1.041547730565071106e-01 1.798524856567382812e-01 -2.568649053573608398e-01
-5.110729932785034180e-01 4.471558332443237305e-01 1.925033144652843475e-02
-5.259463191032409668e-01 4.476819932460784912e-01 2.774662896990776062e-02
-5.003848075866699219e-01 4.468701183795928955e-01 2.582889422774314880e-02
-5.151976346969604492e-01 4.467171728610992432e-01 3.375773876905441284e-02
1.075318828225135803e-01 -1.457601636648178101e-01 3.835041821002960205e-01
1.016562059521675110e-01 -1.652569770812988281e-01 3.893056809902191162e-01
1.213744133710861206e-01 -1.480211019515991211e-01 3.781924843788146973e-01
1.150165200233459473e-01 -1.674780845642089844e-01 3.841631114482879639e-01
1.036204218864440918e+00 -2.571668624877929688e-01 1.699896901845932007e-02
1.028245449066162109e+00 -2.765954434871673584e-01 1.858207024633884430e-02
1.055738687515258789e+00 -2.470536828041076660e-01 9.885168634355068207e-03
1.049511194229125977e+00 -2.710346877574920654e-01 1.111662574112415314e-02
-2.524879947304725647e-02 -8.274289965629577637e-02 6.884004455059766769e-03
-3.594124317169189453e-02 -7.509785890579223633e-02 1.253716368228197098e-02
-1.440094038844108582e-02 -8.295351266860961914e-02 1.740660518407821655e-02
-2.606052719056606293e-02 -7.540573924779891968e-02 2.377438917756080627e-02
4.880507290363311768e-01 8.162400126457214355e-02 1.272810250520706177e-01
4.853652119636535645e-01 5.818746984004974365e-02 1.320086717605590820e-01
4.897740185260772705e-01 6.986282765865325928e-02 1.305972486734390259e-01
4.881008863449096680e-01 4.569131880998611450e-02 1.344114094972610474e-01
1.195878535509109497e-01 -1.548561751842498779e-01 3.776074945926666260e-01
1.132537871599197388e-01 -1.741270869970321655e-01 3.837802112102508545e-01
1.334102153778076172e-01 -1.604993939399719238e-01 3.708627223968505859e-01
1.263066381216049194e-01 -1.784931421279907227e-01 3.775041103363037109e-01
1.072922825813293457e+00 -2.572156488895416260e-01 -8.384105563163757324e-02
1.070351481437683105e+00 -2.737159729003906250e-01 -8.127996325492858887e-02
1.089554786682128906e+00 -2.568700015544891357e-01 -8.951449394226074219e-02
1.087748765945434570e+00 -2.735061645507812500e-01 -8.755876123905181885e-02
-2.959545254707336426e-01 2.898437157273292542e-02 1.908089518547058105e-01
-2.987796962261199951e-01 1.881097070872783661e-02 1.966632157564163208e-01
-2.917978465557098389e-01 2.624415606260299683e-02 1.971020102500915527e-01
-2.945866584777832031e-01 1.618287712335586548e-02 2.028314024209976196e-01
6.543137431144714355e-01 1.864119172096252441e-01 3.411981835961341858e-02
6.416433453559875488e-01 1.824112236499786377e-01 4.310755804181098938e-02
6.663004159927368164e-01 1.719624400138854980e-01 3.098522499203681946e-02
6.541295647621154785e-01 1.672841906547546387e-01 3.934437409043312073e-02
3.479778170585632324e-01 -1.646243594586849213e-02 2.523367106914520264e-01
3.349819779396057129e-01 -1.434140466153621674e-02 2.625999152660369873e-01
3.557690680027008057e-01 -2.305381558835506439e-02 2.495617866516113281e-01
3.437792062759399414e-01 -2.292557246983051300e-02 2.595135867595672607e-01
2.291450053453445435e-01 1.159760951995849609e-01 3.028819859027862549e-01
2.243152558803558350e-01 9.889917075634002686e-02 3.082572221755981445e-01
2.408497780561447144e-01 1.093819290399551392e-01 2.969073653221130371e-01
2.379288524389266968e-01 9.380487352609634399e-02 3.024014532566070557e-01
1.979311108589172363e-01 -3.354590758681297302e-02 3.364084959030151367e-01
1.938058137893676758e-01 -5.691502988338470459e-02 3.421918749809265137e-01
2.159627079963684082e-01 -4.476863890886306763e-02 3.283231854438781738e-01
2.114976942539215088e-01 -6.695529818534851074e-02 3.340376913547515869e-01
5.495508313179016113e-01 -4.935534298419952393e-02 1.068418771028518677e-01
5.408796668052673340e-01 -6.796579807996749878e-02 1.162706092000007629e-01
5.701051950454711914e-01 -5.843015015125274658e-02 9.981985390186309814e-02
5.615570545196533203e-01 -7.790371030569076538e-02 1.086694300174713135e-01
5.730754733085632324e-01 2.085577398538589478e-01 6.200815364718437195e-02
5.669729709625244141e-01 1.976674050092697144e-01 6.956075131893157959e-02
5.829919576644897461e-01 1.924838423728942871e-01 6.093540042638778687e-02
5.762757658958435059e-01 1.819272786378860474e-01 6.783434003591537476e-02
7.659552693367004395e-01 1.696874797344207764e-01 -8.022231049835681915e-03
7.559324502944946289e-01 1.619587838649749756e-01 -7.332279346883296967e-04
7.813653945922851562e-01 1.595545411109924316e-01 -1.204917579889297485e-02
7.710945606231689453e-01 1.518750041723251343e-01 -5.199992097914218903e-03
3.920812308788299561e-01 -2.812681794166564941e-01 2.901907861232757568e-01
3.783336877822875977e-01 -2.712263762950897217e-01 3.016493022441864014e-01
3.929405212402343750e-01 -2.704454660415649414e-01 2.970374524593353271e-01
3.790470063686370850e-01 -2.610218822956085205e-01 3.081055581569671631e-01
-3.032768368721008301e-01 -2.524671703577041626e-02 3.027375638484954834e-01
-3.002617061138153076e-01 -4.620262607932090759e-02 3.160705268383026123e-01
-2.993266582489013672e-01 -3.598689287900924683e-02 3.236600160598754883e-01
-2.952022850513458252e-01 -5.667516589164733887e-02 3.372076451778411865e-01
5.986089110374450684e-01 -2.180435061454772949e-01 1.666307002305984497e-01
5.848219394683837891e-01 -2.426353991031646729e-01 1.727402061223983765e-01
6.236077547073364258e-01 -2.147805392742156982e-01 1.588520258665084839e-01
6.110594272613525391e-01 -2.379923909902572632e-01 1.645074933767318726e-01
4.704705774784088135e-01 4.233589768409729004e-01 -1.611928939819335938e-01
4.620906710624694824e-01 4.075894355773925781e-01 -1.554014533758163452e-01
4.832426309585571289e-01 4.207261800765991211e-01 -1.461379230022430420e-01
4.730967581272125244e-01 4.047793745994567871e-01 -1.381288021802902222e-01
-1.409495472908020020e-01 4.359824955463409424e-02 1.268589049577713013e-01
-1.582350879907608032e-01 5.010484158992767334e-02 1.316498517990112305e-01
-1.247861981391906738e-01 5.010199919342994690e-02 1.383031010627746582e-01
-1.428625434637069702e-01 5.669681727886199951e-02 1.425593197345733643e-01
-2.968659102916717529e-01 3.562546074390411377e-01 5.318762660026550293e-01
-3.111479282379150391e-01 3.556123077869415283e-01 5.419619679450988770e-01
-2.850177884101867676e-01 3.516562879085540771e-01 5.426223278045654297e-01
-2.992536425590515137e-01 3.506981134414672852e-01 5.519576072692871094e-01
2.229225486516952515e-01 -1.049619317054748535e-01 9.654737263917922974e-02
2.218411713838577271e-01 -1.188619583845138550e-01 9.800913184881210327e-02
2.298198342323303223e-01 -1.049032285809516907e-01 1.111815720796585083e-01
2.288974523544311523e-01 -1.187506765127182007e-01 1.132343187928199768e-01
-3.304643630981445312e-01 1.087581813335418701e-01 1.142554879188537598e-01
-3.354192674160003662e-01 9.020035713911056519e-02 1.123644486069679260e-01
-3.160646557807922363e-01 1.128398329019546509e-01 1.228566914796829224e-01
-3.199884295463562012e-01 9.294209629297256470e-02 1.205262765288352966e-01
2.250242382287979126e-01 3.357767462730407715e-01 -3.550954461097717285e-01
2.119821161031723022e-01 3.346599042415618896e-01 -3.446895778179168701e-01
2.339317798614501953e-01 3.397836089134216309e-01 -3.453011810779571533e-01
2.206985205411911011e-01 3.411576449871063232e-01 -3.352878391742706299e-01
-4.935475587844848633e-01 1.273407973349094391e-02 -1.621305793523788452e-01
-4.949538707733154297e-01 -1.277350448071956635e-02 -1.673057824373245239e-01
-4.801134765148162842e-01 9.193856269121170044e-03 -1.462984234094619751e-01
-4.792563021183013916e-01 -1.664340868592262268e-02 -1.497056037187576294e-01
5.069889426231384277e-01 4.226134121417999268e-01 1.079828441143035889e-01
5.043122172355651855e-01 4.033479988574981689e-01 1.177184954285621643e-01
5.077391266822814941e-01 4.123005867004394531e-01 1.228930279612541199e-01
5.051661133766174316e-01 3.931630551815032959e-01 1.322514712810516357e-01
7.773065567016601562e-01 1.580061018466949463e-02 9.655899554491043091e-02
7.631416320800781250e-01 3.386179450899362564e-03 1.055741980671882629e-01
7.948721051216125488e-01 4.811258520931005478e-03 9.265282750129699707e-02
7.810016870498657227e-01 -6.338337436318397522e-03 1.005798578262329102e-01
-4.939562827348709106e-02 -1.727046668529510498e-01 -3.046327531337738037e-01
-4.952257126569747925e-02 -1.905623227357864380e-01 -2.977627217769622803e-01
-4.065019637346267700e-02 -1.807342320680618286e-01 -3.010084927082061768e-01
-3.901857882738113403e-02 -1.998692452907562256e-01 -2.944657802581787109e-01
-1.442944910377264023e-02 3.011379837989807129e-01 -8.037403225898742676e-03
-1.632809825241565704e-02 2.887322306632995605e-01 -9.058722294867038727e-03
-1.291143707931041718e-02 3.002915382385253906e-01 1.072023180313408375e-03
-1.404260471463203430e-02 2.876174449920654297e-01 6.410349742509424686e-04
5.937543511390686035e-01 3.509844541549682617e-01 3.917215764522552490e-02
5.781848430633544922e-01 3.570680916309356689e-01 4.975918680429458618e-02
6.023565530776977539e-01 3.602419793605804443e-01 4.686414450407028198e-02
5.868359208106994629e-01 3.658698201179504395e-01 5.666180327534675598e-02
2.269159704446792603e-01 3.491978645324707031e-01 3.241298496723175049e-01
2.133341133594512939e-01 3.405054807662963867e-01 3.342325985431671143e-01
2.416914701461791992e-01 3.362545669078826904e-01 3.246873617172241211e-01
2.284673303365707397e-01 3.275955915451049805e-01 3.347361385822296143e-01
3.134739398956298828e-01 -6.476427614688873291e-02 2.703285813331604004e-01
3.119712471961975098e-01 -8.359295129776000977e-02 2.721276581287384033e-01
3.229429423809051514e-01 -6.723946332931518555e-02 2.673172056674957275e-01
3.220041096210479736e-01 -8.626052737236022949e-02 2.701526284217834473e-01
-6.448407769203186035e-01 -2.790895849466323853e-02 -1.879509091377258301e-01
-6.533391475677490234e-01 -2.812401205301284790e-02 -1.793557107448577881e-01
-6.382268071174621582e-01 -2.827013283967971802e-02 -1.784589290618896484e-01
-6.476196050643920898e-01 -2.805723249912261963e-02 -1.720888912677764893e-01
2.674955725669860840e-01 -1.331245750188827515e-01 3.095933496952056885e-01
2.641190588474273682e-01 -1.506486833095550537e-01 3.152534365653991699e-01
2.815277576446533203e-01 -1.390379071235656738e-01 3.012438118457794189e-01
2.784879207611083984e-01 -1.579678058624267578e-01 3.062717020511627197e-01
1.369285136461257935e-01 -1.222115308046340942e-01 -1.181698814034461975e-01
1.353345662355422974e-01 -1.376211643218994141e-01 -1.187127232551574707e-01
1.435398906469345093e-01 -1.237142905592918396e-01 -9.991981089115142822e-02
1.421775221824645996e-01 -1.389449536800384521e-01 -1.002777367830276489e-01
9.632964730262756348e-01 -2.980622649192810059e-01 -4.265595227479934692e-02
9.528766274452209473e-01 -3.183659017086029053e-01 -4.009169340133666992e-02
9.869895577430725098e-01 -2.901387512683868408e-01 -5.165597423911094666e-02
9.752885103225708008e-01 -3.110035955905914307e-01 -4.856245592236518860e-02
8.493917584419250488e-01 -3.726105093955993652e-01 5.609456077218055725e-02
8.379222154617309570e-01 -3.696076273918151855e-01 6.423421949148178101e-02
8.560093641281127930e-01 -3.653306663036346436e-01 6.720405071973800659e-02
8.443219661712646484e-01 -3.620851337909698486e-01 7.540607452392578125e-02
-2.941297292709350586e-01 4.560149088501930237e-02 1.917030066251754761e-01
-2.967642545700073242e-01 3.600489720702171326e-02 1.981340646743774414e-01
-2.870653569698333740e-01 3.828713297843933105e-02 1.995651125907897949e-01
-2.896915972232818604e-01 2.859832346439361572e-02 2.055361717939376831e-01
-7.031384110450744629e-02 -9.721131622791290283e-02 -9.768291562795639038e-02
-6.757927685976028442e-02 -1.136809289455413818e-01 -9.068964421749114990e-02
-7.172860950231552124e-02 -1.007392257452011108e-01 -8.257088810205459595e-02
-6.732299178838729858e-02 -1.177624315023422241e-01 -7.561638951301574707e-02
1.666377931833267212e-01 -4.983226582407951355e-02 2.430252581834793091e-01
1.595026254653930664e-01 -6.510481983423233032e-02 2.458542436361312866e-01
1.842871904373168945e-01 -5.233993008732795715e-02 2.393984496593475342e-01
1.759968996047973633e-01 -6.883146613836288452e-02 2.435295730829238892e-01
1.510848551988601685e-01 -2.406342327594757080e-01 3.695489168167114258e-01
1.399953514337539673e-01 -2.495866119861602783e-01 3.797937631607055664e-01
1.620870232582092285e-01 -2.479055672883987427e-01 3.694540262222290039e-01
1.503080427646636963e-01 -2.528164386749267578e-01 3.801454305648803711e-01
9.676021337509155273e-01 4.631385952234268188e-02 -6.452315300703048706e-02
9.564021229743957520e-01 3.395474329590797424e-02 -5.576403066515922546e-02
9.799315929412841797e-01 3.546154126524925232e-02 -6.841608881950378418e-02
9.686846733093261719e-01 2.299220673739910126e-02 -5.964624881744384766e-02
-9.830826893448829651e-03 -3.057965934276580811e-01 -3.110758662223815918e-01
-1.862552389502525330e-02 -3.138482868671417236e-01 -3.055825531482696533e-01
1.220267731696367264e-03 -3.180407881736755371e-01 -3.081027865409851074e-01
-8.586615324020385742e-03 -3.250908553600311279e-01 -3.024621307849884033e-01
4.961296916007995605e-01 3.728871345520019531e-01 1.117676645517349243e-01
4.940529167652130127e-01 3.579642176628112793e-01 1.198409050703048706e-01
4.963968992233276367e-01 3.607502579689025879e-01 1.241476312279701233e-01
4.927559494972229004e-01 3.482182621955871582e-01 1.327447742223739624e-01
-3.832790255546569824e-02 -2.136248499155044556e-01 -2.727331221103668213e-01
-3.246060758829116821e-02 -2.363178879022598267e-01 -2.652012109756469727e-01
-3.716027736663818359e-02 -2.206145375967025757e-01 -2.595289349555969238e-01
-2.996984869241714478e-02 -2.436660826206207275e-01 -2.513483762741088867e-01
-3.994777798652648926e-01 3.417137563228607178e-01 6.943795830011367798e-03
-3.999597728252410889e-01 3.228799998760223389e-01 1.080520078539848328e-02
-3.911657631397247314e-01 3.367893993854522705e-01 2.139795199036598206e-02
-3.920626342296600342e-01 3.181430101394653320e-01 2.514775469899177551e-02
-2.918876111507415771e-01 1.842173337936401367e-01 2.315051555633544922e-01
-2.876738309860229492e-01 1.628341972827911377e-01 2.333899885416030884e-01
-2.808992266654968262e-01 1.812245696783065796e-01 2.521114349365234375e-01
-2.789269685745239258e-01 1.606862694025039673e-01 2.543904483318328857e-01
-3.497423231601715088e-01 2.165949195623397827e-01 1.246802210807800293e-01
-3.514902293682098389e-01 1.979639828205108643e-01 1.298921555280685425e-01
-3.390840291976928711e-01 2.023673802614212036e-01 1.390116065740585327e-01
-3.405492901802062988e-01 1.842521876096725464e-01 1.438079625368118286e-01
-2.864248156547546387e-01 9.362850338220596313e-02 1.404771208763122559e-01
-2.953643798828125000e-01 8.810459822416305542e-02 1.470787972211837769e-01
-2.805130779743194580e-01 9.053818881511688232e-02 1.480911523103713989e-01
-2.895511388778686523e-01 8.626244962215423584e-02 1.558398455381393433e-01
-5.066004395484924316e-01 -4.085843265056610107e-01 1.714874207973480225e-01
-5.182278156280517578e-01 -4.177444875240325928e-01 1.802307963371276855e-01
-5.009929537773132324e-01 -4.032253623008728027e-01 1.842228621244430542e-01
-5.127716064453125000e-01 -4.127123653888702393e-01 1.924524307250976562e-01
2.170549035072326660e-01 -1.989973783493041992e-01 1.010890528559684753e-01
2.164395898580551147e-01 -2.129825800657272339e-01 1.026118770241737366e-01
2.253190279006958008e-01 -2.004517763853073120e-01 1.190679594874382019e-01
2.245234400033950806e-01 -2.149730026721954346e-01 1.194619312882423401e-01
5.388489738106727600e-02 -1.728335022926330566e-01 -2.877400219440460205e-01
5.160370841622352600e-02 -1.885837316513061523e-01 -2.882782220840454102e-01
6.543668359518051147e-02 -1.702048182487487793e-01 -2.692385315895080566e-01
6.315352022647857666e-02 -1.860453486442565918e-01 -2.703711688518524170e-01
-4.253152608871459961e-01 4.434227570891380310e-02 1.566929519176483154e-01
-4.385758340358734131e-01 4.944286495447158813e-02 1.684253066778182983e-01
-4.153387844562530518e-01 4.562512785196304321e-02 1.680992990732192993e-01
-4.281776845455169678e-01 4.995953291654586792e-02 1.796765327453613281e-01
8.082568049430847168e-01 7.466094195842742920e-02 7.631246000528335571e-02
7.947062849998474121e-01 6.757607311010360718e-02 8.421007543802261353e-02
8.237370252609252930e-01 6.351391971111297607e-02 7.375535368919372559e-02
8.101442456245422363e-01 5.584631860256195068e-02 8.146751672029495239e-02
-3.825388848781585693e-03 2.253129780292510986e-01 2.394610457122325897e-02
-5.462291650474071503e-03 2.139419615268707275e-01 2.860676124691963196e-02
-2.848813775926828384e-03 2.270429730415344238e-01 3.888653963804244995e-02
-4.749007523059844971e-03 2.151892930269241333e-01 4.323896020650863647e-02
8.219818472862243652e-01 2.400152385234832764e-01 -4.587795957922935486e-02
8.177916407585144043e-01 2.321475744247436523e-01 -4.090707749128341675e-02
8.296492099761962891e-01 2.270497679710388184e-01 -4.637279734015464783e-02
8.253574967384338379e-01 2.206742167472839355e-01 -4.063159972429275513e-02
2.388210445642471313e-01 3.682521581649780273e-01 -3.608319759368896484e-01
2.248058617115020752e-01 3.732165992259979248e-01 -3.500535190105438232e-01
2.449678480625152588e-01 3.644999563694000244e-01 -3.496949672698974609e-01
2.307029366493225098e-01 3.693920373916625977e-01 -3.395864367485046387e-01
1.027668416500091553e-01 3.522392511367797852e-01 -1.248719617724418640e-01
9.595809876918792725e-02 3.586907386779785156e-01 -1.153819188475608826e-01
1.077617779374122620e-01 3.554432094097137451e-01 -1.133429855108261108e-01
1.009125858545303345e-01 3.620434403419494629e-01 -1.038616299629211426e-01
2.971533536911010742e-01 2.289551869034767151e-02 2.454440444707870483e-01
2.953795492649078369e-01 5.626194179058074951e-03 2.488569915294647217e-01
3.063802123069763184e-01 1.298971846699714661e-02 2.438783496618270874e-01
3.029967844486236572e-01 -1.553555019199848175e-03 2.483270615339279175e-01
1.103694558143615723e+00 1.321812570095062256e-01 -1.317138224840164185e-01
1.100199580192565918e+00 1.137152686715126038e-01 -1.281758844852447510e-01
1.118990540504455566e+00 1.192419826984405518e-01 -1.310423612594604492e-01
1.115624308586120605e+00 1.018093526363372803e-01 -1.280042380094528198e-01
1.286068707704544067e-01 -4.073593914508819580e-01 -2.292966470122337341e-02
1.139908730983734131e-01 -4.096485674381256104e-01 -1.478211488574743271e-02
1.329316645860671997e-01 -4.038229584693908691e-01 -8.440320380032062531e-03
1.182690635323524475e-01 -4.058220982551574707e-01 -2.072555944323539734e-04
5.653117299079895020e-01 3.327912390232086182e-01 1.608363352715969086e-02
5.508890151977539062e-01 3.382086455821990967e-01 2.616231329739093781e-02
5.749047398567199707e-01 3.417533636093139648e-01 2.504568174481391907e-02
5.604693889617919922e-01 3.478453457355499268e-01 3.588070347905158997e-02
4.121097922325134277e-02 1.902505457401275635e-01 -3.725312054157257080e-01
3.793698549270629883e-02 1.761722564697265625e-01 -3.738008737564086914e-01
5.268552899360656738e-02 1.825183480978012085e-01 -3.608089387416839600e-01
4.955424368381500244e-02 1.683118790388107300e-01 -3.628238737583160400e-01
1.565677523612976074e-01 -6.450431048870086670e-02 2.469529658555984497e-01
1.502104103565216064e-01 -7.956196367740631104e-02 2.492982447147369385e-01
1.734124422073364258e-01 -6.884816288948059082e-02 2.451729178428649902e-01
1.653228402137756348e-01 -8.395396173000335693e-02 2.478673905134201050e-01
4.218912422657012939e-01 -1.717783510684967041e-01 2.078993916511535645e-01
4.106454849243164062e-01 -1.871874481439590454e-01 2.175715118646621704e-01
4.143697321414947510e-01 -1.489587724208831787e-01 2.136692255735397339e-01
4.050042033195495605e-01 -1.674027591943740845e-01 2.222449481487274170e-01
1.750698387622833252e-01 -2.209543250501155853e-03 2.359683513641357422e-01
1.707887053489685059e-01 -2.034275978803634644e-02 2.379402816295623779e-01
1.901108324527740479e-01 -4.056965000927448273e-03 2.341743409633636475e-01
1.854670941829681396e-01 -2.205872908234596252e-02 2.363911271095275879e-01
2.487069219350814819e-01 2.153062373399734497e-01 3.485459983348846436e-01
2.344965040683746338e-01 2.035344690084457397e-01 3.599107563495635986e-01
2.649405896663665771e-01 2.015271782875061035e-01 3.436647057533264160e-01
2.505736351013183594e-01 1.891380846500396729e-01 3.551394939422607422e-01
-1.841234043240547180e-02 2.379693686962127686e-01 -3.749395906925201416e-01
-2.217829786241054535e-02 2.272560745477676392e-01 -3.716384768486022949e-01
-1.773828081786632538e-02 2.427801191806793213e-01 -3.600259423255920410e-01
-2.288719266653060913e-02 2.325511574745178223e-01 -3.559415638446807861e-01
1.106369018554687500e+00 -3.684810400009155273e-01 -3.908630087971687317e-02
1.101974964141845703e+00 -3.791432380676269531e-01 -3.212369233369827271e-02
1.110216379165649414e+00 -3.673578500747680664e-01 -2.486255764961242676e-02
1.106440901756286621e+00 -3.791188001632690430e-01 -1.752498932182788849e-02
5.015732049942016602e-01 3.883917927742004395e-01 -3.926222398877143860e-02
4.993063509464263916e-01 3.749045133590698242e-01 -3.296094760298728943e-02
5.092419981956481934e-01 3.903689384460449219e-01 -2.272554859519004822e-02
5.070791840553283691e-01 3.768904507160186768e-01 -1.659126207232475281e-02
2.606943994760513306e-02 3.002335131168365479e-01 -2.849470973014831543e-01
1.570178568363189697e-02 2.893970310688018799e-01 -2.717380523681640625e-01
3.567130491137504578e-02 3.028586208820343018e-01 -2.703547179698944092e-01
2.570748329162597656e-02 2.943291366100311279e-01 -2.579674124717712402e-01
-2.385021597146987915e-01 2.059820108115673065e-03 1.519763618707656860e-01
-2.514037489891052246e-01 -2.630603965371847153e-03 1.599009335041046143e-01
-2.287426143884658813e-01 -1.428137300536036491e-03 1.510609388351440430e-01
-2.419955879449844360e-01 -5.776096135377883911e-03 1.589748710393905640e-01
1.273812055587768555e-01 2.214982509613037109e-01 2.128571569919586182e-01
1.151564419269561768e-01 2.079000473022460938e-01 2.168569564819335938e-01
1.417882740497589111e-01 2.203333824872970581e-01 2.132256776094436646e-01
1.286534667015075684e-01 2.060276269912719727e-01 2.175926417112350464e-01
-2.704918980598449707e-01 2.228823751211166382e-01 2.934055924415588379e-01
-2.667961120605468750e-01 1.970073580741882324e-01 2.913262248039245605e-01
-2.618023455142974854e-01 2.273378521203994751e-01 3.134991526603698730e-01
-2.562733590602874756e-01 2.003035694360733032e-01 3.094414472579956055e-01
2.211747318506240845e-01 -3.854897022247314453e-01 -3.038353621959686279e-01
1.982671469449996948e-01 -3.880985081195831299e-01 -2.909357845783233643e-01
2.350423783063888550e-01 -3.846423625946044922e-01 -2.928940057754516602e-01
2.124699503183364868e-01 -3.873176872730255127e-01 -2.801795899868011475e-01
1.512793004512786865e-01 3.404294848442077637e-01 -1.203458383679389954e-01
1.435122936964035034e-01 3.478772342205047607e-01 -1.143849492073059082e-01
1.581532210111618042e-01 3.432760238647460938e-01 -1.093264892697334290e-01
1.509539783000946045e-01 3.496636748313903809e-01 -1.048363819718360901e-01
4.868449270725250244e-02 -2.548918724060058594e-01 -1.202959641814231873e-01
3.190817683935165405e-02 -2.292062491178512573e-01 -1.076452732086181641e-01
5.839883163571357727e-02 -2.591805458068847656e-01 -9.984607994556427002e-02
4.125847294926643372e-02 -2.340482473373413086e-01 -8.750172704458236694e-02
3.562451899051666260e-01 3.488958477973937988e-01 -3.368824720382690430e-01
3.521980047225952148e-01 3.327306509017944336e-01 -3.424213230609893799e-01
3.681577742099761963e-01 3.479663133621215820e-01 -3.268404603004455566e-01
3.644773960113525391e-01 3.323577344417572021e-01 -3.325722217559814453e-01
1.471448391675949097e-01 3.697729669511318207e-03 -1.140287965536117554e-01
1.454800814390182495e-01 -1.397275365889072418e-02 -1.131192892789840698e-01
1.553334742784500122e-01 6.544797681272029877e-03 -9.725477546453475952e-02
1.539083719253540039e-01 -1.058429293334484100e-02 -9.556230157613754272e-02
-5.374716520309448242e-01 6.095399148762226105e-03 -2.032626122236251831e-01
-5.453255176544189453e-01 -6.761522032320499420e-03 -2.065144032239913940e-01
-5.241791605949401855e-01 8.146835491061210632e-03 -1.927389502525329590e-01
-5.320008397102355957e-01 -6.573917344212532043e-03 -1.971816569566726685e-01
1.370804905891418457e-01 -2.280383855104446411e-01 4.262598752975463867e-01
1.262125819921493530e-01 -2.261761426925659180e-01 4.328601360321044922e-01
1.506956219673156738e-01 -2.177739441394805908e-01 4.254276752471923828e-01
1.416696012020111084e-01 -2.225438207387924194e-01 4.311526417732238770e-01
1.979278177022933960e-01 1.135176196694374084e-01 2.218975126743316650e-01
1.815787702798843384e-01 1.020365059375762939e-01 2.243264466524124146e-01
2.155945301055908203e-01 1.124304234981536865e-01 2.218398004770278931e-01
2.001806050539016724e-01 1.005902364850044250e-01 2.234951555728912354e-01
-3.452529609203338623e-01 -1.909622699022293091e-01 6.842246055603027344e-01
-3.515926301479339600e-01 -2.026267796754837036e-01 6.838158965110778809e-01
-3.354378640651702881e-01 -1.874911785125732422e-01 6.910222172737121582e-01
-3.416876196861267090e-01 -1.989420801401138306e-01 6.906138658523559570e-01
5.321156606078147888e-02 7.999096065759658813e-02 -3.257101178169250488e-01
5.001667886972427368e-02 6.456211954355239868e-02 -3.286434412002563477e-01
6.380388140678405762e-02 7.714521884918212891e-02 -3.134661614894866943e-01
6.134825199842453003e-02 6.253067404031753540e-02 -3.159297406673431396e-01
1.322845816612243652e-01 2.072024643421173096e-01 -1.894689202308654785e-01
1.307886689901351929e-01 1.912226825952529907e-01 -1.890992373228073120e-01
1.391988396644592285e-01 2.138679474592208862e-01 -1.771036982536315918e-01
1.376494765281677246e-01 1.965453475713729858e-01 -1.768479198217391968e-01
-6.276984810829162598e-01 3.002533502876758575e-02 -2.411941587924957275e-01
-6.413890123367309570e-01 2.592463977634906769e-02 -2.371995598077774048e-01
-6.178284287452697754e-01 3.186761960387229919e-02 -2.349416464567184448e-01
-6.300961971282958984e-01 2.757942304015159607e-02 -2.307479232549667358e-01
-6.349603533744812012e-01 -1.204233150929212570e-03 -1.496406048536300659e-01
-6.479851007461547852e-01 4.427804145961999893e-03 -1.451164633035659790e-01
-6.275170445442199707e-01 -3.528046188876032829e-03 -1.445135772228240967e-01
-6.404686570167541504e-01 2.058925572782754898e-03 -1.400705724954605103e-01
-5.863008499145507812e-01 -4.359372258186340332e-01 1.674636304378509521e-01
-5.940355658531188965e-01 -4.321812689304351807e-01 1.783836781978607178e-01
-5.740246772766113281e-01 -4.382791221141815186e-01 1.804017573595046997e-01
-5.820102095603942871e-01 -4.345887005329132080e-01 1.911154836416244507e-01
1.797152310609817505e-02 1.313297152519226074e-01 1.847918182611465454e-01
1.593225263059139252e-02 1.207794994115829468e-01 1.994891464710235596e-01
3.304804489016532898e-02 1.292299777269363403e-01 1.955786198377609253e-01
3.061654046177864075e-02 1.188455820083618164e-01 2.100286781787872314e-01
7.335197180509567261e-02 -1.368552148342132568e-01 -2.548070847988128662e-01
7.143411785364151001e-02 -1.525475233793258667e-01 -2.557685971260070801e-01
8.194411545991897583e-02 -1.371460258960723877e-01 -2.427778691053390503e-01
8.023220300674438477e-02 -1.525577604770660400e-01 -2.437466531991958618e-01
1.041823983192443848e+00 2.450400888919830322e-01 -1.370296031236648560e-01
1.033514618873596191e+00 2.382227629423141479e-01 -1.296911686658859253e-01
1.050811767578125000e+00 2.331926226615905762e-01 -1.373838484287261963e-01
1.042824149131774902e+00 2.273894250392913818e-01 -1.300826668739318848e-01
2.838301360607147217e-01 8.118081092834472656e-02 2.216959297657012939e-01
2.825956940650939941e-01 6.528039276599884033e-02 2.235740870237350464e-01
2.931808829307556152e-01 7.591005414724349976e-02 2.290888577699661255e-01
2.909958064556121826e-01 6.107449531555175781e-02 2.330745905637741089e-01
-1.638410836458206177e-01 -1.625762321054935455e-02 9.053760021924972534e-02
-1.720331460237503052e-01 -1.190363802015781403e-02 9.700815379619598389e-02
-1.547667533159255981e-01 -2.287774160504341125e-02 9.804590791463851929e-02
-1.633513867855072021e-01 -1.803747005760669708e-02 1.047780513763427734e-01
4.742968976497650146e-01 4.797805473208427429e-02 2.267830520868301392e-01
4.591548740863800049e-01 4.645191505551338196e-02 2.373043000698089600e-01
4.777869582176208496e-01 4.668587073683738708e-02 2.281328439712524414e-01
4.656104147434234619e-01 3.544967994093894958e-02 2.376925647258758545e-01
6.902942061424255371e-01 1.998151093721389771e-01 8.929558098316192627e-02
6.711557507514953613e-01 1.951576024293899536e-01 9.843669086694717407e-02
7.064350247383117676e-01 1.880515366792678833e-01 8.637858182191848755e-02
6.885882616043090820e-01 1.819220632314682007e-01 9.529011696577072144e-02
2.333488464355468750e-01 3.423986732959747314e-01 -3.543289005756378174e-01
2.200968861579895020e-01 3.444831073284149170e-01 -3.438669443130493164e-01
2.420043498277664185e-01 3.441146016120910645e-01 -3.432309925556182861e-01
2.279631346464157104e-01 3.473569750785827637e-01 -3.336146771907806396e-01
2.872567474842071533e-01 -3.908195346593856812e-02 2.432888001203536987e-01
