-4.455468654632568359e-01 2.369115352630615234e-01 5.466857925057411194e-02
-4.222552776336669922e-01 2.482270002365112305e-01 5.402607843279838562e-02
-4.278226494789123535e-01 2.379874289035797119e-01 5.597801133990287781e-02
-3.563618361949920654e-01 -1.168775856494903564e-01 -6.166081875562667847e-02
-3.545924425125122070e-01 -1.310107707977294922e-01 -5.933814495801925659e-02
-3.529838323593139648e-01 -1.159564182162284851e-01 -5.214042589068412781e-02
-3.510747551918029785e-01 -1.303058564662933350e-01 -4.944728314876556396e-02
-4.731209576129913330e-02 -2.032404392957687378e-01 1.668731421232223511e-01
-6.005483120679855347e-02 -1.976622194051742554e-01 1.769527345895767212e-01
-3.428943827748298645e-02 -2.040289193391799927e-01 1.778245866298675537e-01
-4.721540212631225586e-02 -1.981133967638015747e-01 1.873566359281539917e-01
4.470585286617279053e-01 -2.459613233804702759e-01 -1.552523225545883179e-01
4.392905235290527344e-01 -2.566216886043548584e-01 -1.521886438131332397e-01
4.566244184970855713e-01 -2.469775229692459106e-01 -1.476348787546157837e-01
4.485654234886169434e-01 -2.583582401275634766e-01 -1.448512971401214600e-01
3.120534718036651611e-01 1.826679110527038574e-01 -3.151429072022438049e-02
3.079059422016143799e-01 1.722919493913650513e-01 -3.047179058194160461e-02
3.257659375667572021e-01 1.770515590906143188e-01 -3.107257187366485596e-02
3.215942382812500000e-01 1.672333031892776489e-01 -2.934510260820388794e-02
5.876424908638000488e-02 -2.512377202510833740e-01 -4.060973599553108215e-02
4.726147651672363281e-02 -2.520337104797363281e-01 -3.321746736764907837e-02
6.805714964866638184e-02 -2.524576187133789062e-01 -2.832079865038394928e-02
5.689086019992828369e-02 -2.529824674129486084e-01 -2.185918018221855164e-02
4.048170149326324463e-01 2.622919380664825439e-01 1.994434557855129242e-02
3.941728174686431885e-01 2.503661513328552246e-01 2.721766754984855652e-02
4.239702224731445312e-01 2.593062818050384521e-01 2.093831449747085571e-02
4.136542677879333496e-01 2.466744780540466309e-01 2.826066501438617706e-02
-4.733379483222961426e-01 2.132646739482879639e-01 -6.510071456432342529e-02
-4.751338362693786621e-01 2.018654793500900269e-01 -5.764880031347274780e-02
-4.717612862586975098e-01 2.077785134315490723e-01 -5.130433663725852966e-02
-4.734501242637634277e-01 1.962725818157196045e-01 -4.384053498506546021e-02
-1.441523283720016479e-01 2.089502513408660889e-01 5.183713510632514954e-02
-1.540500074625015259e-01 1.955156773328781128e-01 5.579066276550292969e-02
-1.267854422330856323e-01 2.035370916128158569e-01 4.819480702280998230e-02
-1.368644535541534424e-01 1.905904710292816162e-01 5.248723179101943970e-02
5.095508694648742676e-01 1.659196466207504272e-01 -3.726015612483024597e-02
5.026051998138427734e-01 1.698048561811447144e-01 -2.943591959774494171e-02
5.174974203109741211e-01 1.646879464387893677e-01 -2.776898071169853210e-02
5.097035169601440430e-01 1.678203046321868896e-01 -2.125981077551841736e-02
-4.108591973781585693e-01 2.160513550043106079e-01 -1.020451486110687256e-01
-4.197595119476318359e-01 2.100194543600082397e-01 -9.533883631229400635e-02
-4.104243218898773193e-01 2.261067032814025879e-01 -9.590566903352737427e-02
-4.199742376804351807e-01 2.222504168748855591e-01 -8.901580423116683960e-02
2.967684864997863770e-01 -1.703438907861709595e-01 5.807965621352195740e-02
2.915067076683044434e-01 -1.878401190042495728e-01 5.666693672537803650e-02
3.145088255405426025e-01 -1.680395454168319702e-01 6.453301012516021729e-02
3.090347051620483398e-01 -1.840223670005798340e-01 6.210154667496681213e-02
-3.100121915340423584e-01 -1.919880211353302002e-01 -2.025336027145385742e-02
-3.194564580917358398e-01 -1.928577125072479248e-01 -1.216487679630517960e-02
-2.989635169506072998e-01 -1.885941326618194580e-01 -1.375932432711124420e-02
-3.090727031230926514e-01 -1.901532262563705444e-01 -5.992160644382238388e-03
-3.542745113372802734e-01 -1.543373763561248779e-01 -1.380399316549301147e-01
-3.655119836330413818e-01 -1.512837260961532593e-01 -1.300098001956939697e-01
-3.448306918144226074e-01 -1.492202132940292358e-01 -1.337446272373199463e-01
-3.557765185832977295e-01 -1.454544663429260254e-01 -1.265734881162643433e-01
-1.505394876003265381e-01 3.317649960517883301e-01 1.154391244053840637e-01
-1.710642427206039429e-01 3.292063772678375244e-01 1.235431581735610962e-01
-1.376265436410903931e-01 3.281688392162322998e-01 1.212775111198425293e-01
-1.572700887918472290e-01 3.256215751171112061e-01 1.287058740854263306e-01
-2.602297067642211914e-01 -2.287649810314178467e-01 -5.553427711129188538e-02
-2.736296057701110840e-01 -2.257455587387084961e-01 -4.799400642514228821e-02
-2.499989271163940430e-01 -2.334110289812088013e-01 -4.842910170555114746e-02
-2.640081346035003662e-01 -2.305703908205032349e-01 -4.117245599627494812e-02
5.313293933868408203e-01 -1.823302358388900757e-01 -8.076108992099761963e-02
5.171126723289489746e-01 -1.778116226196289062e-01 -7.181603461503982544e-02
5.374847650527954102e-01 -1.796837300062179565e-01 -7.245515286922454834e-02
5.238493084907531738e-01 -1.766829043626785278e-01 -6.408403068780899048e-02
-4.474475383758544922e-01 2.346066981554031372e-01 3.773199394345283508e-02
-4.525011181831359863e-01 2.247108519077301025e-01 4.087583720684051514e-02
-4.322087466716766357e-01 2.316152900457382202e-01 4.543048515915870667e-02
-4.373611807823181152e-01 2.208229303359985352e-01 4.803683236241340637e-02
-8.806777745485305786e-02 2.046199291944503784e-01 -2.158683910965919495e-02
-9.474239498376846313e-02 1.974427103996276855e-01 -2.208193764090538025e-02
-7.161469757556915283e-02 2.035002410411834717e-01 -2.240359038114547729e-02
-7.809229940176010132e-02 1.948891580104827881e-01 -2.248463407158851624e-02
5.550606250762939453e-01 1.047605723142623901e-01 -1.045774966478347778e-01
5.420319437980651855e-01 8.446445316076278687e-02 -1.039829105138778687e-01
5.735796689987182617e-01 1.093186959624290466e-01 -1.004670932888984680e-01
5.608466863632202148e-01 8.876226097345352173e-02 -1.001777350902557373e-01
4.654265940189361572e-01 -2.575524151325225830e-01 -1.175182014703750610e-01
4.550093710422515869e-01 -2.689412534236907959e-01 -1.165416911244392395e-01
4.805933237075805664e-01 -2.575635612010955811e-01 -1.093875765800476074e-01
4.704698920249938965e-01 -2.691708505153656006e-01 -1.086068823933601379e-01
-1.033508181571960449e-01 -9.949789941310882568e-02 7.254943996667861938e-02
-1.069153621792793274e-01 -1.171816885471343994e-01 7.133077830076217651e-02
-8.615770190954208374e-02 -9.182500839233398438e-02 7.012810558080673218e-02
-8.931880444288253784e-02 -1.103603020310401917e-01 6.860896944999694824e-02
-1.828208416700363159e-01 -1.791821122169494629e-01 -1.857381314039230347e-01
-1.995349377393722534e-01 -1.754293590784072876e-01 -1.750707626342773438e-01
-1.678574681282043457e-01 -1.771081984043121338e-01 -1.719848066568374634e-01
-1.856863647699356079e-01 -1.721155047416687012e-01 -1.613398790359497070e-01
-4.477069675922393799e-01 1.451508998870849609e-01 5.187278240919113159e-02
-4.580928087234497070e-01 1.333604604005813599e-01 5.006041005253791809e-02
-4.258241057395935059e-01 1.432369202375411987e-01 5.674535781145095825e-02
-4.381192624568939209e-01 1.322971582412719727e-01 5.414907261729240417e-02
2.185249030590057373e-01 1.795264035463333130e-01 -8.085765689611434937e-02
1.994711756706237793e-01 1.856966167688369751e-01 -7.295836508274078369e-02
2.334508448839187622e-01 1.809574365615844727e-01 -7.133429497480392456e-02
2.160662561655044556e-01 1.857103109359741211e-01 -6.548348069190979004e-02
5.409209132194519043e-01 2.286148071289062500e-01 1.453548204153776169e-02
5.342411398887634277e-01 2.114424705505371094e-01 1.938357017934322357e-02
5.624347329139709473e-01 2.241599559783935547e-01 1.261919178068637848e-02
5.545717477798461914e-01 2.104602009057998657e-01 1.583750732243061066e-02
-1.479273885488510132e-01 -2.073818594217300415e-01 5.619043856859207153e-02
-1.633307933807373047e-01 -1.997176408767700195e-01 6.559893488883972168e-02
-1.338440626859664917e-01 -2.014122307300567627e-01 6.031846255064010620e-02
-1.469926536083221436e-01 -1.999033391475677490e-01 6.639666855335235596e-02
5.349528789520263672e-01 2.308320254087448120e-01 -1.292380131781101227e-02
5.275334715843200684e-01 2.171088606119155884e-01 -9.930926375091075897e-03
5.483213067054748535e-01 2.320713549852371216e-01 -1.025371067225933075e-02
5.409775972366333008e-01 2.182569801807403564e-01 -7.259040139615535736e-03
-1.640363335609436035e-01 2.116740792989730835e-01 7.480625063180923462e-02
-1.705386638641357422e-01 1.986764520406723022e-01 7.557717710733413696e-02
-1.412490606307983398e-01 2.116860449314117432e-01 6.999262422323226929e-02
-1.501456052064895630e-01 1.984963566064834595e-01 7.239681482315063477e-02
4.550696909427642822e-01 9.060063213109970093e-02 -1.190202161669731140e-01
4.479918479919433594e-01 7.157133519649505615e-02 -1.176690086722373962e-01
4.732156991958618164e-01 7.906028628349304199e-02 -1.158999279141426086e-01
4.665618538856506348e-01 5.762818455696105957e-02 -1.148842647671699524e-01
7.134307622909545898e-01 -1.735173761844635010e-01 7.675179280340671539e-03
7.061781287193298340e-01 -1.825741082429885864e-01 1.349182240664958954e-02
7.242699861526489258e-01 -1.789920926094055176e-01 1.342409290373325348e-02
7.168014645576477051e-01 -1.881153583526611328e-01 1.937089487910270691e-02
3.170410990715026855e-01 1.095794513821601868e-01 -1.283266991376876831e-01
3.057555556297302246e-01 9.147372841835021973e-02 -1.262350827455520630e-01
3.383935987949371338e-01 1.087603792548179626e-01 -1.282960176467895508e-01
3.255708813667297363e-01 8.865083754062652588e-02 -1.259908080101013184e-01
-1.063639968633651733e-01 3.004677593708038330e-01 1.064157336950302124e-01
-1.158217191696166992e-01 2.962897121906280518e-01 1.151128634810447693e-01
-9.382757544517517090e-02 2.992441654205322266e-01 1.170402467250823975e-01
-1.035808548331260681e-01 2.961868941783905029e-01 1.257172822952270508e-01
2.326805442571640015e-01 -2.548791170120239258e-01 -2.177685126662254333e-02
2.200256288051605225e-01 -2.426604628562927246e-01 -1.602117717266082764e-02
2.474367767572402954e-01 -2.496973872184753418e-01 -1.720898039638996124e-02
2.344880402088165283e-01 -2.368419915437698364e-01 -1.186799257993698120e-02
-4.749656021595001221e-01 9.487111121416091919e-03 4.332594946026802063e-02
-4.761520624160766602e-01 -9.397538378834724426e-03 4.270611703395843506e-02
-4.678286314010620117e-01 9.159490466117858887e-03 5.060443654656410217e-02
-4.700710773468017578e-01 -9.648042730987071991e-03 5.048129707574844360e-02
-5.404037237167358398e-02 7.424746453762054443e-02 1.947946101427078247e-02
-6.190989911556243896e-02 5.593083798885345459e-02 1.700655743479728699e-02
-3.827557340264320374e-02 7.216453552246093750e-02 2.080325409770011902e-02
-4.623796045780181885e-02 5.488272011280059814e-02 1.851820386946201324e-02
-2.792480587959289551e-01 -1.143262684345245361e-01 1.107086464762687683e-01
-2.843792438507080078e-01 -1.266038119792938232e-01 1.129923611879348755e-01
-2.658548057079315186e-01 -1.140778660774230957e-01 1.119361221790313721e-01
-2.713807225227355957e-01 -1.260942816734313965e-01 1.139727458357810974e-01
2.846160829067230225e-01 -9.764264523983001709e-02 1.900236010551452637e-01
2.823195755481719971e-01 -1.184544488787651062e-01 1.915240585803985596e-01
2.989069819450378418e-01 -8.983781933784484863e-02 1.883793771266937256e-01
2.963621616363525391e-01 -1.109181270003318787e-01 1.897145062685012817e-01
5.870681405067443848e-01 -2.720275223255157471e-01 -7.983136922121047974e-02
5.770497322082519531e-01 -2.755156755447387695e-01 -7.305087149143218994e-02
5.940369963645935059e-01 -2.720673978328704834e-01 -6.550078839063644409e-02
5.834436416625976562e-01 -2.745555341243743896e-01 -5.871479585766792297e-02
-8.918587863445281982e-02 2.895531952381134033e-01 -1.655699312686920166e-01
-1.048152670264244080e-01 2.896258831024169922e-01 -1.617374718189239502e-01
-7.505895197391510010e-02 2.857491374015808105e-01 -1.580096483230590820e-01
-9.089463949203491211e-02 2.868251502513885498e-01 -1.544280946254730225e-01
-1.817656904458999634e-01 -1.583478152751922607e-01 -6.068750284612178802e-03
-1.872250437736511230e-01 -1.729459613561630249e-01 -6.610151380300521851e-03
-1.666035056114196777e-01 -1.545129716396331787e-01 -5.800786893814802170e-03
-1.719886511564254761e-01 -1.685069352388381958e-01 -5.130903795361518860e-03
1.277609318494796753e-01 -1.104869171977043152e-01 5.261078849434852600e-02
1.248748451471328735e-01 -1.281270384788513184e-01 5.453811958432197571e-02
1.433652788400650024e-01 -1.134216487407684326e-01 5.293590947985649109e-02
1.400814950466156006e-01 -1.306315809488296509e-01 5.528412386775016785e-02
6.884648799896240234e-01 2.362658530473709106e-01 -5.718791112303733826e-02
6.814542412757873535e-01 2.333848327398300171e-01 -4.783193394541740417e-02
6.901170015335083008e-01 2.337516546249389648e-01 -4.683803766965866089e-02
6.826854348182678223e-01 2.311638891696929932e-01 -3.884116560220718384e-02
1.430172026157379150e-01 2.028208076953887939e-01 4.397891461849212646e-02
1.435002684593200684e-01 1.801329851150512695e-01 4.303662478923797607e-02
1.650277525186538696e-01 2.096767425537109375e-01 4.061958566308021545e-02
1.642249971628189087e-01 1.882068365812301636e-01 3.929870575666427612e-02
-1.959379315376281738e-01 7.748188823461532593e-02 8.637869730591773987e-03
-2.043166756629943848e-01 5.542317032814025879e-02 9.942247532308101654e-03
-1.754509508609771729e-01 7.336208224296569824e-02 1.035192236304283142e-02
-1.834109425544738770e-01 5.173152685165405273e-02 1.193329691886901855e-02
-5.247594714164733887e-01 2.926563620567321777e-01 8.176507428288459778e-03
-5.390429496765136719e-01 2.950158715248107910e-01 2.056876569986343384e-02
-5.200573205947875977e-01 3.012096285820007324e-01 1.891990751028060913e-02
-5.342736840248107910e-01 3.023684918880462646e-01 3.168623521924018860e-02
-1.584208309650421143e-01 2.536777853965759277e-01 -1.309919655323028564e-01
-1.676494926214218140e-01 2.462704926729202271e-01 -1.242237836122512817e-01
-1.463956534862518311e-01 2.509557604789733887e-01 -1.252299994230270386e-01
-1.559552550315856934e-01 2.433969527482986450e-01 -1.188907399773597717e-01
-1.927716284990310669e-01 2.101697921752929688e-01 5.612455680966377258e-02
-2.003218382596969604e-01 2.006225883960723877e-01 5.606763437390327454e-02
-1.799405664205551147e-01 2.050221264362335205e-01 5.921929329633712769e-02
-1.869334131479263306e-01 1.944853812456130981e-01 5.948472768068313599e-02
-1.572575867176055908e-01 2.304514050483703613e-01 4.860785603523254395e-02
-1.654719263315200806e-01 2.164975851774215698e-01 5.290561541914939880e-02
-1.406401395797729492e-01 2.275547832250595093e-01 4.579988867044448853e-02
-1.503328084945678711e-01 2.136686742305755615e-01 5.202251672744750977e-02
8.099121600389480591e-02 2.371724694967269897e-01 4.505176097154617310e-02
7.605039328336715698e-02 2.281122356653213501e-01 4.442615434527397156e-02
9.479049593210220337e-02 2.379381805658340454e-01 4.550489038228988647e-02
9.052065759897232056e-02 2.286229729652404785e-01 4.467439651489257812e-02
-6.884807348251342773e-02 -2.521895766258239746e-01 -9.494882076978683472e-02
-7.924392819404602051e-02 -2.481789290904998779e-01 -8.467097580432891846e-02
-5.729924887418746948e-02 -2.525711953639984131e-01 -7.970684021711349487e-02
-6.651505827903747559e-02 -2.497296184301376343e-01 -6.845327466726303101e-02
2.784362733364105225e-01 -2.232590466737747192e-01 -1.654927991330623627e-02
2.728404402732849121e-01 -2.321733236312866211e-01 -1.691962592303752899e-02
2.913723886013031006e-01 -2.135441601276397705e-01 -1.260992046445608139e-02
2.889556288719177246e-01 -2.306153625249862671e-01 -1.449038460850715637e-02
5.517813563346862793e-01 1.754855215549468994e-01 1.503514871001243591e-02
5.403137207031250000e-01 1.653302311897277832e-01 1.991920173168182373e-02
5.655913352966308594e-01 1.721042394638061523e-01 1.662548258900642395e-02
5.548927187919616699e-01 1.624606698751449585e-01 2.189448662102222443e-02
-4.554065465927124023e-01 1.708864606916904449e-02 5.524609237909317017e-02
-4.580703079700469971e-01 -1.378227025270462036e-03 5.506707727909088135e-02
-4.457284510135650635e-01 1.848165132105350494e-02 5.944515392184257507e-02
-4.492513537406921387e-01 -2.333763986825942993e-04 5.925149470567703247e-02
-4.238908588886260986e-01 3.494980633258819580e-01 2.835369668900966644e-02
-4.354436695575714111e-01 3.425025045871734619e-01 3.288137912750244141e-02
-4.159877300262451172e-01 3.488182723522186279e-01 3.312584757804870605e-02
-4.275575876235961914e-01 3.419446945190429688e-01 3.753560408949851990e-02
4.291361272335052490e-01 1.945360898971557617e-01 -8.336142636835575104e-03
4.209920763969421387e-01 1.857439577579498291e-01 -5.605745129287242889e-03
4.455836117267608643e-01 1.988461613655090332e-01 -9.388713166117668152e-03
4.360579550266265869e-01 1.871383041143417358e-01 -8.009587414562702179e-03
-1.119699329137802124e-01 2.288927137851715088e-01 4.586393758654594421e-02
-1.202108711004257202e-01 2.132227420806884766e-01 5.265991762280464172e-02
-9.771180152893066406e-02 2.242277413606643677e-01 4.294618219137191772e-02
-1.054028943181037903e-01 2.086903005838394165e-01 4.914708435535430908e-02
6.997971534729003906e-01 2.535324692726135254e-01 -8.098059147596359253e-02
6.928959488868713379e-01 2.511605918407440186e-01 -7.052297145128250122e-02
7.039933204650878906e-01 2.484223246574401855e-01 -6.950946152210235596e-02
6.981474757194519043e-01 2.448509931564331055e-01 -6.072596460580825806e-02
-3.957055509090423584e-01 2.452973127365112305e-01 -9.483145922422409058e-02
-4.073956906795501709e-01 2.436386644840240479e-01 -8.508484065532684326e-02
-3.970159888267517090e-01 2.556457817554473877e-01 -9.239782392978668213e-02
-4.080111980438232422e-01 2.539885044097900391e-01 -8.313533663749694824e-02
-1.093110963702201843e-01 2.305827140808105469e-01 -1.979113519191741943e-01
-1.165430471301078796e-01 2.166239619255065918e-01 -1.959174573421478271e-01
-9.248515963554382324e-02 2.276116311550140381e-01 -1.948130577802658081e-01
-9.970995038747787476e-02 2.138857245445251465e-01 -1.929394602775573730e-01
-2.206943780183792114e-01 -8.771040290594100952e-02 1.418701708316802979e-01
-2.260368764400482178e-01 -1.033319085836410522e-01 1.393363624811172485e-01
-2.080626785755157471e-01 -8.210951089859008789e-02 1.436051577329635620e-01
-2.133767306804656982e-01 -9.832897782325744629e-02 1.413945406675338745e-01
5.597340464591979980e-01 1.328997313976287842e-01 1.136311423033475876e-02
5.521713495254516602e-01 1.154987886548042297e-01 1.401880383491516113e-02
5.742094516754150391e-01 1.306607723236083984e-01 1.021939516067504883e-02
5.673081874847412109e-01 1.131293103098869324e-01 1.296140253543853760e-02
-2.688179910182952881e-01 -4.925693199038505554e-02 1.133422777056694031e-01
-2.765712738037109375e-01 -6.380738317966461182e-02 1.171086952090263367e-01
-2.552659809589385986e-01 -5.008928477764129639e-02 1.115274578332901001e-01
-2.630243301391601562e-01 -6.417280435562133789e-02 1.158886477351188660e-01
6.186950802803039551e-01 1.626609638333320618e-02 1.371046602725982666e-01
6.133028864860534668e-01 -1.308105047792196274e-02 1.348322480916976929e-01
6.413105726242065430e-01 2.229004539549350739e-02 1.467374712228775024e-01
6.350438594818115234e-01 -6.632471922785043716e-03 1.440783441066741943e-01
1.356460303068161011e-01 2.688075602054595947e-01 -3.519793227314949036e-02
1.281964629888534546e-01 2.653856277465820312e-01 -2.959279716014862061e-02
1.495270878076553345e-01 2.744025588035583496e-01 -2.853929437696933746e-02
1.417712271213531494e-01 2.649031579494476318e-01 -2.408116310834884644e-02
-1.506388336420059204e-01 9.386049956083297729e-02 -1.323606967926025391e-01
-1.618351638317108154e-01 7.105915993452072144e-02 -1.289267241954803467e-01
-1.289046108722686768e-01 8.573406934738159180e-02 -1.330119818449020386e-01
-1.410544365644454956e-01 6.327440589666366577e-02 -1.300058066844940186e-01
-8.293338119983673096e-02 6.570748239755630493e-02 -1.306869685649871826e-01
-9.542676806449890137e-02 4.516869038343429565e-02 -1.278953850269317627e-01
-6.501130759716033936e-02 6.156886368989944458e-02 -1.311006844043731689e-01
-7.542885839939117432e-02 4.434417933225631714e-02 -1.286053806543350220e-01
-4.008185863494873047e-02 -2.028926014900207520e-01 1.692386716604232788e-01
-5.286162346601486206e-02 -1.972565054893493652e-01 1.790100187063217163e-01
-2.657520957291126251e-02 -2.025759965181350708e-01 1.796722263097763062e-01
-3.976746648550033569e-02 -1.968735158443450928e-01 1.893968731164932251e-01
2.253466397523880005e-01 2.261434048414230347e-01 1.550536304712295532e-01
2.183702290058135986e-01 2.179652452468872070e-01 1.529086977243423462e-01
2.372938096523284912e-01 2.251392006874084473e-01 1.600911915302276611e-01
2.312663644552230835e-01 2.161524593830108643e-01 1.586738377809524536e-01
-2.353863567113876343e-01 -1.893673092126846313e-01 -1.389973014593124390e-01
-2.443123459815979004e-01 -1.933829635381698608e-01 -1.257168650627136230e-01
-2.281311899423599243e-01 -1.889229863882064819e-01 -1.273512691259384155e-01
-2.374291718006134033e-01 -1.908859461545944214e-01 -1.136475875973701477e-01
-2.421713918447494507e-01 1.047527343034744263e-01 6.509388238191604614e-02
-2.510561347007751465e-01 9.110082685947418213e-02 6.677222251892089844e-02
-2.264857590198516846e-01 1.091425865888595581e-01 6.546733528375625610e-02
-2.340758442878723145e-01 9.398132562637329102e-02 6.621251255273818970e-02
2.195860892534255981e-01 -6.987127661705017090e-02 2.000434994697570801e-01
2.100711762905120850e-01 -8.196959644556045532e-02 2.013479918241500854e-01
2.388187944889068604e-01 -6.631894409656524658e-02 1.972624212503433228e-01
2.276262342929840088e-01 -7.881776988506317139e-02 1.995567828416824341e-01
5.780705809593200684e-01 -1.701157987117767334e-01 -4.961293935775756836e-02
5.699477195739746094e-01 -1.783525347709655762e-01 -4.553905874490737915e-02
5.874643921852111816e-01 -1.704412996768951416e-01 -4.490224272012710571e-02
5.805689096450805664e-01 -1.786093413829803467e-01 -3.964338824152946472e-02
-2.086475677788257599e-02 1.979834288358688354e-01 1.895540058612823486e-01
-3.373529762029647827e-02 1.787255257368087769e-01 1.962287127971649170e-01
-4.433343652635812759e-03 1.901185512542724609e-01 1.886427551507949829e-01
-1.596923358738422394e-02 1.692036837339401245e-01 1.952939480543136597e-01
9.650971740484237671e-02 -1.508772075176239014e-01 -8.460146188735961914e-02
8.375042676925659180e-02 -1.481541544198989868e-01 -7.298456877470016479e-02
1.075726747512817383e-01 -1.489669233560562134e-01 -7.519149035215377808e-02
9.504151344299316406e-02 -1.464972645044326782e-01 -6.246231123805046082e-02
2.122108191251754761e-01 -2.195256501436233521e-01 -1.407949477434158325e-01
2.019867300987243652e-01 -2.301596999168395996e-01 -1.381281763315200806e-01
2.288706451654434204e-01 -2.214777916669845581e-01 -1.325633972883224487e-01
2.155237644910812378e-01 -2.280799299478530884e-01 -1.279847770929336548e-01
1.222618371248245239e-01 -1.369376927614212036e-01 1.270715799182653427e-02
1.175488159060478210e-01 -1.509413868188858032e-01 1.229883357882499695e-02
1.382995247840881348e-01 -1.303195953369140625e-01 1.391609665006399155e-02
1.348774731159210205e-01 -1.489475965499877930e-01 1.213634014129638672e-02
-2.601332664489746094e-01 1.317352503538131714e-01 -1.354661136865615845e-01
-2.692885100841522217e-01 1.130801662802696228e-01 -1.335770785808563232e-01
-2.403712123632431030e-01 1.273323893547058105e-01 -1.364224106073379517e-01
-2.498120516538619995e-01 1.087528616189956665e-01 -1.352324634790420532e-01
2.679030783474445343e-02 -1.433596760034561157e-01 -9.891596436500549316e-02
1.398148387670516968e-02 -1.451057046651840210e-01 -9.530179947614669800e-02
3.813878446817398071e-02 -1.475094109773635864e-01 -9.329904615879058838e-02
2.548083662986755371e-02 -1.485684812068939209e-01 -8.904833346605300903e-02
-4.102868735790252686e-01 -1.825901269912719727e-01 7.690384238958358765e-02
-4.188719391822814941e-01 -1.915467679500579834e-01 7.883331924676895142e-02
-3.940959572792053223e-01 -1.844526380300521851e-01 8.119161427021026611e-02
-4.031917452812194824e-01 -1.909006386995315552e-01 8.310964703559875488e-02
5.119706988334655762e-01 -2.386815994977951050e-01 -1.116357464343309402e-02
5.018516182899475098e-01 -2.453932017087936401e-01 -6.108148954808712006e-03
5.223173499107360840e-01 -2.342756092548370361e-01 -7.059212774038314819e-03
5.128344297409057617e-01 -2.430400550365447998e-01 -2.574737416580319405e-03
6.203516200184822083e-02 1.988801360130310059e-01 -9.836187213659286499e-02
4.958489537239074707e-02 1.978836804628372192e-01 -9.566587209701538086e-02
7.232718914747238159e-02 2.003188580274581909e-01 -9.131181240081787109e-02
5.968134850263595581e-02 1.990670561790466309e-01 -8.879365026950836182e-02
-3.781320154666900635e-01 -1.377615034580230713e-01 -1.058692336082458496e-01
-3.883054256439208984e-01 -1.355690360069274902e-01 -9.838550537824630737e-02
-3.728989958763122559e-01 -1.282896548509597778e-01 -9.670458734035491943e-02
-3.833456039428710938e-01 -1.262615621089935303e-01 -8.969964832067489624e-02
1.602135300636291504e-01 -9.656086564064025879e-02 1.941767781972885132e-01
1.565117388963699341e-01 -1.089352071285247803e-01 1.936934143304824829e-01
1.718253344297409058e-01 -8.986381441354751587e-02 1.941323727369308472e-01
1.675726473331451416e-01 -1.026320531964302063e-01 1.941899955272674561e-01
-4.038247466087341309e-01 -1.843291223049163818e-01 -2.571419253945350647e-02
-4.095135927200317383e-01 -1.884970366954803467e-01 -1.464249007403850555e-02
-3.948213458061218262e-01 -1.870988309383392334e-01 -1.536334678530693054e-02
-3.999638557434082031e-01 -1.904032379388809204e-01 -5.576075054705142975e-03
7.097948789596557617e-01 2.233016043901443481e-01 -9.440207481384277344e-02
7.062281370162963867e-01 2.105312049388885498e-01 -8.940728008747100830e-02
7.145768404006958008e-01 2.214407473802566528e-01 -8.546889573335647583e-02
7.112379670143127441e-01 2.077471464872360229e-01 -8.119124919176101685e-02
2.241107523441314697e-01 2.926015853881835938e-01 1.602973192930221558e-01
2.183456718921661377e-01 2.848775088787078857e-01 1.606951206922531128e-01
2.360693067312240601e-01 2.871943712234497070e-01 1.654727458953857422e-01
2.317906171083450317e-01 2.781042754650115967e-01 1.646015197038650513e-01
5.171739459037780762e-01 4.568883404135704041e-02 3.125954791903495789e-02
5.079854130744934082e-01 3.271831199526786804e-02 3.330237045884132385e-02
5.321945548057556152e-01 4.966831952333450317e-02 2.804988436400890350e-02
5.231438875198364258e-01 3.618061915040016174e-02 3.015560470521450043e-02
1.135170534253120422e-01 -2.183028310537338257e-01 1.863065958023071289e-01
9.886611998081207275e-02 -2.114014029502868652e-01 1.939503848552703857e-01
1.261512041091918945e-01 -2.179752439260482788e-01 1.951409429311752319e-01
1.117649376392364502e-01 -2.112372666597366333e-01 2.030556797981262207e-01
-3.165488541126251221e-01 3.258838951587677002e-01 -3.292223438620567322e-02
-3.210740685462951660e-01 3.120424747467041016e-01 -3.393180668354034424e-02
-3.042332828044891357e-01 3.273709118366241455e-01 -2.831199392676353455e-02
-3.089941143989562988e-01 3.136718273162841797e-01 -2.933586947619915009e-02
4.754091203212738037e-01 -9.775491058826446533e-02 -1.064993366599082947e-01
4.664795696735382080e-01 -1.129693016409873962e-01 -1.069031730294227600e-01
4.973409473896026611e-01 -9.876595437526702881e-02 -1.051373779773712158e-01
4.887389838695526123e-01 -1.155837029218673706e-01 -1.053778380155563354e-01
-3.266841769218444824e-01 -7.397842407226562500e-02 1.792645752429962158e-01
-3.271676003932952881e-01 -9.269584715366363525e-02 1.793890297412872314e-01
-3.140750527381896973e-01 -7.044591754674911499e-02 1.782457232475280762e-01
-3.151073157787322998e-01 -9.019067883491516113e-02 1.789964735507965088e-01
1.541785895824432373e-01 2.037543654441833496e-01 -1.104448661208152771e-01
1.498712748289108276e-01 1.785064190626144409e-01 -1.167699694633483887e-01
1.713182777166366577e-01 2.034503668546676636e-01 -1.003513261675834656e-01
1.620118916034698486e-01 1.883887946605682373e-01 -1.027220189571380615e-01
2.782114446163177490e-01 -2.783929407596588135e-01 -5.774294212460517883e-02
2.580109238624572754e-01 -2.709980905055999756e-01 -5.136039480566978455e-02
2.990469932556152344e-01 -2.798199057579040527e-01 -5.217768996953964233e-02
2.767713665962219238e-01 -2.731401026248931885e-01 -4.521352425217628479e-02
2.897022962570190430e-01 2.235501408576965332e-01 -1.876194626092910767e-01
2.796363830566406250e-01 2.103281915187835693e-01 -1.891555190086364746e-01
3.062734603881835938e-01 2.151443511247634888e-01 -1.820585578680038452e-01
2.937484681606292725e-01 2.048914581537246704e-01 -1.829130798578262329e-01
7.967095077037811279e-02 -2.141229063272476196e-01 1.106322109699249268e-01
7.116443663835525513e-02 -2.139803320169448853e-01 1.266291737556457520e-01
8.272384852170944214e-02 -2.178704440593719482e-01 1.258946657180786133e-01
7.403131574392318726e-02 -2.176511883735656738e-01 1.421231627464294434e-01
6.747292280197143555e-01 1.948770582675933838e-01 -1.143258512020111084e-01
6.628068089485168457e-01 2.024454623460769653e-01 -1.117752194404602051e-01
6.854014992713928223e-01 1.965318173170089722e-01 -1.082180067896842957e-01
6.736236810684204102e-01 2.051299363374710083e-01 -1.056901440024375916e-01
-3.565360605716705322e-01 2.040067762136459351e-01 -1.393410414457321167e-01
-3.639755249023437500e-01 1.857867538928985596e-01 -1.353701055049896240e-01
-3.411006331443786621e-01 2.141974568367004395e-01 -1.400174051523208618e-01
-3.489132821559906006e-01 1.934086084365844727e-01 -1.375310719013214111e-01
-1.970192044973373413e-02 -6.773836910724639893e-02 2.316316775977611542e-02
-2.479067258536815643e-02 -8.270563185214996338e-02 1.872795075178146362e-02
-1.527704996988177299e-03 -6.660719215869903564e-02 2.612638659775257111e-02
-7.309666369110345840e-03 -8.079456537961959839e-02 2.161245606839656830e-02
-1.356730163097381592e-01 2.446488440036773682e-01 -1.165597215294837952e-01
-1.465372890233993530e-01 2.353267073631286621e-01 -1.099278926849365234e-01
-1.220691651105880737e-01 2.384432107210159302e-01 -1.108947098255157471e-01
-1.334175318479537964e-01 2.310230135917663574e-01 -1.038040369749069214e-01
-3.155108094215393066e-01 -1.454105824232101440e-01 -1.790363341569900513e-01
-3.301670253276824951e-01 -1.451595127582550049e-01 -1.703624427318572998e-01
-2.952986955642700195e-01 -1.482081264257431030e-01 -1.766602396965026855e-01
-3.123123645782470703e-01 -1.475111246109008789e-01 -1.695948988199234009e-01
4.049901366233825684e-01 4.939771816134452820e-02 -1.215884461998939514e-01
3.949194550514221191e-01 2.947741188108921051e-02 -1.196726486086845398e-01
4.224966764450073242e-01 3.385937958955764771e-02 -1.195269599556922913e-01
4.140887856483459473e-01 1.508377678692340851e-02 -1.182138994336128235e-01
-4.802240729331970215e-01 6.958840787410736084e-02 -3.047231957316398621e-02
-4.841476082801818848e-01 5.517453700304031372e-02 -2.239841967821121216e-02
-4.814210534095764160e-01 7.510324567556381226e-02 -1.686057075858116150e-02
-4.867061078548431396e-01 5.985860154032707214e-02 -7.013053633272647858e-03
1.186370477080345154e-01 2.482375949621200562e-01 1.342176049947738647e-01
1.109254956245422363e-01 2.441608607769012451e-01 1.445831656455993652e-01
1.274179369211196899e-01 2.435781210660934448e-01 1.443335413932800293e-01
1.196179166436195374e-01 2.390404194593429565e-01 1.547433882951736450e-01
-8.612653240561485291e-03 -1.949008405208587646e-01 1.089282333850860596e-01
-1.665208861231803894e-02 -1.948206275701522827e-01 1.192061975598335266e-01
-9.847404435276985168e-04 -1.985970288515090942e-01 1.200124472379684448e-01
-8.870376273989677429e-03 -1.980486363172531128e-01 1.304104179143905640e-01
6.703047752380371094e-01 2.334517240524291992e-01 -4.420143738389015198e-02
6.625726222991943359e-01 2.283811569213867188e-01 -3.676871955394744873e-02
6.750510334968566895e-01 2.353148162364959717e-01 -3.959668055176734924e-02
6.673188805580139160e-01 2.302442491054534912e-01 -3.216396272182464600e-02
3.063188493251800537e-02 -1.443038433790206909e-01 -5.242277309298515320e-02
1.159685011953115463e-02 -1.390729248523712158e-01 -4.791723936796188354e-02
4.796447604894638062e-02 -1.425689309835433960e-01 -4.584679380059242249e-02
2.848773822188377380e-02 -1.374992579221725464e-01 -4.088636115193367004e-02
4.841676056385040283e-01 2.843172848224639893e-01 -7.306934148073196411e-02
4.722802042961120605e-01 2.839284539222717285e-01 -6.821668148040771484e-02
5.010584592819213867e-01 2.821054160594940186e-01 -6.580670177936553955e-02
4.876068234443664551e-01 2.808945178985595703e-01 -6.152169033885002136e-02
-5.224067568778991699e-01 3.444211781024932861e-01 -4.284980520606040955e-02
-5.373875498771667480e-01 3.412452340126037598e-01 -3.290634229779243469e-02
-5.122307538986206055e-01 3.501291573047637939e-01 -3.073495253920555115e-02
-5.273805856704711914e-01 3.474791347980499268e-01 -2.141531370580196381e-02
-4.866997301578521729e-01 8.756178431212902069e-03 3.848266229033470154e-02
-4.866230189800262451e-01 -9.946923702955245972e-03 3.774167969822883606e-02
-4.802897870540618896e-01 1.027435809373855591e-02 4.578403756022453308e-02
-4.814762473106384277e-01 -8.610291406512260437e-03 4.516420513391494751e-02
-5.691810697317123413e-02 1.278502792119979858e-01 3.032303601503372192e-02
-6.056182831525802612e-02 1.091507226228713989e-01 2.935446053743362427e-02
-4.238356277346611023e-02 1.282203644514083862e-01 3.673604503273963928e-02
-4.510991647839546204e-02 1.088694706559181213e-01 3.614160418510437012e-02
-2.320362180471420288e-01 1.448592841625213623e-01 9.843780845403671265e-02
-2.353980988264083862e-01 1.261747926473617554e-01 1.031444519758224487e-01
-2.304770201444625854e-01 1.493626832962036133e-01 1.107937768101692200e-01
-2.316868603229522705e-01 1.290201097726821899e-01 1.138596236705780029e-01
4.305120110511779785e-01 1.866696625947952271e-01 1.445647329092025757e-01
4.187307059764862061e-01 1.799683719873428345e-01 1.552681773900985718e-01
4.385810494422912598e-01 1.721257567405700684e-01 1.473114490509033203e-01
4.270820319652557373e-01 1.651150882244110107e-01 1.577146500349044800e-01
-1.862756721675395966e-02 -7.474415004253387451e-02 2.383378706872463226e-02
-2.319834381341934204e-02 -9.039746969938278198e-02 1.997450739145278931e-02
-1.679983921349048615e-03 -7.587581127882003784e-02 2.755715139210224152e-02
-7.626898121088743210e-03 -8.992908149957656860e-02 2.274683862924575806e-02
-2.911936938762664795e-01 -1.966891735792160034e-01 -2.260159142315387726e-02
-3.012414872646331787e-01 -1.978892982006072998e-01 -1.442677341401576996e-02
-2.801911532878875732e-01 -1.934701651334762573e-01 -1.398269087076187134e-02
-2.886423766613006592e-01 -1.995822340250015259e-01 -9.118041023612022400e-03
-3.139935433864593506e-01 -1.030649393796920776e-01 6.184137985110282898e-02
-3.190213739871978760e-01 -1.145810186862945557e-01 6.328318268060684204e-02
-3.001306951045989990e-01 -1.071984842419624329e-01 6.289568543434143066e-02
-3.047501146793365479e-01 -1.188732832670211792e-01 6.380180269479751587e-02
-2.606163620948791504e-01 -1.443729251623153687e-01 1.142195910215377808e-01
-2.653675675392150879e-01 -1.563129574060440063e-01 1.171654090285301208e-01
-2.490582913160324097e-01 -1.485443562269210815e-01 1.155720055103302002e-01
-2.541124224662780762e-01 -1.589081436395645142e-01 1.190472468733787537e-01
-3.641651868820190430e-01 -1.458485275506973267e-01 6.832277774810791016e-02
-3.725019991397857666e-01 -1.536730974912643433e-01 7.046420872211456299e-02
-3.506115674972534180e-01 -1.488756090402603149e-01 6.980160623788833618e-02
-3.593996763229370117e-01 -1.550921499729156494e-01 7.233677059412002563e-02
-3.467574417591094971e-01 -9.851366281509399414e-02 6.681546568870544434e-02
-3.534560501575469971e-01 -1.116126552224159241e-01 6.940488517284393311e-02
-3.366254568099975586e-01 -1.023461967706680298e-01 6.669349968433380127e-02
-3.433799147605895996e-01 -1.150320544838905334e-01 6.914696097373962402e-02
2.494835481047630310e-02 2.847221791744232178e-01 -1.191795691847801208e-01
9.794534184038639069e-03 2.860486209392547607e-01 -1.106659322977066040e-01
3.742874041199684143e-02 2.844474911689758301e-01 -1.099680885672569275e-01
2.301664277911186218e-02 2.870630919933319092e-01 -1.017959415912628174e-01
1.961314380168914795e-01 -2.136811167001724243e-01 1.009439453482627869e-01
1.850157827138900757e-01 -2.063828855752944946e-01 1.122094541788101196e-01
2.023024708032608032e-01 -2.089549303054809570e-01 1.107659339904785156e-01
1.902664601802825928e-01 -2.005271315574645996e-01 1.230676025152206421e-01
5.556687712669372559e-01 2.287908270955085754e-02 2.396914549171924591e-02
5.497264862060546875e-01 1.010439917445182800e-02 2.567569538950920105e-02
5.691151022911071777e-01 2.082484029233455658e-02 1.954941079020500183e-02
5.634979009628295898e-01 8.490852080285549164e-03 2.122263982892036438e-02
-2.254270315170288086e-01 -1.732194274663925171e-01 1.493719667196273804e-01
-2.360171228647232056e-01 -1.760497838258743286e-01 1.521033048629760742e-01
-2.173321098089218140e-01 -1.685250848531723022e-01 1.590008735656738281e-01
-2.284838408231735229e-01 -1.713238358497619629e-01 1.616170406341552734e-01
2.427284568548202515e-01 -1.593946665525436401e-01 -9.070792049169540405e-02
2.353961318731307983e-01 -1.602608412504196167e-01 -7.863178849220275879e-02
2.526818513870239258e-01 -1.619063317775726318e-01 -7.943402975797653198e-02
2.441215962171554565e-01 -1.624816060066223145e-01 -6.889146566390991211e-02
-1.678025722503662109e-01 7.417267560958862305e-02 5.665796622633934021e-02
-1.727648079395294189e-01 5.729835852980613708e-02 5.844486877322196960e-02
-1.484584808349609375e-01 8.220514655113220215e-02 5.493715405464172363e-02
-1.527588665485382080e-01 6.485179066658020020e-02 5.596202984452247620e-02
1.490946710109710693e-01 -1.175531297922134399e-01 1.916004270315170288e-01
1.447864472866058350e-01 -1.280515640974044800e-01 1.915230453014373779e-01
1.609091907739639282e-01 -1.118900328874588013e-01 1.924235075712203979e-01
1.572275310754776001e-01 -1.241492331027984619e-01 1.920837610960006714e-01
7.591108977794647217e-02 9.679325670003890991e-02 2.432015836238861084e-01
7.256132364273071289e-02 8.334363996982574463e-02 2.472442835569381714e-01
7.993496209383010864e-02 9.992652386426925659e-02 2.490643411874771118e-01
7.698231935501098633e-02 8.613678812980651855e-02 2.531486451625823975e-01
-3.021127879619598389e-01 1.492368876934051514e-01 9.322430007159709930e-03
-3.139264583587646484e-01 1.325158029794692993e-01 1.093029044568538666e-02
-2.773236930370330811e-01 1.519665569067001343e-01 6.233982741832733154e-03
-2.897276580333709717e-01 1.329404413700103760e-01 8.165939711034297943e-03
3.447780907154083252e-01 -2.117021381855010986e-01 -1.795351803302764893e-01
3.358926773071289062e-01 -2.248357087373733521e-01 -1.782568097114562988e-01
3.593641817569732666e-01 -2.135982513427734375e-01 -1.748564094305038452e-01
3.510773181915283203e-01 -2.274084091186523438e-01 -1.738885939121246338e-01
4.839014112949371338e-01 2.371534705162048340e-01 1.696350798010826111e-02
4.767611026763916016e-01 2.132109403610229492e-01 2.271893993020057678e-02
5.030273795127868652e-01 2.347163558006286621e-01 1.226862613111734390e-02
4.964213073253631592e-01 2.103602439165115356e-01 1.832694932818412781e-02
-8.724564313888549805e-02 -2.509997785091400146e-01 -4.003017768263816833e-02
-9.811728447675704956e-02 -2.472659498453140259e-01 -3.122179955244064331e-02
-7.796272635459899902e-02 -2.500758469104766846e-01 -2.796466089785099030e-02
-8.907791972160339355e-02 -2.458240091800689697e-01 -1.964689791202545166e-02
3.262208104133605957e-01 1.155979782342910767e-01 -1.297477036714553833e-01
3.147056698799133301e-01 1.000519692897796631e-01 -1.264760792255401611e-01
3.468679487705230713e-01 1.151389181613922119e-01 -1.290906369686126709e-01
3.349709212779998779e-01 1.018259972333908081e-01 -1.263289749622344971e-01
6.300917267799377441e-01 1.487743854522705078e-01 4.826742690056562424e-03
6.233163475990295410e-01 1.369084417819976807e-01 7.485452573746442795e-03
6.436649560928344727e-01 1.463962793350219727e-01 3.798395860940217972e-03
6.368173360824584961e-01 1.357157528400421143e-01 6.345357745885848999e-03
-1.768314242362976074e-01 1.005986779928207397e-01 8.694177493453025818e-03
-1.847285628318786621e-01 7.940191030502319336e-02 1.002200879156589508e-02
-1.585562974214553833e-01 9.386841207742691040e-02 9.524942375719547272e-03
-1.659831851720809937e-01 7.220692187547683716e-02 1.100923214107751846e-02
2.687746882438659668e-01 -1.645034551620483398e-01 -2.628211630508303642e-03
2.654466629028320312e-01 -1.824526786804199219e-01 -5.424292758107185364e-03
2.843129932880401611e-01 -1.621342748403549194e-01 -9.924435289576649666e-04
2.809698581695556641e-01 -1.788631975650787354e-01 -3.609860083088278770e-03
-3.316085934638977051e-01 3.043132424354553223e-01 -8.971357345581054688e-02
-3.415076136589050293e-01 3.103519678115844727e-01 -8.292623609304428101e-02
-3.242346346378326416e-01 3.073002398014068604e-01 -8.482056856155395508e-02
-3.341336548328399658e-01 3.133389651775360107e-01 -7.803323864936828613e-02
2.149114757776260376e-02 2.831930518150329590e-01 -3.389434888958930969e-02
1.099907793104648590e-02 2.866576910018920898e-01 -2.358658052980899811e-02
3.326028212904930115e-02 2.857366204261779785e-01 -1.895724050700664520e-02
2.354541420936584473e-02 2.888968288898468018e-01 -9.086573496460914612e-03
-3.644083142280578613e-01 -1.254568547010421753e-01 -7.378112524747848511e-02
-3.636107146739959717e-01 -1.387059986591339111e-01 -7.165758311748504639e-02
-3.639900088310241699e-01 -1.214386224746704102e-01 -6.431704014539718628e-02
-3.622728884220123291e-01 -1.356888264417648315e-01 -6.196375936269760132e-02
4.925711750984191895e-01 2.087975591421127319e-01 -1.293181180953979492e-01
4.803324043750762939e-01 2.085179239511489868e-01 -1.236233115196228027e-01
5.088535547256469727e-01 2.084711641073226929e-01 -1.217725574970245361e-01
4.965495169162750244e-01 2.076899558305740356e-01 -1.161657869815826416e-01
1.165549010038375854e-01 -1.863646954298019409e-01 1.430775821208953857e-01
1.053500771522521973e-01 -1.829012185335159302e-01 1.497110128402709961e-01
1.293283849954605103e-01 -1.844069659709930420e-01 1.513974368572235107e-01
1.163139268755912781e-01 -1.807970255613327026e-01 1.559507548809051514e-01
3.609896600246429443e-01 -2.173864096403121948e-01 -1.781863421201705933e-01
3.529421389102935791e-01 -2.319137603044509888e-01 -1.777776330709457397e-01
3.762835860252380371e-01 -2.212281227111816406e-01 -1.745997071266174316e-01
3.674549162387847900e-01 -2.339115440845489502e-01 -1.742980182170867920e-01
-1.914169639348983765e-01 2.495120614767074585e-01 -1.795381456613540649e-01
-2.044997066259384155e-01 2.381214201450347900e-01 -1.720357835292816162e-01
-1.734070628881454468e-01 2.431248873472213745e-01 -1.809149682521820068e-01
-1.859538555145263672e-01 2.347358763217926025e-01 -1.734464764595031738e-01
5.633838176727294922e-01 -1.100590229034423828e-01 -9.107306599617004395e-02
5.596414208412170410e-01 -1.303408294916152954e-01 -8.981461077928543091e-02
5.810533165931701660e-01 -1.222011819481849670e-01 -8.747146278619766235e-02
5.772659778594970703e-01 -1.437230855226516724e-01 -8.554988354444503784e-02
-2.569689154624938965e-01 2.545943856239318848e-01 4.936283081769943237e-02
-2.594287991523742676e-01 2.418987303972244263e-01 4.647873342037200928e-02
-2.466065585613250732e-01 2.608775198459625244e-01 5.114476382732391357e-02
-2.487979680299758911e-01 2.479790151119232178e-01 4.813520610332489014e-02
5.171619653701782227e-01 1.278651207685470581e-01 1.481595262885093689e-02
5.105077624320983887e-01 1.177992299199104309e-01 1.895644329488277435e-02
5.258979201316833496e-01 1.270427703857421875e-01 1.531651243567466736e-02
5.188455581665039062e-01 1.142457872629165649e-01 1.843445934355258942e-02
4.062106907367706299e-01 -4.173559695482254028e-02 4.002146795392036438e-02
4.016313254833221436e-01 -5.566446855664253235e-02 3.983212634921073914e-02
4.178143441677093506e-01 -4.348769783973693848e-02 4.091785848140716553e-02
4.130285084247589111e-01 -5.710365995764732361e-02 4.118967056274414062e-02
1.004632562398910522e-01 2.967605292797088623e-01 -1.033263579010963440e-01
8.909784257411956787e-02 3.026548624038696289e-01 -9.216737747192382812e-02
1.078695207834243774e-01 3.026345968246459961e-01 -8.882840722799301147e-02
9.788955748081207275e-02 3.078572750091552734e-01 -7.666629552841186523e-02
5.613198876380920410e-01 2.668054699897766113e-01 -1.628473103046417236e-01
5.553097128868103027e-01 2.491105794906616211e-01 -1.625673025846481323e-01
5.774849057197570801e-01 2.659142017364501953e-01 -1.568187326192855835e-01
5.718341469764709473e-01 2.472354173660278320e-01 -1.567248255014419556e-01
-3.669076859951019287e-01 -2.188286036252975464e-01 -8.260720409452915192e-03
-3.729963302612304688e-01 -2.208024114370346069e-01 4.324370995163917542e-03
-3.582834899425506592e-01 -2.256828695535659790e-01 4.301145672798156738e-03
-3.643530905246734619e-01 -2.280578613281250000e-01 1.748640462756156921e-02
-4.183816611766815186e-01 1.052045673131942749e-01 6.188566610217094421e-02
-4.299446642398834229e-01 9.217941015958786011e-02 5.973774194717407227e-02
-3.991100788116455078e-01 1.061801016330718994e-01 6.477233767509460449e-02
-4.081785678863525391e-01 8.976077288389205933e-02 6.371388584375381470e-02
-4.701334238052368164e-02 2.167075425386428833e-01 -1.075183525681495667e-01
-5.432988703250885010e-02 2.143442630767822266e-01 -1.032118648290634155e-01
-3.594976291060447693e-02 2.168148905038833618e-01 -1.005947738885879517e-01
-4.354387521743774414e-02 2.140990942716598511e-01 -9.788283705711364746e-02
1.829646229743957520e-01 2.010525465011596680e-01 -1.032515317201614380e-01
1.702146381139755249e-01 1.935050487518310547e-01 -1.020738556981086731e-01
1.982764452695846558e-01 1.964737921953201294e-01 -9.371483325958251953e-02
1.807374358177185059e-01 2.003136873245239258e-01 -8.659068495035171509e-02
4.499861970543861389e-02 -2.068142890930175781e-01 -1.739871352910995483e-01
3.592338413000106812e-02 -2.178736776113510132e-01 -1.679141223430633545e-01
5.697152763605117798e-02 -2.124193310737609863e-01 -1.675454527139663696e-01
4.464765265583992004e-02 -2.180627435445785522e-01 -1.606565117835998535e-01
5.149337649345397949e-01 2.731988728046417236e-01 -8.380194753408432007e-02
5.007910728454589844e-01 2.725355923175811768e-01 -7.983804494142532349e-02
5.316934585571289062e-01 2.736847400665283203e-01 -7.408221811056137085e-02
5.152181982994079590e-01 2.721511721611022949e-01 -7.005843520164489746e-02
-3.868651986122131348e-01 3.041316568851470947e-01 -1.020888760685920715e-01
-3.944445848464965820e-01 2.968388795852661133e-01 -9.427770972251892090e-02
-3.872685134410858154e-01 3.179105520248413086e-01 -9.307352453470230103e-02
-3.933633565902709961e-01 3.100233674049377441e-01 -8.454348146915435791e-02
-3.976942598819732666e-02 2.063549906015396118e-01 -1.156373843550682068e-01
-4.736448451876640320e-02 2.028824985027313232e-01 -1.120321825146675110e-01
-3.359264880418777466e-02 2.057581990957260132e-01 -1.093756929039955139e-01
-4.144852608442306519e-02 2.024705559015274048e-01 -1.063213795423507690e-01
-2.783604562282562256e-01 -4.854841902852058411e-02 1.352020073682069778e-02
-2.862244248390197754e-01 -6.546740978956222534e-02 1.032332424074411392e-02
-2.582444548606872559e-01 -4.451999440789222717e-02 1.445165649056434631e-02
-2.649623155593872070e-01 -6.283604353666305542e-02 1.222239155322313309e-02
