9.422652125358581543e-01 3.895766735076904297e-01 7.422527670860290527e-01
1.006179094314575195e+00 6.574585437774658203e-01 7.448775172233581543e-01
1.004874944686889648e+00 6.532675623893737793e-01 7.450439333915710449e-01
1.010853528976440430e+00 6.566973924636840820e-01 7.450745105743408203e-01
1.009625077247619629e+00 6.525101661682128906e-01 7.451134324073791504e-01
9.878664612770080566e-01 2.380171120166778564e-01 7.475494146347045898e-01
9.862430095672607422e-01 2.361502498388290405e-01 7.479144930839538574e-01
9.915445446968078613e-01 2.382052838802337646e-01 7.473092079162597656e-01
9.900829195976257324e-01 2.361500114202499390e-01 7.476286292076110840e-01
8.964346051216125488e-01 3.787345886230468750e-01 7.541676163673400879e-01
8.945509195327758789e-01 3.745530545711517334e-01 7.541370987892150879e-01
9.019298553466796875e-01 3.793352544307708740e-01 7.532092332839965820e-01
8.997178673744201660e-01 3.755288422107696533e-01 7.536883950233459473e-01
8.063561320304870605e-01 3.249337077140808105e-01 7.443273663520812988e-01
8.054428696632385254e-01 3.167197406291961670e-01 7.455368041992187500e-01
8.079812526702880859e-01 3.238375782966613770e-01 7.475709319114685059e-01
8.070614337921142578e-01 3.151458501815795898e-01 7.487224936485290527e-01
8.339785933494567871e-01 6.416361331939697266e-01 7.639750838279724121e-01
8.317131996154785156e-01 6.364669203758239746e-01 7.646731734275817871e-01
8.387116193771362305e-01 6.423979997634887695e-01 7.635112404823303223e-01
8.363656401634216309e-01 6.366924047470092773e-01 7.644838094711303711e-01
9.897686839103698730e-01 4.657896757125854492e-01 7.426711320877075195e-01
9.892849922180175781e-01 4.624015986919403076e-01 7.421727776527404785e-01
9.930585026741027832e-01 4.657847583293914795e-01 7.427909970283508301e-01
9.923212528228759766e-01 4.622585177421569824e-01 7.422285079956054688e-01
9.453311562538146973e-01 6.715912222862243652e-01 7.574594616889953613e-01
9.437258243560791016e-01 6.681806445121765137e-01 7.589096426963806152e-01
9.491012096405029297e-01 6.695994734764099121e-01 7.582019567489624023e-01
9.475327730178833008e-01 6.663225889205932617e-01 7.600317001342773438e-01
9.481208324432373047e-01 2.953357100486755371e-01 7.479370236396789551e-01
9.459124803543090820e-01 2.916928231716156006e-01 7.475926280021667480e-01
9.524626731872558594e-01 2.956342995166778564e-01 7.483485937118530273e-01
9.508306980133056641e-01 2.913940846920013428e-01 7.482565641403198242e-01
8.310128450393676758e-01 6.315662860870361328e-01 7.615619301795959473e-01
8.308451175689697266e-01 6.260197162628173828e-01 7.616234421730041504e-01
8.336898684501647949e-01 6.321185827255249023e-01 7.641417384147644043e-01
8.334133625030517578e-01 6.265771985054016113e-01 7.644492983818054199e-01
1.034639835357666016e+00 2.876365184783935547e-01 7.441292405128479004e-01
1.033268690109252930e+00 2.821704447269439697e-01 7.440462708473205566e-01
1.039585947990417480e+00 2.873075008392333984e-01 7.439570426940917969e-01
1.038157939910888672e+00 2.823661863803863525e-01 7.443532943725585938e-01
1.059758305549621582e+00 4.978437423706054688e-01 7.438024282455444336e-01
1.057636976242065430e+00 4.910373091697692871e-01 7.443594932556152344e-01
1.065530538558959961e+00 4.960462152957916260e-01 7.433611750602722168e-01
1.063308715820312500e+00 4.890702664852142334e-01 7.438623905181884766e-01
9.648098945617675781e-01 6.474596261978149414e-01 7.426510453224182129e-01
9.619722366333007812e-01 6.455535888671875000e-01 7.419652342796325684e-01
9.691389203071594238e-01 6.489289999008178711e-01 7.431966066360473633e-01
9.667200446128845215e-01 6.462684273719787598e-01 7.426018714904785156e-01
9.711995124816894531e-01 5.838292241096496582e-01 7.421144247055053711e-01
9.696088433265686035e-01 5.797172784805297852e-01 7.419351339340209961e-01
9.756636023521423340e-01 5.853514075279235840e-01 7.429142594337463379e-01
9.740146994590759277e-01 5.809838175773620605e-01 7.426636219024658203e-01
8.121302723884582520e-01 2.866300344467163086e-01 7.382504940032958984e-01
8.109909296035766602e-01 2.797277271747589111e-01 7.393825650215148926e-01
8.134770989418029785e-01 2.885093390941619873e-01 7.410891652107238770e-01
8.123937249183654785e-01 2.815354168415069580e-01 7.422509789466857910e-01
8.075248003005981445e-01 4.976126551628112793e-01 7.523384690284729004e-01
8.071032762527465820e-01 4.918392598628997803e-01 7.546713948249816895e-01
8.091017007827758789e-01 4.975519478321075439e-01 7.573369741439819336e-01
8.086637258529663086e-01 4.917768836021423340e-01 7.596182823181152344e-01
8.928676843643188477e-01 6.872170567512512207e-01 7.550073266029357910e-01
8.896360993385314941e-01 6.849636435508728027e-01 7.564494609832763672e-01
8.972216844558715820e-01 6.880024671554565430e-01 7.540154457092285156e-01
8.942936062812805176e-01 6.850181221961975098e-01 7.555337548255920410e-01
8.343075513839721680e-01 5.902515053749084473e-01 7.595128417015075684e-01
8.330379724502563477e-01 5.857222676277160645e-01 7.591812014579772949e-01
8.393826484680175781e-01 5.910434722900390625e-01 7.603343725204467773e-01
8.379158377647399902e-01 5.860366821289062500e-01 7.602835297584533691e-01
8.825598955154418945e-01 3.890709877014160156e-01 7.600499987602233887e-01
8.807315826416015625e-01 3.853985667228698730e-01 7.607117891311645508e-01
8.869013786315917969e-01 3.895801007747650146e-01 7.593987584114074707e-01
8.847189545631408691e-01 3.853707313537597656e-01 7.601981163024902344e-01
9.396150112152099609e-01 5.322096943855285645e-01 7.550082206726074219e-01
9.387038946151733398e-01 5.284523367881774902e-01 7.554098367691040039e-01
9.439826607704162598e-01 5.320232510566711426e-01 7.549256086349487305e-01
9.422972202301025391e-01 5.293257236480712891e-01 7.554831504821777344e-01
8.866471648216247559e-01 5.702986717224121094e-01 7.576418519020080566e-01
8.853818178176879883e-01 5.663473010063171387e-01 7.577676773071289062e-01
8.920744061470031738e-01 5.719085335731506348e-01 7.563262581825256348e-01
8.907406330108642578e-01 5.682232379913330078e-01 7.566548585891723633e-01
8.306924700736999512e-01 4.827750623226165771e-01 7.417707443237304688e-01
8.297330737113952637e-01 4.773900806903839111e-01 7.421458363533020020e-01
8.331147432327270508e-01 4.838988482952117920e-01 7.453025579452514648e-01
8.321830034255981445e-01 4.784972667694091797e-01 7.456923723220825195e-01
8.773257136344909668e-01 7.018116712570190430e-01 7.539691925048828125e-01
8.736899495124816895e-01 6.990141272544860840e-01 7.555757164955139160e-01
8.820099830627441406e-01 7.007365226745605469e-01 7.556924819946289062e-01
8.789150714874267578e-01 6.974229812622070312e-01 7.572038173675537109e-01
8.939626216888427734e-01 4.213132262229919434e-01 7.541739940643310547e-01
8.913744688034057617e-01 4.181161522865295410e-01 7.551799416542053223e-01
8.985099792480468750e-01 4.196898043155670166e-01 7.531011104583740234e-01
8.958282470703125000e-01 4.170233011245727539e-01 7.541544437408447266e-01
9.650300145149230957e-01 5.081613659858703613e-01 7.453783154487609863e-01
9.626139402389526367e-01 5.049859881401062012e-01 7.461944222450256348e-01
9.687598943710327148e-01 5.070832371711730957e-01 7.463809847831726074e-01
9.660477042198181152e-01 5.036177039146423340e-01 7.469421029090881348e-01
8.345746397972106934e-01 6.510287523269653320e-01 7.350023388862609863e-01
8.323204517364501953e-01 6.473237872123718262e-01 7.374050617218017578e-01
8.358832001686096191e-01 6.536815166473388672e-01 7.365114092826843262e-01
8.341821432113647461e-01 6.495687961578369141e-01 7.383041381835937500e-01
9.253751039505004883e-01 3.824931383132934570e-01 7.498027682304382324e-01
9.242641329765319824e-01 3.801591396331787109e-01 7.502761483192443848e-01
9.283472895622253418e-01 3.809551000595092773e-01 7.497716546058654785e-01
9.271592497825622559e-01 3.786776959896087646e-01 7.501924633979797363e-01
9.763352274894714355e-01 6.396151781082153320e-01 7.581263780593872070e-01
9.743101596832275391e-01 6.325356364250183105e-01 7.592370510101318359e-01
9.817375540733337402e-01 6.384453773498535156e-01 7.564797997474670410e-01
9.798921942710876465e-01 6.314845085144042969e-01 7.575406432151794434e-01
1.049460053443908691e+00 5.147295594215393066e-01 7.460494637489318848e-01
1.047323822975158691e+00 5.092064142227172852e-01 7.469107508659362793e-01
1.054933071136474609e+00 5.137004852294921875e-01 7.450241446495056152e-01
1.053177475929260254e+00 5.075012445449829102e-01 7.459222674369812012e-01
8.547469377517700195e-01 6.278927922248840332e-01 7.409884929656982422e-01
8.530719876289367676e-01 6.217936873435974121e-01 7.414788603782653809e-01
8.611004352569580078e-01 6.272988915443420410e-01 7.392862439155578613e-01
8.589581847190856934e-01 6.212033033370971680e-01 7.397891879081726074e-01
9.272141456604003906e-01 4.236884415149688721e-01 7.581970691680908203e-01
9.246641397476196289e-01 4.196624457836151123e-01 7.557678818702697754e-01
9.313095808029174805e-01 4.257057011127471924e-01 7.609736323356628418e-01
9.287022352218627930e-01 4.216057360172271729e-01 7.583124041557312012e-01
8.406795859336853027e-01 4.752030670642852783e-01 7.641816139221191406e-01
8.405846953392028809e-01 4.699178040027618408e-01 7.637223601341247559e-01
8.435214161872863770e-01 4.772123098373413086e-01 7.651484608650207520e-01
8.434903621673583984e-01 4.722311496734619141e-01 7.649285197257995605e-01
1.031614661216735840e+00 5.868937373161315918e-01 7.439581155776977539e-01
1.028739094734191895e+00 5.816904306411743164e-01 7.448598742485046387e-01
1.037603735923767090e+00 5.865225791931152344e-01 7.427816987037658691e-01
1.034701347351074219e+00 5.811480283737182617e-01 7.438443303108215332e-01
9.534289836883544922e-01 4.993341565132141113e-01 7.614003419876098633e-01
9.528374075889587402e-01 4.946894049644470215e-01 7.621783018112182617e-01
9.576926827430725098e-01 5.002057552337646484e-01 7.603337764739990234e-01
9.569965600967407227e-01 4.958182573318481445e-01 7.611968517303466797e-01
9.410391449928283691e-01 5.472615957260131836e-01 7.404760122299194336e-01
9.395748376846313477e-01 5.427405834197998047e-01 7.409068346023559570e-01
9.460346698760986328e-01 5.466980934143066406e-01 7.407532930374145508e-01
9.448094367980957031e-01 5.418666005134582520e-01 7.409068942070007324e-01
8.940523266792297363e-01 2.247444391250610352e-01 7.406585812568664551e-01
8.880712985992431641e-01 2.265286594629287720e-01 7.422910332679748535e-01
9.003149271011352539e-01 2.245080769062042236e-01 7.403529882431030273e-01
8.948523998260498047e-01 2.259436249732971191e-01 7.420367002487182617e-01
1.002042770385742188e+00 3.877247869968414307e-01 7.441319227218627930e-01
9.994013309478759766e-01 3.832654058933258057e-01 7.440826892852783203e-01
1.007236003875732422e+00 3.889106214046478271e-01 7.439295649528503418e-01
1.004547119140625000e+00 3.840974271297454834e-01 7.438261508941650391e-01
9.686679840087890625e-01 2.859365046024322510e-01 7.450175285339355469e-01
9.672074913978576660e-01 2.824391126632690430e-01 7.455219030380249023e-01
9.723920226097106934e-01 2.861975729465484619e-01 7.449290156364440918e-01
9.711626768112182617e-01 2.825307250022888184e-01 7.451094985008239746e-01
8.316205143928527832e-01 4.185270965099334717e-01 7.530513405799865723e-01
8.315528631210327148e-01 4.129222035408020020e-01 7.546969652175903320e-01
8.340247869491577148e-01 4.192494750022888184e-01 7.557897567749023438e-01
8.343048095703125000e-01 4.135763943195343018e-01 7.579051852226257324e-01
9.281558394432067871e-01 3.985617458820343018e-01 7.556047439575195312e-01
9.270861148834228516e-01 3.949257135391235352e-01 7.554225921630859375e-01
9.320324659347534180e-01 3.987166583538055420e-01 7.549031972885131836e-01
9.308499693870544434e-01 3.952480554580688477e-01 7.547472715377807617e-01
8.862342834472656250e-01 4.018852710723876953e-01 7.585199475288391113e-01
8.831884860992431641e-01 3.998524844646453857e-01 7.597725391387939453e-01
8.907466530799865723e-01 4.005703926086425781e-01 7.583338618278503418e-01
8.875688314437866211e-01 3.986552953720092773e-01 7.594884037971496582e-01
8.918305635452270508e-01 3.080095350742340088e-01 7.552778124809265137e-01
8.906658291816711426e-01 3.033911287784576416e-01 7.559078931808471680e-01
8.964663743972778320e-01 3.072758615016937256e-01 7.541348934173583984e-01
8.947411179542541504e-01 3.034370541572570801e-01 7.548975944519042969e-01
1.044897079467773438e+00 3.133605420589447021e-01 7.457408905029296875e-01
1.043123245239257812e+00 3.086091876029968262e-01 7.464241385459899902e-01
1.049739122390747070e+00 3.128531277179718018e-01 7.458206415176391602e-01
1.047913908958435059e+00 3.080816268920898438e-01 7.463350892066955566e-01
8.949275016784667969e-01 4.576385617256164551e-01 7.597925066947937012e-01
8.924707770347595215e-01 4.517473876476287842e-01 7.601667642593383789e-01
9.014081954956054688e-01 4.570680260658264160e-01 7.601868510246276855e-01
8.991069197654724121e-01 4.516365826129913330e-01 7.602193355560302734e-01
9.045330286026000977e-01 5.364873409271240234e-01 7.571687698364257812e-01
9.022008180618286133e-01 5.325416326522827148e-01 7.577425837516784668e-01
9.103874564170837402e-01 5.363494753837585449e-01 7.561244368553161621e-01
9.078040122985839844e-01 5.327022075653076172e-01 7.565887570381164551e-01
1.065043807029724121e+00 3.786937892436981201e-01 7.423570752143859863e-01
1.063322424888610840e+00 3.740068078041076660e-01 7.434685230255126953e-01
1.068337678909301758e+00 3.736871480941772461e-01 7.427714467048645020e-01
1.066837668418884277e+00 3.687901496887207031e-01 7.438589930534362793e-01
1.003984451293945312e+00 4.140252470970153809e-01 7.450343966484069824e-01
1.001654386520385742e+00 4.108386039733886719e-01 7.445892691612243652e-01
1.010792732238769531e+00 4.149734377861022949e-01 7.444658875465393066e-01
1.008314967155456543e+00 4.117893576622009277e-01 7.440128326416015625e-01
9.363510012626647949e-01 3.621749579906463623e-01 7.621906995773315430e-01
9.355465173721313477e-01 3.572473526000976562e-01 7.643296122550964355e-01
9.401829838752746582e-01 3.595520853996276855e-01 7.616830468177795410e-01
9.393224120140075684e-01 3.548322618007659912e-01 7.635616660118103027e-01
8.171954751014709473e-01 6.493064165115356445e-01 7.637758255004882812e-01
8.155975937843322754e-01 6.431534886360168457e-01 7.643049359321594238e-01
8.214904665946960449e-01 6.487456560134887695e-01 7.646743059158325195e-01
8.198366165161132812e-01 6.432530879974365234e-01 7.651971578598022461e-01
9.621439576148986816e-01 3.342942595481872559e-01 7.474645972251892090e-01
9.596580862998962402e-01 3.305759727954864502e-01 7.480639815330505371e-01
9.651157855987548828e-01 3.348636627197265625e-01 7.466915845870971680e-01
9.628973007202148438e-01 3.313074111938476562e-01 7.471843361854553223e-01
8.869680166244506836e-01 4.223824739456176758e-01 7.547833323478698730e-01
8.849706053733825684e-01 4.183581471443176270e-01 7.555893063545227051e-01
8.916596174240112305e-01 4.210691154003143311e-01 7.540829181671142578e-01
8.891395926475524902e-01 4.178142845630645752e-01 7.549375891685485840e-01
1.004133939743041992e+00 5.970716476440429688e-01 7.488328814506530762e-01
1.003308176994323730e+00 5.940521955490112305e-01 7.493883967399597168e-01
1.007276296615600586e+00 5.950728058815002441e-01 7.495325803756713867e-01
1.006470203399658203e+00 5.920480489730834961e-01 7.502481341361999512e-01
9.922782182693481445e-01 2.526525259017944336e-01 7.498954534530639648e-01
9.914479255676269531e-01 2.487801760435104370e-01 7.502176761627197266e-01
9.965014457702636719e-01 2.520461976528167725e-01 7.492350935935974121e-01
9.957670569419860840e-01 2.485958933830261230e-01 7.493071556091308594e-01
8.954703211784362793e-01 3.472430706024169922e-01 7.528795599937438965e-01
8.943763375282287598e-01 3.429341018199920654e-01 7.530357241630554199e-01
8.997996449470520020e-01 3.471212089061737061e-01 7.527790665626525879e-01
8.991623520851135254e-01 3.426821231842041016e-01 7.525802850723266602e-01
9.696793556213378906e-01 4.474806487560272217e-01 7.561543583869934082e-01
9.683768749237060547e-01 4.412573873996734619e-01 7.561863660812377930e-01
9.742705821990966797e-01 4.484279751777648926e-01 7.559756040573120117e-01
9.730106592178344727e-01 4.422986209392547607e-01 7.561035752296447754e-01
8.642173409461975098e-01 5.941896438598632812e-01 7.653767466545104980e-01
8.629071712493896484e-01 5.895569920539855957e-01 7.664108872413635254e-01
8.696724176406860352e-01 5.911441445350646973e-01 7.657374739646911621e-01
8.679245710372924805e-01 5.865958929061889648e-01 7.663165926933288574e-01
9.944589734077453613e-01 3.366183936595916748e-01 7.432460188865661621e-01
9.928262829780578613e-01 3.333447277545928955e-01 7.438029646873474121e-01
9.977487325668334961e-01 3.367231488227844238e-01 7.430946230888366699e-01
9.961568117141723633e-01 3.333227038383483887e-01 7.435896396636962891e-01
8.306989669799804688e-01 6.227749586105346680e-01 7.538718581199645996e-01
8.306512832641601562e-01 6.176200509071350098e-01 7.529266476631164551e-01
8.323232531547546387e-01 6.238842606544494629e-01 7.568113207817077637e-01
8.324850201606750488e-01 6.189336180686950684e-01 7.562133073806762695e-01
1.049372792243957520e+00 4.321766793727874756e-01 7.469320893287658691e-01
1.048064947128295898e+00 4.275524020195007324e-01 7.465506792068481445e-01
1.053873419761657715e+00 4.319751262664794922e-01 7.469825148582458496e-01
1.052454590797424316e+00 4.271910488605499268e-01 7.467377185821533203e-01
8.197848200798034668e-01 3.386699855327606201e-01 7.629771232604980469e-01
8.194311261177062988e-01 3.294646441936492920e-01 7.633964419364929199e-01
8.217657804489135742e-01 3.384980559349060059e-01 7.664787769317626953e-01
8.214749693870544434e-01 3.299104571342468262e-01 7.667426466941833496e-01
9.493662714958190918e-01 2.175309062004089355e-01 7.510355114936828613e-01
9.450401067733764648e-01 2.191074639558792114e-01 7.537353038787841797e-01
9.517807364463806152e-01 2.213665097951889038e-01 7.532884478569030762e-01
9.477975964546203613e-01 2.225315421819686890e-01 7.559232115745544434e-01
9.309933781623840332e-01 6.142373085021972656e-01 7.561719417572021484e-01
9.291982054710388184e-01 6.106184124946594238e-01 7.557649612426757812e-01
9.371120333671569824e-01 6.167041659355163574e-01 7.548094391822814941e-01
9.349499344825744629e-01 6.135318875312805176e-01 7.547459602355957031e-01
9.402933716773986816e-01 3.999698162078857422e-01 7.493022680282592773e-01
9.392011761665344238e-01 3.962443768978118896e-01 7.489575147628784180e-01
9.438316822052001953e-01 3.992471396923065186e-01 7.489189505577087402e-01
9.426954984664916992e-01 3.955650627613067627e-01 7.485107779502868652e-01
9.829933047294616699e-01 5.673130154609680176e-01 7.537961006164550781e-01
9.819620251655578613e-01 5.614508986473083496e-01 7.534532546997070312e-01
9.886617064476013184e-01 5.692703723907470703e-01 7.530620098114013672e-01
9.870508909225463867e-01 5.633173584938049316e-01 7.527962923049926758e-01
8.992094993591308594e-01 4.546768069267272949e-01 7.395118474960327148e-01
8.964380025863647461e-01 4.486901164054870605e-01 7.396935820579528809e-01
9.059072732925415039e-01 4.536893367767333984e-01 7.395132780075073242e-01
9.031368494033813477e-01 4.476457834243774414e-01 7.395163774490356445e-01
9.141829609870910645e-01 6.176084876060485840e-01 7.512074112892150879e-01
9.113825559616088867e-01 6.147336959838867188e-01 7.514953613281250000e-01
9.186532497406005859e-01 6.169878840446472168e-01 7.510173916816711426e-01
9.160882234573364258e-01 6.138818860054016113e-01 7.511833310127258301e-01
8.887648582458496094e-01 4.526051580905914307e-01 7.548808455467224121e-01
8.858995437622070312e-01 4.468957781791687012e-01 7.554471492767333984e-01
8.950392603874206543e-01 4.532452225685119629e-01 7.551996707916259766e-01
8.925383090972900391e-01 4.478028118610382080e-01 7.553300261497497559e-01
9.194350838661193848e-01 3.644845187664031982e-01 7.565397024154663086e-01
9.169847965240478516e-01 3.604055345058441162e-01 7.579575777053833008e-01
9.233391284942626953e-01 3.647393882274627686e-01 7.566817402839660645e-01
9.208981990814208984e-01 3.606170117855072021e-01 7.581131458282470703e-01
9.319915771484375000e-01 3.470789194107055664e-01 7.575675249099731445e-01
9.309784770011901855e-01 3.426800668239593506e-01 7.573283910751342773e-01
9.363495707511901855e-01 3.482357561588287354e-01 7.572968602180480957e-01
9.358423352241516113e-01 3.430759906768798828e-01 7.569736838340759277e-01
9.845719337463378906e-01 2.750789821147918701e-01 7.435320019721984863e-01
9.837025403976440430e-01 2.719133496284484863e-01 7.438781261444091797e-01
9.888645410537719727e-01 2.744028866291046143e-01 7.432196140289306641e-01
9.878152608871459961e-01 2.711577415466308594e-01 7.435258030891418457e-01
9.855803847312927246e-01 3.407435715198516846e-01 7.425636053085327148e-01
9.840017557144165039e-01 3.372366428375244141e-01 7.431696653366088867e-01
9.889416694641113281e-01 3.404355943202972412e-01 7.425168156623840332e-01
9.874550104141235352e-01 3.369162082672119141e-01 7.430202960968017578e-01
8.399177789688110352e-01 5.318479537963867188e-01 7.594636082649230957e-01
8.381695747375488281e-01 5.279610753059387207e-01 7.593833208084106445e-01
8.429272770881652832e-01 5.318053364753723145e-01 7.600588202476501465e-01
8.410776257514953613e-01 5.284248590469360352e-01 7.599402070045471191e-01
8.890526890754699707e-01 5.354547500610351562e-01 7.578552961349487305e-01
8.880321979522705078e-01 5.305695533752441406e-01 7.584911584854125977e-01
8.925345540046691895e-01 5.332939028739929199e-01 7.581418156623840332e-01
8.916403055191040039e-01 5.281373858451843262e-01 7.588019967079162598e-01
9.211140871047973633e-01 6.277617812156677246e-01 7.634811997413635254e-01
9.198580980300903320e-01 6.247765421867370605e-01 7.629877924919128418e-01
9.257987141609191895e-01 6.292077302932739258e-01 7.625241875648498535e-01
9.245391488075256348e-01 6.263032555580139160e-01 7.621698975563049316e-01
1.022462368011474609e+00 6.103677153587341309e-01 7.455724477767944336e-01
1.020433306694030762e+00 6.074898838996887207e-01 7.461302876472473145e-01
1.027788996696472168e+00 6.085264682769775391e-01 7.460883259773254395e-01
1.025822639465332031e+00 6.056196689605712891e-01 7.466272711753845215e-01
9.323744773864746094e-01 6.757649779319763184e-01 7.404666543006896973e-01
9.297687411308288574e-01 6.710740327835083008e-01 7.409732937812805176e-01
9.374518990516662598e-01 6.747778654098510742e-01 7.406363487243652344e-01
9.347491264343261719e-01 6.703496575355529785e-01 7.414012551307678223e-01
8.352981209754943848e-01 4.969636201858520508e-01 7.651791572570800781e-01
8.351591229438781738e-01 4.907791912555694580e-01 7.657138705253601074e-01
8.374418616294860840e-01 4.976314604282379150e-01 7.679395079612731934e-01
8.372817635536193848e-01 4.915099740028381348e-01 7.683327198028564453e-01
9.260858893394470215e-01 3.332978188991546631e-01 7.573930025100708008e-01
9.222792983055114746e-01 3.325799107551574707e-01 7.574501633644104004e-01
9.301266670227050781e-01 3.356049954891204834e-01 7.584127187728881836e-01
9.275424480438232422e-01 3.329191505908966064e-01 7.581782341003417969e-01
9.056392908096313477e-01 4.798946976661682129e-01 7.586907744407653809e-01
9.040198922157287598e-01 4.755712449550628662e-01 7.583712339401245117e-01
9.105339646339416504e-01 4.808175265789031982e-01 7.586007118225097656e-01
9.093481302261352539e-01 4.764477014541625977e-01 7.581276297569274902e-01
9.005249738693237305e-01 6.027711033821105957e-01 7.586759924888610840e-01
8.978079557418823242e-01 5.988553762435913086e-01 7.587066292762756348e-01
9.069491028785705566e-01 6.045741438865661621e-01 7.581787109375000000e-01
9.042218923568725586e-01 6.007266640663146973e-01 7.581109404563903809e-01
8.500400185585021973e-01 3.029561936855316162e-01 7.672502994537353516e-01
8.484103679656982422e-01 2.990041673183441162e-01 7.675905823707580566e-01
8.545687794685363770e-01 3.013403117656707764e-01 7.689279317855834961e-01
8.529153466224670410e-01 2.974607944488525391e-01 7.692607641220092773e-01
1.019708156585693359e+00 2.811307013034820557e-01 7.447015643119812012e-01
1.018299579620361328e+00 2.757442295551300049e-01 7.453303933143615723e-01
1.024753212928771973e+00 2.822588086128234863e-01 7.446137070655822754e-01
1.023132681846618652e+00 2.764714062213897705e-01 7.451579570770263672e-01
1.062918543815612793e+00 4.207812249660491943e-01 7.429183125495910645e-01
1.061251401901245117e+00 4.160172641277313232e-01 7.429074048995971680e-01
1.068528532981872559e+00 4.187942743301391602e-01 7.425406575202941895e-01
1.066822886466979980e+00 4.138779640197753906e-01 7.425298690795898438e-01
9.432998299598693848e-01 5.017390847206115723e-01 7.484841346740722656e-01
9.418529868125915527e-01 4.978033006191253662e-01 7.488623857498168945e-01
9.471713900566101074e-01 5.008592009544372559e-01 7.481640577316284180e-01
9.457542300224304199e-01 4.967100024223327637e-01 7.486047744750976562e-01
8.168163895606994629e-01 3.925568759441375732e-01 7.395694255828857422e-01
8.160176873207092285e-01 3.866017758846282959e-01 7.399710416793823242e-01
8.205341100692749023e-01 3.926236629486083984e-01 7.401071786880493164e-01
8.193889856338500977e-01 3.868263363838195801e-01 7.404630184173583984e-01
9.029829502105712891e-01 2.523415088653564453e-01 7.395898103713989258e-01
9.001445770263671875e-01 2.469312101602554321e-01 7.401443719863891602e-01
9.094088673591613770e-01 2.504842877388000488e-01 7.393331527709960938e-01
9.068473577499389648e-01 2.452108114957809448e-01 7.399787306785583496e-01
8.204740285873413086e-01 5.181911587715148926e-01 7.646192312240600586e-01
8.202216625213623047e-01 5.115367770195007324e-01 7.633951306343078613e-01
8.247910141944885254e-01 5.183318853378295898e-01 7.645882964134216309e-01
8.241425156593322754e-01 5.123898983001708984e-01 7.634288668632507324e-01
8.420757055282592773e-01 6.624995470046997070e-01 7.375129461288452148e-01
8.412914872169494629e-01 6.570113897323608398e-01 7.370995283126831055e-01
8.453387618064880371e-01 6.623838543891906738e-01 7.373245954513549805e-01
8.444460034370422363e-01 6.569647789001464844e-01 7.369783520698547363e-01
8.543773889541625977e-01 4.803700745105743408e-01 7.574337720870971680e-01
8.534752130508422852e-01 4.758204817771911621e-01 7.575767040252685547e-01
8.587530851364135742e-01 4.800440073013305664e-01 7.572683691978454590e-01
8.576563000679016113e-01 4.758497774600982666e-01 7.573729157447814941e-01
9.871068000793457031e-01 2.904850840568542480e-01 7.467060685157775879e-01
9.858078360557556152e-01 2.867314815521240234e-01 7.463774681091308594e-01
9.922353625297546387e-01 2.911287844181060791e-01 7.473240494728088379e-01
9.908795356750488281e-01 2.879377305507659912e-01 7.468430995941162109e-01
9.798520803451538086e-01 4.491938054561614990e-01 7.446635961532592773e-01
9.783486723899841309e-01 4.462380707263946533e-01 7.446058988571166992e-01
9.831115007400512695e-01 4.496578276157379150e-01 7.447924613952636719e-01
9.814118742942810059e-01 4.467580914497375488e-01 7.445505261421203613e-01
9.472405910491943359e-01 5.304147005081176758e-01 7.456718683242797852e-01
9.442670941352844238e-01 5.316922664642333984e-01 7.473841309547424316e-01
9.494443535804748535e-01 5.309363603591918945e-01 7.477387189865112305e-01
9.458438158035278320e-01 5.330722928047180176e-01 7.498750090599060059e-01
8.460608124732971191e-01 6.638176441192626953e-01 7.376186847686767578e-01
8.451477885246276855e-01 6.584942340850830078e-01 7.373535037040710449e-01
8.494648337364196777e-01 6.637239456176757812e-01 7.373703718185424805e-01
8.483719825744628906e-01 6.584555506706237793e-01 7.370955944061279297e-01
8.354688286781311035e-01 4.929292500019073486e-01 7.599458098411560059e-01
8.352765440940856934e-01 4.873187541961669922e-01 7.602537870407104492e-01
8.366985917091369629e-01 4.954085350036621094e-01 7.627770900726318359e-01
8.366320729255676270e-01 4.892673194408416748e-01 7.634387612342834473e-01
8.296200037002563477e-01 5.701515078544616699e-01 7.456337213516235352e-01
8.291953802108764648e-01 5.647262930870056152e-01 7.463440895080566406e-01
8.328924179077148438e-01 5.678715109825134277e-01 7.474869489669799805e-01
8.324471116065979004e-01 5.624325275421142578e-01 7.482261657714843750e-01
8.339329361915588379e-01 3.303793370723724365e-01 7.576136589050292969e-01
8.331006169319152832e-01 3.266283869743347168e-01 7.573524713516235352e-01
8.366827964782714844e-01 3.307454884052276611e-01 7.595218420028686523e-01
8.356395959854125977e-01 3.271494209766387939e-01 7.591872215270996094e-01
8.847083449363708496e-01 6.399849057197570801e-01 7.386216521263122559e-01
8.829933404922485352e-01 6.341513991355895996e-01 7.384289503097534180e-01
8.907030224800109863e-01 6.361204981803894043e-01 7.383471131324768066e-01
8.890580534934997559e-01 6.306545734405517578e-01 7.384222745895385742e-01
8.474318981170654297e-01 4.924088120460510254e-01 7.582997083663940430e-01
8.462967276573181152e-01 4.880696535110473633e-01 7.585478425025939941e-01
8.511506319046020508e-01 4.924734532833099365e-01 7.589476108551025391e-01
8.500041365623474121e-01 4.880906343460083008e-01 7.592224478721618652e-01
1.055985689163208008e+00 3.102615177631378174e-01 7.432349324226379395e-01
1.054222226142883301e+00 3.059364259243011475e-01 7.439855933189392090e-01
1.060601234436035156e+00 3.094600439071655273e-01 7.428365349769592285e-01
1.058876633644104004e+00 3.053019344806671143e-01 7.436413168907165527e-01
8.539004921913146973e-01 6.668465137481689453e-01 7.618759274482727051e-01
8.519191145896911621e-01 6.603815555572509766e-01 7.622058391571044922e-01
8.610540628433227539e-01 6.662866473197937012e-01 7.611928582191467285e-01
8.591277599334716797e-01 6.608954668045043945e-01 7.615478038787841797e-01
8.919059634208679199e-01 5.644285678863525391e-01 7.549833655357360840e-01
8.900898098945617676e-01 5.600606799125671387e-01 7.557200193405151367e-01
8.965131044387817383e-01 5.660458207130432129e-01 7.540782094001770020e-01
8.948287963867187500e-01 5.622478127479553223e-01 7.546181678771972656e-01
8.573555946350097656e-01 5.063120126724243164e-01 7.692830562591552734e-01
8.557426929473876953e-01 5.008323788642883301e-01 7.700142264366149902e-01
8.621056079864501953e-01 5.052028894424438477e-01 7.684363126754760742e-01
8.605551719665527344e-01 4.993190467357635498e-01 7.690976262092590332e-01
9.841477870941162109e-01 5.207163691520690918e-01 7.550638914108276367e-01
9.822792410850524902e-01 5.155467987060546875e-01 7.556178569793701172e-01
9.902985692024230957e-01 5.212993621826171875e-01 7.551733851432800293e-01
9.885517954826354980e-01 5.157921910285949707e-01 7.559232711791992188e-01
1.061293840408325195e+00 3.321902751922607422e-01 7.424807548522949219e-01
1.059937238693237305e+00 3.273412585258483887e-01 7.430862188339233398e-01
1.065424919128417969e+00 3.309646546840667725e-01 7.430801391601562500e-01
1.063980579376220703e+00 3.260487020015716553e-01 7.436999082565307617e-01
8.785228729248046875e-01 5.856273174285888672e-01 7.558327913284301758e-01
8.766850233078002930e-01 5.806134343147277832e-01 7.571786642074584961e-01
8.832450509071350098e-01 5.845160484313964844e-01 7.548654079437255859e-01
8.816320300102233887e-01 5.794779658317565918e-01 7.560349702835083008e-01
9.132991433143615723e-01 4.910281598567962646e-01 7.633618712425231934e-01
9.129483699798583984e-01 4.862243235111236572e-01 7.629092931747436523e-01
9.173709154129028320e-01 4.913325011730194092e-01 7.630203962326049805e-01
9.171000123023986816e-01 4.865917265415191650e-01 7.626269459724426270e-01
9.304927587509155273e-01 5.094825625419616699e-01 7.495755553245544434e-01
9.289591312408447266e-01 5.057342052459716797e-01 7.500104904174804688e-01
9.341605901718139648e-01 5.096770524978637695e-01 7.491798996925354004e-01
9.326966404914855957e-01 5.058400034904479980e-01 7.495279908180236816e-01
8.318958878517150879e-01 6.980581879615783691e-01 7.515094876289367676e-01
8.317417502403259277e-01 6.948678493499755859e-01 7.524733543395996094e-01
8.333398699760437012e-01 6.989988088607788086e-01 7.539467811584472656e-01
8.331697583198547363e-01 6.959479451179504395e-01 7.552018165588378906e-01
1.018865346908569336e+00 4.732005000114440918e-01 7.436847090721130371e-01
1.017620921134948730e+00 4.677357971668243408e-01 7.435889840126037598e-01
1.022874474525451660e+00 4.717883467674255371e-01 7.437508106231689453e-01
1.021403789520263672e+00 4.662015140056610107e-01 7.439230084419250488e-01
9.853641390800476074e-01 3.500106930732727051e-01 7.541354298591613770e-01
9.844555854797363281e-01 3.454358875751495361e-01 7.539324760437011719e-01
9.896003007888793945e-01 3.525887131690979004e-01 7.547601461410522461e-01
9.886499643325805664e-01 3.478251397609710693e-01 7.545575499534606934e-01
9.079784750938415527e-01 4.781589806079864502e-01 7.610028982162475586e-01
9.068114757537841797e-01 4.737409353256225586e-01 7.605771422386169434e-01
9.133687019348144531e-01 4.797902405261993408e-01 7.614212036132812500e-01
9.124980568885803223e-01 4.751644730567932129e-01 7.609561085700988770e-01
9.038534164428710938e-01 2.346243411302566528e-01 7.633432149887084961e-01
9.006582498550415039e-01 2.326675653457641602e-01 7.643920183181762695e-01
9.082996845245361328e-01 2.346762120723724365e-01 7.637830376625061035e-01
9.052204489707946777e-01 2.323472946882247925e-01 7.647865414619445801e-01
8.187384009361267090e-01 6.417298316955566406e-01 7.640919685363769531e-01
8.171047568321228027e-01 6.358447074890136719e-01 7.643915414810180664e-01
8.229011297225952148e-01 6.409764885902404785e-01 7.645955681800842285e-01
8.213257193565368652e-01 6.357524394989013672e-01 7.648488879203796387e-01
9.058980345726013184e-01 5.802759528160095215e-01 7.594707608222961426e-01
9.039428234100341797e-01 5.760876536369323730e-01 7.596991062164306641e-01
9.119526147842407227e-01 5.797994732856750488e-01 7.588197588920593262e-01
9.098752140998840332e-01 5.758337378501892090e-01 7.590485811233520508e-01
8.960680365562438965e-01 3.295964300632476807e-01 7.628861069679260254e-01
8.947214484214782715e-01 3.246347010135650635e-01 7.633503079414367676e-01
9.017796516418457031e-01 3.298227787017822266e-01 7.624673247337341309e-01
9.002025127410888672e-01 3.253239989280700684e-01 7.626845836639404297e-01
1.006995677947998047e+00 5.291719436645507812e-01 7.478822469711303711e-01
1.005498647689819336e+00 5.252045989036560059e-01 7.480869293212890625e-01
1.012346982955932617e+00 5.284227132797241211e-01 7.482451796531677246e-01
1.010773301124572754e+00 5.243207812309265137e-01 7.484904527664184570e-01
8.576836585998535156e-01 6.982968449592590332e-01 7.573843002319335938e-01
8.549013137817382812e-01 6.952059268951416016e-01 7.598290443420410156e-01
8.623269796371459961e-01 6.975407004356384277e-01 7.575680613517761230e-01
8.597889542579650879e-01 6.931459903717041016e-01 7.594863176345825195e-01
9.037994742393493652e-01 6.171833872795104980e-01 7.388609051704406738e-01
9.014306068420410156e-01 6.107826232910156250e-01 7.392168641090393066e-01
9.095486402511596680e-01 6.186695694923400879e-01 7.400860786437988281e-01
9.071285724639892578e-01 6.122792363166809082e-01 7.402964830398559570e-01
9.692340493202209473e-01 5.923355817794799805e-01 7.532539367675781250e-01
9.668605923652648926e-01 5.903975367546081543e-01 7.531999945640563965e-01
9.739971756935119629e-01 5.927404165267944336e-01 7.537143230438232422e-01
9.718239307403564453e-01 5.904359817504882812e-01 7.536030411720275879e-01
9.072663784027099609e-01 6.697053909301757812e-01 7.589355111122131348e-01
9.051243662834167480e-01 6.651855111122131348e-01 7.590225338935852051e-01
9.120532870292663574e-01 6.694107055664062500e-01 7.583231329917907715e-01
9.099155664443969727e-01 6.646765470504760742e-01 7.582679390907287598e-01
8.758507966995239258e-01 2.684459686279296875e-01 7.385197877883911133e-01
8.744105100631713867e-01 2.633271515369415283e-01 7.386993169784545898e-01
8.812380433082580566e-01 2.650934457778930664e-01 7.378711104393005371e-01
8.795655369758605957e-01 2.597936689853668213e-01 7.380597591400146484e-01
8.919407129287719727e-01 3.532469272613525391e-01 7.549310922622680664e-01
8.905174732208251953e-01 3.487265706062316895e-01 7.553302049636840820e-01
8.962609767913818359e-01 3.536270856857299805e-01 7.538946866989135742e-01
8.951909542083740234e-01 3.491840660572052002e-01 7.540706396102905273e-01
9.939203858375549316e-01 4.122004806995391846e-01 7.447476387023925781e-01
9.918811321258544922e-01 4.074367880821228027e-01 7.448747754096984863e-01
9.995405673980712891e-01 4.126275181770324707e-01 7.443261146545410156e-01
9.976553320884704590e-01 4.088132083415985107e-01 7.441604733467102051e-01
9.032737016677856445e-01 2.848611772060394287e-01 7.521239519119262695e-01
9.009003043174743652e-01 2.814314663410186768e-01 7.530156373977661133e-01
9.077941179275512695e-01 2.839213013648986816e-01 7.527803778648376465e-01
9.053598642349243164e-01 2.804528772830963135e-01 7.534117102622985840e-01
8.308168053627014160e-01 5.816197991371154785e-01 7.514274716377258301e-01
8.291449546813964844e-01 5.772922635078430176e-01 7.502430081367492676e-01
8.339225649833679199e-01 5.826330184936523438e-01 7.534379363059997559e-01
8.322667479515075684e-01 5.781656503677368164e-01 7.522375583648681641e-01
1.028822302818298340e+00 3.356733024120330811e-01 7.465268969535827637e-01
1.027399301528930664e+00 3.304398953914642334e-01 7.470435500144958496e-01
1.033135056495666504e+00 3.345308601856231689e-01 7.462385892868041992e-01
1.031948208808898926e+00 3.292574584484100342e-01 7.468563318252563477e-01
8.456358313560485840e-01 6.446217298507690430e-01 7.630825042724609375e-01
8.434305191040039062e-01 6.386342048645019531e-01 7.640504837036132812e-01
8.502205014228820801e-01 6.431552171707153320e-01 7.623722553253173828e-01
8.481301069259643555e-01 6.373156309127807617e-01 7.633846402168273926e-01
8.310291767120361328e-01 2.688447237014770508e-01 7.519477605819702148e-01
8.312495946884155273e-01 2.648299634456634521e-01 7.530181407928466797e-01
8.329870104789733887e-01 2.675581574440002441e-01 7.547785043716430664e-01
8.331379890441894531e-01 2.634875774383544922e-01 7.558498978614807129e-01
8.360245823860168457e-01 3.593975603580474854e-01 7.373073101043701172e-01
8.341655135154724121e-01 3.553896844387054443e-01 7.376661300659179688e-01
8.404739499092102051e-01 3.597689270973205566e-01 7.368480563163757324e-01
8.385786414146423340e-01 3.556605577468872070e-01 7.371709942817687988e-01
9.093052744865417480e-01 5.724374055862426758e-01 7.523813247680664062e-01
9.059550762176513672e-01 5.693543553352355957e-01 7.533282637596130371e-01
9.135624170303344727e-01 5.725321769714355469e-01 7.519725561141967773e-01
9.101904630661010742e-01 5.693528652191162109e-01 7.528942823410034180e-01
8.316243886947631836e-01 6.567023992538452148e-01 7.591572999954223633e-01
8.299736976623535156e-01 6.517182588577270508e-01 7.594161629676818848e-01
8.354020714759826660e-01 6.565785408020019531e-01 7.604483366012573242e-01
8.335061073303222656e-01 6.517476439476013184e-01 7.607910037040710449e-01
9.632084369659423828e-01 6.569786071777343750e-01 7.517203688621520996e-01
9.615093469619750977e-01 6.533969044685363770e-01 7.512008547782897949e-01
9.679266214370727539e-01 6.578387618064880371e-01 7.521441578865051270e-01
9.665247797966003418e-01 6.536256670951843262e-01 7.516942024230957031e-01
1.014175295829772949e+00 3.107982277870178223e-01 7.463627457618713379e-01
1.012606978416442871e+00 3.056894242763519287e-01 7.464053630828857422e-01
1.019622206687927246e+00 3.096676170825958252e-01 7.460938096046447754e-01
1.018253326416015625e+00 3.043223321437835693e-01 7.461556196212768555e-01
9.390091300010681152e-01 4.328365027904510498e-01 7.406091690063476562e-01
9.369720816612243652e-01 4.278460443019866943e-01 7.406492233276367188e-01
9.433029294013977051e-01 4.313673675060272217e-01 7.418833374977111816e-01
9.411977529525756836e-01 4.265390634536743164e-01 7.418735027313232422e-01
9.060080051422119141e-01 2.509831786155700684e-01 7.531859278678894043e-01
9.033992886543273926e-01 2.467065304517745972e-01 7.536588311195373535e-01
9.107654094696044922e-01 2.505149841308593750e-01 7.519444227218627930e-01
9.084870815277099609e-01 2.462520301342010498e-01 7.527638673782348633e-01
9.944570660591125488e-01 6.324569582939147949e-01 7.498193383216857910e-01
9.930909276008605957e-01 6.282472014427185059e-01 7.491347789764404297e-01
9.997662901878356934e-01 6.347747445106506348e-01 7.497400045394897461e-01
9.986657500267028809e-01 6.305814385414123535e-01 7.492291927337646484e-01
9.706045389175415039e-01 5.148267149925231934e-01 7.561097145080566406e-01
9.685996174812316895e-01 5.102146863937377930e-01 7.569132447242736816e-01
9.760236144065856934e-01 5.140400528907775879e-01 7.559971213340759277e-01
9.738498330116271973e-01 5.093799233436584473e-01 7.565125823020935059e-01
1.003564834594726562e+00 6.293495297431945801e-01 7.442261576652526855e-01
1.002987146377563477e+00 6.248422861099243164e-01 7.438626885414123535e-01
1.007245302200317383e+00 6.296565532684326172e-01 7.443240284919738770e-01
1.006697177886962891e+00 6.250948309898376465e-01 7.439083456993103027e-01
9.592696428298950195e-01 5.307866334915161133e-01 7.447568774223327637e-01
9.575513601303100586e-01 5.275566577911376953e-01 7.452645897865295410e-01
9.636706113815307617e-01 5.323414802551269531e-01 7.470846772193908691e-01
9.617769122123718262e-01 5.282816290855407715e-01 7.470966577529907227e-01
9.029807448387145996e-01 2.739024162292480469e-01 7.403385639190673828e-01
8.996642827987670898e-01 2.688407897949218750e-01 7.406442761421203613e-01
9.089279174804687500e-01 2.727166116237640381e-01 7.401427030563354492e-01
9.059669971466064453e-01 2.674190700054168701e-01 7.406613826751708984e-01
1.000622510910034180e+00 4.578379690647125244e-01 7.422117590904235840e-01
9.991065263748168945e-01 4.541815221309661865e-01 7.415774464607238770e-01
1.004942178726196289e+00 4.564311504364013672e-01 7.439035773277282715e-01
1.003517270088195801e+00 4.525399506092071533e-01 7.434339523315429688e-01
1.051751375198364258e+00 3.823417425155639648e-01 7.455759048461914062e-01
1.049175024032592773e+00 3.791475892066955566e-01 7.463045120239257812e-01
1.057566523551940918e+00 3.817627131938934326e-01 7.451006770133972168e-01
1.055181145668029785e+00 3.783009350299835205e-01 7.458610534667968750e-01
1.001007318496704102e+00 2.703756392002105713e-01 7.444716691970825195e-01
9.996399879455566406e-01 2.664980292320251465e-01 7.447656989097595215e-01
1.004588365554809570e+00 2.688693702220916748e-01 7.447516918182373047e-01
1.003162860870361328e+00 2.647566497325897217e-01 7.448562979698181152e-01
9.540979266166687012e-01 4.181960821151733398e-01 7.435661554336547852e-01
9.524199366569519043e-01 4.146991074085235596e-01 7.433772683143615723e-01
9.584881663322448730e-01 4.190003275871276855e-01 7.436099648475646973e-01
9.567402005195617676e-01 4.155391156673431396e-01 7.434334158897399902e-01
8.730517029762268066e-01 3.790242671966552734e-01 7.379778623580932617e-01
8.699173927307128906e-01 3.732652366161346436e-01 7.385165691375732422e-01
8.803115487098693848e-01 3.779412508010864258e-01 7.376517057418823242e-01
8.768626451492309570e-01 3.721276819705963135e-01 7.379906773567199707e-01
9.483754634857177734e-01 6.385980248451232910e-01 7.532253861427307129e-01
9.464269876480102539e-01 6.347510218620300293e-01 7.535725235939025879e-01
9.534969925880432129e-01 6.390765905380249023e-01 7.537759542465209961e-01
9.516347646713256836e-01 6.351751089096069336e-01 7.540849447250366211e-01
8.506996631622314453e-01 2.973196208477020264e-01 7.685142755508422852e-01
8.490598797798156738e-01 2.934710085391998291e-01 7.687155008316040039e-01
8.552125692367553711e-01 2.964630424976348877e-01 7.699657678604125977e-01
8.536633253097534180e-01 2.925833165645599365e-01 7.701121568679809570e-01
9.755312204360961914e-01 2.542193830013275146e-01 7.518807053565979004e-01
9.723869562149047852e-01 2.530162632465362549e-01 7.532025575637817383e-01
9.792592525482177734e-01 2.530770301818847656e-01 7.521380186080932617e-01
9.761110544204711914e-01 2.518574595451354980e-01 7.534693479537963867e-01
8.701322674751281738e-01 4.080478250980377197e-01 7.401677370071411133e-01
8.692110776901245117e-01 4.021026492118835449e-01 7.399376630783081055e-01
8.761571645736694336e-01 4.044069051742553711e-01 7.388808727264404297e-01
8.748483657836914062e-01 3.988808989524841309e-01 7.386414408683776855e-01
1.015616178512573242e+00 5.088822245597839355e-01 7.445023059844970703e-01
1.014480710029602051e+00 5.044608712196350098e-01 7.447323799133300781e-01
1.019424796104431152e+00 5.071250200271606445e-01 7.447281479835510254e-01
1.018338084220886230e+00 5.022994875907897949e-01 7.448375225067138672e-01
8.438745141029357910e-01 6.195216178894042969e-01 7.597755193710327148e-01
8.428397178649902344e-01 6.136214733123779297e-01 7.593091130256652832e-01
8.474604487419128418e-01 6.201751232147216797e-01 7.603073120117187500e-01
8.462448716163635254e-01 6.141666769981384277e-01 7.599522471427917480e-01
1.024776935577392578e+00 6.088709831237792969e-01 7.430420517921447754e-01
1.022836327552795410e+00 6.058676838874816895e-01 7.435955405235290527e-01
1.029641389846801758e+00 6.066116690635681152e-01 7.433818578720092773e-01
1.027672290802001953e+00 6.035299301147460938e-01 7.439339160919189453e-01
8.698765635490417480e-01 2.419153302907943726e-01 7.558532357215881348e-01
8.658065795898437500e-01 2.433529943227767944e-01 7.564477920532226562e-01
8.742372393608093262e-01 2.428568005561828613e-01 7.575571537017822266e-01
8.705311417579650879e-01 2.429893165826797485e-01 7.577317953109741211e-01
9.227859377861022949e-01 5.434142351150512695e-01 7.543920278549194336e-01
9.209210872650146484e-01 5.407699346542358398e-01 7.551798224449157715e-01
9.252645373344421387e-01 5.411217808723449707e-01 7.549790740013122559e-01
9.235072731971740723e-01 5.384318828582763672e-01 7.559457421302795410e-01
8.299587368965148926e-01 4.811172485351562500e-01 7.405529022216796875e-01
8.289468288421630859e-01 4.757797420024871826e-01 7.408819794654846191e-01
8.333058953285217285e-01 4.815842509269714355e-01 7.441546916961669922e-01
8.323581218719482422e-01 4.762117564678192139e-01 7.444369196891784668e-01
9.306446313858032227e-01 4.794342815876007080e-01 7.513058185577392578e-01
9.280955195426940918e-01 4.769499003887176514e-01 7.519535422325134277e-01
9.355779886245727539e-01 4.780381917953491211e-01 7.504941821098327637e-01
9.323190450668334961e-01 4.748609364032745361e-01 7.512710690498352051e-01
8.187199831008911133e-01 3.740549683570861816e-01 7.639645934104919434e-01
8.171161413192749023e-01 3.687358498573303223e-01 7.640111446380615234e-01
8.227689266204833984e-01 3.742219507694244385e-01 7.647667527198791504e-01
8.210626840591430664e-01 3.695390224456787109e-01 7.646658420562744141e-01
9.689674377441406250e-01 3.955408036708831787e-01 7.508407235145568848e-01
9.675710201263427734e-01 3.905668854713439941e-01 7.513914704322814941e-01
9.727786779403686523e-01 3.958763182163238525e-01 7.510905265808105469e-01
9.712832570075988770e-01 3.910536170005798340e-01 7.518180012702941895e-01
9.622119665145874023e-01 4.383524358272552490e-01 7.471739053726196289e-01
9.604970216751098633e-01 4.347918331623077393e-01 7.474188804626464844e-01
9.668354392051696777e-01 4.371964633464813232e-01 7.484105825424194336e-01
9.649785757064819336e-01 4.336061477661132812e-01 7.485278844833374023e-01
9.066160321235656738e-01 5.308290123939514160e-01 7.532699108123779297e-01
9.041947126388549805e-01 5.272766947746276855e-01 7.535780668258666992e-01
9.112173914909362793e-01 5.307543873786926270e-01 7.529380321502685547e-01
9.087226986885070801e-01 5.272737741470336914e-01 7.531549334526062012e-01
9.471824169158935547e-01 6.375525593757629395e-01 7.484201192855834961e-01
9.451498389244079590e-01 6.337898969650268555e-01 7.489979863166809082e-01
9.510399103164672852e-01 6.370659470558166504e-01 7.492319941520690918e-01
