5.065268993377685547e+00 5.526641368865966797e+00 2.917180299758911133e+00
4.935060977935791016e+00 5.536777973175048828e+00 3.009806871414184570e+00
-3.485642671585083008e+00 5.138502120971679688e+00 1.139456033706665039e+00
-3.536952495574951172e+00 5.049688816070556641e+00 1.178871393203735352e+00
-3.392655134201049805e+00 5.103405475616455078e+00 1.158722281455993652e+00
-3.448136091232299805e+00 5.021443843841552734e+00 1.201231002807617188e+00
1.116016983985900879e+00 5.092627525329589844e+00 4.812792241573333740e-01
1.059524893760681152e+00 5.039338111877441406e+00 4.733299612998962402e-01
1.189438700675964355e+00 5.097161769866943359e+00 5.021438598632812500e-01
1.129915475845336914e+00 5.080699443817138672e+00 5.215158462524414062e-01
1.869384884834289551e+00 2.936969757080078125e+00 1.894747495651245117e+00
1.737585306167602539e+00 2.924627065658569336e+00 1.990316748619079590e+00
1.935630679130554199e+00 2.927074432373046875e+00 2.051295280456542969e+00
1.792962074279785156e+00 2.914043903350830078e+00 2.141189575195312500e+00
-7.304680943489074707e-01 3.172359704971313477e+00 9.299842119216918945e-01
-8.557153344154357910e-01 3.166296243667602539e+00 9.474152922630310059e-01
-6.464692354202270508e-01 3.225332498550415039e+00 9.820507168769836426e-01
-7.679610252380371094e-01 3.243084907531738281e+00 1.029868841171264648e+00
4.857075691223144531e+00 5.044755458831787109e+00 4.447069168090820312e+00
4.751767635345458984e+00 4.902438640594482422e+00 4.479122161865234375e+00
5.033964157104492188e+00 5.006106853485107422e+00 4.419919013977050781e+00
4.925742149353027344e+00 4.860747337341308594e+00 4.455633163452148438e+00
1.177357196807861328e+01 4.169353485107421875e+00 2.720422029495239258e+00
1.178258800506591797e+01 4.043095588684082031e+00 2.740083932876586914e+00
1.177977848052978516e+01 4.208328723907470703e+00 2.869867086410522461e+00
1.178494167327880859e+01 4.086166858673095703e+00 2.888749361038208008e+00
-4.182914257049560547e+00 5.529663085937500000e+00 1.748217195272445679e-01
-4.195267677307128906e+00 5.451856136322021484e+00 2.195875495672225952e-01
-4.194653987884521484e+00 5.560603618621826172e+00 2.893553376197814941e-01
-4.211644649505615234e+00 5.471742630004882812e+00 3.281724452972412109e-01
1.118791699409484863e+00 5.550505638122558594e+00 2.204142808914184570e+00
1.029488921165466309e+00 5.551855087280273438e+00 2.322387456893920898e+00
1.211913585662841797e+00 5.554344654083251953e+00 2.368882179260253906e+00
1.121602416038513184e+00 5.552945613861083984e+00 2.485246181488037109e+00
3.481950998306274414e+00 2.926756381988525391e+00 3.548251152038574219e+00
3.355264663696289062e+00 2.923569917678833008e+00 3.627111911773681641e+00
3.541416883468627930e+00 2.923043012619018555e+00 3.682312488555908203e+00
3.435608625411987305e+00 2.929633617401123047e+00 3.785396814346313477e+00
-5.846043229103088379e-01 4.853223323822021484e+00 1.205055594444274902e+00
-6.510018706321716309e-01 4.786298751831054688e+00 1.239955306053161621e+00
-4.895602166652679443e-01 4.945841312408447266e+00 1.207765102386474609e+00
-5.697961449623107910e-01 4.891227722167968750e+00 1.245501160621643066e+00
1.514255762100219727e+00 3.321971178054809570e+00 -5.451738834381103516e-04
1.398799061775207520e+00 3.296235322952270508e+00 4.622157663106918335e-02
1.652942895889282227e+00 3.259971380233764648e+00 5.634599551558494568e-02
1.526348352432250977e+00 3.246009826660156250e+00 1.040466874837875366e-01
4.721958637237548828e+00 5.606681823730468750e+00 4.269319057464599609e+00
4.631401538848876953e+00 5.531873703002929688e+00 4.398610591888427734e+00
4.864629745483398438e+00 5.539832592010498047e+00 4.405954360961914062e+00
4.770874977111816406e+00 5.462760448455810547e+00 4.528614997863769531e+00
8.246484398841857910e-01 3.301610946655273438e+00 1.542651355266571045e-01
7.464517951011657715e-01 3.233283519744873047e+00 1.880614161491394043e-01
9.317629337310791016e-01 3.253286600112915039e+00 2.228893041610717773e-01
8.587391972541809082e-01 3.170783281326293945e+00 2.626697123050689697e-01
8.387391567230224609e-01 4.272999286651611328e+00 9.008242487907409668e-01
8.096458911895751953e-01 4.153823375701904297e+00 8.801420331001281738e-01
9.143647551536560059e-01 4.224859714508056641e+00 9.473423957824707031e-01
8.849820494651794434e-01 4.107521533966064453e+00 9.280328750610351562e-01
8.171252250671386719e+00 3.028542995452880859e+00 1.076426863670349121e+00
8.041966438293457031e+00 3.053739070892333984e+00 1.113599658012390137e+00
8.254961013793945312e+00 3.010729074478149414e+00 1.122346758842468262e+00
8.162281036376953125e+00 2.995230913162231445e+00 1.150220632553100586e+00
-2.846161365509033203e+00 5.833166599273681641e+00 6.980592012405395508e-01
-2.971202135086059570e+00 5.834186077117919922e+00 8.200821280479431152e-01
-2.738635540008544922e+00 5.827358722686767578e+00 8.381071090698242188e-01
-2.861009120941162109e+00 5.829506397247314453e+00 9.528039693832397461e-01
-3.495903968811035156e+00 4.267292022705078125e+00 3.179717063903808594e-01
-3.537220239639282227e+00 4.080992698669433594e+00 3.089608252048492432e-01
-3.335046052932739258e+00 4.302505493164062500e+00 3.160035908222198486e-01
-3.392961025238037109e+00 4.124966144561767578e+00 3.126088678836822510e-01
7.572063446044921875e+00 2.938823461532592773e+00 2.465448617935180664e+00
7.454735755920410156e+00 2.924056053161621094e+00 2.556604146957397461e+00
7.678999900817871094e+00 2.922597646713256836e+00 2.640033721923828125e+00
7.560010433197021484e+00 2.918880224227905273e+00 2.725710391998291016e+00
-2.562911748886108398e+00 3.905667066574096680e+00 2.983284711837768555e+00
-2.597500801086425781e+00 3.762170791625976562e+00 2.982852220535278320e+00
-2.439777374267578125e+00 3.919443130493164062e+00 3.020897626876831055e+00
-2.474126338958740234e+00 3.773787260055541992e+00 3.016558647155761719e+00
1.785217642784118652e+00 4.849904537200927734e+00 4.452625751495361328e+00
1.756027340888977051e+00 4.671765804290771484e+00 4.455397605895996094e+00
1.946768522262573242e+00 4.761587142944335938e+00 4.429226398468017578e+00
1.909548521041870117e+00 4.576038837432861328e+00 4.432393074035644531e+00
2.061118364334106445e+00 4.220887184143066406e+00 4.454960346221923828e+00
1.971223235130310059e+00 4.084578514099121094e+00 4.466385364532470703e+00
2.212991237640380859e+00 4.185764789581298828e+00 4.444634437561035156e+00
2.124996185302734375e+00 4.045853137969970703e+00 4.457540512084960938e+00
-2.289251565933227539e+00 5.351771354675292969e+00 1.307107567787170410e+00
-2.351238965988159180e+00 5.317334651947021484e+00 1.335292935371398926e+00
-2.220840215682983398e+00 5.340641498565673828e+00 1.357565283775329590e+00
-2.305183887481689453e+00 5.342687606811523438e+00 1.397680997848510742e+00
1.360719203948974609e+00 5.545703411102294922e+00 2.652362108230590820e+00
1.271084547042846680e+00 5.546625137329101562e+00 2.768361330032348633e+00
1.458889245986938477e+00 5.549290657043457031e+00 2.826769113540649414e+00
1.364537119865417480e+00 5.547670841217041016e+00 2.942982912063598633e+00
-4.090291023254394531e+00 2.890319585800170898e+00 6.597219109535217285e-01
-4.185513973236083984e+00 2.939543008804321289e+00 6.977185606956481934e-01
-3.978194952011108398e+00 2.898106813430786133e+00 7.204626202583312988e-01
-4.068940639495849609e+00 2.926730394363403320e+00 7.628645300865173340e-01
8.320281982421875000e+00 5.552912235260009766e+00 2.457814931869506836e+00
8.217178344726562500e+00 5.554439067840576172e+00 2.526782035827636719e+00
8.409164428710937500e+00 5.541523456573486328e+00 2.581110000610351562e+00
8.302588462829589844e+00 5.542346477508544922e+00 2.646903753280639648e+00
1.178478813171386719e+01 4.142472743988037109e+00 2.906723737716674805e+00
1.178515625000000000e+01 4.020490646362304688e+00 2.930852651596069336e+00
1.178382968902587891e+01 4.181167602539062500e+00 3.040088415145874023e+00
1.178057861328125000e+01 4.063377857208251953e+00 3.066980361938476562e+00
2.675935029983520508e+00 2.922272205352783203e+00 2.293781280517578125e+00
2.558465003967285156e+00 2.932359695434570312e+00 2.422159910202026367e+00
2.790030241012573242e+00 2.925915718078613281e+00 2.486810207366943359e+00
2.670654296875000000e+00 2.932377338409423828e+00 2.610249996185302734e+00
9.792081117630004883e-01 5.321865558624267578e+00 1.361635327339172363e+00
9.431169629096984863e-01 5.240747928619384766e+00 1.374609351158142090e+00
1.077236652374267578e+00 5.282309532165527344e+00 1.400243759155273438e+00
1.043653726577758789e+00 5.203998088836669922e+00 1.412283778190612793e+00
-2.299882173538208008e-01 5.012547969818115234e+00 7.280613780021667480e-01
-3.449728190898895264e-01 5.010821342468261719e+00 7.792357802391052246e-01
-8.681182563304901123e-02 5.049417972564697266e+00 8.017489314079284668e-01
-2.124262750148773193e-01 5.051844596862792969e+00 8.543854951858520508e-01
-2.337694644927978516e+00 3.153158664703369141e+00 2.909962654113769531e+00
-2.418659687042236328e+00 3.177041769027709961e+00 3.037739753723144531e+00
-2.293961048126220703e+00 3.153589248657226562e+00 2.991573572158813477e+00
-2.373537540435791016e+00 3.176213502883911133e+00 3.116041660308837891e+00
9.071835517883300781e+00 5.495199203491210938e+00 5.691059827804565430e-01
8.920641899108886719e+00 5.518589496612548828e+00 6.861847043037414551e-01
9.157486915588378906e+00 5.480634689331054688e+00 7.364457845687866211e-01
9.011024475097656250e+00 5.509479522705078125e+00 8.513205051422119141e-01
-3.088496208190917969e+00 5.396477699279785156e+00 1.581992745399475098e+00
-3.203242301940917969e+00 5.412940025329589844e+00 1.602572917938232422e+00
-2.987962484359741211e+00 5.401288509368896484e+00 1.633160710334777832e+00
-3.106895923614501953e+00 5.414853572845458984e+00 1.657123446464538574e+00
8.556506156921386719e+00 4.172356128692626953e+00 6.815615296363830566e-01
8.521082878112792969e+00 4.021414756774902344e+00 6.980979442596435547e-01
8.684377670288085938e+00 4.130330562591552734e+00 6.739477515220642090e-01
8.649843215942382812e+00 3.974157810211181641e+00 6.919252872467041016e-01
-1.876244902610778809e+00 3.022809028625488281e+00 6.723641157150268555e-01
-1.985343813896179199e+00 3.083911895751953125e+00 7.360453009605407715e-01
-1.747570037841796875e+00 3.073002099990844727e+00 7.114231586456298828e-01
-1.857149958610534668e+00 3.133285284042358398e+00 7.811320424079895020e-01
4.603494644165039062e+00 5.416489601135253906e+00 7.903242111206054688e-01
4.477627277374267578e+00 5.284257411956787109e+00 8.235319852828979492e-01
4.818348884582519531e+00 5.436502933502197266e+00 8.452582359313964844e-01
4.674150466918945312e+00 5.313601970672607422e+00 8.783200979232788086e-01
6.872750759124755859e+00 3.095462322235107422e+00 1.390907168388366699e+00
6.782693862915039062e+00 3.064422607421875000e+00 1.425332903861999512e+00
6.953740119934082031e+00 3.071846008300781250e+00 1.461408853530883789e+00
6.847937583923339844e+00 3.046609878540039062e+00 1.508518934249877930e+00
4.950684070587158203e+00 3.378317594528198242e+00 1.047241449356079102e+00
4.923521995544433594e+00 3.239717006683349609e+00 1.041710972785949707e+00
5.065131187438964844e+00 3.320427656173706055e+00 1.035691142082214355e+00
5.037495613098144531e+00 3.191893100738525391e+00 1.035902380943298340e+00
-3.890687704086303711e+00 4.508872032165527344e+00 3.186243534088134766e+00
-3.906521081924438477e+00 4.406804561614990234e+00 3.207559347152709961e+00
-3.827571630477905273e+00 4.511992454528808594e+00 3.233383655548095703e+00
-3.843016386032104492e+00 4.408996582031250000e+00 3.253776311874389648e+00
9.188836097717285156e+00 3.947548389434814453e+00 4.454166889190673828e+00
9.129240989685058594e+00 3.782647609710693359e+00 4.459431171417236328e+00
9.327704429626464844e+00 3.893238306045532227e+00 4.452272415161132812e+00
9.268426895141601562e+00 3.734906911849975586e+00 4.457224845886230469e+00
3.111170530319213867e+00 5.544301509857177734e+00 2.746405839920043945e+00
2.992685079574584961e+00 5.536963939666748047e+00 2.849218130111694336e+00
3.247297525405883789e+00 5.542551040649414062e+00 2.903374671936035156e+00
3.115114212036132812e+00 5.541986942291259766e+00 2.986971855163574219e+00
-3.525655567646026611e-01 4.201767921447753906e+00 4.438072681427001953e+00
-3.910040855407714844e-01 4.016331195831298828e+00 4.435349941253662109e+00
-2.337120175361633301e-01 4.205371856689453125e+00 4.451571941375732422e+00
-2.748564481735229492e-01 4.047516345977783203e+00 4.460817337036132812e+00
6.093408107757568359e+00 3.633721351623535156e+00 4.461596965789794922e+00
6.015295505523681641e+00 3.506375789642333984e+00 4.448435306549072266e+00
6.266319751739501953e+00 3.678671360015869141e+00 4.466394424438476562e+00
6.181778430938720703e+00 3.547698020935058594e+00 4.454666614532470703e+00
-2.216501951217651367e+00 4.671514987945556641e+00 1.074879050254821777e+00
-2.278098821640014648e+00 4.667188167572021484e+00 1.121049404144287109e+00
-2.152820110321044922e+00 4.647997856140136719e+00 1.135124087333679199e+00
-2.213892936706542969e+00 4.644961833953857422e+00 1.181071043014526367e+00
-7.637621164321899414e-01 4.816831588745117188e+00 3.090837001800537109e-01
-8.043186664581298828e-01 4.715471267700195312e+00 2.975877225399017334e-01
-6.726984381675720215e-01 4.822497844696044922e+00 3.450049161911010742e-01
-7.102603912353515625e-01 4.714524745941162109e+00 3.379165232181549072e-01
-1.808858036994934082e+00 4.232976436614990234e+00 3.056628704071044922e+00
-1.848520994186401367e+00 4.112466812133789062e+00 3.077935218811035156e+00
-1.695414900779724121e+00 4.157470703125000000e+00 3.050072431564331055e+00
-1.734244108200073242e+00 4.038351058959960938e+00 3.071467876434326172e+00
2.006468325853347778e-01 4.582679271697998047e+00 4.437191486358642578e+00
1.311806440353393555e-01 4.433749675750732422e+00 4.452475070953369141e+00
3.464477658271789551e-01 4.516757488250732422e+00 4.432626724243164062e+00
2.733502388000488281e-01 4.373469829559326172e+00 4.447620391845703125e+00
1.074345684051513672e+01 5.160829067230224609e+00 1.304972171783447266e+00
1.065900993347167969e+01 5.226476192474365234e+00 1.323065638542175293e+00
1.084422492980957031e+01 5.217644691467285156e+00 1.378518223762512207e+00
1.075339508056640625e+01 5.282507896423339844e+00 1.397252559661865234e+00
7.345105171203613281e+00 5.461935520172119141e+00 8.501104116439819336e-01
7.146720886230468750e+00 5.431465148925781250e+00 8.885024189949035645e-01
7.584550380706787109e+00 5.493138790130615234e+00 8.785162568092346191e-01
7.382078170776367188e+00 5.508796215057373047e+00 9.326731562614440918e-01
-4.248121738433837891e+00 3.812358617782592773e+00 5.456638932228088379e-01
-4.255155563354492188e+00 3.685647010803222656e+00 5.540882349014282227e-01
-4.200572967529296875e+00 3.819587945938110352e+00 5.963807702064514160e-01
-4.204463005065917969e+00 3.692939281463623047e+00 6.032510399818420410e-01
-3.167264938354492188e+00 2.804259538650512695e+00 1.345183491706848145e+00
-3.248909235000610352e+00 2.710468769073486328e+00 1.328736662864685059e+00
-3.015341520309448242e+00 2.799173355102539062e+00 1.395687103271484375e+00
-3.091625452041625977e+00 2.700417757034301758e+00 1.385317564010620117e+00
-1.695594191551208496e+00 3.597912073135375977e+00 9.977307915687561035e-01
-1.751503109931945801e+00 3.480527400970458984e+00 1.000061750411987305e+00
-1.532816171646118164e+00 3.599528074264526367e+00 9.995964169502258301e-01
-1.603336215019226074e+00 3.502681016921997070e+00 1.009296536445617676e+00
9.742799758911132812e+00 3.113708972930908203e+00 1.172026842832565308e-01
9.540225028991699219e+00 3.111769914627075195e+00 1.741358339786529541e-01
9.952289581298828125e+00 3.175894021987915039e+00 1.787024140357971191e-01
9.734195709228515625e+00 3.186347007751464844e+00 2.506175637245178223e-01
9.786915779113769531e+00 3.163594245910644531e+00 1.109186857938766479e-01
9.584341049194335938e+00 3.161655187606811523e+00 1.678518205881118774e-01
1.001163291931152344e+01 3.246169805526733398e+00 1.543018072843551636e-01
9.792789459228515625e+00 3.255450487136840820e+00 2.358719855546951294e-01
5.321279048919677734e+00 3.011436462402343750e+00 4.394903182983398438e+00
5.195312976837158203e+00 3.054578304290771484e+00 4.469485759735107422e+00
5.401650428771972656e+00 3.129826784133911133e+00 4.454362392425537109e+00
5.277277946472167969e+00 3.174820899963378906e+00 4.528056144714355469e+00
6.231497287750244141e+00 4.739936351776123047e+00 1.046297788619995117e+00
6.163370609283447266e+00 4.602715015411376953e+00 1.050825834274291992e+00
6.400805950164794922e+00 4.726197719573974609e+00 1.051704287528991699e+00
6.341605663299560547e+00 4.589513778686523438e+00 1.049305438995361328e+00
-4.200341701507568359e+00 4.606916904449462891e+00 8.675202727317810059e-01
-4.202458381652832031e+00 4.525684356689453125e+00 8.859689235687255859e-01
-4.156321048736572266e+00 4.612535953521728516e+00 9.459778666496276855e-01
-4.160175323486328125e+00 4.536301612854003906e+00 9.688367247581481934e-01
-2.970693111419677734e+00 3.105485200881958008e+00 3.496161103248596191e-01
-3.063743591308593750e+00 3.131196022033691406e+00 3.998938798904418945e-01
-2.892020702362060547e+00 3.101251840591430664e+00 4.381726384162902832e-01
-2.989832162857055664e+00 3.125358581542968750e+00 4.835454523563385010e-01
2.661485910415649414e+00 3.079802989959716797e+00 7.850703001022338867e-01
2.563585519790649414e+00 3.122662305831909180e+00 8.043246865272521973e-01
2.766422033309936523e+00 3.130755901336669922e+00 8.321934938430786133e-01
2.672446012496948242e+00 3.179887294769287109e+00 8.433223366737365723e-01
1.178094768524169922e+01 4.824569225311279297e+00 3.510694742202758789e+00
1.178174304962158203e+01 4.695319175720214844e+00 3.546662807464599609e+00
1.178327560424804688e+01 4.848171710968017578e+00 3.653896093368530273e+00
1.178462505340576172e+01 4.716953754425048828e+00 3.692594528198242188e+00
-3.463504552841186523e+00 4.060537815093994141e+00 1.255772352218627930e+00
-3.475573778152465820e+00 3.955996990203857422e+00 1.244079589843750000e+00
-3.372591495513916016e+00 4.025227069854736328e+00 1.294532775878906250e+00
-3.381875991821289062e+00 3.921768188476562500e+00 1.283404946327209473e+00
3.363018751144409180e+00 4.629596710205078125e+00 1.140632748603820801e+00
3.333721399307250977e+00 4.472623825073242188e+00 1.135955810546875000e+00
3.554084300994873047e+00 4.581929683685302734e+00 1.122099399566650391e+00
3.502534389495849609e+00 4.422190189361572266e+00 1.124298810958862305e+00
8.944689750671386719e+00 5.544227123260498047e+00 2.444920778274536133e+00
8.873151779174804688e+00 5.527442932128906250e+00 2.558371543884277344e+00
9.021434783935546875e+00 5.549908161163330078e+00 2.584098577499389648e+00
8.943184852600097656e+00 5.537638187408447266e+00 2.687361478805541992e+00
4.920333385467529297e+00 4.884464263916015625e+00 1.267875552177429199e+00
4.804886817932128906e+00 4.939932823181152344e+00 1.284204602241516113e+00
5.057978153228759766e+00 4.936640262603759766e+00 1.345030188560485840e+00
4.940289020538330078e+00 4.988630294799804688e+00 1.377661585807800293e+00
4.719336509704589844e+00 5.551401615142822266e+00 3.473420143127441406e+00
4.603950977325439453e+00 5.549122333526611328e+00 3.577520847320556641e+00
4.848027229309082031e+00 5.538380146026611328e+00 3.620994806289672852e+00
4.734285354614257812e+00 5.540336608886718750e+00 3.709084987640380859e+00
-4.185239791870117188e+00 4.337688922882080078e+00 3.213947415351867676e-01
-4.188277244567871094e+00 4.177839756011962891e+00 3.241282105445861816e-01
-4.100546360015869141e+00 4.377482891082763672e+00 3.735141456127166748e-01
-4.103919506072998047e+00 4.218264102935791016e+00 3.763371109962463379e-01
1.937284350395202637e+00 2.931207418441772461e+00 2.158411979675292969e+00
1.796556949615478516e+00 2.918583631515502930e+00 2.252103090286254883e+00
2.023571968078613281e+00 2.930440187454223633e+00 2.319264411926269531e+00
1.880080580711364746e+00 2.917957305908203125e+00 2.407947301864624023e+00
1.094213724136352539e+00 2.882536411285400391e+00 4.068575203418731689e-01
8.882071375846862793e-01 2.901091098785400391e+00 4.631384909152984619e-01
1.248080849647521973e+00 2.897945404052734375e+00 5.125665068626403809e-01
1.042894721031188965e+00 2.906178474426269531e+00 5.743635296821594238e-01
5.668382167816162109e+00 2.922294616699218750e+00 2.012803554534912109e+00
5.552233219146728516e+00 2.929047584533691406e+00 2.103617191314697266e+00
5.773050785064697266e+00 2.922357082366943359e+00 2.169468879699707031e+00
5.652431488037109375e+00 2.935956001281738281e+00 2.260867595672607422e+00
7.800590515136718750e+00 3.816570758819580078e+00 1.418289899826049805e+00
7.747128963470458984e+00 3.688085079193115234e+00 1.414800643920898438e+00
7.964560985565185547e+00 3.782413244247436523e+00 1.404100298881530762e+00
7.912785053253173828e+00 3.642884731292724609e+00 1.399587392807006836e+00
1.332409381866455078e+00 5.551146507263183594e+00 2.562245130538940430e+00
1.242228746414184570e+00 5.551745414733886719e+00 2.676725149154663086e+00
1.426405072212219238e+00 5.546524047851562500e+00 2.701243638992309570e+00
1.329247832298278809e+00 5.543080329895019531e+00 2.815541267395019531e+00
1.183554077148437500e+01 5.483772754669189453e+00 1.522104859352111816e+00
1.183766555786132812e+01 5.355257034301757812e+00 1.474686264991760254e+00
1.191273212432861328e+01 5.496883392333984375e+00 1.582910180091857910e+00
1.191534328460693359e+01 5.366559982299804688e+00 1.533654808998107910e+00
4.617328166961669922e+00 2.944398641586303711e+00 3.096831560134887695e+00
4.444674491882324219e+00 2.927581787109375000e+00 3.185778141021728516e+00
4.761066436767578125e+00 2.928673505783081055e+00 3.233871936798095703e+00
4.592968463897705078e+00 2.914496898651123047e+00 3.319739103317260742e+00
3.003992795944213867e+00 3.431274890899658203e+00 1.059474110603332520e+00
2.947816610336303711e+00 3.325935363769531250e+00 1.013638854026794434e+00
3.127228975296020508e+00 3.489712238311767578e+00 1.117002010345458984e+00
3.077939510345458984e+00 3.366608619689941406e+00 1.059765815734863281e+00
-2.133753776550292969e+00 4.676178932189941406e+00 2.831163406372070312e-01
-2.270507335662841797e+00 4.549147605895996094e+00 2.915686666965484619e-01
-1.908137321472167969e+00 4.691256046295166016e+00 2.909661233425140381e-01
-2.052821159362792969e+00 4.554348945617675781e+00 3.024962544441223145e-01
5.924885749816894531e+00 5.226471424102783203e+00 1.358424305915832520e+00
5.868145942687988281e+00 5.095814704895019531e+00 1.337112903594970703e+00
6.070384502410888672e+00 5.278470993041992188e+00 1.406401753425598145e+00
6.011513233184814453e+00 5.151333332061767578e+00 1.384545803070068359e+00
-1.010139465332031250e+00 4.204223632812500000e+00 7.842559814453125000e-01
-1.031650185585021973e+00 4.090119838714599609e+00 7.707204222679138184e-01
-9.745815992355346680e-01 4.237179279327392578e+00 8.193724751472473145e-01
-9.991702437400817871e-01 4.126523494720458984e+00 8.050773143768310547e-01
9.629164695739746094e+00 4.399260997772216797e+00 4.454202651977539062e+00
9.540580749511718750e+00 4.234588146209716797e+00 4.464424133300781250e+00
9.804886817932128906e+00 4.387838840484619141e+00 4.449900150299072266e+00
9.714508056640625000e+00 4.250925064086914062e+00 4.467766284942626953e+00
8.910361289978027344e+00 5.471778392791748047e+00 1.436482071876525879e+00
8.767516136169433594e+00 5.508055210113525391e+00 1.475414872169494629e+00
9.012742042541503906e+00 5.514658927917480469e+00 1.522642135620117188e+00
8.871221542358398438e+00 5.543756484985351562e+00 1.562215924263000488e+00
8.585194587707519531e+00 2.945245742797851562e+00 2.057630538940429688e+00
8.520470619201660156e+00 2.928056955337524414e+00 2.176028251647949219e+00
8.654694557189941406e+00 2.938213825225830078e+00 2.213576555252075195e+00
8.587491035461425781e+00 2.924250602722167969e+00 2.323035240173339844e+00
5.870770931243896484e+00 4.397940158843994141e+00 4.442324638366699219e+00
5.820992946624755859e+00 4.249062061309814453e+00 4.449147224426269531e+00
5.987042903900146484e+00 4.341097354888916016e+00 4.444850921630859375e+00
5.939474582672119141e+00 4.199559688568115234e+00 4.451207637786865234e+00
-4.108413219451904297e+00 4.111413002014160156e+00 9.666000008583068848e-01
-4.130376815795898438e+00 4.016900539398193359e+00 9.416289925575256348e-01
-4.052598953247070312e+00 4.116737842559814453e+00 1.015655755996704102e+00
-4.074841499328613281e+00 4.020280361175537109e+00 9.922100305557250977e-01
1.181460571289062500e+01 5.512151241302490234e+00 2.306967973709106445e+00
1.173577308654785156e+01 5.513726711273193359e+00 2.373128890991210938e+00
1.186627769470214844e+01 5.476680755615234375e+00 2.423531055450439453e+00
1.178592777252197266e+01 5.480632781982421875e+00 2.492410898208618164e+00
7.763357758522033691e-01 4.088576316833496094e+00 1.327043533325195312e+00
7.102782130241394043e-01 3.937373638153076172e+00 1.318120956420898438e+00
9.565690755844116211e-01 4.145546913146972656e+00 1.367867231369018555e+00
8.910573124885559082e-01 3.993880748748779297e+00 1.364292263984680176e+00
1.838676810264587402e+00 5.093929290771484375e+00 1.107208251953125000e+00
1.711835622787475586e+00 5.136867046356201172e+00 1.139307737350463867e+00
1.959334492683410645e+00 5.115381717681884766e+00 1.148495674133300781e+00
1.829080104827880859e+00 5.165663719177246094e+00 1.189214944839477539e+00
9.359784722328186035e-01 5.543613910675048828e+00 1.555910348892211914e+00
8.628232479095458984e-01 5.488173007965087891e+00 1.578355312347412109e+00
1.080687999725341797e+00 5.524878978729248047e+00 1.569233059883117676e+00
1.024416327476501465e+00 5.460840225219726562e+00 1.579440474510192871e+00
1.085311794281005859e+01 4.007863521575927734e+00 1.409901738166809082e+00
1.078180503845214844e+01 3.901091337203979492e+00 1.419091701507568359e+00
1.099025249481201172e+01 3.986801385879516602e+00 1.394057512283325195e+00
1.092151451110839844e+01 3.882934808731079102e+00 1.404786348342895508e+00
6.866413593292236328e+00 2.930940866470336914e+00 1.626272797584533691e+00
6.731496334075927734e+00 2.917224407196044922e+00 1.686726689338684082e+00
6.970938205718994141e+00 2.925742387771606445e+00 1.702980637550354004e+00
6.838120460510253906e+00 2.913638591766357422e+00 1.763087749481201172e+00
-2.023566961288452148e+00 3.085515022277832031e+00 2.513224363327026367e+00
-2.143531322479248047e+00 3.068228483200073242e+00 2.546070575714111328e+00
-1.910101175308227539e+00 3.107097387313842773e+00 2.597495317459106445e+00
-2.036792039871215820e+00 3.087218761444091797e+00 2.620002031326293945e+00
-3.388316392898559570e+00 4.854073047637939453e+00 1.232889652252197266e+00
-3.401361942291259766e+00 4.735169410705566406e+00 1.245806813240051270e+00
-3.332304954528808594e+00 4.832089424133300781e+00 1.262418866157531738e+00
-3.345489740371704102e+00 4.716784000396728516e+00 1.274750590324401855e+00
1.177588367462158203e+01 3.425104141235351562e+00 2.009564638137817383e+00
1.178273487091064453e+01 3.284699201583862305e+00 2.020266532897949219e+00
1.178404617309570312e+01 3.466604709625244141e+00 2.125901699066162109e+00
1.178732490539550781e+01 3.328917264938354492e+00 2.142582893371582031e+00
9.199510574340820312e+00 4.629841804504394531e+00 6.536190509796142578e-01
9.131407737731933594e+00 4.489388465881347656e+00 6.660331487655639648e-01
9.350903511047363281e+00 4.652838230133056641e+00 6.858099699020385742e-01
9.282876014709472656e+00 4.533564090728759766e+00 6.904428005218505859e-01
2.352073669433593750e+00 5.498438835144042969e+00 9.785557389259338379e-01
2.196651697158813477e+00 5.540340900421142578e+00 1.036224246025085449e+00
2.502402544021606445e+00 5.528209209442138672e+00 1.045233368873596191e+00
2.348622322082519531e+00 5.566138744354248047e+00 1.091164350509643555e+00
6.244356632232666016e+00 3.355738162994384766e+00 1.110211253166198730e+00
6.169896125793457031e+00 3.253067016601562500e+00 1.151828765869140625e+00
6.380405426025390625e+00 3.323597669601440430e+00 1.138314008712768555e+00
6.306182384490966797e+00 3.242171525955200195e+00 1.172802567481994629e+00
-4.219696044921875000e+00 4.385943412780761719e+00 6.980164051055908203e-01
-4.222994327545166016e+00 4.294172763824462891e+00 6.985696554183959961e-01
-4.182551383972167969e+00 4.387175083160400391e+00 7.577111124992370605e-01
-4.187609672546386719e+00 4.296751499176025391e+00 7.531191110610961914e-01
9.195687294006347656e+00 3.087434053421020508e+00 1.404471874237060547e+00
9.118729591369628906e+00 2.991034746170043945e+00 1.435098886489868164e+00
9.312388420104980469e+00 3.089480161666870117e+00 1.438662886619567871e+00
9.241771697998046875e+00 2.999777078628540039e+00 1.480149865150451660e+00
-1.193065382540225983e-02 4.276005744934082031e+00 3.113809823989868164e-01
-4.453813657164573669e-02 4.168713092803955078e+00 3.164014816284179688e-01
8.546971529722213745e-02 4.238678455352783203e+00 3.049429059028625488e-01
5.004563927650451660e-02 4.125073432922363281e+00 3.119665980339050293e-01
4.119771480560302734e+00 3.568835496902465820e+00 4.442525863647460938e+00
4.055793285369873047e+00 3.405260801315307617e+00 4.445334911346435547e+00
4.287116527557373047e+00 3.514132261276245117e+00 4.470785140991210938e+00
4.239905357360839844e+00 3.351102590560913086e+00 4.469604015350341797e+00
4.143385887145996094e+00 4.831391811370849609e+00 4.457392215728759766e+00
4.069960117340087891e+00 4.659138679504394531e+00 4.461085319519042969e+00
4.278427600860595703e+00 4.735610008239746094e+00 4.455178260803222656e+00
4.216308116912841797e+00 4.572570800781250000e+00 4.457053661346435547e+00
2.024359107017517090e-01 4.217605590820312500e+00 3.150780200958251953e-01
1.642828583717346191e-01 4.108139038085937500e+00 3.215755820274353027e-01
3.165899515151977539e-01 4.175129890441894531e+00 3.038244843482971191e-01
2.800160348415374756e-01 4.062522411346435547e+00 3.071109354496002197e-01
9.637538909912109375e+00 2.930368900299072266e+00 2.234577894210815430e+00
9.556150436401367188e+00 2.922482490539550781e+00 2.323663711547851562e+00
9.732825279235839844e+00 2.924839258193969727e+00 2.344320297241210938e+00
9.655519485473632812e+00 2.920005798339843750e+00 2.429979085922241211e+00
5.365989685058593750e+00 5.489293575286865234e+00 1.489007353782653809e+00
5.239300727844238281e+00 5.555997848510742188e+00 1.559858679771423340e+00
5.450028896331787109e+00 5.551676273345947266e+00 1.561293840408325195e+00
5.320071220397949219e+00 5.629698753356933594e+00 1.655673146247863770e+00
-3.322247266769409180e+00 3.055147171020507812e+00 5.497622489929199219e-01
-3.389196395874023438e+00 3.068317651748657227e+00 6.193102002143859863e-01
-3.253911256790161133e+00 3.063486576080322266e+00 6.117588877677917480e-01
-3.325884580612182617e+00 3.085815906524658203e+00 6.890580654144287109e-01
-4.185801029205322266e+00 4.517817497253417969e+00 7.075264453887939453e-01
-4.191131591796875000e+00 4.425875186920166016e+00 7.065083384513854980e-01
-4.146542072296142578e+00 4.508290290832519531e+00 7.893291711807250977e-01
-4.149710178375244141e+00 4.415657997131347656e+00 7.897984981536865234e-01
3.465517282485961914e+00 2.922899723052978516e+00 9.709656238555908203e-01
3.393747568130493164e+00 2.904501199722290039e+00 9.704241752624511719e-01
3.623157501220703125e+00 2.916994333267211914e+00 9.626581072807312012e-01
3.561672687530517578e+00 2.862830877304077148e+00 9.589516520500183105e-01
9.941403388977050781e+00 4.133306026458740234e+00 6.865142583847045898e-01
9.898559570312500000e+00 3.998035907745361328e+00 6.967665553092956543e-01
1.005612659454345703e+01 4.045652866363525391e+00 6.732077002525329590e-01
1.002070331573486328e+01 3.903732299804687500e+00 6.829448342323303223e-01
1.422469377517700195e+00 3.870989561080932617e+00 3.202533423900604248e-01
1.367419719696044922e+00 3.767486333847045898e+00 3.109697699546813965e-01
1.551923394203186035e+00 3.822950363159179688e+00 3.590947985649108887e-01
1.496331810951232910e+00 3.721168279647827148e+00 3.430185019969940186e-01
6.918304443359375000e+00 5.535814762115478516e+00 3.408935070037841797e+00
6.796617507934570312e+00 5.546535491943359375e+00 3.506821870803833008e+00
7.040225982666015625e+00 5.528713703155517578e+00 3.562711000442504883e+00
6.922241210937500000e+00 5.535912990570068359e+00 3.658934831619262695e+00
7.669692039489746094e+00 2.925616502761840820e+00 3.626363039016723633e+00
7.546392440795898438e+00 2.935933113098144531e+00 3.707716703414916992e+00
7.737122535705566406e+00 2.917588233947753906e+00 3.762849092483520508e+00
7.627933502197265625e+00 2.942170619964599609e+00 3.843269348144531250e+00
-2.129463702440261841e-01 3.721482753753662109e+00 4.447192668914794922e+00
-2.213681489229202271e-01 3.537115812301635742e+00 4.425464630126953125e+00
-9.670829772949218750e-02 3.625200748443603516e+00 4.467801094055175781e+00
-1.010917946696281433e-01 3.448745012283325195e+00 4.457881927490234375e+00
8.802922964096069336e-01 3.307447671890258789e+00 3.869019746780395508e-01
7.991448640823364258e-01 3.247114419937133789e+00 4.219228029251098633e-01
9.930317401885986328e-01 3.287764072418212891e+00 4.423488378524780273e-01
9.112834930419921875e-01 3.225312948226928711e+00 4.789061546325683594e-01
-4.097333431243896484e+00 5.526609897613525391e+00 3.365728855133056641e-01
-4.113325595855712891e+00 5.434569835662841797e+00 3.746454119682312012e-01
-4.109764099121093750e+00 5.565450191497802734e+00 4.613451361656188965e-01
-4.129296779632568359e+00 5.464901924133300781e+00 4.879011511802673340e-01
-2.830925226211547852e+00 5.512085437774658203e+00 3.482166826725006104e-01
-2.855756521224975586e+00 5.349246978759765625e+00 3.342459797859191895e-01
-2.715967655181884766e+00 5.549914360046386719e+00 3.677380084991455078e-01
-2.741128921508789062e+00 5.371698379516601562e+00 3.476526439189910889e-01
9.868331551551818848e-01 3.276845932006835938e+00 1.311982631683349609e+00
9.201042056083679199e-01 3.167868852615356445e+00 1.344372153282165527e+00
1.080477237701416016e+00 3.279951333999633789e+00 1.313985228538513184e+00
1.017556428909301758e+00 3.163953065872192383e+00 1.345317363739013672e+00
-2.081403970718383789e+00 3.127302646636962891e+00 3.000967264175415039e+00
-2.174809455871582031e+00 3.131021976470947266e+00 3.082805633544921875e+00
-2.033830881118774414e+00 3.163744688034057617e+00 3.086970090866088867e+00
-2.126236677169799805e+00 3.163373470306396484e+00 3.157629251480102539e+00
5.510342597961425781e+00 2.889742374420166016e+00 8.102922439575195312e-01
5.387480258941650391e+00 2.930700063705444336e+00 8.779754042625427246e-01
5.600514411926269531e+00 2.910445690155029297e+00 9.183117151260375977e-01
5.484334945678710938e+00 2.942453145980834961e+00 9.824948906898498535e-01
-2.205620765686035156e+00 3.128780603408813477e+00 2.685118675231933594e+00
-2.328695297241210938e+00 3.116859674453735352e+00 2.725038528442382812e+00
-2.110306501388549805e+00 3.155884981155395508e+00 2.768283605575561523e+00
-2.228393316268920898e+00 3.147279977798461914e+00 2.816386938095092773e+00
8.734556198120117188e+00 5.042547225952148438e+00 7.985343933105468750e-01
8.628218650817871094e+00 5.069151878356933594e+00 8.799458146095275879e-01
8.794164657592773438e+00 5.075217247009277344e+00 8.781815171241760254e-01
8.693151473999023438e+00 5.114039897918701172e+00 9.618308544158935547e-01
6.129999160766601562e+00 3.483796358108520508e+00 4.429892063140869141e+00
6.040453910827636719e+00 3.401383876800537109e+00 4.434686183929443359e+00
6.301164627075195312e+00 3.549024581909179688e+00 4.478601932525634766e+00
6.210598468780517578e+00 3.434339284896850586e+00 4.468368053436279297e+00
-1.893140226602554321e-01 3.946869373321533203e+00 1.334354877471923828e+00
-2.806115448474884033e-01 3.856896877288818359e+00 1.386129498481750488e+00
-9.407777339220046997e-02 3.943198919296264648e+00 1.333424806594848633e+00
-1.715315282344818115e-01 3.842285871505737305e+00 1.370077133178710938e+00
9.970126152038574219e+00 4.056889057159423828e+00 4.432793140411376953e+00
9.873408317565917969e+00 4.001875400543212891e+00 4.463907718658447266e+00
1.012605667114257812e+01 4.028788566589355469e+00 4.434318542480468750e+00
1.002670097351074219e+01 3.979897975921630859e+00 4.466339588165283203e+00
8.424569129943847656e+00 2.918488502502441406e+00 3.543602466583251953e+00
8.349388122558593750e+00 2.920333862304687500e+00 3.652426481246948242e+00
8.495727539062500000e+00 2.925210475921630859e+00 3.712104320526123047e+00
8.419810295104980469e+00 2.928224325180053711e+00 3.816512107849121094e+00
2.657671928405761719e+00 2.926791191101074219e+00 2.186491489410400391e+00
2.529915332794189453e+00 2.927423715591430664e+00 2.294259548187255859e+00
2.753253936767578125e+00 2.927951335906982422e+00 2.387039184570312500e+00
2.635010719299316406e+00 2.934447288513183594e+00 2.515923023223876953e+00
-2.287567853927612305e+00 4.991959571838378906e+00 1.317292571067810059e+00
-2.330960035324096680e+00 4.886209011077880859e+00 1.310835957527160645e+00
-2.194684267044067383e+00 4.997456073760986328e+00 1.364075899124145508e+00
-2.238183498382568359e+00 4.887792110443115234e+00 1.354300975799560547e+00
1.364100694656372070e+00 5.315402984619140625e+00 1.387830853462219238e+00
1.339631795883178711e+00 5.209311008453369141e+00 1.389372110366821289e+00
1.447331190109252930e+00 5.333437919616699219e+00 1.425523757934570312e+00
1.423868536949157715e+00 5.201945304870605469e+00 1.419594049453735352e+00
-6.459220051765441895e-01 5.233231067657470703e+00 2.297981500625610352e+00
-6.582856774330139160e-01 5.088705062866210938e+00 2.321100950241088867e+00
-6.331136226654052734e-01 5.294345855712890625e+00 2.456097364425659180e+00
-6.452667713165283203e-01 5.153187274932861328e+00 2.484783172607421875e+00
-1.272037506103515625e+00 3.156867742538452148e+00 9.318338036537170410e-01
-1.410559058189392090e+00 3.188535213470458984e+00 9.791624546051025391e-01
-1.168408036231994629e+00 3.230294227600097656e+00 9.934663772583007812e-01
-1.305940389633178711e+00 3.243172168731689453e+00 1.028506398200988770e+00
3.194483041763305664e+00 2.920049428939819336e+00 3.873568058013916016e+00
3.101227045059204102e+00 2.926926612854003906e+00 3.973993062973022461e+00
3.254679441452026367e+00 2.924270868301391602e+00 4.018654346466064453e+00
3.163792848587036133e+00 2.938952207565307617e+00 4.118995666503906250e+00
-4.866329208016395569e-02 2.910934925079345703e+00 2.886774778366088867e+00
-1.392370164394378662e-01 2.916555881500244141e+00 3.003435850143432617e+00
4.477935284376144409e-02 2.910751819610595703e+00 3.052957534790039062e+00
-6.022687628865242004e-02 2.919311523437500000e+00 3.160158157348632812e+00
1.178151321411132812e+01 4.725674629211425781e+00 3.393912792205810547e+00
1.178212451934814453e+01 4.601053237915039062e+00 3.425915241241455078e+00
1.178318119049072266e+01 4.768660545349121094e+00 3.553687810897827148e+00
1.178274250030517578e+01 4.639575004577636719e+00 3.591991662979125977e+00
1.081266117095947266e+01 4.952193737030029297e+00 9.294862151145935059e-01
1.072770595550537109e+01 5.005225658416748047e+00 9.540984034538269043e-01
1.091572093963623047e+01 5.019764900207519531e+00 1.045732498168945312e+00
1.083064842224121094e+01 5.054084300994873047e+00 1.054356455802917480e+00
-3.958665370941162109e+00 4.940815448760986328e+00 2.854987621307373047e+00
-3.977126121520996094e+00 4.824503898620605469e+00 2.858399152755737305e+00
-3.873271703720092773e+00 4.925459384918212891e+00 2.910727977752685547e+00
-3.904410600662231445e+00 4.838977336883544922e+00 2.904905557632446289e+00
7.200248718261718750e+00 3.092871904373168945e+00 1.244892835617065430e+00
7.093686103820800781e+00 3.124229431152343750e+00 1.305505514144897461e+00
7.313155174255371094e+00 3.122539997100830078e+00 1.286015510559082031e+00
7.208445072174072266e+00 3.173663377761840820e+00 1.338301897048950195e+00
-3.410729408264160156e+00 3.068259239196777344e+00 2.539727687835693359e+00
-3.486481428146362305e+00 3.082595109939575195e+00 2.638821363449096680e+00
-3.309909343719482422e+00 3.070209503173828125e+00 2.671348810195922852e+00
-3.385554313659667969e+00 3.088203430175781250e+00 2.774864435195922852e+00
-4.215298652648925781e+00 3.563802957534790039e+00 3.187101185321807861e-01
-4.266495704650878906e+00 3.455527305603027344e+00 3.400521278381347656e-01
-4.080254077911376953e+00 3.590560197830200195e+00 3.216598331928253174e-01
-4.125530719757080078e+00 3.474922418594360352e+00 3.376584947109222412e-01
9.212057113647460938e+00 4.588187217712402344e+00 6.788644790649414062e-01
9.144821166992187500e+00 4.438613891601562500e+00 6.925519704818725586e-01
9.364225387573242188e+00 4.591542243957519531e+00 6.829052567481994629e-01
9.296557426452636719e+00 4.459014415740966797e+00 6.895276904106140137e-01
1.184362316131591797e+01 5.592052459716796875e+00 3.712296009063720703e+00
1.187209224700927734e+01 5.517610549926757812e+00 3.767503261566162109e+00
1.185373687744140625e+01 5.553835391998291016e+00 3.860537767410278320e+00
1.188755035400390625e+01 5.463068008422851562e+00 3.908155441284179688e+00
6.389859199523925781e+00 5.155094146728515625e+00 4.443745136260986328e+00
6.285534858703613281e+00 5.038874626159667969e+00 4.473750591278076172e+00
6.509154319763183594e+00 5.114742755889892578e+00 4.438611984252929688e+00
6.427796363830566406e+00 4.961099624633789062e+00 4.457932949066162109e+00
9.583209037780761719e+00 5.548708438873291016e+00 3.306305408477783203e+00
9.448176383972167969e+00 5.555820941925048828e+00 3.394203662872314453e+00
9.697361946105957031e+00 5.545380115509033203e+00 3.451111555099487305e+00
9.561168670654296875e+00 5.544596672058105469e+00 3.546769618988037109e+00
4.510078907012939453e+00 3.794988870620727539e+00 1.040686011314392090e+00
4.469255447387695312e+00 3.665378570556640625e+00 1.047865986824035645e+00
4.626364231109619141e+00 3.801770687103271484e+00 1.040286302566528320e+00
4.581998825073242188e+00 3.676996707916259766e+00 1.047813296318054199e+00
1.113368606567382812e+01 4.494791030883789062e+00 1.390064358711242676e+00
1.105716991424560547e+01 4.406320571899414062e+00 1.407619237899780273e+00
1.127947902679443359e+01 4.501409053802490234e+00 1.393159985542297363e+00
1.119927692413330078e+01 4.405523300170898438e+00 1.408012866973876953e+00
1.004989528656005859e+01 3.990118503570556641e+00 4.430510997772216797e+00
9.947628021240234375e+00 3.940860986709594727e+00 4.465917587280273438e+00
1.019381904602050781e+01 3.955476045608520508e+00 4.432348251342773438e+00
1.009388828277587891e+01 3.905888795852661133e+00 4.465069293975830078e+00
3.944863080978393555e+00 2.932362794876098633e+00 2.205267429351806641e+00
3.823036909103393555e+00 2.916241168975830078e+00 2.310351848602294922e+00
4.004862785339355469e+00 2.930858135223388672e+00 2.426732063293457031e+00
3.910175800323486328e+00 2.918147087097167969e+00 2.552661418914794922e+00
9.140860557556152344e+00 5.270967006683349609e+00 1.193874597549438477e+00
9.031686782836914062e+00 5.313942909240722656e+00 1.245891451835632324e+00
9.234945297241210938e+00 5.311127185821533203e+00 1.299020051956176758e+00
9.128187179565429688e+00 5.351296424865722656e+00 1.337049722671508789e+00
2.822626829147338867e-01 4.591237545013427734e+00 3.191183805465698242e-01
2.660112380981445312e-01 4.460584163665771484e+00 3.139748871326446533e-01
3.739812970161437988e-01 4.559735298156738281e+00 3.189911246299743652e-01
3.627406656742095947e-01 4.422613143920898438e+00 3.087963461875915527e-01
4.991037845611572266e+00 2.931828022003173828e+00 2.485303163528442383e+00
4.878747463226318359e+00 2.917655467987060547e+00 2.563012123107910156e+00
5.029383182525634766e+00 2.925370693206787109e+00 2.637719154357910156e+00
4.939596176147460938e+00 2.907768726348876953e+00 2.741891622543334961e+00
6.994287967681884766e+00 3.664951086044311523e+00 1.152777671813964844e+00
6.929587364196777344e+00 3.569429636001586914e+00 1.177477836608886719e+00
7.129723548889160156e+00 3.639391899108886719e+00 1.140865683555603027e+00
7.054039001464843750e+00 3.562728404998779297e+00 1.175801634788513184e+00
5.708848476409912109e+00 5.465519905090332031e+00 1.326928734779357910e+00
5.579494476318359375e+00 5.506578922271728516e+00 1.368400096893310547e+00
5.805390357971191406e+00 5.533824920654296875e+00 1.394000649452209473e+00
5.687247276306152344e+00 5.554490566253662109e+00 1.433076381683349609e+00
-3.336187899112701416e-01 3.341827869415283203e+00 5.612292289733886719e-01
-4.380687475204467773e-01 3.339683055877685547e+00 6.326460838317871094e-01
-2.569315433502197266e-01 3.369534492492675781e+00 6.641172766685485840e-01
-3.840822875499725342e-01 3.416497468948364258e+00 7.725467681884765625e-01
-4.240180969238281250e+00 4.419062614440917969e+00 5.843890309333801270e-01
-4.245520114898681641e+00 4.316157817840576172e+00 5.875270962715148926e-01
-4.220364570617675781e+00 4.411405086517333984e+00 6.276615858078002930e-01
-4.225652217864990234e+00 4.316958904266357422e+00 6.284263730049133301e-01
-3.602624312043190002e-02 3.922025918960571289e+00 3.796142935752868652e-01
-7.723689824342727661e-02 3.803457260131835938e+00 3.896101713180541992e-01
8.067347109317779541e-02 3.904386997222900391e+00 3.631485104560852051e-01
4.334052279591560364e-02 3.790181875228881836e+00 3.710464835166931152e-01
1.439666390419006348e+00 3.783633470535278320e+00 3.278522789478302002e-01
1.378855109214782715e+00 3.684482336044311523e+00 3.107445836067199707e-01
1.536735773086547852e+00 3.768012285232543945e+00 3.693236112594604492e-01
1.477244973182678223e+00 3.670027494430541992e+00 3.530313968658447266e-01
-1.010715961456298828e+00 4.550532341003417969e+00 4.044773876667022705e-01
-1.053659200668334961e+00 4.433103084564208984e+00 3.888229429721832275e-01
-9.016874432563781738e-01 4.519432067871093750e+00 4.141542911529541016e-01
-9.431803822517395020e-01 4.398753166198730469e+00 4.019471108913421631e-01
1.045655727386474609e+00 3.564152002334594727e+00 2.607972323894500732e-01
9.825054407119750977e-01 3.464554309844970703e+00 2.930476069450378418e-01
1.157152056694030762e+00 3.566891431808471680e+00 3.292644023895263672e-01
1.089102268218994141e+00 3.461306095123291016e+00 3.527203798294067383e-01
7.458269000053405762e-01 4.236406326293945312e+00 8.789932131767272949e-01
7.159488797187805176e-01 4.131257057189941406e+00 8.626276850700378418e-01
8.163062334060668945e-01 4.201536655426025391e+00 9.199690222740173340e-01
7.826807498931884766e-01 4.090088844299316406e+00 9.005076289176940918e-01
-3.728402137756347656e+00 5.620124340057373047e+00 4.133277833461761475e-01
-3.802297830581665039e+00 5.624113559722900391e+00 5.064908862113952637e-01
-3.617569208145141602e+00 5.635421276092529297e+00 5.103621482849121094e-01
-3.706284999847412109e+00 5.641949176788330078e+00 6.023681163787841797e-01
-3.455037832260131836e+00 3.999372482299804688e+00 1.221643090248107910e+00
-3.466518402099609375e+00 3.892647027969360352e+00 1.209743738174438477e+00
-3.370524644851684570e+00 3.961083650588989258e+00 1.257110595703125000e+00
-3.381141185760498047e+00 3.853790760040283203e+00 1.246350526809692383e+00
8.308774948120117188e+00 3.374786615371704102e+00 1.347106099128723145e+00
8.257575035095214844e+00 3.278052568435668945e+00 1.370712637901306152e+00
8.376367568969726562e+00 3.372433662414550781e+00 1.416600108146667480e+00
8.337656021118164062e+00 3.249456167221069336e+00 1.439469933509826660e+00
1.127908420562744141e+01 2.921516180038452148e+00 2.408498764038085938e+00
1.120004940032958984e+01 2.927662849426269531e+00 2.492839574813842773e+00
1.132094097137451172e+01 2.931188344955444336e+00 2.494950771331787109e+00
1.126367664337158203e+01 2.931031227111816406e+00 2.583074808120727539e+00
-3.312029838562011719e+00 4.048728466033935547e+00 1.072421550750732422e+00
-3.324283123016357422e+00 3.931967258453369141e+00 1.058936476707458496e+00
-3.182289600372314453e+00 4.014924049377441406e+00 1.067013144493103027e+00
