-3.355051279067993164e+00 2.964257001876831055e+00 3.710397005081176758e+00
-6.746666431427001953e+00 -5.936888217926025391e+00 1.166431784629821777e+00
-6.742938518524169922e+00 -6.037059307098388672e+00 1.276580691337585449e+00
-6.732169151306152344e+00 -5.946865558624267578e+00 1.304197311401367188e+00
-6.725595474243164062e+00 -6.046398639678955078e+00 1.424330949783325195e+00
-3.392754793167114258e+00 -2.931218862533569336e+00 2.495774507522583008e+00
-3.405289649963378906e+00 -3.020129680633544922e+00 2.531599760055541992e+00
-3.389021158218383789e+00 -2.915343761444091797e+00 2.591512203216552734e+00
-3.396522998809814453e+00 -2.997773647308349609e+00 2.639729976654052734e+00
-3.527080297470092773e+00 -3.491504192352294922e+00 1.826030015945434570e+00
-3.552550077438354492e+00 -3.557411909103393555e+00 1.880687475204467773e+00
-3.519428491592407227e+00 -3.450991868972778320e+00 1.931470513343811035e+00
-3.542172670364379883e+00 -3.522621870040893555e+00 1.966377735137939453e+00
-3.527424573898315430e+00 -1.937838912010192871e+00 3.474455356597900391e+00
-3.634184122085571289e+00 -1.943816542625427246e+00 3.539261817932128906e+00
-3.515985250473022461e+00 -1.817509651184082031e+00 3.499154090881347656e+00
-3.622987985610961914e+00 -1.830764174461364746e+00 3.563681125640869141e+00
-3.291472196578979492e+00 -1.532813608646392822e-01 3.597513437271118164e+00
-3.327647209167480469e+00 -3.208772242069244385e-01 3.600834131240844727e+00
-3.174044132232666016e+00 -1.909369975328445435e-02 3.526394844055175781e+00
-3.208417654037475586e+00 -1.834684312343597412e-01 3.541371583938598633e+00
-3.887369871139526367e+00 -3.646736621856689453e+00 3.491211175918579102e+00
-3.975956916809082031e+00 -3.599867582321166992e+00 3.540112733840942383e+00
-3.798403501510620117e+00 -3.586900234222412109e+00 3.449861288070678711e+00
-3.891092538833618164e+00 -3.539860725402832031e+00 3.500237226486206055e+00
-3.512770175933837891e+00 -1.542549252510070801e+00 3.346515595912933350e-01
-3.559030532836914062e+00 -1.644766449928283691e+00 3.351621627807617188e-01
-3.416689872741699219e+00 -1.496367216110229492e+00 3.685768544673919678e-01
-3.459176778793334961e+00 -1.603283166885375977e+00 3.640875518321990967e-01
-3.866138219833374023e+00 -5.074390411376953125e+00 2.662469387054443359e+00
-3.885482549667358398e+00 -5.158057212829589844e+00 2.711543083190917969e+00
-3.849484205245971680e+00 -5.041409969329833984e+00 2.757143497467041016e+00
-3.868971586227416992e+00 -5.126637935638427734e+00 2.805202007293701172e+00
-6.440316200256347656e+00 -6.818804740905761719e+00 4.470742642879486084e-01
-6.509411811828613281e+00 -6.774217605590820312e+00 5.395217537879943848e-01
-6.379628181457519531e+00 -6.877744197845458984e+00 5.460833907127380371e-01
-6.456937313079833984e+00 -6.834378719329833984e+00 6.372454166412353516e-01
-3.530514001846313477e+00 -3.632740974426269531e+00 1.079595327377319336e+00
-3.550801515579223633e+00 -3.722365617752075195e+00 1.187682151794433594e+00
-3.511711120605468750e+00 -3.618493795394897461e+00 1.234479069709777832e+00
-3.533134460449218750e+00 -3.707082271575927734e+00 1.338927626609802246e+00
-5.567884922027587891e+00 -2.407554864883422852e+00 3.450062990188598633e+00
-5.593484401702880859e+00 -2.501475095748901367e+00 3.447907209396362305e+00
-5.487226486206054688e+00 -2.406305551528930664e+00 3.481983423233032227e+00
-5.520473003387451172e+00 -2.491829633712768555e+00 3.481646537780761719e+00
-3.394672155380249023e+00 -1.926965236663818359e+00 4.990978837013244629e-01
-3.452964305877685547e+00 -2.001188755035400391e+00 4.836510121822357178e-01
-3.289795398712158203e+00 -1.933912158012390137e+00 5.660340785980224609e-01
-3.343902826309204102e+00 -2.010982990264892578e+00 5.512166023254394531e-01
-3.473364353179931641e+00 8.998717367649078369e-02 3.661073684692382812e+00
-3.503928184509277344e+00 -7.241402566432952881e-02 3.659333705902099609e+00
-3.343704462051391602e+00 1.861536800861358643e-01 3.613088130950927734e+00
-3.373739242553710938e+00 1.863057911396026611e-02 3.617693901062011719e+00
-1.987398862838745117e+00 2.711064338684082031e+00 9.061049818992614746e-01
-1.996471405029296875e+00 2.598300457000732422e+00 9.338162541389465332e-01
-1.963355660438537598e+00 2.729181289672851562e+00 1.029838800430297852e+00
-1.975934982299804688e+00 2.619672775268554688e+00 1.067887425422668457e+00
-5.175750732421875000e+00 -6.108248233795166016e+00 5.749932527542114258e-01
-5.244881153106689453e+00 -6.257564067840576172e+00 5.834856033325195312e-01
-5.028904438018798828e+00 -6.163692951202392578e+00 5.592067241668701172e-01
-5.095295906066894531e+00 -6.315423965454101562e+00 5.635392069816589355e-01
-2.779397726058959961e+00 -4.299333393573760986e-01 2.001865625381469727e+00
-2.800304174423217773e+00 -5.204893350601196289e-01 2.083019733428955078e+00
-2.769390106201171875e+00 -4.348614513874053955e-01 2.164721012115478516e+00
-2.793139934539794922e+00 -5.264130234718322754e-01 2.252563476562500000e+00
-6.454835414886474609e+00 -4.644196987152099609e+00 1.227028965950012207e+00
-6.480354309082031250e+00 -4.767970085144042969e+00 1.256496667861938477e+00
-6.432074069976806641e+00 -4.589472293853759766e+00 1.364790201187133789e+00
-6.454368114471435547e+00 -4.712165355682373047e+00 1.395573973655700684e+00
-3.259099483489990234e+00 -2.326463699340820312e+00 2.109681129455566406e+00
-3.276558399200439453e+00 -2.388752698898315430e+00 2.164565801620483398e+00
-3.255491018295288086e+00 -2.297905921936035156e+00 2.204437255859375000e+00
-3.271425962448120117e+00 -2.361895322799682617e+00 2.258428335189819336e+00
-5.660108566284179688e+00 -7.144777774810791016e+00 7.870945334434509277e-01
-5.790451049804687500e+00 -7.137279510498046875e+00 8.296731114387512207e-01
-5.539037704467773438e+00 -7.159568786621093750e+00 8.657552003860473633e-01
-5.673331737518310547e+00 -7.159193515777587891e+00 9.024989008903503418e-01
-2.262785673141479492e+00 2.694431066513061523e+00 4.876438677310943604e-01
-2.283160686492919922e+00 2.616373062133789062e+00 5.133625864982604980e-01
-2.241862058639526367e+00 2.737471103668212891e+00 5.622547268867492676e-01
-2.268016576766967773e+00 2.639903545379638672e+00 5.844671130180358887e-01
-5.025717258453369141e+00 -6.185088753700256348e-01 3.507066488265991211e+00
-5.070588588714599609e+00 -7.436304092407226562e-01 3.506194114685058594e+00
-4.881113529205322266e+00 -6.248461604118347168e-01 3.556759595870971680e+00
-4.931291103363037109e+00 -7.586889266967773438e-01 3.560158252716064453e+00
-4.488402843475341797e+00 3.320003509521484375e+00 1.730737090110778809e+00
-4.506677627563476562e+00 3.248465299606323242e+00 1.782461047172546387e+00
-4.469684600830078125e+00 3.306421995162963867e+00 1.837704539299011230e+00
-4.487888813018798828e+00 3.239031314849853516e+00 1.884710431098937988e+00
-1.790292382240295410e+00 6.352328777313232422e+00 5.510128140449523926e-01
-1.896659135818481445e+00 6.369150638580322266e+00 5.733442306518554688e-01
-1.681726574897766113e+00 6.400210857391357422e+00 5.790184736251831055e-01
-1.793327212333679199e+00 6.421396732330322266e+00 6.012685298919677734e-01
-1.756614089012145996e+00 3.643715143203735352e+00 1.003456234931945801e+00
-1.780853033065795898e+00 3.541107654571533203e+00 1.017780661582946777e+00
-1.701576590538024902e+00 3.733904600143432617e+00 1.073199868202209473e+00
-1.725200176239013672e+00 3.640643835067749023e+00 1.085075378417968750e+00
-4.954918384552001953e+00 -2.711968898773193359e+00 3.683600664138793945e+00
-5.005278587341308594e+00 -2.839235305786132812e+00 3.704666614532470703e+00
-4.822335720062255859e+00 -2.712367057800292969e+00 3.691911220550537109e+00
-4.869001865386962891e+00 -2.836920976638793945e+00 3.706354618072509766e+00
-3.932000637054443359e+00 2.161421537399291992e+00 5.799709558486938477e-01
-3.964470148086547852e+00 2.049293279647827148e+00 5.795665383338928223e-01
-3.830684185028076172e+00 2.099873781204223633e+00 5.732734799385070801e-01
-3.859363555908203125e+00 1.982260584831237793e+00 5.670894980430603027e-01
-4.140520095825195312e+00 -1.492096424102783203e+00 3.701990604400634766e+00
-4.154448032379150391e+00 -1.580408692359924316e+00 3.700559616088867188e+00
-4.070090293884277344e+00 -1.534009575843811035e+00 3.705787420272827148e+00
-4.084645271301269531e+00 -1.623563647270202637e+00 3.704160213470458984e+00
-4.370928764343261719e+00 -6.812268257141113281e+00 2.392473697662353516e+00
-4.393136024475097656e+00 -6.903481006622314453e+00 2.401567697525024414e+00
-4.348495960235595703e+00 -6.770465373992919922e+00 2.459473371505737305e+00
-4.368804454803466797e+00 -6.857736587524414062e+00 2.475323200225830078e+00
-2.965836048126220703e+00 -1.344056606292724609e+00 1.682012796401977539e+00
-2.988477706909179688e+00 -1.426583170890808105e+00 1.762297987937927246e+00
-2.964670419692993164e+00 -1.359667539596557617e+00 1.783651590347290039e+00
-2.986636877059936523e+00 -1.448028206825256348e+00 1.866414546966552734e+00
-6.044461727142333984e+00 -3.114999294281005859e+00 5.950385928153991699e-01
-6.095750808715820312e+00 -3.238643646240234375e+00 6.873741745948791504e-01
-6.056312084197998047e+00 -3.069288015365600586e+00 7.082920074462890625e-01
-6.109705448150634766e+00 -3.197674036026000977e+00 8.002485036849975586e-01
-4.747249603271484375e+00 1.999993562698364258e+00 2.466818094253540039e+00
-4.779130458831787109e+00 1.932139873504638672e+00 2.547148942947387695e+00
-4.741901874542236328e+00 2.018990039825439453e+00 2.587649345397949219e+00
-4.772340774536132812e+00 1.944216012954711914e+00 2.677230834960937500e+00
-3.459869623184204102e+00 -2.730104923248291016e+00 5.666412115097045898e-01
-3.475803375244140625e+00 -2.836481571197509766e+00 5.822196006774902344e-01
-3.439311504364013672e+00 -2.748612642288208008e+00 6.366204023361206055e-01
-3.453481197357177734e+00 -2.859934806823730469e+00 6.548584103584289551e-01
-5.963511466979980469e+00 -7.063905239105224609e+00 1.016708731651306152e+00
-6.069517612457275391e+00 -7.038417816162109375e+00 1.062855958938598633e+00
-5.850299358367919922e+00 -7.078689098358154297e+00 1.098703145980834961e+00
-5.971255779266357422e+00 -7.060613155364990234e+00 1.137797951698303223e+00
-4.138071537017822266e+00 -4.844586849212646484e+00 3.443150520324707031e+00
-4.244752883911132812e+00 -4.807601928710937500e+00 3.505482673645019531e+00
-4.072502136230468750e+00 -4.742319107055664062e+00 3.423693895339965820e+00
-4.178913116455078125e+00 -4.713029861450195312e+00 3.485736608505249023e+00
-5.890293121337890625e+00 -7.147787570953369141e+00 2.899280786514282227e+00
-5.949151039123535156e+00 -7.122690677642822266e+00 2.949249744415283203e+00
-5.842299461364746094e+00 -7.159687995910644531e+00 2.962442398071289062e+00
-5.902292251586914062e+00 -7.132767677307128906e+00 3.005873441696166992e+00
-3.496933937072753906e+00 4.828855037689208984e+00 3.646050691604614258e+00
-3.539540529251098633e+00 4.697155475616455078e+00 3.648422002792358398e+00
-3.383597135543823242e+00 4.763695716857910156e+00 3.682411909103393555e+00
-3.423239946365356445e+00 4.636690616607666016e+00 3.685480594635009766e+00
-3.647320508956909180e+00 6.474518775939941406e+00 2.305113077163696289e+00
-3.678515672683715820e+00 6.399039268493652344e+00 2.364015340805053711e+00
-3.638562440872192383e+00 6.495878219604492188e+00 2.403284788131713867e+00
-3.669853925704956055e+00 6.434494972229003906e+00 2.466387748718261719e+00
-4.302659034729003906e+00 2.826916456222534180e+00 1.287680268287658691e-01
-4.325462818145751953e+00 2.748499870300292969e+00 1.743772327899932861e-01
-4.316211223602294922e+00 2.825808048248291016e+00 2.099330127239227295e-01
-4.339053630828857422e+00 2.749043226242065430e+00 2.566709220409393311e-01
-3.665473699569702148e+00 3.092184066772460938e+00 3.679552555084228516e+00
-3.726928710937500000e+00 2.958704948425292969e+00 3.668956279754638672e+00
-3.518990755081176758e+00 3.052325010299682617e+00 3.696382761001586914e+00
-3.577166557312011719e+00 2.915031433105468750e+00 3.689646244049072266e+00
-1.597872853279113770e+00 4.238063812255859375e+00 1.053121805191040039e+00
-1.616776823997497559e+00 4.138145446777343750e+00 1.078436374664306641e+00
-1.572523951530456543e+00 4.253878116607666016e+00 1.160270452499389648e+00
-1.591567397117614746e+00 4.165504455566406250e+00 1.207787990570068359e+00
-5.281046867370605469e+00 -5.892634868621826172e+00 5.696048736572265625e-01
-5.356448173522949219e+00 -6.034360408782958984e+00 5.827782750129699707e-01
-5.126076221466064453e+00 -5.915032386779785156e+00 5.521743893623352051e-01
-5.199387550354003906e+00 -6.069720745086669922e+00 5.644026994705200195e-01
-3.925479173660278320e+00 4.441917419433593750e+00 5.136689543724060059e-01
-3.949981451034545898e+00 4.349205017089843750e+00 5.342799425125122070e-01
-3.830865859985351562e+00 4.410037517547607422e+00 5.685333013534545898e-01
-3.859022617340087891e+00 4.320806503295898438e+00 5.829710960388183594e-01
-6.117619514465332031e+00 -4.653234004974365234e+00 3.524118185043334961e+00
-6.162099361419677734e+00 -4.738335609436035156e+00 3.516017913818359375e+00
-6.010055065155029297e+00 -4.670271396636962891e+00 3.567716598510742188e+00
-6.051466464996337891e+00 -4.754993438720703125e+00 3.566561460494995117e+00
-4.407902717590332031e+00 -1.112242341041564941e+00 3.707408428192138672e+00
-4.443957328796386719e+00 -1.210436344146728516e+00 3.718739032745361328e+00
-4.301767826080322266e+00 -1.117653608322143555e+00 3.698301315307617188e+00
-4.337531566619873047e+00 -1.213713288307189941e+00 3.710183382034301758e+00
-1.972390174865722656e+00 3.708889484405517578e+00 3.433455228805541992e+00
-2.063632965087890625e+00 3.686793327331542969e+00 3.485586166381835938e+00
-1.930209398269653320e+00 3.859164714813232422e+00 3.402407407760620117e+00
-2.017013788223266602e+00 3.817023754119873047e+00 3.460704326629638672e+00
-3.895731210708618164e+00 1.922108650207519531e+00 3.691602945327758789e+00
-3.960697650909423828e+00 1.770974874496459961e+00 3.691147089004516602e+00
-3.743656158447265625e+00 1.927947163581848145e+00 3.709239244461059570e+00
-3.801788091659545898e+00 1.787639975547790527e+00 3.709523916244506836e+00
-6.295399665832519531e+00 -4.231068134307861328e+00 1.701606154441833496e+00
-6.323794841766357422e+00 -4.344217777252197266e+00 1.751751661300659180e+00
-6.271906852722167969e+00 -4.205731868743896484e+00 1.839769601821899414e+00
-6.301928520202636719e+00 -4.316881656646728516e+00 1.889107942581176758e+00
-4.081847667694091797e+00 -5.835844516754150391e+00 2.622854232788085938e+00
-4.102454185485839844e+00 -5.911186695098876953e+00 2.687395095825195312e+00
-4.066175937652587891e+00 -5.815054416656494141e+00 2.708085775375366211e+00
-4.086510658264160156e+00 -5.880800724029541016e+00 2.755545854568481445e+00
-1.561301946640014648e+00 4.315974235534667969e+00 1.579853415489196777e+00
-1.584595799446105957e+00 4.229019165039062500e+00 1.625993609428405762e+00
-1.553265094757080078e+00 4.333706855773925781e+00 1.712516784667968750e+00
-1.574819326400756836e+00 4.250464439392089844e+00 1.764939308166503906e+00
-4.508964061737060547e+00 3.174900293350219727e+00 1.721452116966247559e+00
-4.520975589752197266e+00 3.100399971008300781e+00 1.787185907363891602e+00
-4.495050430297851562e+00 3.169719934463500977e+00 1.820123672485351562e+00
-4.507114410400390625e+00 3.101158380508422852e+00 1.886072278022766113e+00
-3.301102399826049805e+00 -2.479118824005126953e+00 2.212952852249145508e+00
-3.311717510223388672e+00 -2.553194046020507812e+00 2.262673139572143555e+00
-3.290996074676513672e+00 -2.460715055465698242e+00 2.318883895874023438e+00
-3.303776979446411133e+00 -2.530542373657226562e+00 2.381936311721801758e+00
-5.536302089691162109e+00 -4.141655445098876953e+00 3.759267568588256836e+00
-5.563964843750000000e+00 -4.261577606201171875e+00 3.761047601699829102e+00
-5.432726383209228516e+00 -4.134488582611083984e+00 3.779190063476562500e+00
-5.455407619476318359e+00 -4.253062725067138672e+00 3.783146619796752930e+00
-4.031837463378906250e+00 -4.331063747406005859e+00 3.010298609733581543e-01
-4.034929275512695312e+00 -4.407104492187500000e+00 3.135804533958435059e-01
-4.015570640563964844e+00 -4.330373764038085938e+00 3.472408652305603027e-01
-4.019331932067871094e+00 -4.405745029449462891e+00 3.628317713737487793e-01
-3.172458648681640625e+00 2.412504911422729492e+00 1.416387856006622314e-01
-3.261818408966064453e+00 2.366804838180541992e+00 1.706203967332839966e-01
-3.096876621246337891e+00 2.369542121887207031e+00 1.746356040239334106e-01
-3.184071540832519531e+00 2.315485239028930664e+00 2.097541242837905884e-01
-5.750669002532958984e+00 -4.682775020599365234e+00 5.616874098777770996e-01
-5.791325569152832031e+00 -4.826667785644531250e+00 5.737405419349670410e-01
-5.618711948394775391e+00 -4.670076847076416016e+00 5.523319840431213379e-01
-5.660385131835937500e+00 -4.819381237030029297e+00 5.646307468414306641e-01
-3.559837341308593750e+00 -3.764982223510742188e+00 1.179946422576904297e+00
-3.579600334167480469e+00 -3.849867820739746094e+00 1.276478171348571777e+00
-3.544063806533813477e+00 -3.743089199066162109e+00 1.320090651512145996e+00
-3.563029527664184570e+00 -3.825655937194824219e+00 1.415443062782287598e+00
-2.993697404861450195e+00 -1.126363277435302734e+00 9.241183996200561523e-01
-3.001175403594970703e+00 -1.289588809013366699e+00 9.398412704467773438e-01
-2.939738988876342773e+00 -1.075831294059753418e+00 9.883469343185424805e-01
-2.945439100265502930e+00 -1.232899427413940430e+00 1.014127016067504883e+00
-4.597998619079589844e+00 -5.469973087310791016e+00 3.589092493057250977e+00
-4.661327362060546875e+00 -5.451482772827148438e+00 3.631922483444213867e+00
-4.520491123199462891e+00 -5.386194705963134766e+00 3.575679540634155273e+00
-4.555210590362548828e+00 -5.429039955139160156e+00 3.598593473434448242e+00
-2.916735887527465820e+00 -1.187297582626342773e+00 1.394668698310852051e+00
-2.938883781433105469e+00 -1.284402132034301758e+00 1.430306673049926758e+00
-2.923215627670288086e+00 -1.137799620628356934e+00 1.526089191436767578e+00
-2.945899724960327148e+00 -1.238753318786621094e+00 1.564270257949829102e+00
-4.322850227355957031e+00 3.680133104324340820e+00 3.253394365310668945e+00
-4.325798511505126953e+00 3.593062162399291992e+00 3.312819719314575195e+00
-4.306313037872314453e+00 3.683937788009643555e+00 3.337433338165283203e+00
-4.309923648834228516e+00 3.597620725631713867e+00 3.389169454574584961e+00
-2.465932130813598633e+00 6.688039779663085938e+00 3.479465246200561523e+00
-2.549590110778808594e+00 6.705249309539794922e+00 3.582465887069702148e+00
-2.361384868621826172e+00 6.610539913177490234e+00 3.578450918197631836e+00
-2.443526029586791992e+00 6.635385513305664062e+00 3.694076776504516602e+00
-2.677996873855590820e+00 6.820224285125732422e+00 2.821759700775146484e+00
-2.744165897369384766e+00 6.830385684967041016e+00 2.894561052322387695e+00
-2.619724988937377930e+00 6.819144248962402344e+00 2.931294679641723633e+00
-2.684212684631347656e+00 6.826805591583251953e+00 3.007319688796997070e+00
-1.583244681358337402e+00 5.049982070922851562e+00 3.321237564086914062e+00
-1.617912292480468750e+00 4.983245372772216797e+00 3.353228092193603516e+00
-1.548954486846923828e+00 5.169029235839843750e+00 3.407196521759033203e+00
-1.578433632850646973e+00 5.072226047515869141e+00 3.436136245727539062e+00
-5.334710121154785156e+00 -4.186493396759033203e+00 1.484735012054443359e-01
-5.385688304901123047e+00 -4.311421394348144531e+00 1.725468784570693970e-01
-5.200542926788330078e+00 -4.258695125579833984e+00 1.382144391536712646e-01
-5.245820999145507812e+00 -4.367120265960693359e+00 1.649561524391174316e-01
-2.308685302734375000e+00 2.536127328872680664e+00 2.954089045524597168e-01
-2.333315849304199219e+00 2.483377695083618164e+00 3.332189619541168213e-01
-2.309546470642089844e+00 2.529495477676391602e+00 3.845878839492797852e-01
-2.329311370849609375e+00 2.482888221740722656e+00 4.267517924308776855e-01
-1.960426330566406250e+00 2.827799081802368164e+00 9.754755496978759766e-01
-1.973003506660461426e+00 2.718300342559814453e+00 1.009077310562133789e+00
-1.937976837158203125e+00 2.854356527328491211e+00 1.073971748352050781e+00
-1.950887560844421387e+00 2.751255512237548828e+00 1.138527989387512207e+00
-4.306288719177246094e+00 4.166353225708007812e+00 1.614811897277832031e+00
-4.328917503356933594e+00 4.062940597534179688e+00 1.632367372512817383e+00
-4.273229598999023438e+00 4.231800079345703125e+00 1.732268214225769043e+00
-4.293710231781005859e+00 4.130699634552001953e+00 1.748944044113159180e+00
-5.419458389282226562e+00 -6.555746555328369141e+00 5.728421807289123535e-01
-5.494291305541992188e+00 -6.663045883178710938e+00 5.852271914482116699e-01
-5.272155284881591797e+00 -6.627713203430175781e+00 5.678500533103942871e-01
-5.339841365814208984e+00 -6.739444255828857422e+00 5.862147212028503418e-01
-3.666792631149291992e+00 -2.761409282684326172e+00 4.048735201358795166e-01
-3.683568477630615234e+00 -2.864159584045410156e+00 4.140012264251708984e-01
-3.615506172180175781e+00 -2.713577270507812500e+00 4.569243192672729492e-01
-3.633980274200439453e+00 -2.817919492721557617e+00 4.676133394241333008e-01
-5.815106391906738281e+00 -3.130985260009765625e+00 4.822487533092498779e-01
-5.838603496551513672e+00 -3.239220619201660156e+00 5.050155520439147949e-01
-5.763515472412109375e+00 -3.132200956344604492e+00 5.257114768028259277e-01
-5.787780284881591797e+00 -3.237746000289916992e+00 5.475228428840637207e-01
-2.111456632614135742e+00 2.151750564575195312e+00 1.496870160102844238e+00
-2.136080980300903320e+00 2.042672872543334961e+00 1.523785352706909180e+00
-2.084707260131835938e+00 2.235427141189575195e+00 1.615850329399108887e+00
-2.110987424850463867e+00 2.122972488403320312e+00 1.642549395561218262e+00
-4.534927368164062500e+00 3.045837879180908203e+00 2.674972057342529297e+00
-4.552935600280761719e+00 2.974342823028564453e+00 2.716688871383666992e+00
-4.529001712799072266e+00 3.086832523345947266e+00 2.767083644866943359e+00
-4.544483661651611328e+00 3.021822690963745117e+00 2.807101488113403320e+00
-5.517919063568115234e+00 -7.167707443237304688e+00 1.752914071083068848e+00
-5.622129440307617188e+00 -7.141369342803955078e+00 1.857762813568115234e+00
-5.491972446441650391e+00 -7.173957824707031250e+00 1.864817023277282715e+00
-5.597290039062500000e+00 -7.147186279296875000e+00 1.973377346992492676e+00
-3.618021488189697266e+00 2.626718759536743164e+00 5.667626857757568359e-01
-3.669581174850463867e+00 2.530375719070434570e+00 5.722253322601318359e-01
-3.519752264022827148e+00 2.642881631851196289e+00 5.797650218009948730e-01
-3.573260545730590820e+00 2.546403646469116211e+00 5.842615365982055664e-01
-3.004796504974365234e+00 -1.385982990264892578e+00 2.605754613876342773e+00
-3.019508361816406250e+00 -1.449036002159118652e+00 2.701089382171630859e+00
-2.986645936965942383e+00 -1.369879126548767090e+00 2.729867458343505859e+00
-3.005087375640869141e+00 -1.435469031333923340e+00 2.818774461746215820e+00
-3.006387472152709961e+00 -1.366543412208557129e+00 2.586787462234497070e+00
-3.021970510482788086e+00 -1.429220795631408691e+00 2.680212020874023438e+00
-2.988511085510253906e+00 -1.349876046180725098e+00 2.710875034332275391e+00
-3.006831645965576172e+00 -1.414586305618286133e+00 2.799678325653076172e+00
-4.130908012390136719e+00 3.110371589660644531e+00 2.818895876407623291e-01
-4.155881404876708984e+00 3.004130125045776367e+00 2.855916917324066162e-01
-4.101823329925537109e+00 3.163864850997924805e+00 3.464932441711425781e-01
-4.127906322479248047e+00 3.056690454483032227e+00 3.528374135494232178e-01
-3.397746324539184570e+00 2.969911813735961914e+00 3.716077566146850586e+00
-3.454476833343505859e+00 2.827491283416748047e+00 3.710783243179321289e+00
-3.267187595367431641e+00 2.961219072341918945e+00 3.714584112167358398e+00
-3.318897008895874023e+00 2.819118738174438477e+00 3.715787410736083984e+00
-6.169385433197021484e+00 -5.590037822723388672e+00 3.624441623687744141e+00
-6.220065116882324219e+00 -5.667580127716064453e+00 3.621352195739746094e+00
-6.061154365539550781e+00 -5.590075016021728516e+00 3.653582572937011719e+00
-6.123615741729736328e+00 -5.662987709045410156e+00 3.647093296051025391e+00
-2.424293994903564453e+00 7.270609140396118164e-01 2.922754764556884766e+00
-2.461718082427978516e+00 6.246283054351806641e-01 2.970044136047363281e+00
-2.434786796569824219e+00 8.142606616020202637e-01 2.974282503128051758e+00
-2.477126836776733398e+00 7.092451453208923340e-01 3.016378879547119141e+00
-2.301249980926513672e+00 3.910873651504516602e+00 1.451556235551834106e-01
-2.346767425537109375e+00 3.788330793380737305e+00 1.595095992088317871e-01
-2.223369121551513672e+00 3.958681821823120117e+00 1.774807572364807129e-01
-2.264424800872802734e+00 3.837511539459228516e+00 1.950602382421493530e-01
-6.606005191802978516e+00 -6.747720241546630859e+00 1.224691033363342285e+00
-6.678634643554687500e+00 -6.692227363586425781e+00 1.318578243255615234e+00
-6.520666122436523438e+00 -6.807959079742431641e+00 1.337167859077453613e+00
-6.596387386322021484e+00 -6.752327442169189453e+00 1.426738023757934570e+00
-1.708245992660522461e+00 3.708819150924682617e+00 3.138306379318237305e+00
-1.738649725914001465e+00 3.598693370819091797e+00 3.172589063644409180e+00
-1.696273326873779297e+00 3.772704839706420898e+00 3.223758697509765625e+00
-1.725710272789001465e+00 3.666047334671020508e+00 3.254617452621459961e+00
-2.281212091445922852e+00 6.753800392150878906e+00 1.106799125671386719e+00
-2.358643293380737305e+00 6.767539024353027344e+00 1.176833152770996094e+00
-2.246144533157348633e+00 6.746806621551513672e+00 1.208364486694335938e+00
-2.319909095764160156e+00 6.755599021911621094e+00 1.271354317665100098e+00
-1.651772260665893555e+00 6.414531707763671875e+00 2.436474323272705078e+00
-1.715876460075378418e+00 6.450526237487792969e+00 2.496249675750732422e+00
-1.569207549095153809e+00 6.366748332977294922e+00 2.514094114303588867e+00
-1.640241026878356934e+00 6.406570911407470703e+00 2.569352388381958008e+00
-5.857317447662353516e+00 -3.214509010314941406e+00 4.690738320350646973e-01
-5.878507137298583984e+00 -3.332027912139892578e+00 4.909124374389648438e-01
-5.801408767700195312e+00 -3.208375692367553711e+00 5.287486910820007324e-01
-5.823746204376220703e+00 -3.328258037567138672e+00 5.498872995376586914e-01
-2.227961301803588867e+00 6.668160438537597656e+00 2.220496416091918945e+00
-2.285924673080444336e+00 6.686324119567871094e+00 2.306337833404541016e+00
-2.178189754486083984e+00 6.643825531005859375e+00 2.317843437194824219e+00
-2.236317157745361328e+00 6.663380622863769531e+00 2.407489538192749023e+00
-5.670192241668701172e+00 -3.046986818313598633e+00 3.488125085830688477e+00
-5.686370849609375000e+00 -3.147362232208251953e+00 3.492790222167968750e+00
-5.578154087066650391e+00 -3.074970960617065430e+00 3.535300493240356445e+00
-5.596943378448486328e+00 -3.174686670303344727e+00 3.539645195007324219e+00
-5.096374511718750000e+00 -4.183277606964111328e+00 5.636733770370483398e-01
-5.146332740783691406e+00 -4.259021759033203125e+00 5.776328444480895996e-01
-5.003002166748046875e+00 -4.173665523529052734e+00 5.729963779449462891e-01
-5.055714130401611328e+00 -4.251294136047363281e+00 5.873450636863708496e-01
-6.388206481933593750e+00 -4.891477584838867188e+00 3.313982248306274414e+00
-6.387744903564453125e+00 -5.015676021575927734e+00 3.329705953598022461e+00
-6.343075275421142578e+00 -4.864604473114013672e+00 3.388349294662475586e+00
-6.344347953796386719e+00 -4.985502243041992188e+00 3.400932312011718750e+00
-3.659924268722534180e+00 -2.491989374160766602e+00 3.482776880264282227e+00
-3.736531972885131836e+00 -2.522549867630004883e+00 3.531783342361450195e+00
-3.667244195938110352e+00 -2.397789955139160156e+00 3.504457950592041016e+00
-3.746170759201049805e+00 -2.421463251113891602e+00 3.555051088333129883e+00
-1.958786010742187500e+00 2.633047103881835938e+00 2.694156885147094727e+00
-1.984145522117614746e+00 2.557441949844360352e+00 2.760432481765747070e+00
-1.960325479507446289e+00 2.632123947143554688e+00 2.846832990646362305e+00
-1.983179092407226562e+00 2.553643703460693359e+00 2.913019418716430664e+00
-3.788234233856201172e+00 -2.236790657043457031e+00 3.585845232009887695e+00
-3.883552312850952148e+00 -2.225811481475830078e+00 3.638909101486206055e+00
-3.778469800949096680e+00 -2.140767335891723633e+00 3.594599008560180664e+00
-3.876284599304199219e+00 -2.129560947418212891e+00 3.649103164672851562e+00
-4.688734531402587891e+00 -4.489267826080322266e+00 3.736333847045898438e+00
-4.720020771026611328e+00 -4.583286285400390625e+00 3.729418039321899414e+00
-4.585237979888916016e+00 -4.497292041778564453e+00 3.723082065582275391e+00
-4.617240428924560547e+00 -4.592076778411865234e+00 3.715626239776611328e+00
-3.446188449859619141e+00 3.602802991867065430e+00 5.792751908302307129e-01
-3.488040447235107422e+00 3.495574235916137695e+00 5.812150239944458008e-01
-3.340521812438964844e+00 3.574320793151855469e+00 5.719913840293884277e-01
-3.384800195693969727e+00 3.466948270797729492e+00 5.755923390388488770e-01
-4.143030166625976562e+00 4.501134395599365234e+00 1.969843387603759766e+00
-4.153651237487792969e+00 4.427361011505126953e+00 2.053827524185180664e+00
-4.121965408325195312e+00 4.511536121368408203e+00 2.076389789581298828e+00
-4.136482715606689453e+00 4.443420886993408203e+00 2.150375366210937500e+00
-5.026874065399169922e+00 1.204034090042114258e+00 2.763359546661376953e+00
-5.054889678955078125e+00 1.116569638252258301e+00 2.851801395416259766e+00
-5.008766174316406250e+00 1.242496013641357422e+00 2.888612985610961914e+00
-5.033947944641113281e+00 1.158584833145141602e+00 2.969132184982299805e+00
-4.847702026367187500e+00 1.691488623619079590e+00 1.946377635002136230e+00
-4.873745441436767578e+00 1.581090211868286133e+00 1.950907111167907715e+00
-4.821059703826904297e+00 1.754197835922241211e+00 2.030116558074951172e+00
-4.845057487487792969e+00 1.651220798492431641e+00 2.040920019149780273e+00
-6.240280628204345703e+00 -3.591656446456909180e+00 2.993185758590698242e+00
-6.252940177917480469e+00 -3.687214136123657227e+00 3.023664951324462891e+00
-6.167397022247314453e+00 -3.511273860931396484e+00 3.120052099227905273e+00
-6.184888362884521484e+00 -3.619079351425170898e+00 3.145958662033081055e+00
-3.851549148559570312e+00 5.764501094818115234e+00 1.710871338844299316e+00
-3.867608785629272461e+00 5.674128532409667969e+00 1.769143104553222656e+00
-3.817202329635620117e+00 5.829093933105468750e+00 1.828650951385498047e+00
-3.840053558349609375e+00 5.737879276275634766e+00 1.892895460128784180e+00
-6.650759220123291016e+00 -5.364063739776611328e+00 2.948115110397338867e+00
-6.657242774963378906e+00 -5.490380287170410156e+00 2.986104488372802734e+00
-6.632357597351074219e+00 -5.352003097534179688e+00 3.083235979080200195e+00
-6.619244575500488281e+00 -5.486063003540039062e+00 3.131826400756835938e+00
-2.198390960693359375e+00 1.526117444038391113e+00 3.121818304061889648e+00
-2.267699003219604492e+00 1.413739085197448730e+00 3.178461551666259766e+00
-2.205679655075073242e+00 1.665784001350402832e+00 3.175640821456909180e+00
-2.277731895446777344e+00 1.555148839950561523e+00 3.229475975036621094e+00
-3.804386138916015625e+00 3.748203039169311523e+00 5.733834505081176758e-01
-3.825706005096435547e+00 3.635312557220458984e+00 5.768766999244689941e-01
-3.728132009506225586e+00 3.698390245437622070e+00 5.737776160240173340e-01
-3.755165576934814453e+00 3.589699506759643555e+00 5.749530196189880371e-01
-2.225367546081542969e+00 2.788524866104125977e+00 2.500061094760894775e-01
-2.271568298339843750e+00 2.690654993057250977e+00 2.596249282360076904e-01
-2.159786224365234375e+00 2.806848526000976562e+00 2.907606065273284912e-01
-2.198073387145996094e+00 2.707485675811767578e+00 2.983144521713256836e-01
-3.282224655151367188e+00 -2.527278661727905273e+00 1.127402305603027344e+00
-3.301889896392822266e+00 -2.647919654846191406e+00 1.133634448051452637e+00
-3.232611894607543945e+00 -2.473673582077026367e+00 1.199553608894348145e+00
-3.252437114715576172e+00 -2.590371608734130859e+00 1.210230588912963867e+00
-4.573252201080322266e+00 2.959135055541992188e+00 1.079554557800292969e+00
-4.597115993499755859e+00 2.869652748107910156e+00 1.136211633682250977e+00
-4.554773330688476562e+00 2.983647584915161133e+00 1.182366371154785156e+00
-4.582393646240234375e+00 2.892952919006347656e+00 1.236822843551635742e+00
-3.512478351593017578e+00 6.927499294281005859e+00 2.914972066879272461e+00
-3.579180717468261719e+00 6.889189720153808594e+00 2.986364603042602539e+00
-3.410646200180053711e+00 6.935262680053710938e+00 3.010521411895751953e+00
-3.493698120117187500e+00 6.908335685729980469e+00 3.068735837936401367e+00
-3.056970357894897461e+00 4.053875446319580078e+00 5.706654787063598633e-01
-3.100075006484985352e+00 3.929607391357421875e+00 5.921633839607238770e-01
-2.963977813720703125e+00 3.980460166931152344e+00 5.662136673927307129e-01
-3.006779193878173828e+00 3.848937511444091797e+00 5.915985703468322754e-01
-6.000112533569335938e+00 -4.105537891387939453e+00 2.135279923677444458e-01
-6.034181118011474609e+00 -4.179160118103027344e+00 2.366200685501098633e-01
-5.982809066772460938e+00 -4.039808273315429688e+00 2.545839846134185791e-01
-6.011940479278564453e+00 -4.114065647125244141e+00 2.816079258918762207e-01
-4.836324214935302734e+00 1.877660155296325684e-01 3.501626253128051758e+00
-4.878820896148681641e+00 1.086870133876800537e-01 3.497711658477783203e+00
-4.743567943572998047e+00 1.919431984424591064e-01 3.525878190994262695e+00
-4.785806179046630859e+00 1.111352369189262390e-01 3.524966955184936523e+00
-4.924215793609619141e+00 -2.171059846878051758e+00 3.674460649490356445e+00
-4.925870895385742188e+00 -2.329732179641723633e+00 3.669272422790527344e+00
-4.829558372497558594e+00 -2.243378400802612305e+00 3.697486639022827148e+00
-4.831359386444091797e+00 -2.405799150466918945e+00 3.692811012268066406e+00
-4.387060642242431641e+00 -4.822056770324707031e+00 3.572520971298217773e+00
-4.489180088043212891e+00 -4.781741619110107422e+00 3.626678943634033203e+00
-4.317685604095458984e+00 -4.746528148651123047e+00 3.549979686737060547e+00
-4.420127868652343750e+00 -4.712105751037597656e+00 3.603690385818481445e+00
-4.641463756561279297e+00 4.652319252490997314e-01 3.566776037216186523e+00
-4.699027538299560547e+00 3.952650129795074463e-01 3.552549362182617188e+00
-4.554198741912841797e+00 4.603714644908905029e-01 3.589199304580688477e+00
-4.605090141296386719e+00 3.813484311103820801e-01 3.582234859466552734e+00
-2.367154121398925781e+00 9.533318877220153809e-01 1.596677303314208984e+00
-2.396695375442504883e+00 8.711203932762145996e-01 1.690947890281677246e+00
-2.372848510742187500e+00 9.698377847671508789e-01 1.743939638137817383e+00
-2.400474309921264648e+00 8.907214999198913574e-01 1.826821088790893555e+00
-3.446763992309570312e+00 2.446208238601684570e+00 5.601457953453063965e-01
-3.470223903656005859e+00 2.366648197174072266e+00 5.639616847038269043e-01
-3.360275506973266602e+00 2.473311901092529297e+00 5.830834507942199707e-01
-3.373577594757080078e+00 2.382826089859008789e+00 5.880527496337890625e-01
-2.802638769149780273e+00 2.261265039443969727e+00 5.646221637725830078e-01
-2.822979450225830078e+00 2.155209779739379883e+00 5.641503930091857910e-01
-2.721922874450683594e+00 2.251011133193969727e+00 5.777251124382019043e-01
-2.737933874130249023e+00 2.149996995925903320e+00 5.792256593704223633e-01
-4.337561130523681641e+00 -2.660465717315673828e+00 5.435516834259033203e-01
-4.374466896057128906e+00 -2.779932022094726562e+00 5.480224490165710449e-01
-4.231004714965820312e+00 -2.643053531646728516e+00 5.661563277244567871e-01
-4.265658378601074219e+00 -2.767742156982421875e+00 5.725324749946594238e-01
-3.445423603057861328e+00 -3.059021234512329102e+00 1.864843368530273438e+00
-3.457142353057861328e+00 -3.120098590850830078e+00 1.898408532142639160e+00
-3.437783718109130859e+00 -3.022724866867065430e+00 1.973373293876647949e+00
-3.450870990753173828e+00 -3.087095975875854492e+00 2.001592159271240234e+00
-3.136292695999145508e+00 -1.858634352684020996e+00 2.590609788894653320e+00
-3.149591445922851562e+00 -1.929749250411987305e+00 2.677362203598022461e+00
-3.121268987655639648e+00 -1.846941947937011719e+00 2.712024688720703125e+00
-3.136365175247192383e+00 -1.922329783439636230e+00 2.806138992309570312e+00
-4.297887325286865234e+00 -1.174275040626525879e+00 3.708168745040893555e+00
-4.330121040344238281e+00 -1.266265630722045898e+00 3.719003438949584961e+00
-4.189873695373535156e+00 -1.197696566581726074e+00 3.701416492462158203e+00
-4.225520610809326172e+00 -1.302258610725402832e+00 3.707750082015991211e+00
-3.227693319320678711e+00 3.862190246582031250e+00 5.767980813980102539e-01
-3.270824670791625977e+00 3.752692461013793945e+00 5.853601694107055664e-01
-3.130832195281982422e+00 3.777748584747314453e+00 5.716510415077209473e-01
-3.171795845031738281e+00 3.665347337722778320e+00 5.798717737197875977e-01
-6.707757472991943359e+00 -6.675557613372802734e+00 5.402879118919372559e-01
-6.743844032287597656e+00 -6.649554252624511719e+00 6.380948424339294434e-01
-6.653565406799316406e+00 -6.710595607757568359e+00 6.312819719314575195e-01
-6.691437721252441406e+00 -6.681310176849365234e+00 7.360482811927795410e-01
-6.632019042968750000e+00 -5.622773647308349609e+00 1.389215111732482910e+00
-6.649985790252685547e+00 -5.698047161102294922e+00 1.428505659103393555e+00
-6.613717555999755859e+00 -5.592507362365722656e+00 1.508400440216064453e+00
-6.632278919219970703e+00 -5.671498775482177734e+00 1.543618321418762207e+00
-4.446607112884521484e+00 3.345765590667724609e+00 2.021395683288574219e+00
-4.465057849884033203e+00 3.254176139831542969e+00 2.038173913955688477e+00
-4.418353557586669922e+00 3.408621072769165039e+00 2.113876342773437500e+00
-4.439922809600830078e+00 3.305016040802001953e+00 2.123322486877441406e+00
-1.262516140937805176e+00 6.205077648162841797e+00 5.774537324905395508e-01
-1.319633364677429199e+00 6.232399940490722656e+00 6.137507557868957520e-01
-1.207782745361328125e+00 6.212703704833984375e+00 6.291013956069946289e-01
-1.265579819679260254e+00 6.239110946655273438e+00 6.608467698097229004e-01
-3.725106477737426758e+00 9.319071769714355469e-01 5.739151239395141602e-01
-3.761071443557739258e+00 8.022076487541198730e-01 5.786277055740356445e-01
-3.604797840118408203e+00 8.425476551055908203e-01 5.644059777259826660e-01
-3.644209384918212891e+00 7.065011858940124512e-01 5.718606710433959961e-01
-3.140861988067626953e+00 -1.778431415557861328e+00 3.248774528503417969e+00
-3.201327800750732422e+00 -1.869734048843383789e+00 3.312012910842895508e+00
-3.169579029083251953e+00 -1.630658626556396484e+00 3.313022136688232422e+00
-3.237890720367431641e+00 -1.725335597991943359e+00 3.363507747650146484e+00
-4.039483547210693359e+00 -2.644963026046752930e+00 3.630697727203369141e+00
-4.090154170989990234e+00 -2.654445171356201172e+00 3.658230066299438477e+00
-4.013364791870117188e+00 -2.604488849639892578e+00 3.625324964523315430e+00
-4.081129074096679688e+00 -2.600852012634277344e+00 3.661737203598022461e+00
-4.721590518951416016e+00 -1.350922703742980957e+00 3.668797969818115234e+00
-4.742938041687011719e+00 -1.487298488616943359e+00 3.676810741424560547e+00
-4.638203620910644531e+00 -1.413445234298706055e+00 3.676666021347045898e+00
-4.656881809234619141e+00 -1.527112483978271484e+00 3.686327695846557617e+00
-2.857939004898071289e+00 -7.571949362754821777e-01 2.053143024444580078e+00
-2.876551389694213867e+00 -8.552740812301635742e-01 2.138757467269897461e+00
-2.854367017745971680e+00 -7.639809250831604004e-01 2.204429149627685547e+00
-2.875061035156250000e+00 -8.588991761207580566e-01 2.285918951034545898e+00
-5.026009082794189453e+00 8.157658576965332031e-02 3.795409798622131348e-01
-5.036542892456054688e+00 -9.428734332323074341e-02 3.907173275947570801e-01
-4.956459522247314453e+00 1.765691041946411133e-01 3.847565650939941406e-01
-4.975025653839111328e+00 1.952305436134338379e-03 3.933174908161163330e-01
-4.634549140930175781e+00 -6.976058959960937500e+00 3.373429059982299805e+00
-4.747337341308593750e+00 -6.944526672363281250e+00 3.437560081481933594e+00
-4.581822395324707031e+00 -6.849435806274414062e+00 3.436857700347900391e+00
-4.695555686950683594e+00 -6.827472209930419922e+00 3.500424623489379883e+00
-3.365948915481567383e+00 -2.970348834991455078e+00 1.285418868064880371e+00
-3.388944149017333984e+00 -3.044505119323730469e+00 1.327974915504455566e+00
-3.363982200622558594e+00 -2.944809913635253906e+00 1.409994959831237793e+00
-3.384978771209716797e+00 -3.013431787490844727e+00 1.446385622024536133e+00
-3.336636543273925781e+00 -2.991243362426757812e+00 2.956836700439453125e+00
-3.359268665313720703e+00 -3.089205741882324219e+00 2.986764192581176758e+00
-3.382199048995971680e+00 -2.907059669494628906e+00 3.051210165023803711e+00
-3.404851675033569336e+00 -3.000808954238891602e+00 3.078499078750610352e+00
-4.401881217956542969e+00 3.512637376785278320e+00 1.689977049827575684e+00
-4.422517776489257812e+00 3.456103324890136719e+00 1.742603659629821777e+00
-4.389185905456542969e+00 3.504762887954711914e+00 1.823120951652526855e+00
-4.409783840179443359e+00 3.447574853897094727e+00 1.872775912284851074e+00
-4.485562324523925781e+00 3.257278919219970703e+00 7.475074529647827148e-01
-4.513129711151123047e+00 3.176851987838745117e+00 8.060026764869689941e-01
-4.480402946472167969e+00 3.289640903472900391e+00 8.750278949737548828e-01
-4.507359504699707031e+00 3.211791753768920898e+00 9.306457042694091797e-01
-4.770361423492431641e+00 1.943639278411865234e+00 1.929491400718688965e+00
-4.786152839660644531e+00 1.867818236351013184e+00 1.955593824386596680e+00
-4.743947029113769531e+00 1.982798218727111816e+00 2.029451608657836914e+00
-4.761391162872314453e+00 1.905174016952514648e+00 2.056846618652343750e+00
-4.665039062500000000e+00 -3.205898761749267578e+00 3.695738554000854492e+00
-4.681631088256835938e+00 -3.297834396362304688e+00 3.697376251220703125e+00
-4.583296298980712891e+00 -3.208102464675903320e+00 3.706732988357543945e+00
-4.599383831024169922e+00 -3.299441099166870117e+00 3.714507102966308594e+00
-3.991334676742553711e+00 5.345839023590087891e+00 1.123306989669799805e+00
-4.017444610595703125e+00 5.238439083099365234e+00 1.190179467201232910e+00
-3.966709375381469727e+00 5.383260726928710938e+00 1.226134181022644043e+00
-3.992182493209838867e+00 5.276504516601562500e+00 1.292980670928955078e+00
-2.343778848648071289e+00 1.194899439811706543e+00 1.298927187919616699e+00
-2.356270790100097656e+00 1.116739630699157715e+00 1.397455334663391113e+00
-2.337059259414672852e+00 1.209132432937622070e+00 1.403112649917602539e+00
-2.352614402770996094e+00 1.125786066055297852e+00 1.500913023948669434e+00
-4.112121105194091797e+00 4.521239280700683594e+00 2.409021854400634766e+00
-4.133813381195068359e+00 4.463578224182128906e+00 2.460894584655761719e+00
-4.116074562072753906e+00 4.546603679656982422e+00 2.526491641998291016e+00
-4.140896320343017578e+00 4.488872051239013672e+00 2.581051349639892578e+00
-4.220018863677978516e+00 4.441757202148437500e+00 1.169447302818298340e+00
-4.243712425231933594e+00 4.309103965759277344e+00 1.183880090713500977e+00
-4.191205024719238281e+00 4.495465278625488281e+00 1.276434183120727539e+00
-4.214492797851562500e+00 4.371902465820312500e+00 1.299836397171020508e+00
-1.361662983894348145e+00 5.383919239044189453e+00 2.011935710906982422e+00
-1.375228166580200195e+00 5.294863700866699219e+00 2.048493623733520508e+00
-1.343610048294067383e+00 5.461541652679443359e+00 2.130104780197143555e+00
-1.361758351325988770e+00 5.373142719268798828e+00 2.157942295074462891e+00
-5.848975181579589844e+00 -3.331158876419067383e+00 3.999510705471038818e-01
-5.871418952941894531e+00 -3.454852581024169922e+00 4.153154492378234863e-01
-5.804017543792724609e+00 -3.316119909286499023e+00 4.528357088565826416e-01
-5.825081348419189453e+00 -3.442914724349975586e+00 4.721852242946624756e-01
-3.644089698791503906e+00 4.857484698295593262e-01 3.711618423461914062e+00
-3.712286472320556641e+00 3.838488757610321045e-01 3.725238323211669922e+00
-3.501090526580810547e+00 5.177378654479980469e-01 3.703223705291748047e+00
-3.568752527236938477e+00 4.182171523571014404e-01 3.713002204895019531e+00
-4.057866573333740234e+00 -5.546626091003417969e+00 2.350799322128295898e+00
-4.079377174377441406e+00 -5.617702960968017578e+00 2.399769067764282227e+00
-4.041512012481689453e+00 -5.517791748046875000e+00 2.460821866989135742e+00
-4.058572769165039062e+00 -5.578601360321044922e+00 2.512045145034790039e+00
-4.343029499053955078e+00 -6.152006149291992188e+00 3.904653191566467285e-01
-4.386856079101562500e+00 -6.267896652221679688e+00 3.992514908313751221e-01
-4.222017765045166016e+00 -6.174923896789550781e+00 4.139445126056671143e-01
-4.267546653747558594e+00 -6.287457942962646484e+00 4.201913475990295410e-01
-5.984380245208740234e+00 -7.067961215972900391e+00 7.240216732025146484e-01
-6.093526840209960938e+00 -7.037577152252197266e+00 7.732664346694946289e-01
-5.843455791473388672e+00 -7.110401153564453125e+00 7.603635191917419434e-01
-5.965476989746093750e+00 -7.086229324340820312e+00 8.144233226776123047e-01
-4.838605403900146484e+00 -4.422187328338623047e+00 3.693326950073242188e+00
-4.864639759063720703e+00 -4.519042491912841797e+00 3.686273336410522461e+00
-4.743074417114257812e+00 -4.420998573303222656e+00 3.697664260864257812e+00
-4.772742271423339844e+00 -4.512126445770263672e+00 3.693011760711669922e+00
-2.310314655303955078e+00 6.778689384460449219e+00 1.802349209785461426e+00
-2.384329557418823242e+00 6.790359020233154297e+00 1.875354886054992676e+00
-2.232340097427368164e+00 6.735449314117431641e+00 1.871772170066833496e+00
-2.307407140731811523e+00 6.750299930572509766e+00 1.955176115036010742e+00
-2.578844070434570312e+00 4.886443138122558594e+00 3.691681623458862305e+00
-2.619678735733032227e+00 4.741862297058105469e+00 3.687899827957153320e+00
-2.458697080612182617e+00 4.857008934020996094e+00 3.690797805786132812e+00
-2.485849142074584961e+00 4.712445735931396484e+00 3.683967351913452148e+00
-3.855985403060913086e+00 -4.687188625335693359e+00 2.291783094406127930e+00
-3.877393007278442383e+00 -4.766419410705566406e+00 2.337221145629882812e+00
-3.844452142715454102e+00 -4.675736904144287109e+00 2.393084049224853516e+00
-3.863717317581176758e+00 -4.753311634063720703e+00 2.436951160430908203e+00
-5.267877578735351562e+00 -4.977371215820312500e+00 5.737797617912292480e-01
-5.298243999481201172e+00 -5.107173919677734375e+00 5.764703750610351562e-01
-5.151659488677978516e+00 -5.095187187194824219e+00 5.713967680931091309e-01
-5.184041500091552734e+00 -5.215774059295654297e+00 5.719486474990844727e-01
-6.139661788940429688e+00 -3.302277565002441406e+00 2.646091222763061523e+00
-6.158204555511474609e+00 -3.415807485580444336e+00 2.747355699539184570e+00
-6.125632762908935547e+00 -3.277064323425292969e+00 2.787716150283813477e+00
-6.137660503387451172e+00 -3.390682935714721680e+00 2.881476879119873047e+00
-5.668868541717529297e+00 -3.070804595947265625e+00 5.331225991249084473e-01
-5.696419715881347656e+00 -3.155965328216552734e+00 5.561368465423583984e-01
-5.608652114868164062e+00 -3.079086065292358398e+00 5.711343288421630859e-01
-5.636190891265869141e+00 -3.175036430358886719e+00 5.878759026527404785e-01
-5.044565200805664062e+00 -2.853884935379028320e+00 3.673363685607910156e+00
-5.089556217193603516e+00 -2.964309692382812500e+00 3.690732955932617188e+00
-4.922041416168212891e+00 -2.831784486770629883e+00 3.689504623413085938e+00
-4.968247890472412109e+00 -2.954965114593505859e+00 3.705986738204956055e+00
-6.072934627532958984e+00 -3.612375974655151367e+00 3.275307655334472656e+00
-6.094352722167968750e+00 -3.726480722427368164e+00 3.288050889968872070e+00
