-5.894608999999999988e+00 -2.417485000000000106e+00 8.579510000000000192e-01
-4.889708999999999861e+00 1.509935000000000027e+00 1.871166000000000107e+00
-6.091981999999999786e+00 -3.218504999999999949e+00 9.019169999999999687e-01
-4.074568000000000190e+00 -1.386169999999999902e-01 3.715333999999999914e+00
-4.690129999999999910e+00 1.753154000000000101e+00 5.779999999999999583e-01
-2.099520000000000053e+00 2.182440000000000158e+00 1.156571999999999933e+00
-4.133985000000000021e+00 4.144007000000000218e+00 5.779999999999999583e-01
-2.487929999999999975e+00 2.656991999999999798e+00 3.542698999999999820e+00
-2.678472999999999882e+00 -1.609299999999999967e-02 2.583769000000000204e+00
-3.583305000000000184e+00 4.330300000000000260e-01 3.747847999999999846e+00
-3.174999999999999822e+00 -2.163899999999999851e-02 3.555422000000000082e+00
-2.874349000000000043e+00 3.375363000000000113e+00 5.779999999999999583e-01
-4.759310000000000151e+00 -1.347009999999999874e-01 3.629887999999999781e+00
-4.191654999999999909e+00 -4.670454000000000327e+00 4.998299999999999965e-02
-3.689064000000000121e+00 6.312240000000000073e+00 1.979249000000000036e+00
-3.875596999999999959e+00 3.464964000000000155e+00 5.779999999999999583e-01
-3.525256000000000167e+00 -3.610008999999999801e+00 2.533713999999999800e+00
-4.422004000000000268e+00 -6.021609999999999907e+00 5.779999999999999583e-01
-5.000763000000000069e+00 1.214890000000000025e+00 7.425800000000000178e-01
-6.871830000000000105e+00 -6.385931000000000246e+00 1.161251999999999951e+00
-1.593361000000000027e+00 4.161514999999999631e+00 1.791157000000000110e+00
-2.299541000000000057e+00 1.368964999999999987e+00 1.571326000000000001e+00
-5.909182999999999630e+00 -7.067078999999999667e+00 5.779999999999999583e-01
-3.826118999999999826e+00 4.265664000000000122e+00 4.564869999999999761e-01
-1.771266000000000007e+00 3.516030000000000211e+00 1.361045999999999978e+00
-2.948967999999999812e+00 -1.343153999999999959e+00 1.784035999999999955e+00
-2.339080000000000048e+00 2.212410999999999905e+00 5.414750000000000396e-01
-5.049332999999999849e+00 1.016299000000000063e+00 1.150122000000000089e+00
-4.636841999999999686e+00 -1.386209999999999942e-01 3.039339999999999820e-01
-4.575682999999999723e+00 -1.066680000000000073e+00 5.779999999999999583e-01
-3.492542999999999953e+00 -1.707432999999999979e+00 2.740000000000000213e-01
-3.580404999999999838e+00 -3.675822999999999841e+00 1.857386999999999899e+00
-5.096873000000000431e+00 5.944840000000000124e-01 9.917540000000000244e-01
-2.631073999999999913e+00 2.058723000000000081e+00 3.541176000000000101e+00
-3.671235999999999944e+00 -1.844433999999999907e+00 3.577242000000000033e+00
-6.159362999999999921e+00 -4.616704999999999615e+00 2.179999999999999993e-01
-3.759142999999999901e+00 6.104440000000000310e+00 2.670584999999999987e+00
-4.263899000000000328e+00 4.052404000000000117e+00 2.602683999999999997e+00
-3.633268000000000164e+00 9.872229999999999617e-01 3.713440999999999992e+00
-5.804950999999999972e+00 -1.971279000000000003e+00 2.713322999999999929e+00
-3.856752999999999876e+00 3.063401999999999958e+00 5.779999999999999583e-01
-4.186884000000000050e+00 -4.096157999999999966e+00 1.620000000000000051e-01
-2.747930999999999901e+00 3.017237999999999865e+00 3.750538999999999845e+00
-3.929710000000000036e+00 -5.250414000000000136e+00 1.610127000000000086e+00
-3.730841999999999992e+00 -2.186503999999999781e+00 3.658802000000000110e+00
-4.460149999999999615e+00 -7.442299999999999471e-01 3.693427999999999933e+00
-3.089198999999999806e+00 4.360610999999999571e+00 5.779999999999999583e-01
-5.698076000000000363e+00 -2.711275999999999797e+00 5.779999999999999583e-01
-4.256692000000000142e+00 4.081233000000000111e+00 2.298659999999999926e+00
-2.623731999999999953e+00 6.809573000000000320e+00 3.233471999999999902e+00
-3.445813999999999933e+00 3.441338000000000008e+00 1.620000000000000051e-01
-5.210181000000000395e+00 -4.934554000000000329e+00 5.779999999999999583e-01
-3.163685000000000080e+00 6.226179000000000130e+00 3.587473000000000134e+00
-5.447776000000000174e+00 -3.933482000000000145e+00 5.779999999999999583e-01
-5.283674000000000426e+00 1.456899999999999862e-01 3.088194000000000106e+00
-4.328072999999999837e+00 -3.143470999999999904e+00 3.702227000000000157e+00
-6.021564999999999834e+00 -3.921784000000000159e+00 4.552059999999999995e-01
-2.786824999999999886e+00 -6.110090000000000243e-01 2.851503999999999817e+00
-6.803098000000000312e+00 -6.622512999999999650e+00 1.731295999999999946e+00
-4.230693999999999733e+00 -1.501668000000000003e+00 3.712047000000000097e+00
-4.126576000000000022e+00 -4.716159000000000212e+00 5.374240000000000128e-01
-4.010163999999999618e+00 5.237432000000000087e+00 9.047560000000000047e-01
-2.626948000000000061e+00 4.479219999999999868e-01 3.298775000000000013e+00
-3.720429000000000208e+00 4.843676999999999566e+00 3.486753000000000213e+00
-3.828307000000000127e+00 5.664064999999999905e+00 5.107939999999999703e-01
-5.479637999999999565e+00 -2.254678999999999878e+00 5.028759999999999897e-01
-4.073985000000000412e+00 1.035679000000000016e+00 3.686344000000000065e+00
-4.272880999999999929e+00 -5.002241999999999855e+00 2.873899999999999788e-01
-3.638929000000000080e+00 6.596129999999999605e+00 5.878959999999999742e-01
-6.608571999999999669e+00 -5.473232999999999571e+00 1.443024000000000084e+00
-4.451150000000000162e+00 -4.753213999999999828e+00 5.779999999999999583e-01
-3.769144999999999968e+00 4.643678999999999668e+00 5.779999999999999583e-01
-6.218575000000000408e+00 -3.729525999999999897e+00 6.075930000000000497e-01
-1.541973999999999956e+00 4.446500999999999593e+00 1.141272000000000064e+00
-4.885385999999999562e+00 1.451502000000000070e+00 2.217896999999999785e+00
-4.149361999999999995e+00 -1.629667999999999894e+00 3.701483000000000079e+00
-4.248340999999999923e+00 -4.413866999999999763e+00 5.779999999999999583e-01
-4.487108000000000096e+00 -2.713913999999999938e+00 5.779999999999999583e-01
-4.773911000000000016e+00 -3.350147000000000208e+00 3.720260000000000122e+00
-3.907983000000000207e+00 -5.167928999999999995e+00 2.484970999999999819e+00
-2.203253999999999824e+00 1.761328000000000005e+00 1.246537999999999924e+00
-3.233433999999999919e+00 3.780330999999999886e+00 1.620000000000000051e-01
-3.206163000000000096e+00 -1.297190000000000065e+00 3.415293000000000134e+00
-5.660402000000000378e+00 -1.692045000000000021e+00 1.970949000000000062e+00
-6.642726999999999826e+00 -5.683296999999999599e+00 2.341686999999999852e+00
-6.197243000000000279e+00 -4.722432999999999659e+00 5.779999999999999583e-01
-4.601666999999999952e+00 2.832558999999999827e+00 1.120047000000000015e+00
-4.411026999999999809e+00 -1.618865999999999916e+00 3.717871999999999844e+00
-4.432285000000000252e+00 -3.450234000000000023e+00 1.620000000000000051e-01
-4.149072999999999567e+00 2.860046000000000088e+00 1.620000000000000051e-01
-6.325492999999999810e+00 -6.541126000000000218e+00 5.779999999999999583e-01
-3.664743999999999780e+00 -4.177965000000000373e+00 3.042281000000000013e+00
-6.656565999999999761e+00 -6.741908999999999708e+00 3.080274999999999874e+00
-2.974778000000000144e+00 2.511499999999999844e-02 3.469675000000000065e+00
-5.081394000000000410e+00 -3.209623000000000115e+00 3.692089999999999872e+00
-2.500503999999999838e+00 3.518782999999999994e+00 1.620000000000000051e-01
-5.197823999999999778e+00 4.943359999999999976e-01 3.102808000000000010e+00
-1.673977000000000048e+00 6.224801000000000251e+00 3.478186000000000000e+00
-3.159610999999999947e+00 3.516671000000000102e+00 5.779999999999999583e-01
-2.311739999999999906e+00 5.095653999999999684e+00 5.779999999999999583e-01
-4.105387000000000342e+00 3.126234000000000179e+00 2.126419999999999977e-01
-3.963220000000000187e+00 -4.914697000000000315e+00 4.481249999999999956e-01
-6.192201999999999984e+00 -3.625801000000000052e+00 1.231678000000000051e+00
-6.786579999999999835e+00 -6.269903000000000226e+00 1.356773000000000007e+00
-3.646012999999999948e+00 3.592208999999999985e+00 5.779999999999999583e-01
-5.271436999999999706e+00 -7.739239999999999453e-01 5.779999999999999583e-01
-5.916545000000000165e+00 -3.969005000000000116e+00 3.475314000000000014e+00
-1.951487999999999889e+00 4.164773000000000280e+00 5.051189999999999847e-01
-2.170697999999999794e+00 3.425679999999999836e+00 3.484990999999999950e+00
-5.122738000000000014e+00 -3.951372000000000106e+00 5.779999999999999583e-01
-3.274322999999999873e+00 4.632857999999999699e+00 3.665748999999999924e+00
-2.450638999999999790e+00 5.239071000000000033e+00 5.779999999999999583e-01
-1.957154999999999978e+00 6.655358999999999803e+00 8.020000000000000462e-01
-3.935243999999999964e+00 5.541828999999999894e+00 8.085869999999999447e-01
-3.109151999999999916e+00 6.803656000000000148e+00 1.808000000000000052e+00
-4.734695000000000320e+00 -7.122487999999999708e+00 1.877148000000000039e+00
-4.207031999999999883e+00 3.254389000000000198e+00 4.808890000000000109e-01
-2.122456999999999816e+00 2.537075999999999887e+00 5.779999999999999583e-01
-4.861330999999999847e+00 -3.271220000000000239e-01 2.220000000000000029e-01
-4.034061000000000341e+00 -3.623343999999999898e+00 3.543721999999999817e+00
-4.191380999999999801e+00 4.504711999999999605e+00 2.971245000000000136e+00
-5.415174000000000376e+00 -2.201716999999999924e+00 3.504712000000000049e+00
-4.230997000000000341e+00 2.935254000000000030e+00 3.465244999999999909e+00
-6.685888000000000275e+00 -6.793841999999999715e+00 2.943778000000000006e+00
-3.812063999999999897e+00 -4.376675999999999789e+00 3.296091999999999800e+00
-6.091249000000000358e+00 -5.016194999999999737e+00 3.513723999999999847e+00
-5.507033999999999985e+00 -2.596941999999999862e+00 3.507341999999999960e+00
-6.731060000000000265e+00 -6.043501000000000012e+00 2.329396000000000022e+00
-4.893375999999999948e+00 -6.943699999999999872e-02 2.220000000000000029e-01
-2.680708999999999786e+00 -2.283800000000000066e-02 2.203019999999999978e+00
-1.771827999999999959e+00 3.446469000000000005e+00 3.198722000000000065e+00
-2.777420999999999918e+00 3.263136999999999954e+00 1.620000000000000051e-01
-3.655837000000000003e+00 6.447498000000000395e+00 6.879659999999999664e-01
-1.348236999999999908e+00 5.198081000000000174e+00 2.689999999999999947e+00
-3.235094999999999832e+00 3.814899000000000040e+00 1.620000000000000051e-01
-4.338714999999999655e+00 3.902306999999999970e+00 8.688989999999999769e-01
-5.578459999999999752e+00 -3.397387999999999852e+00 3.565488000000000213e+00
-3.390082000000000040e+00 1.972460000000000102e+00 5.779999999999999583e-01
-2.888030999999999793e+00 6.900290000000000035e-01 3.359829999999999761e-01
-3.753983999999999988e+00 6.277826000000000128e+00 2.965558999999999834e+00
-3.470343999999999873e+00 4.149543999999999677e+00 5.779999999999999583e-01
-6.367831999999999937e+00 -6.900636000000000436e+00 3.055384999999999796e+00
-4.662480000000000402e+00 2.664315999999999907e+00 1.746561999999999948e+00
-5.487474999999999881e+00 -9.930369999999999475e-01 2.339713999999999849e+00
-3.334331999999999852e+00 6.808568000000000175e+00 9.643810000000000437e-01
-2.447757000000000183e+00 7.682790000000000452e-01 5.491949999999999887e-01
-5.925855999999999568e+00 -5.302281999999999940e+00 3.614717999999999876e+00
-4.267021999999999871e+00 -4.297324999999999839e+00 1.620000000000000051e-01
-4.447078999999999560e+00 8.878869999999999818e-01 3.601424000000000181e+00
-4.629637999999999920e+00 -1.814060000000000006e+00 5.779999999999999583e-01
-4.264083000000000290e+00 -1.075477999999999934e+00 5.779999999999999583e-01
-4.097261999999999738e+00 4.886247000000000007e+00 2.953453000000000106e+00
-4.141988999999999699e+00 -4.442897000000000318e+00 3.592875999999999959e+00
-4.345600000000000129e+00 3.089294000000000207e+00 5.779999999999999583e-01
-6.018324999999999925e+00 -6.998461999999999961e+00 2.028713999999999906e+00
-5.304198999999999664e+00 -7.158981999999999957e+00 3.338159999999999794e+00
-3.464198999999999806e+00 -3.357762000000000135e+00 1.153877999999999959e+00
-3.135368999999999851e+00 2.253194000000000141e+00 3.696038999999999852e+00
-1.744215999999999989e+00 3.623866000000000032e+00 2.949126999999999832e+00
-3.864846000000000004e+00 5.527216000000000129e+00 3.272911000000000126e+00
-2.829267000000000198e+00 -6.296389999999999487e-01 2.474101000000000106e+00
-4.347915000000000418e+00 -3.712207999999999952e+00 3.643876000000000115e+00
-5.450371999999999773e+00 -7.232554000000000372e+00 2.766000000000000014e+00
-5.529841000000000228e+00 -5.024115000000000109e+00 3.692010999999999932e+00
-3.191863999999999812e+00 -1.497174000000000005e+00 5.779999999999999583e-01
-3.669322000000000195e+00 6.392239000000000004e+00 1.298330999999999902e+00
-5.990118999999999971e+00 -4.535632999999999804e+00 3.507887999999999895e+00
-2.556023999999999852e+00 3.554260000000000197e+00 3.736365000000000158e+00
-3.802559000000000022e+00 -2.452048000000000005e+00 3.661693999999999782e+00
-2.607174999999999798e+00 4.100839999999999819e+00 3.878599999999999826e-01
-4.945134000000000363e+00 1.436552999999999969e+00 1.657527999999999890e+00
-1.262674999999999992e+00 5.811537999999999649e+00 2.409943999999999864e+00
-4.171551000000000009e+00 4.661425999999999625e+00 2.694914999999999949e+00
-2.148905000000000065e+00 6.653024000000000271e+00 1.913475999999999955e+00
-5.183502999999999972e+00 3.179879999999999929e-01 2.061958999999999875e+00
-4.271237000000000172e+00 -6.984850000000000225e-01 5.779999999999999583e-01
-3.405524999999999913e+00 4.299540000000000362e+00 3.653810000000000002e+00
-4.096957999999999878e+00 -3.256517999999999802e+00 5.779999999999999583e-01
-3.844902999999999960e+00 -4.906657000000000046e+00 8.967789999999999928e-01
-1.944592000000000098e+00 3.041735000000000078e+00 2.094816999999999929e+00
-6.549726999999999855e+00 -5.000308999999999671e+00 2.798617000000000132e+00
-5.749509999999999899e+00 -6.330985000000000085e+00 5.779999999999999583e-01
-3.712820999999999927e+00 -4.369988000000000206e+00 2.199974000000000096e+00
-5.819857999999999976e+00 -2.341788000000000203e+00 2.265598999999999918e+00
-2.644054999999999822e+00 6.580638000000000432e+00 5.768809999999999771e-01
-2.817642000000000202e+00 6.790168000000000426e+00 1.945545000000000080e+00
-5.075656000000000390e+00 -4.251276999999999973e+00 5.779999999999999583e-01
-4.089572999999999681e+00 -5.901844999999999786e+00 4.617439999999999878e-01
-3.846350999999999853e+00 4.257651000000000074e+00 4.181039999999999757e-01
-4.199237000000000108e+00 4.315961999999999854e+00 2.617818000000000200e+00
-2.901873000000000147e+00 3.944036000000000097e+00 3.713157999999999959e+00
-1.660760000000000014e+00 3.962013999999999925e+00 3.872559999999999891e-01
-2.717589999999999950e+00 2.134345999999999854e+00 4.152219999999999800e-01
-3.355630999999999808e+00 6.729898000000000380e+00 2.100547999999999860e+00
-2.025612000000000190e+00 5.004017000000000159e+00 5.779999999999999583e-01
-2.944053999999999949e+00 -1.095847999999999933e+00 2.004580999999999946e+00
-1.251297000000000104e+00 6.228708000000000133e+00 1.207487999999999895e+00
-4.375524999999999665e+00 -6.832880000000000287e+00 1.488318000000000030e+00
-4.455726000000000298e+00 -6.333131999999999984e+00 3.421667999999999932e+00
-5.845908999999999800e+00 -2.448399000000000214e+00 2.253856999999999999e+00
-5.524315999999999782e+00 -2.559263000000000066e+00 5.349340000000000206e-01
-3.782080000000000108e+00 5.933769999999999989e+00 1.529859999999999998e+00
-2.233322999999999947e+00 2.819090999999999791e+00 1.441310000000000091e-01
-3.725128999999999913e+00 -4.422901000000000415e+00 2.831068999999999836e+00
-3.049017999999999784e+00 -1.749468000000000023e+00 1.786394999999999955e+00
-5.634320999999999913e+00 -1.360230999999999968e+00 7.249440000000000328e-01
-2.641513999999999918e+00 -9.991400000000000281e-02 3.195558000000000121e+00
-1.511088999999999904e+00 4.776463999999999821e+00 2.075317000000000078e+00
-2.360386000000000095e+00 1.351347999999999994e+00 2.157198999999999867e+00
-3.629096999999999795e+00 5.351976999999999762e+00 5.779999999999999583e-01
-4.481132999999999811e+00 -5.416057999999999595e+00 3.638309000000000015e+00
-2.236101999999999812e+00 1.626565999999999956e+00 1.640614999999999934e+00
-2.932888999999999857e+00 5.313526999999999667e+00 5.779999999999999583e-01
-2.375271000000000132e+00 2.366384000000000043e+00 2.241350000000000009e-01
-4.590633999999999659e+00 4.936800000000000216e-02 4.442320000000000157e-01
-4.664692999999999756e+00 2.578212000000000170e+00 1.500061000000000089e+00
-4.719154999999999767e+00 -4.293448999999999849e+00 1.620000000000000051e-01
-2.106400999999999968e+00 2.469110999999999834e+00 3.275294999999999845e+00
-4.845040000000000013e+00 -6.850215999999999639e+00 5.779999999999999583e-01
-4.347992999999999775e+00 2.687266000000000155e+00 5.562219999999999942e-01
-4.831032999999999689e+00 1.749870000000000037e+00 2.580255000000000187e+00
-4.521106999999999765e+00 -5.471277999999999864e+00 3.558514000000000177e+00
-3.620229000000000141e+00 9.975850000000000550e-01 3.712467999999999879e+00
-5.536075000000000301e+00 -1.188906999999999936e+00 2.544953000000000021e+00
-6.291737999999999609e+00 -4.438914999999999722e+00 3.299008000000000163e+00
-2.441432999999999964e+00 1.524497999999999909e+00 3.371115999999999779e+00
-2.989917999999999854e+00 2.953056000000000125e+00 1.620000000000000051e-01
-5.280616000000000199e+00 -1.521949999999999914e+00 2.778570000000000206e-01
-6.643709999999999560e+00 -5.687304000000000137e+00 1.940396999999999927e+00
-6.421820000000000306e+00 -4.558485000000000120e+00 1.427057999999999938e+00
-5.534515999999999991e+00 -2.197496000000000116e+00 3.449634000000000089e+00
-1.290132000000000057e+00 6.284404000000000323e+00 1.721724999999999950e+00
-4.013270999999999589e+00 3.500678999999999874e+00 1.740470000000000073e-01
-4.109001000000000126e+00 4.683997999999999884e+00 2.421892999999999851e+00
-1.395872000000000002e+00 4.980360000000000120e+00 2.689999999999999947e+00
-4.030636999999999581e+00 -3.930404999999999927e+00 3.507635000000000058e+00
-4.152508000000000088e+00 4.059900000000000314e-02 3.704054999999999875e+00
-2.701662999999999926e+00 5.769275000000000375e+00 5.779999999999999583e-01
-3.340317000000000203e+00 -2.704870999999999803e+00 2.630319000000000074e+00
-3.417135000000000034e+00 -2.940977000000000174e+00 1.881999999999999895e+00
-6.260989000000000360e+00 -4.599943999999999811e+00 5.779999999999999583e-01
-4.664368999999999765e+00 -3.064321000000000073e+00 3.716610000000000191e+00
-3.350604000000000138e+00 -2.746417000000000108e+00 2.456658000000000008e+00
-1.950123999999999969e+00 3.019438000000000066e+00 2.595937999999999857e+00
-3.910279000000000060e+00 8.985079999999999734e-01 3.706958999999999893e+00
-2.406502999999999837e+00 2.658319999999999794e+00 2.975389999999999979e-01
-4.783216000000000356e+00 1.707805999999999935e+00 5.779999999999999583e-01
-5.406939999999999635e+00 -5.892119999999999580e-01 2.668124000000000162e+00
-5.904237000000000180e+00 -6.785343000000000124e+00 3.540690000000000115e+00
-6.638781999999999961e+00 -5.362320999999999671e+00 1.736904999999999921e+00
-6.190934999999999633e+00 -5.331036000000000108e+00 3.503842999999999819e+00
-5.683129000000000097e+00 -6.678396000000000221e+00 3.630018000000000189e+00
-4.209452999999999889e+00 -1.646371000000000029e+00 3.706736999999999949e+00
-3.273889000000000049e+00 6.883680000000000021e+00 3.007235999999999798e+00
-3.225325999999999915e+00 6.103323999999999749e+00 3.572982000000000102e+00
-4.442326999999999693e+00 -2.611943999999999821e+00 5.779999999999999583e-01
-5.592698999999999643e+00 -4.461579999999999657e+00 5.779999999999999583e-01
-5.348976000000000397e+00 -3.536250000000000226e-01 2.662106999999999779e+00
-3.072280000000000122e+00 -1.613520999999999983e+00 1.841263000000000094e+00
-5.047378000000000142e+00 1.028210000000000068e+00 4.181810000000000249e-01
-5.410338000000000314e+00 -2.498698000000000086e+00 4.513019999999999810e-01
-4.387477999999999767e+00 -3.601722000000000090e+00 3.660633999999999943e+00
-3.650698999999999916e+00 6.547088999999999714e+00 2.136608999999999980e+00
-4.295932999999999780e+00 -3.216149000000000147e+00 3.750722999999999807e+00
-2.508620000000000072e+00 3.637300000000000200e+00 1.620000000000000051e-01
-6.407513999999999932e+00 -4.423113999999999990e+00 1.692444999999999977e+00
-4.347474000000000061e+00 3.866169000000000189e+00 9.609529999999999461e-01
-4.405387000000000164e+00 3.712361000000000022e+00 3.193134000000000139e+00
-2.807630000000000070e+00 2.490275000000000016e+00 3.714322000000000124e+00
-3.613617000000000079e+00 -3.111310000000000020e+00 3.579999999999999849e-01
-5.179380000000000095e+00 -6.540202999999999989e+00 5.779999999999999583e-01
-5.876265000000000072e+00 -7.142826000000000342e+00 5.779999999999999583e-01
-5.530580999999999747e+00 -1.166765999999999970e+00 2.333248999999999906e+00
-2.759996999999999812e+00 -2.701430000000000220e-01 1.533935000000000048e+00
-1.907095999999999902e+00 3.801489000000000118e+00 2.955809999999999826e-01
-2.830201999999999884e+00 3.936723999999999890e+00 5.779999999999999583e-01
-4.592817000000000149e+00 2.549564000000000163e+00 5.779999999999999583e-01
-5.363864999999999661e+00 -2.843475999999999893e+00 5.779999999999999583e-01
-5.179346999999999923e+00 2.595149999999999957e-01 1.577115999999999962e+00
-4.669541999999999859e+00 2.557958999999999872e+00 1.233114999999999961e+00
-5.666199999999999903e+00 -1.638859999999999983e+00 1.823234999999999939e+00
-3.458131999999999984e+00 5.502055000000000362e+00 3.533420000000000005e+00
-2.757353999999999861e+00 6.363032999999999717e+00 3.619270999999999905e+00
-4.431605000000000238e+00 2.692473000000000116e+00 1.611809999999999909e-01
-6.236640000000000406e+00 -3.805702000000000140e+00 1.057943000000000078e+00
-5.552293999999999841e+00 -2.749340000000000117e+00 4.917770000000000197e-01
-4.468516000000000155e+00 -5.137717000000000311e+00 3.571833999999999953e+00
-2.296590000000000131e+00 3.121087000000000167e+00 5.779999999999999583e-01
-3.447672999999999988e+00 -5.134220000000000450e-01 3.651133000000000184e+00
-4.632897999999999961e+00 2.706551000000000151e+00 8.158680000000000376e-01
-2.272870999999999864e+00 2.722499000000000002e+00 5.779999999999999583e-01
-3.746506000000000114e+00 2.605522999999999811e+00 3.672394999999999854e+00
-3.398922999999999917e+00 -3.175844999999999807e+00 3.157668999999999837e+00
-4.175551999999999708e+00 4.568877999999999773e+00 2.816605000000000025e+00
-3.747400999999999982e+00 -3.252673999999999843e+00 3.033959999999999990e-01
-3.756583000000000006e+00 4.170145999999999908e+00 5.779999999999999583e-01
-3.301142000000000021e+00 -2.696540000000000159e+00 7.926840000000000552e-01
-4.888448999999999600e+00 -6.501965000000000217e+00 3.607717000000000063e+00
-4.115670999999999857e+00 -6.007435000000000080e+00 2.414346000000000103e+00
-2.281496999999999886e+00 5.268812999999999747e+00 3.771764999999999812e+00
-3.358395999999999937e+00 4.285135000000000360e+00 3.923809999999999798e-01
-2.054730000000000167e+00 2.283087999999999784e+00 2.808532000000000028e+00
-1.959527000000000019e+00 4.154367999999999839e+00 3.470670999999999840e+00
-4.188156000000000212e+00 -6.379482999999999571e+00 3.083194999999999908e+00
-5.040408000000000222e+00 1.054310999999999998e+00 8.141100000000000003e-01
-4.379732999999999876e+00 -7.080518999999999785e+00 1.099445000000000006e+00
-2.089240999999999904e+00 3.246070000000000011e+00 1.163010000000000016e-01
-3.665420000000000122e+00 -3.876771999999999885e+00 3.272257999999999889e+00
-3.965698000000000167e+00 -5.398708000000000062e+00 2.959773999999999905e+00
-4.211312000000000388e+00 2.695651999999999937e+00 4.026120000000000254e-01
-5.549767000000000117e+00 -2.003823000000000132e+00 4.566799999999999748e-01
-3.239262999999999781e+00 -1.723141000000000034e+00 5.779999999999999583e-01
-3.496398000000000117e+00 4.689822000000000379e+00 3.614074000000000009e+00
-2.358693999999999846e+00 2.309884999999999966e+00 4.234049999999999758e-01
-4.691253999999999813e+00 2.471833999999999865e+00 2.493721999999999994e+00
-4.576444999999999652e+00 2.935508000000000006e+00 9.609739999999999949e-01
-6.154283000000000392e+00 -6.802642999999999773e+00 5.779999999999999583e-01
-5.589096999999999760e+00 -1.171124000000000054e+00 3.639270000000000005e-01
-2.491692000000000018e+00 7.417280000000000539e-01 1.873094999999999954e+00
-3.859119999999999884e+00 -5.044035000000000046e+00 2.758255000000000123e+00
-4.054115000000000357e+00 3.335196999999999967e+00 4.278989999999999738e-01
-2.810011999999999954e+00 2.220060000000000089e-01 5.779999999999999583e-01
-4.562311000000000227e+00 -1.816208999999999962e+00 5.779999999999999583e-01
-6.495582999999999885e+00 -6.843010999999999733e+00 2.709928000000000115e+00
-2.249347000000000207e+00 5.767112000000000016e+00 3.694542999999999910e+00
-6.097870000000000346e+00 -7.014948000000000405e+00 2.050768999999999842e+00
-2.148390000000000022e+00 6.565751999999999811e+00 3.698052000000000117e+00
-5.523658000000000179e+00 -3.891205999999999943e+00 3.628633999999999915e+00
-3.827611999999999792e+00 -2.974049999999999749e-01 3.702103000000000144e+00
-3.732883000000000173e+00 4.103095999999999854e+00 1.620000000000000051e-01
-5.558283999999999558e+00 -1.050610999999999962e+00 5.023889999999999745e-01
-2.315331000000000028e+00 1.306529000000000051e+00 1.220669999999999922e+00
-4.266970999999999847e+00 1.360786000000000051e+00 5.537609999999999477e-01
-6.228386000000000422e+00 -6.895687999999999818e+00 1.989489000000000063e+00
-3.748975999999999864e+00 5.545091000000000214e+00 3.374140000000000139e+00
-4.340808000000000000e+00 -6.454571999999999754e+00 3.723549999999999915e-01
-3.573796999999999890e+00 -3.675723000000000074e+00 2.245839000000000141e+00
-1.900703000000000031e+00 3.909409999999999830e+00 3.399688999999999961e+00
-2.948545000000000194e+00 7.049189999999999623e-01 5.615980000000000416e-01
-1.691441999999999890e+00 6.156699999999999839e+00 3.510159999999999947e+00
-2.485392000000000046e+00 1.530280000000000085e+00 3.399423000000000084e+00
-3.394833999999999907e+00 -3.078303000000000011e+00 1.640438999999999981e+00
-4.057199999999999918e+00 -4.051680000000000170e+00 5.663040000000000296e-01
-1.500364000000000031e+00 4.615423999999999971e+00 1.330840000000000023e+00
-1.300415000000000099e+00 5.656444999999999723e+00 5.411219999999999919e-01
-4.387349999999999639e+00 -7.109024999999999928e+00 2.855836000000000041e+00
-5.825630000000000308e+00 -2.288517000000000134e+00 2.228537999999999908e+00
-3.670609999999999928e+00 6.358355999999999675e+00 3.262138999999999900e+00
-4.158275999999999861e+00 -2.839182999999999790e+00 3.650284999999999780e+00
-4.028887000000000107e+00 -5.655461999999999989e+00 4.858450000000000268e-01
-3.210675000000000168e+00 6.741304000000000407e+00 2.536274999999999835e+00
-2.919465999999999894e+00 -9.959829999999999517e-01 2.554895000000000138e+00
-1.974212999999999996e+00 2.689297999999999966e+00 2.865202000000000027e+00
-4.878237999999999630e+00 -1.063314000000000092e+00 4.632049999999999779e-01
-2.733776999999999902e+00 6.826410000000000089e+00 2.438641000000000059e+00
-5.487232999999999805e+00 -3.912415999999999894e+00 3.638656000000000112e+00
-5.979223000000000177e+00 -5.778057000000000443e+00 5.779999999999999583e-01
-2.230141999999999847e+00 6.654669000000000167e+00 2.386674999999999880e+00
-5.547750999999999877e+00 -1.626964999999999995e+00 5.779999999999999583e-01
-6.594942999999999778e+00 -5.184383000000000408e+00 2.699397999999999964e+00
-1.792817000000000105e+00 6.573260999999999576e+00 1.049485000000000001e+00
-1.845374000000000070e+00 3.212788999999999895e+00 2.855128999999999806e+00
-2.373466000000000076e+00 1.298021000000000091e+00 2.284390000000000143e+00
-4.871184000000000403e+00 -4.660051000000000165e+00 5.779999999999999583e-01
-4.309516000000000346e+00 4.611810000000000076e-01 3.663320999999999827e+00
-3.634160000000000057e+00 -2.881823999999999941e+00 5.779999999999999583e-01
-3.667616000000000209e+00 -1.278424000000000005e+00 3.624181999999999793e+00
-5.328001999999999683e+00 -3.453010000000000246e-01 1.149510000000000032e+00
-2.792651999999999912e+00 2.706752999999999965e+00 5.779999999999999583e-01
-5.264486999999999917e+00 -2.276308000000000220e+00 3.583369999999999944e+00
-5.421338999999999686e+00 -5.901938000000000351e+00 3.721976000000000173e+00
-3.506998999999999977e+00 2.790672999999999959e+00 1.620000000000000051e-01
-3.926436999999999955e+00 5.266157999999999895e+00 3.423849999999999949e-01
-6.032943000000000389e+00 -4.155904999999999738e+00 4.243350000000000177e-01
-4.454691000000000400e+00 3.512249999999999872e+00 3.160445000000000171e+00
-4.646200999999999581e+00 -4.018777000000000044e+00 1.620000000000000051e-01
-4.977692000000000228e+00 -1.494987999999999984e+00 4.200789999999999802e-01
-4.129500000000000171e+00 4.752297000000000438e+00 9.963849999999999651e-01
-4.464509999999999756e+00 2.446568000000000076e+00 3.403677000000000064e+00
-5.398503999999999969e+00 -3.763989999999999836e-01 2.689999999999999947e+00
-5.327625000000000277e+00 -1.187939999999999968e-01 3.200146000000000157e+00
-5.505917000000000172e+00 -1.067361999999999922e+00 2.572299000000000113e+00
-3.719396000000000146e+00 -4.341423999999999950e+00 2.689999999999999947e+00
-3.074933999999999834e+00 6.832035000000000302e+00 2.918772999999999840e+00
-5.336452999999999669e+00 -6.370229000000000141e+00 3.703580000000000094e+00
-1.397011000000000003e+00 5.036617999999999817e+00 1.577471999999999985e+00
-5.705942000000000291e+00 -1.647424999999999917e+00 2.925575999999999954e+00
-2.138138000000000094e+00 3.744545000000000012e+00 4.831889999999999796e-01
-2.019918000000000102e+00 2.503674999999999873e+00 2.892933000000000199e+00
-4.473189999999999777e+00 1.652099999999999902e+00 3.800000000000000044e-01
-3.603223999999999982e+00 -2.919092000000000020e+00 2.499399999999999955e-01
-3.950921000000000127e+00 -5.338799999999999990e+00 5.543350000000000222e-01
-3.126907999999999799e+00 -1.523924999999999974e+00 4.772500000000000075e-01
-3.752012000000000125e+00 -2.482855999999999952e+00 3.635158000000000111e+00
-4.747849000000000430e+00 2.239717000000000180e+00 7.243800000000000239e-01
-5.943584000000000422e+00 -7.116322000000000259e+00 1.648030000000000106e+00
-5.799919000000000047e+00 -1.879639999999999977e+00 1.518548999999999927e+00
-2.346465999999999941e+00 3.335605999999999849e+00 5.779999999999999583e-01
-2.425113000000000074e+00 1.990844999999999976e+00 4.420000000000000040e-01
-4.944372999999999685e+00 -4.305449000000000304e+00 5.779999999999999583e-01
-5.801838000000000051e+00 -6.578750000000000320e+00 5.779999999999999583e-01
-4.505887999999999671e+00 -4.009699999999999598e+00 5.779999999999999583e-01
-4.731034000000000184e+00 1.702039999999999942e-01 3.607902000000000164e+00
-6.402389999999999581e+00 -4.806735999999999898e+00 3.278986000000000178e+00
-2.458164000000000016e+00 8.976300000000000390e-01 3.240148000000000028e+00
-4.461724000000000245e+00 3.401120000000000143e+00 1.148095000000000088e+00
-4.379058999999999813e+00 -7.077898000000000245e+00 7.129269999999999774e-01
-6.301533000000000051e+00 -4.066574000000000133e+00 7.437019999999999742e-01
-3.911697000000000202e+00 -5.179667000000000243e+00 2.979874999999999829e+00
-2.139222000000000179e+00 3.663444999999999840e+00 1.203329999999999955e-01
-2.935497999999999941e+00 1.970207999999999959e+00 3.718875999999999848e+00
-3.687727999999999895e+00 6.317687000000000275e+00 1.972674000000000039e+00
-6.715024999999999800e+00 -5.900697000000000081e+00 1.792539000000000105e+00
-4.583764000000000394e+00 -7.192115000000000258e+00 2.765604999999999869e+00
-3.370843999999999951e+00 5.893459000000000003e+00 3.529919000000000029e+00
-3.492426000000000030e+00 3.497632999999999992e+00 1.620000000000000051e-01
-4.939017999999999908e+00 -1.294872000000000023e+00 3.829710000000000059e-01
-6.852788000000000324e+00 -6.381825000000000081e+00 2.113661000000000012e+00
-3.063114000000000114e+00 -1.338357000000000019e+00 3.380000000000000226e-01
-5.870800000000000018e+00 -2.238700999999999830e+00 3.186907000000000156e+00
-6.092084999999999972e+00 -7.028681999999999874e+00 1.498038999999999898e+00
-2.577801000000000009e+00 4.435596999999999568e+00 3.786522000000000165e+00
-5.633441000000000365e+00 -1.356328999999999896e+00 4.240110000000000268e-01
-1.698695000000000066e+00 5.074328000000000394e+00 5.779999999999999583e-01
-3.856641999999999904e+00 -9.905209999999999848e-01 5.779999999999999583e-01
-4.761078000000000365e+00 1.244614000000000109e+00 5.779999999999999583e-01
-3.990629999999999900e+00 -3.729452000000000211e+00 3.603971000000000036e+00
-4.260011000000000436e+00 -3.575070999999999888e+00 5.779999999999999583e-01
-3.149842000000000031e+00 -2.082113999999999798e+00 7.295110000000000205e-01
-3.568960000000000132e+00 6.304707999999999757e+00 3.369861999999999913e+00
-5.022387000000000157e+00 -6.608685000000000365e+00 3.626485000000000181e+00
-2.963807000000000080e+00 -2.467070000000000096e-01 5.779999999999999583e-01
-5.429981999999999864e+00 -7.210429000000000421e+00 2.869261999999999979e+00
-4.642902000000000307e+00 -5.494436000000000320e+00 3.608388000000000151e+00
-6.162479000000000262e+00 -4.369049000000000404e+00 3.390960000000000196e+00
-2.415655999999999803e+00 4.922527999999999793e+00 3.782742999999999967e+00
-3.239621999999999780e+00 3.740994000000000153e+00 1.620000000000000051e-01
-5.545893000000000406e+00 -4.215498000000000189e+00 3.751256000000000146e+00
-5.438075999999999688e+00 -3.272855999999999987e+00 5.779999999999999583e-01
-6.271245999999999654e+00 -3.944662000000000113e+00 3.024325999999999848e+00
-5.196316999999999631e+00 2.667320000000000246e-01 2.405556999999999945e+00
-5.022873999999999839e+00 -5.269530000000000047e-01 2.220000000000000029e-01
-2.644534999999999858e+00 3.839134000000000047e+00 1.620000000000000051e-01
-4.155448999999999948e+00 -6.058931000000000289e+00 2.365134999999999987e+00
-2.137814999999999799e+00 6.556968000000000352e+00 3.752730999999999817e+00
-3.301270999999999844e+00 8.760339999999999794e-01 5.779999999999999583e-01
-5.327956000000000358e+00 -5.921559000000000239e+00 3.713246999999999964e+00
-4.470728000000000257e+00 -2.062498000000000165e+00 3.721548999999999996e+00
-2.481507999999999825e+00 2.580127000000000059e+00 3.531286000000000147e+00
-2.685972000000000026e+00 9.916920000000000179e-01 2.740000000000000213e-01
-3.809038000000000146e+00 1.349804999999999922e+00 3.706062000000000189e+00
-2.484599999999999920e+00 6.187230000000000230e-01 8.102909999999999835e-01
-5.513855000000000395e+00 -1.099355000000000082e+00 2.159641000000000144e+00
-3.319526000000000199e+00 -2.771042000000000005e+00 8.762010000000000076e-01
-3.583617999999999970e+00 5.645037000000000305e+00 5.779999999999999583e-01
-2.311183999999999905e+00 2.237489000000000061e+00 1.776870000000000116e-01
-4.102381000000000277e+00 -2.913295999999999886e+00 3.631966999999999945e+00
-1.204158000000000062e+00 5.972855000000000025e+00 2.607114000000000154e+00
-6.276930000000000121e+00 -3.966760999999999981e+00 7.248630000000000351e-01
-3.243863000000000163e+00 -2.464481999999999839e+00 5.816580000000000084e-01
-2.553923999999999861e+00 6.806678999999999924e+00 1.344003999999999976e+00
-4.027275999999999634e+00 -4.160862999999999978e+00 5.779999999999999583e-01
-3.880002000000000173e+00 5.766973000000000127e+00 3.073226000000000013e+00
-5.388047000000000253e+00 -1.316173999999999955e+00 5.779999999999999583e-01
-5.273460000000000036e+00 -7.180284000000000333e+00 5.779999999999999583e-01
-2.981768000000000196e+00 -1.401370999999999922e+00 1.029061000000000003e+00
-4.208522999999999570e+00 4.506869000000000014e+00 3.080000000000000071e+00
-3.635317000000000132e+00 -3.827913000000000121e+00 2.103349999999999831e+00
-5.206704000000000221e+00 3.813469999999999915e-01 3.008760999999999797e+00
-5.933226999999999585e+00 -6.568210999999999800e+00 3.627311999999999870e+00
-5.593613000000000390e+00 -4.228811999999999571e+00 3.748000000000000220e+00
-5.066888999999999754e+00 9.804519999999999902e-01 2.810000000000000053e+00
-6.406526000000000387e+00 -4.496144000000000140e+00 1.542648000000000019e+00
-2.358194999999999819e+00 1.132697000000000065e+00 5.931689999999999463e-01
-5.016810999999999687e+00 1.145218999999999987e+00 1.646697999999999995e+00
-3.977505999999999986e+00 5.290655000000000108e+00 3.217973000000000194e+00
-3.366966999999999821e+00 6.802502999999999744e+00 6.210649999999999782e-01
-5.175721000000000238e+00 5.841030000000000388e-01 2.691631999999999802e+00
-1.907539000000000096e+00 4.810045999999999822e+00 3.520680000000000032e+00
-6.625717999999999996e+00 -5.613939000000000235e+00 2.474099999999999966e+00
-3.620960999999999874e+00 3.774420000000000108e+00 3.632813000000000070e+00
-6.194522000000000084e+00 -5.503286000000000122e+00 3.523394000000000137e+00
-4.060459999999999958e+00 5.033152000000000292e+00 9.497010000000000174e-01
-1.982904000000000000e+00 2.887326999999999977e+00 2.215075000000000127e+00
-1.409321999999999964e+00 5.136099999999999888e+00 8.909780000000000477e-01
-4.228366000000000291e+00 2.710532999999999859e+00 4.845479999999999787e-01
-4.378110999999999642e+00 1.620384000000000047e+00 5.008299999999999974e-01
-3.222204000000000068e+00 1.899184999999999901e+00 3.770255000000000134e+00
-3.317960999999999938e+00 6.811968000000000245e+00 1.347278999999999893e+00
-3.543207999999999913e+00 -3.680728999999999917e+00 7.502370000000000427e-01
-2.486724000000000157e+00 6.097879999999999967e-01 5.802650000000000308e-01
-2.697983999999999938e+00 6.825009999999999799e+00 1.297784999999999966e+00
-5.961002999999999830e+00 -2.771157000000000092e+00 2.689999999999999947e+00
-2.647461999999999982e+00 4.597330999999999612e+00 3.704293999999999976e+00
-6.377150000000000318e+00 -4.487967000000000262e+00 2.387513999999999914e+00
-1.253243000000000107e+00 6.182724000000000331e+00 2.488774999999999959e+00
-4.317057000000000144e+00 -6.672729999999999606e+00 5.228279999999999594e-01
-2.292917999999999790e+00 4.134701999999999877e+00 5.779999999999999583e-01
-3.862375999999999809e+00 5.917044999999999888e+00 4.226559999999999762e-01
-1.975346000000000046e+00 2.638053000000000203e+00 3.197999999999999954e+00
-3.768489000000000200e+00 4.385741999999999585e+00 3.156689999999999774e-01
-3.285274999999999945e+00 -2.632070999999999827e+00 8.697570000000000023e-01
-1.417737999999999943e+00 5.179225999999999885e+00 2.305107000000000017e+00
-4.966465999999999603e+00 1.124727000000000032e+00 2.555609000000000020e+00
-6.809186000000000405e+00 -6.593481999999999843e+00 8.648179999999999756e-01
-4.723501999999999867e+00 -4.927639000000000102e+00 5.779999999999999583e-01
-2.498892999999999809e+00 5.213769000000000098e+00 5.779999999999999583e-01
-2.946403000000000105e+00 4.550634999999999764e+00 5.779999999999999583e-01
-5.946952999999999712e+00 -3.620763999999999871e+00 1.594740000000000046e-01
-4.782083000000000084e+00 -7.224746999999999808e+00 1.701246000000000036e+00
-3.185074000000000183e+00 3.388783000000000101e+00 1.620000000000000051e-01
-3.690039000000000069e+00 -1.986339999999999995e+00 3.662673999999999985e+00
-2.115785999999999945e+00 3.835107999999999961e+00 2.648309999999999831e-01
-4.510132999999999726e+00 1.305489999999999984e-01 3.634034999999999904e+00
-4.239454000000000278e+00 4.304799000000000042e+00 1.625734999999999930e+00
-3.674363000000000046e+00 -4.214574999999999960e+00 6.536840000000000428e-01
-4.033707999999999849e+00 4.654188999999999687e+00 3.318906999999999829e+00
-2.482702000000000186e+00 3.883325000000000138e+00 5.779999999999999583e-01
-4.094598000000000404e+00 -4.391183999999999976e+00 3.577055000000000096e+00
-2.365714000000000095e+00 4.043396000000000434e+00 5.779999999999999583e-01
-1.343170999999999893e+00 6.303757000000000055e+00 1.357752999999999988e+00
-4.609166000000000096e+00 -4.661293999999999826e+00 3.650558999999999887e+00
-6.265264000000000166e+00 -4.150892999999999944e+00 2.403966000000000047e+00
-1.965324000000000071e+00 3.330039999999999889e+00 3.347494999999999887e+00
-4.369647999999999755e+00 -3.151123000000000118e+00 1.620000000000000051e-01
-4.525559999999999583e+00 1.962077999999999989e+00 5.067930000000000490e-01
-3.966632000000000158e+00 -1.240768000000000093e+00 5.779999999999999583e-01
-6.878205000000000346e+00 -6.353034000000000070e+00 2.810000000000000053e+00
-5.918168999999999791e+00 -2.510406999999999833e+00 1.404849999999999932e+00
-4.224501000000000062e+00 4.446521999999999863e+00 3.140090999999999966e+00
-3.900462999999999791e+00 3.091654999999999820e+00 5.779999999999999583e-01
-6.609318000000000026e+00 -6.780534000000000283e+00 8.020000000000000462e-01
-4.939302999999999777e+00 -3.319386000000000170e+00 5.779999999999999583e-01
-3.538050999999999835e+00 -3.658415000000000195e+00 1.067819000000000074e+00
-3.844367999999999785e+00 -2.643345000000000056e+00 3.659278000000000031e+00
-4.057907000000000153e+00 -4.052186999999999983e+00 4.005819999999999936e-01
-6.350202999999999598e+00 -4.420787999999999940e+00 2.522530999999999857e+00
-1.933184000000000013e+00 3.747050000000000214e+00 5.779999999999999583e-01
-2.543899000000000132e+00 3.560505000000000031e+00 3.646589000000000080e+00
-4.761392999999999986e+00 1.184287000000000090e+00 5.779999999999999583e-01
-4.245661000000000129e+00 4.360636999999999652e+00 3.189433999999999880e+00
-3.726649999999999796e+00 -4.196013999999999911e+00 2.230280000000000040e+00
-5.844261000000000372e+00 -2.209512999999999838e+00 2.841382999999999992e+00
-6.518437999999999732e+00 -6.880021000000000164e+00 5.779999999999999583e-01
-4.350759000000000043e+00 2.575063000000000102e+00 1.088680000000000064e-01
-5.006408000000000413e+00 -3.014044999999999863e+00 5.779999999999999583e-01
-5.157994000000000412e+00 -2.649170999999999943e+00 3.643647000000000080e+00
-6.551398999999999972e+00 -5.007448000000000121e+00 1.766345999999999972e+00
-5.318448000000000064e+00 -1.479495000000000005e+00 5.745230000000000059e-01
-4.252657000000000131e+00 2.605370999999999881e+00 2.438200000000000089e-02
-5.485656999999999783e+00 -4.911636999999999809e+00 3.693525000000000169e+00
-4.746709000000000067e+00 -8.977150000000000407e-01 3.638400999999999996e+00
-3.735609999999999875e+00 6.122436000000000433e+00 1.882276000000000060e+00
-6.082076999999999956e+00 -7.066080999999999612e+00 2.838375000000000092e+00
-2.245802999999999994e+00 6.798994000000000426e+00 8.020000000000000462e-01
-4.127868999999999566e+00 -5.457057999999999964e+00 5.779999999999999583e-01
-4.578859999999999708e+00 -7.110224999999999795e+00 1.975433999999999912e+00
-3.712896999999999892e+00 -4.043072999999999695e+00 5.779999999999999583e-01
-2.047505000000000130e+00 4.949639000000000344e+00 3.599702999999999875e+00
-5.307197999999999638e+00 -3.848275999999999808e+00 3.679466999999999821e+00
-3.263571000000000222e+00 2.834239000000000175e+00 1.620000000000000051e-01
-3.768158000000000118e+00 -4.593917000000000250e+00 1.536987000000000103e+00
-6.618718000000000323e+00 -5.357705000000000162e+00 2.349612000000000034e+00
-4.567035999999999873e+00 -4.251272000000000162e+00 3.665299999999999780e+00
-5.648075000000000401e+00 -4.844122999999999735e+00 5.779999999999999583e-01
-5.164878999999999998e+00 -3.627032999999999952e+00 3.693872999999999962e+00
-4.727020999999999695e+00 2.094838000000000200e+00 2.564058999999999866e+00
-4.360306999999999711e+00 -6.771073999999999593e+00 1.960574999999999957e+00
-5.860403999999999947e+00 -2.507715000000000138e+00 2.511578999999999784e+00
-4.517178000000000360e+00 -1.173810000000000020e+00 5.779999999999999583e-01
-5.923668000000000156e+00 -2.535092000000000123e+00 2.689999999999999947e+00
-4.082282000000000188e+00 -5.874464999999999826e+00 2.267198000000000047e+00
-1.892919000000000018e+00 4.048785999999999774e+00 3.463636000000000159e+00
-6.176650999999999669e+00 -3.510911000000000115e+00 1.687999999999999945e+00
-4.242568999999999591e+00 2.646771999999999903e+00 4.945590000000000264e-01
-1.424523999999999901e+00 5.074028000000000205e+00 9.840449999999999475e-01
-4.996228000000000335e+00 -2.034691000000000027e+00 5.779999999999999583e-01
-2.996062999999999921e+00 2.269686000000000092e+00 5.779999999999999583e-01
-5.056428000000000367e+00 -1.677327000000000012e+00 3.664580000000000060e-01
-2.834652999999999867e+00 6.676116000000000383e+00 3.438677000000000206e+00
-2.970366999999999980e+00 9.174619999999999997e-01 3.567829999999999835e+00
-2.399049000000000209e+00 9.666299999999999892e-01 7.032399999999999762e-01
-6.087533999999999779e+00 -4.335355999999999987e+00 3.169850000000000168e-01
-5.585185000000000066e+00 -5.320363999999999649e+00 5.779999999999999583e-01
-5.495398999999999923e+00 -2.828351000000000059e+00 3.633732999999999880e+00
-5.690790999999999933e+00 -3.898877000000000148e+00 1.620000000000000051e-01
-1.395574000000000092e+00 5.045208999999999833e+00 5.054199999999999804e-01
-2.292695000000000149e+00 2.252895000000000092e+00 5.779999999999999583e-01
-5.716268999999999600e+00 -7.061720000000000219e+00 2.597849000000000075e+00
-5.192160999999999582e+00 -7.219829999999999970e+00 3.049071000000000087e+00
-5.661950000000000038e+00 -1.698379000000000083e+00 2.243167000000000133e+00
-1.257363999999999926e+00 5.833205999999999669e+00 1.565519000000000105e+00
-5.106843999999999717e+00 5.539870000000000072e-01 5.846639999999999615e-01
-3.966868999999999978e+00 4.383967000000000169e+00 3.417364000000000068e+00
-1.350773000000000001e+00 6.108017000000000252e+00 5.407680000000000264e-01
-5.381626999999999938e+00 -2.678847999999999896e+00 5.779999999999999583e-01
-2.850042000000000186e+00 6.806809999999999805e-01 5.181959999999999900e-01
-4.499178999999999817e+00 3.024432000000000009e+00 2.294042999999999832e+00
-3.929804999999999993e+00 3.893194999999999961e+00 3.496499000000000024e+00
-4.386692000000000036e+00 -7.107312000000000296e+00 1.483692000000000011e+00
-4.991295000000000037e+00 1.256707000000000019e+00 2.831328000000000067e+00
-5.345761000000000429e+00 -2.721308000000000060e+00 3.634663999999999895e+00
-3.071115999999999957e+00 2.805467999999999851e+00 3.702872000000000163e+00
-4.052233000000000196e+00 8.511170000000000124e-01 5.779999999999999583e-01
-5.813070999999999877e+00 -4.347739999999999938e+00 1.620000000000000051e-01
-2.119715999999999934e+00 2.332025999999999932e+00 2.058068000000000008e+00
-3.837098000000000120e+00 -2.915868999999999822e+00 3.533329000000000164e+00
-2.227117999999999931e+00 6.575808000000000320e+00 3.452515000000000001e+00
-2.482056000000000040e+00 2.273775999999999797e+00 2.065480000000000094e-01
-4.111093999999999582e+00 -3.058138000000000023e+00 3.625256999999999952e+00
-5.899359999999999715e+00 -3.773226000000000191e+00 5.779999999999999583e-01
-5.805367000000000388e+00 -2.055245000000000211e+00 6.182699999999999863e-01
-1.457084999999999964e+00 4.714947000000000443e+00 1.767506999999999939e+00
-2.184795999999999960e+00 1.834062000000000081e+00 3.028086000000000055e+00
-5.748415999999999748e+00 -2.963713999999999960e+00 1.707809999999999884e-01
-3.520262999999999920e+00 -3.663251999999999953e+00 1.764596999999999971e+00
-2.954270999999999869e+00 2.387223999999999791e+00 3.762856999999999896e+00
-1.863126999999999978e+00 3.309432999999999847e+00 3.238799999999999901e+00
-3.252940000000000165e+00 2.314623999999999793e+00 5.779999999999999583e-01
-4.493020999999999709e+00 3.274172999999999778e+00 1.576530999999999905e+00
-6.111949000000000076e+00 -4.409766000000000297e+00 2.179999999999999993e-01
-6.662268000000000079e+00 -6.713446000000000247e+00 1.561250999999999944e+00
-4.554183000000000092e+00 -2.376471000000000000e+00 3.721868999999999872e+00
-4.176298000000000066e+00 4.564740999999999715e+00 4.077200000000000268e-01
-5.761670999999999765e+00 -2.386228000000000016e+00 5.779999999999999583e-01
-1.736828999999999956e+00 3.651949000000000112e+00 6.149529999999999719e-01
-3.795424999999999827e+00 4.643786999999999665e+00 4.455080000000000151e-01
