4.834774017333984375e+01 7.897713470458984375e+01 4.718152999877929688e+00
4.844984817504882812e+01 7.952830505371093750e+01 4.908236503601074219e+00
4.844743728637695312e+01 7.889376068115234375e+01 4.964623928070068359e+00
5.196994018554687500e+01 5.149743270874023438e+01 3.954328775405883789e+00
5.194302368164062500e+01 5.096855926513671875e+01 4.020444869995117188e+00
5.228811645507812500e+01 5.139930343627929688e+01 3.898789882659912109e+00
5.224797821044921875e+01 5.088799285888671875e+01 3.957673549652099609e+00
5.396316909790039062e+01 2.143001365661621094e+01 -9.750716388225555420e-03
5.380531692504882812e+01 2.081810569763183594e+01 8.521536365151405334e-03
5.439584732055664062e+01 2.122080039978027344e+01 -5.077851563692092896e-02
5.425328445434570312e+01 2.061854743957519531e+01 -2.349605038762092590e-02
4.747266769409179688e+01 6.071153640747070312e+01 2.979569911956787109e+00
4.742884445190429688e+01 6.020762634277343750e+01 3.140816450119018555e+00
4.752768325805664062e+01 6.077494049072265625e+01 3.322650671005249023e+00
4.752729415893554688e+01 6.024200439453125000e+01 3.477392911911010742e+00
5.883996582031250000e+01 5.336193847656250000e+01 3.299315273761749268e-01
5.859657669067382812e+01 5.369302368164062500e+01 4.274393320083618164e-01
5.906092834472656250e+01 5.325820541381835938e+01 6.642572283744812012e-01
5.882762145996093750e+01 5.357287597656250000e+01 7.540166378021240234e-01
5.970806503295898438e+01 5.194683074951171875e+01 2.366511106491088867e+00
5.961674499511718750e+01 5.198214721679687500e+01 2.723690509796142578e+00
5.975615310668945312e+01 5.167017364501953125e+01 2.814771175384521484e+00
5.964543533325195312e+01 5.174365234375000000e+01 3.162992477416992188e+00
4.447630691528320312e+01 7.696525573730468750e+01 3.531544923782348633e+00
4.422959899902343750e+01 7.670227813720703125e+01 3.706946372985839844e+00
4.483203506469726562e+01 7.692675018310546875e+01 3.726543188095092773e+00
4.458718872070312500e+01 7.665892028808593750e+01 3.897051334381103516e+00
4.529915618896484375e+01 2.346101379394531250e+01 3.869693517684936523e+00
4.520323562622070312e+01 2.304311180114746094e+01 3.919661998748779297e+00
4.567421722412109375e+01 2.343751144409179688e+01 3.877306938171386719e+00
4.557973861694335938e+01 2.302231216430664062e+01 3.920144081115722656e+00
5.131642532348632812e+01 6.588108062744140625e+01 3.636054515838623047e+00
5.132131958007812500e+01 6.546368408203125000e+01 3.675636291503906250e+00
5.135708999633789062e+01 6.580278778076171875e+01 3.936887502670288086e+00
5.137661743164062500e+01 6.535607147216796875e+01 3.981872558593750000e+00
5.056375503540039062e+01 8.274843597412109375e+01 5.574339866638183594e+00
5.021790695190429688e+01 8.282099914550781250e+01 5.843828201293945312e+00
5.063689422607421875e+01 8.310238647460937500e+01 5.804379940032958984e+00
5.034109497070312500e+01 8.308003234863281250e+01 6.073412895202636719e+00
3.900236129760742188e+01 1.630370330810546875e+01 4.667132496833801270e-01
3.877297973632812500e+01 1.645962333679199219e+01 7.907267808914184570e-01
3.912304687500000000e+01 1.611936378479003906e+01 8.399008512496948242e-01
3.889560699462890625e+01 1.633251380920410156e+01 1.214584589004516602e+00
3.969221115112304688e+01 2.265180015563964844e+01 1.387224718928337097e-02
3.949327850341796875e+01 2.217097091674804688e+01 3.847805783152580261e-02
4.010245895385742188e+01 2.253758621215820312e+01 -1.409673132002353668e-02
3.991794586181640625e+01 2.207486343383789062e+01 5.759083665907382965e-03
4.113039779663085938e+01 5.020013427734375000e+01 -6.539855897426605225e-02
4.088994979858398438e+01 4.971930694580078125e+01 -1.079431734979152679e-03
4.156801223754882812e+01 4.999792480468750000e+01 -4.082575440406799316e-02
4.131769561767578125e+01 4.953171920776367188e+01 1.667143590748310089e-02
6.098682785034179688e+01 1.735413360595703125e+01 1.331077575683593750e+00
6.083176040649414062e+01 1.717122077941894531e+01 1.527992606163024902e+00
6.106301879882812500e+01 1.745014953613281250e+01 1.650667071342468262e+00
6.091191101074218750e+01 1.726950645446777344e+01 1.851648569107055664e+00
5.462844085693359375e+01 7.772315216064453125e+01 2.904639720916748047e+00
5.441769409179687500e+01 7.733811950683593750e+01 2.953760385513305664e+00
5.499953842163085938e+01 7.761808776855468750e+01 2.996373653411865234e+00
5.479774093627929688e+01 7.721111297607421875e+01 3.042674303054809570e+00
4.590161895751953125e+01 1.271197414398193359e+01 5.726649761199951172e+00
4.554756546020507812e+01 1.286391639709472656e+01 5.886406898498535156e+00
4.628288269042968750e+01 1.271614933013916016e+01 6.006327152252197266e+00
4.589648056030273438e+01 1.286316108703613281e+01 6.108605861663818359e+00
5.845372772216796875e+01 3.242260742187500000e+01 2.457778453826904297e-01
5.828576278686523438e+01 3.209348678588867188e+01 1.290880590677261353e-01
5.887834167480468750e+01 3.237045669555664062e+01 2.905008196830749512e-01
5.865196990966796875e+01 3.219383621215820312e+01 1.946747452020645142e-01
4.597801208496093750e+01 2.513294410705566406e+01 3.825153589248657227e+00
4.569577789306640625e+01 2.482361412048339844e+01 3.821932077407836914e+00
4.641594696044921875e+01 2.524782180786132812e+01 3.923121213912963867e+00
4.607633590698242188e+01 2.495237922668457031e+01 3.926960229873657227e+00
4.875566482543945312e+01 4.792014694213867188e+01 1.761276647448539734e-02
4.848671722412109375e+01 4.749206924438476562e+01 6.723526120185852051e-02
4.930570983886718750e+01 4.765369415283203125e+01 -5.598666891455650330e-02
4.903338241577148438e+01 4.720455932617187500e+01 4.812313709408044815e-03
5.343807983398437500e+01 2.935406494140625000e+01 3.886864423751831055e+00
5.323185729980468750e+01 2.895172309875488281e+01 3.895866632461547852e+00
5.387908172607421875e+01 2.905032539367675781e+01 3.881203174591064453e+00
5.368304443359375000e+01 2.864076232910156250e+01 3.894721746444702148e+00
5.458855056762695312e+01 1.741084289550781250e+01 3.837849855422973633e+00
5.449661254882812500e+01 1.696801948547363281e+01 3.851755857467651367e+00
5.506100845336914062e+01 1.714398384094238281e+01 3.892009019851684570e+00
5.494629669189453125e+01 1.667418289184570312e+01 3.898519277572631836e+00
4.623550033569335938e+01 5.557572174072265625e+01 3.871900796890258789e+00
4.606552124023437500e+01 5.514988327026367188e+01 3.900088071823120117e+00
4.667197418212890625e+01 5.566993713378906250e+01 3.852801084518432617e+00
4.651575088500976562e+01 5.519506835937500000e+01 3.855518341064453125e+00
6.186337280273437500e+01 2.344630622863769531e+01 -7.260093092918395996e-02
6.179678344726562500e+01 2.300936508178710938e+01 -1.396150439977645874e-01
6.211740493774414062e+01 2.344395637512207031e+01 1.149485353380441666e-03
6.206068038940429688e+01 2.301626396179199219e+01 -6.964191794395446777e-02
4.505580520629882812e+01 2.225793075561523438e+01 3.903196573257446289e+00
4.494949340820312500e+01 2.179244041442871094e+01 3.900939941406250000e+00
4.540659713745117188e+01 2.192709350585937500e+01 3.868859291076660156e+00
4.531122970581054688e+01 2.149234199523925781e+01 3.887329101562500000e+00
5.353458786010742188e+01 3.967598724365234375e+01 3.863631248474121094e+00
5.335120391845703125e+01 3.938180541992187500e+01 3.922772884368896484e+00
5.391946792602539062e+01 3.964094543457031250e+01 3.855563879013061523e+00
5.377886581420898438e+01 3.914363479614257812e+01 3.864249467849731445e+00
3.988635635375976562e+01 5.058666992187500000e+01 -2.385633736848831177e-01
3.979095840454101562e+01 5.010652923583984375e+01 -1.000915542244911194e-01
3.994710922241210938e+01 5.082914733886718750e+01 -6.124939769506454468e-02
3.984808731079101562e+01 5.034643936157226562e+01 7.331726700067520142e-02
4.320652770996093750e+01 4.893174743652343750e+01 3.898475408554077148e+00
4.302191162109375000e+01 4.846802139282226562e+01 3.912250518798828125e+00
4.367118453979492188e+01 4.878107070922851562e+01 3.854425907135009766e+00
4.348193359375000000e+01 4.831819915771484375e+01 3.867158174514770508e+00
4.498008346557617188e+01 1.635765838623046875e+01 2.143397741019725800e-02
4.478810501098632812e+01 1.577836704254150391e+01 4.633049666881561279e-02
4.536366271972656250e+01 1.599622249603271484e+01 -4.578300565481185913e-02
4.517550277709960938e+01 1.547638988494873047e+01 -2.239782363176345825e-02
4.641197586059570312e+01 3.696430206298828125e+01 1.578342542052268982e-02
4.616537475585937500e+01 3.646237564086914062e+01 4.944043606519699097e-02
4.691180038452148438e+01 3.662480926513671875e+01 -1.287681423127651215e-02
4.666826629638671875e+01 3.613272476196289062e+01 1.908347196877002716e-02
4.186632537841796875e+01 2.985975074768066406e+01 -2.335607074201107025e-02
4.173496627807617188e+01 2.934085464477539062e+01 4.889505449682474136e-03
4.234002304077148438e+01 2.949860000610351562e+01 -1.011486444622278214e-02
4.219033813476562500e+01 2.902695083618164062e+01 9.204407222568988800e-03
4.204404449462890625e+01 1.752688598632812500e+01 -2.985664643347263336e-02
4.176780700683593750e+01 1.706776428222656250e+01 2.245033346116542816e-02
4.250862884521484375e+01 1.738156318664550781e+01 -4.603217169642448425e-02
4.222201538085937500e+01 1.695634841918945312e+01 1.846712455153465271e-02
4.575986862182617188e+01 1.878903770446777344e+01 -1.818723976612091064e-02
4.557407760620117188e+01 1.838737106323242188e+01 1.774065196514129639e-02
4.617271423339843750e+01 1.852680206298828125e+01 -2.168929576873779297e-02
4.598135375976562500e+01 1.812788200378417969e+01 1.718339696526527405e-02
4.673016357421875000e+01 7.901107025146484375e+01 3.511793136596679688e+00
4.668341064453125000e+01 7.845503997802734375e+01 3.729923486709594727e+00
4.702478408813476562e+01 7.892658996582031250e+01 3.739973545074462891e+00
4.699770355224609375e+01 7.839717102050781250e+01 3.940012931823730469e+00
4.678128433227539062e+01 4.623187637329101562e+01 4.017054080963134766e+00
4.652711105346679688e+01 4.582525253295898438e+01 3.983386039733886719e+00
4.719371795654296875e+01 4.626797485351562500e+01 4.085625171661376953e+00
4.692172241210937500e+01 4.590693664550781250e+01 4.027847290039062500e+00
4.866280364990234375e+01 5.663268661499023438e+01 -9.328427165746688843e-02
4.836677551269531250e+01 5.647165298461914062e+01 -7.464389503002166748e-02
4.903170013427734375e+01 5.702762603759765625e+01 8.128859102725982666e-02
4.878789520263671875e+01 5.676827239990234375e+01 7.506168633699417114e-02
5.408663177490234375e+01 2.912497901916503906e+01 -2.660765126347541809e-02
5.390552139282226562e+01 2.864548110961914062e+01 -1.407848484814167023e-02
5.450532531738281250e+01 2.891713905334472656e+01 -1.917942427098751068e-02
5.432706069946289062e+01 2.842309188842773438e+01 -2.425111830234527588e-03
5.790452575683593750e+01 2.722572708129882812e+01 3.851822376251220703e+00
5.778790664672851562e+01 2.670634078979492188e+01 3.852999448776245117e+00
5.837584686279296875e+01 2.713666725158691406e+01 3.891543626785278320e+00
5.824458312988281250e+01 2.660306930541992188e+01 3.887327909469604492e+00
5.650346755981445312e+01 2.922462654113769531e+01 -2.384512498974800110e-02
5.625916671752929688e+01 2.870317268371582031e+01 5.729313939809799194e-03
5.702462387084960938e+01 2.906856346130371094e+01 -1.308412477374076843e-02
5.675017166137695312e+01 2.853895568847656250e+01 1.956206932663917542e-02
3.672182846069335938e+01 2.402949905395507812e+01 9.710963964462280273e-01
3.669378662109375000e+01 2.355886077880859375e+01 9.892848730087280273e-01
3.678207778930664062e+01 2.413848495483398438e+01 1.261876702308654785e+00
3.677212524414062500e+01 2.369959449768066406e+01 1.283353328704833984e+00
4.166926193237304688e+01 1.454221248626708984e+01 -1.424432992935180664e-01
4.136190032958984375e+01 1.454387092590332031e+01 8.500142395496368408e-02
4.193788909912109375e+01 1.430127143859863281e+01 -2.404832839965820312e-02
4.161226654052734375e+01 1.431844425201416016e+01 2.209067940711975098e-01
5.413009262084960938e+01 1.397143745422363281e+01 3.848022699356079102e+00
5.390699386596679688e+01 1.366738700866699219e+01 3.895963430404663086e+00
5.460836029052734375e+01 1.408000946044921875e+01 3.817771434783935547e+00
5.440285110473632812e+01 1.369515323638916016e+01 3.874387502670288086e+00
4.587950897216796875e+01 4.095792388916015625e+01 3.714787960052490234e-02
4.564100265502929688e+01 4.041265869140625000e+01 4.602803662419319153e-02
4.640451049804687500e+01 4.075139617919921875e+01 8.195983245968818665e-03
4.614740371704101562e+01 4.018927764892578125e+01 1.929547823965549469e-02
4.214148712158203125e+01 3.901762008666992188e+01 1.290623188018798828e+00
4.223917007446289062e+01 3.852910614013671875e+01 1.379670739173889160e+00
4.220917510986328125e+01 3.896236038208007812e+01 1.614847183227539062e+00
4.229713058471679688e+01 3.847621154785156250e+01 1.700979709625244141e+00
5.379563903808593750e+01 5.647396850585937500e+01 3.837761163711547852e+00
5.363652038574218750e+01 5.624556350708007812e+01 3.925930023193359375e+00
5.404048919677734375e+01 5.629068374633789062e+01 3.856643199920654297e+00
5.389973068237304688e+01 5.604142379760742188e+01 3.943283796310424805e+00
5.207972335815429688e+01 8.453495788574218750e+01 3.007917404174804688e+00
5.219255447387695312e+01 8.409259033203125000e+01 3.098678350448608398e+00
5.209813308715820312e+01 8.454598236083984375e+01 3.377293586730957031e+00
5.220588302612304688e+01 8.411331939697265625e+01 3.476153850555419922e+00
5.186509323120117188e+01 3.169599723815917969e+01 -1.009203121066093445e-02
5.157467269897460938e+01 3.119729614257812500e+01 3.023915179073810577e-02
5.239459991455078125e+01 3.150872230529785156e+01 -3.471976518630981445e-02
5.212807083129882812e+01 3.105595779418945312e+01 -1.230257563292980194e-03
5.267923355102539062e+01 2.229964637756347656e+01 9.344808757305145264e-03
5.244709396362304688e+01 2.181719589233398438e+01 4.191275313496589661e-02
5.318722915649414062e+01 2.206466865539550781e+01 -5.855495110154151917e-03
5.297856521606445312e+01 2.154722785949707031e+01 1.225158758461475372e-02
5.805620574951171875e+01 3.251699447631835938e+01 9.267912507057189941e-01
5.784124755859375000e+01 3.238732147216796875e+01 8.832643628120422363e-01
5.851278686523437500e+01 3.248020935058593750e+01 9.072577357292175293e-01
5.827978515625000000e+01 3.237356185913085938e+01 8.541160225868225098e-01
5.191732406616210938e+01 5.210149002075195312e+01 -4.096650332212448120e-02
5.163360595703125000e+01 5.172199249267578125e+01 -7.401816546916961670e-04
5.242217636108398438e+01 5.202558898925781250e+01 -3.959125652909278870e-02
5.209070968627929688e+01 5.166372680664062500e+01 4.092220216989517212e-03
5.064387130737304688e+01 8.149260711669921875e+01 3.498096942901611328e+00
5.053701019287109375e+01 8.160165405273437500e+01 3.836212158203125000e+00
5.071848297119140625e+01 8.131439208984375000e+01 3.863184928894042969e+00
5.059098052978515625e+01 8.144573211669921875e+01 4.188170433044433594e+00
5.484323501586914062e+01 3.322485351562500000e+01 -2.267101220786571503e-02
5.458191680908203125e+01 3.276658630371093750e+01 -1.462371088564395905e-02
5.534598541259765625e+01 3.299361419677734375e+01 2.763259038329124451e-02
5.513884735107421875e+01 3.254189300537109375e+01 8.011193946003913879e-03
5.129807281494140625e+01 6.394496917724609375e+01 2.573432683944702148e+00
5.126059341430664062e+01 6.356600570678710938e+01 2.522126913070678711e+00
5.147743606567382812e+01 6.387559127807617188e+01 2.782189607620239258e+00
5.144612121582031250e+01 6.348102951049804688e+01 2.750296354293823242e+00
4.480280303955078125e+01 5.128253173828125000e+01 3.852097034454345703e+00
4.464258956909179688e+01 5.082719421386718750e+01 3.851706504821777344e+00
4.521616363525390625e+01 5.100065231323242188e+01 3.915444612503051758e+00
4.507075500488281250e+01 5.056280517578125000e+01 3.902851819992065430e+00
5.653356170654296875e+01 5.600336837768554688e+01 3.734541177749633789e+00
5.633068466186523438e+01 5.565736389160156250e+01 3.902492046356201172e+00
5.686521148681640625e+01 5.569026565551757812e+01 3.788700103759765625e+00
5.666086959838867188e+01 5.534074020385742188e+01 3.954917192459106445e+00
5.339907455444335938e+01 3.735040664672851562e+01 -3.006945177912712097e-02
5.310609054565429688e+01 3.698266983032226562e+01 1.900482363998889923e-02
5.387946319580078125e+01 3.714643478393554688e+01 -1.895745471119880676e-02
5.359395980834960938e+01 3.675839614868164062e+01 4.338485002517700195e-02
5.789870834350585938e+01 5.432474899291992188e+01 -4.198862612247467041e-02
5.761323928833007812e+01 5.462484359741210938e+01 1.398718357086181641e-01
5.817498016357421875e+01 5.444530487060546875e+01 3.263414204120635986e-01
5.790150451660156250e+01 5.477059173583984375e+01 4.939853847026824951e-01
4.466032409667968750e+01 3.077451705932617188e+01 3.864135742187500000e+00
4.440185546875000000e+01 3.024670600891113281e+01 3.903310537338256836e+00
4.528752517700195312e+01 3.059911727905273438e+01 3.876554012298583984e+00
4.505234527587890625e+01 3.005466270446777344e+01 3.908218860626220703e+00
4.992510223388671875e+01 1.804784965515136719e+01 -6.788557022809982300e-02
4.952428436279296875e+01 1.755228614807128906e+01 -1.230784226208925247e-02
5.061482620239257812e+01 1.819300079345703125e+01 -1.008696481585502625e-01
5.021043777465820312e+01 1.767379188537597656e+01 -3.521619737148284912e-02
4.965732574462890625e+01 6.424857330322265625e+01 2.620683193206787109e+00
4.950908660888671875e+01 6.387620544433593750e+01 2.682015419006347656e+00
5.000194549560546875e+01 6.406363677978515625e+01 2.621663331985473633e+00
4.985529708862304688e+01 6.369358444213867188e+01 2.688516378402709961e+00
5.172499084472656250e+01 3.881695938110351562e+01 4.003164768218994141e+00
5.141860580444335938e+01 3.907638549804687500e+01 4.176261425018310547e+00
5.196363449096679688e+01 3.906566238403320312e+01 4.024933338165283203e+00
5.163596343994140625e+01 3.935813522338867188e+01 4.220583915710449219e+00
4.989005279541015625e+01 2.889282989501953125e+01 3.843693256378173828e+00
4.961144256591796875e+01 2.841905403137207031e+01 3.908085346221923828e+00
5.046189498901367188e+01 2.880341339111328125e+01 3.832621812820434570e+00
5.017464447021484375e+01 2.826329994201660156e+01 3.885017633438110352e+00
4.239700317382812500e+01 3.072376060485839844e+01 -3.555701673030853271e-02
4.223565673828125000e+01 3.021671676635742188e+01 3.592713177204132080e-02
4.285356903076171875e+01 3.050148200988769531e+01 -7.242785394191741943e-02
4.264258956909179688e+01 3.004593467712402344e+01 -5.594370886683464050e-03
4.854819869995117188e+01 6.342776489257812500e+01 4.750576972961425781e+00
4.843677520751953125e+01 6.285049819946289062e+01 4.779518127441406250e+00
4.887934494018554688e+01 6.333818435668945312e+01 4.832433223724365234e+00
4.874809265136718750e+01 6.281790161132812500e+01 4.841497898101806641e+00
4.892979812622070312e+01 8.554588317871093750e+01 3.575422763824462891e+00
4.866178894042968750e+01 8.537907409667968750e+01 3.720396995544433594e+00
4.911231613159179688e+01 8.566263580322265625e+01 3.873662233352661133e+00
4.885411834716796875e+01 8.551892089843750000e+01 4.077635765075683594e+00
4.754106140136718750e+01 6.085571670532226562e+01 2.365418672561645508e+00
4.747130584716796875e+01 6.035434341430664062e+01 2.512951850891113281e+00
4.759635925292968750e+01 6.087954330444335938e+01 2.689187049865722656e+00
4.753470611572265625e+01 6.038370132446289062e+01 2.842641592025756836e+00
5.300040817260742188e+01 3.903839111328125000e+01 3.839124679565429688e+00
5.270976638793945312e+01 3.897351074218750000e+01 3.944790840148925781e+00
5.345136260986328125e+01 3.913992309570312500e+01 3.849825620651245117e+00
5.322259902954101562e+01 3.878306579589843750e+01 3.897419452667236328e+00
4.282993316650390625e+01 1.355096054077148438e+01 4.998786926269531250e+00
4.244152450561523438e+01 1.377556705474853516e+01 5.157711029052734375e+00
4.324345016479492188e+01 1.356375694274902344e+01 5.324188232421875000e+00
4.285446166992187500e+01 1.385516834259033203e+01 5.514431953430175781e+00
4.153280258178710938e+01 1.954069519042968750e+01 3.904694795608520508e+00
4.151523208618164062e+01 1.901902770996093750e+01 3.825282335281372070e+00
4.191647338867187500e+01 1.962589454650878906e+01 3.940526723861694336e+00
4.189273071289062500e+01 1.909214210510253906e+01 3.855461835861206055e+00
4.718358230590820312e+01 2.614547538757324219e+01 3.784955739974975586e+00
4.685194396972656250e+01 2.589957046508789062e+01 3.806819915771484375e+00
4.764575576782226562e+01 2.629210281372070312e+01 3.927953004837036133e+00
4.735846710205078125e+01 2.602602958679199219e+01 3.968796014785766602e+00
4.433821487426757812e+01 4.265076065063476562e+01 -4.237739741802215576e-02
4.401371002197265625e+01 4.213478088378906250e+01 1.410142704844474792e-02
4.493781661987304688e+01 4.263001632690429688e+01 -5.238550901412963867e-02
4.462018966674804688e+01 4.212845993041992188e+01 2.256089821457862854e-03
4.765561676025390625e+01 4.709477615356445312e+01 4.718492984771728516e+00
4.737055969238281250e+01 4.677414703369140625e+01 4.729427337646484375e+00
4.813127136230468750e+01 4.692794036865234375e+01 4.846609592437744141e+00
4.786359405517578125e+01 4.659097290039062500e+01 4.859421253204345703e+00
5.032982635498046875e+01 8.631942749023437500e+01 2.078547954559326172e+00
5.003260040283203125e+01 8.643693542480468750e+01 2.068722486495971680e+00
5.067346572875976562e+01 8.638916015625000000e+01 2.245315313339233398e+00
5.036830139160156250e+01 8.655017089843750000e+01 2.291182279586791992e+00
5.146909332275390625e+01 2.391452789306640625e+01 6.298631191253662109e+00
5.115091705322265625e+01 2.380284118652343750e+01 6.478241920471191406e+00
5.166754531860351562e+01 2.386742019653320312e+01 6.439232349395751953e+00
5.135577011108398438e+01 2.375614738464355469e+01 6.610818862915039062e+00
5.198779296875000000e+01 4.240924072265625000e+01 4.623768806457519531e+00
5.189115905761718750e+01 4.203374481201171875e+01 4.715081691741943359e+00
5.240348815917968750e+01 4.243045806884765625e+01 4.494092941284179688e+00
5.229769897460937500e+01 4.206217575073242188e+01 4.589581966400146484e+00
3.900619125366210938e+01 4.728007507324218750e+01 3.818540334701538086e+00
3.885447311401367188e+01 4.681893539428710938e+01 3.748105525970458984e+00
3.939016723632812500e+01 4.724130249023437500e+01 3.922722816467285156e+00
3.923450088500976562e+01 4.677222061157226562e+01 3.874306440353393555e+00
6.119827270507812500e+01 2.694231224060058594e+01 -2.346843108534812927e-02
6.108761596679687500e+01 2.654058074951171875e+01 -1.395961195230484009e-01
6.161312484741210938e+01 2.696130561828613281e+01 1.401862502098083496e-01
6.154803085327148438e+01 2.659274673461914062e+01 -9.092494845390319824e-03
5.469877243041992188e+01 2.682842445373535156e+01 -7.795920595526695251e-03
5.445394134521484375e+01 2.631149673461914062e+01 3.777706995606422424e-03
5.517288208007812500e+01 2.657641983032226562e+01 -1.352132204920053482e-02
5.493822097778320312e+01 2.603154373168945312e+01 -2.264599502086639404e-02
5.135041809082031250e+01 3.142456626892089844e+01 5.811254978179931641e+00
5.111631011962890625e+01 3.133913612365722656e+01 6.068419933319091797e+00
5.149055862426757812e+01 3.153314781188964844e+01 6.132657527923583984e+00
5.125101852416992188e+01 3.142735290527343750e+01 6.376983642578125000e+00
5.736594009399414062e+01 3.295307922363281250e+01 3.685847759246826172e+00
5.713625335693359375e+01 3.294939422607421875e+01 3.844595432281494141e+00
5.764985656738281250e+01 3.263978195190429688e+01 3.869350433349609375e+00
5.741619110107421875e+01 3.259883117675781250e+01 4.021096706390380859e+00
4.408541488647460938e+01 2.953058433532714844e+01 -8.512290194630622864e-03
4.374871826171875000e+01 2.923985290527343750e+01 5.456698685884475708e-02
4.450078582763671875e+01 2.944763946533203125e+01 -4.298280924558639526e-03
4.417805099487304688e+01 2.914844512939453125e+01 4.855269938707351685e-02
5.604308319091796875e+01 2.278233337402343750e+01 -2.393570169806480408e-02
5.577994537353515625e+01 2.230778121948242188e+01 5.561796016991138458e-03
5.652656555175781250e+01 2.269851303100585938e+01 -1.836715452373027802e-02
5.628664398193359375e+01 2.224239349365234375e+01 1.141455210745334625e-02
4.328168106079101562e+01 3.982195663452148438e+01 -2.478615194559097290e-02
4.318436431884765625e+01 3.922322463989257812e+01 1.931349933147430420e-02
4.360612106323242188e+01 3.955256652832031250e+01 -8.467515930533409119e-03
4.350561523437500000e+01 3.893760299682617188e+01 3.978677466511726379e-02
5.144026565551757812e+01 5.714995574951171875e+01 4.086265087127685547e+00
5.117678070068359375e+01 5.707645416259765625e+01 4.263701915740966797e+00
5.175074386596679688e+01 5.690695571899414062e+01 4.079438209533691406e+00
5.150261688232421875e+01 5.679358673095703125e+01 4.253582477569580078e+00
5.025650405883789062e+01 3.760662078857421875e+01 -5.840221792459487915e-02
4.994565963745117188e+01 3.714169311523437500e+01 -1.527925394475460052e-02
5.073834991455078125e+01 3.745422744750976562e+01 -3.721308708190917969e-02
5.043689727783203125e+01 3.699297332763671875e+01 3.736660815775394440e-03
4.074382781982421875e+01 2.510780334472656250e+01 -2.057549357414245605e-02
4.034868240356445312e+01 2.472512817382812500e+01 2.651520818471908569e-02
4.127766799926757812e+01 2.501586341857910156e+01 -3.897970914840698242e-02
4.088424301147460938e+01 2.463183784484863281e+01 4.199288785457611084e-03
6.023736953735351562e+01 4.905214691162109375e+01 1.568902730941772461e+00
6.024351882934570312e+01 4.866335296630859375e+01 1.642462730407714844e+00
6.023149108886718750e+01 4.904440307617187500e+01 1.904057264328002930e+00
6.023857879638671875e+01 4.867475891113281250e+01 1.940635919570922852e+00
5.421395874023437500e+01 5.428144836425781250e+01 3.887357234954833984e+00
5.407709503173828125e+01 5.384819412231445312e+01 3.903917312622070312e+00
5.465954208374023438e+01 5.403476333618164062e+01 3.880055904388427734e+00
5.450888824462890625e+01 5.360489654541015625e+01 3.905404806137084961e+00
4.782669448852539062e+01 2.074627685546875000e+01 4.419735431671142578e+00
4.770926666259765625e+01 2.035977554321289062e+01 4.301733970642089844e+00
4.816089630126953125e+01 2.066549491882324219e+01 4.504892349243164062e+00
4.804644775390625000e+01 2.031937408447265625e+01 4.360715389251708984e+00
4.136366271972656250e+01 2.238296318054199219e+01 -4.881891608238220215e-02
4.117860794067382812e+01 2.198340988159179688e+01 -3.247471526265144348e-02
4.173988723754882812e+01 2.210615730285644531e+01 -1.633571460843086243e-03
4.156111526489257812e+01 2.170862197875976562e+01 1.190011389553546906e-02
5.084831237792968750e+01 4.563925933837890625e+01 1.138068363070487976e-02
5.064605712890625000e+01 4.511947250366210938e+01 5.867081135511398315e-02
5.131459426879882812e+01 4.520454025268554688e+01 -4.610510170459747314e-02
5.113375473022460938e+01 4.467635345458984375e+01 -7.042429409921169281e-03
5.419662475585937500e+01 4.547814559936523438e+01 -2.696857973933219910e-02
5.397551727294921875e+01 4.504228591918945312e+01 4.144235514104366302e-03
5.459842300415039062e+01 4.526470184326171875e+01 1.980923116207122803e-03
5.440250015258789062e+01 4.484499740600585938e+01 3.249078616499900818e-02
5.197088623046875000e+01 1.932979774475097656e+01 3.900027513504028320e+00
5.173761749267578125e+01 1.884209632873535156e+01 3.978738307952880859e+00
5.245685195922851562e+01 1.936516761779785156e+01 3.825680494308471680e+00
5.222342681884765625e+01 1.887771415710449219e+01 3.904622554779052734e+00
6.174950027465820312e+01 2.376392555236816406e+01 3.793732404708862305e+00
6.166718673706054688e+01 2.332883262634277344e+01 3.924876689910888672e+00
6.203368759155273438e+01 2.351966857910156250e+01 3.738282203674316406e+00
6.196916198730468750e+01 2.308483505249023438e+01 3.882159233093261719e+00
4.939667892456054688e+01 7.769149017333984375e+01 1.979159832000732422e+00
4.930000686645507812e+01 7.716561126708984375e+01 1.983876228332519531e+00
4.983486557006835938e+01 7.759512329101562500e+01 1.935831069946289062e+00
4.970865249633789062e+01 7.707793426513671875e+01 1.927602767944335938e+00
5.708010482788085938e+01 3.403726196289062500e+01 7.309249639511108398e-01
5.701442337036132812e+01 3.405451965332031250e+01 8.493111729621887207e-01
5.715320968627929688e+01 3.392461776733398438e+01 1.097979545593261719e+00
5.700901031494140625e+01 3.413381576538085938e+01 1.304422736167907715e+00
4.420145797729492188e+01 2.136771965026855469e+01 3.896994590759277344e+00
4.408487701416015625e+01 2.092841339111328125e+01 3.876995325088500977e+00
4.464244842529296875e+01 2.111244583129882812e+01 3.867487668991088867e+00
4.453496170043945312e+01 2.066947555541992188e+01 3.857271194458007812e+00
5.523904037475585938e+01 3.303802108764648438e+01 3.883318901062011719e+00
5.500560379028320312e+01 3.257421493530273438e+01 3.911990880966186523e+00
5.571413040161132812e+01 3.279472351074218750e+01 3.821515083312988281e+00
5.546563720703125000e+01 3.236583709716796875e+01 3.864429473876953125e+00
3.965779876708984375e+01 1.757774543762207031e+01 -1.454071998596191406e-01
3.946354675292968750e+01 1.748097229003906250e+01 2.227423712611198425e-02
3.989196014404296875e+01 1.718891334533691406e+01 -1.785673946142196655e-02
3.966894912719726562e+01 1.703437232971191406e+01 1.516152769327163696e-01
5.829462814331054688e+01 1.938159179687500000e+01 -4.677429795265197754e-03
5.798506927490234375e+01 1.892819976806640625e+01 2.435813099145889282e-02
5.879184341430664062e+01 1.931836891174316406e+01 -2.250079065561294556e-03
5.848581695556640625e+01 1.887200355529785156e+01 3.433580696582794189e-02
4.828316497802734375e+01 6.557421112060546875e+01 4.763702392578125000e+00
4.808821487426757812e+01 6.508290100097656250e+01 4.775164604187011719e+00
4.874632263183593750e+01 6.559260559082031250e+01 4.761472702026367188e+00
4.855133056640625000e+01 6.512908935546875000e+01 4.776559352874755859e+00
4.713446044921875000e+01 1.557275390625000000e+01 -1.698731444776058197e-02
4.691211318969726562e+01 1.512957954406738281e+01 2.827805653214454651e-02
4.762151336669921875e+01 1.534821033477783203e+01 -1.213939115405082703e-02
4.739939117431640625e+01 1.490630531311035156e+01 2.446368522942066193e-02
4.735079574584960938e+01 8.011729431152343750e+01 2.835338354110717773e+00
4.724239349365234375e+01 7.976960754394531250e+01 3.013554811477661133e+00
4.749227523803710938e+01 8.010838317871093750e+01 3.055497884750366211e+00
4.736734771728515625e+01 7.984426879882812500e+01 3.236027956008911133e+00
5.745275497436523438e+01 3.127637481689453125e+01 3.859098196029663086e+00
5.716815567016601562e+01 3.089456367492675781e+01 3.947061538696289062e+00
5.791813659667968750e+01 3.105840492248535156e+01 3.810732126235961914e+00
5.763362121582031250e+01 3.068538856506347656e+01 3.915396451950073242e+00
5.103219985961914062e+01 7.448036193847656250e+01 4.512465000152587891e+00
5.104356002807617188e+01 7.399117279052734375e+01 4.545017242431640625e+00
5.105702972412109375e+01 7.447878265380859375e+01 4.965266227722167969e+00
5.106570816040039062e+01 7.397956848144531250e+01 5.018546104431152344e+00
5.011404037475585938e+01 4.100782394409179688e+01 -2.597511559724807739e-02
4.981895065307617188e+01 4.048291015625000000e+01 3.093896433711051941e-02
5.067719650268554688e+01 4.072879409790039062e+01 -1.099398545920848846e-02
5.039518737792968750e+01 4.025014114379882812e+01 5.022678524255752563e-02
4.448235321044921875e+01 1.675321388244628906e+01 6.316345691680908203e+00
4.433234786987304688e+01 1.635814094543457031e+01 6.321704864501953125e+00
4.486448287963867188e+01 1.645554161071777344e+01 6.306883811950683594e+00
4.471772384643554688e+01 1.606217193603515625e+01 6.313993930816650391e+00
4.380167388916015625e+01 7.548093414306640625e+01 3.653699636459350586e+00
4.351554870605468750e+01 7.561362457275390625e+01 3.945226907730102539e+00
4.398387908935546875e+01 7.537699890136718750e+01 3.810047149658203125e+00
4.367266464233398438e+01 7.551252746582031250e+01 4.079522132873535156e+00
4.729243850708007812e+01 5.516053771972656250e+01 4.571085929870605469e+00
4.707522583007812500e+01 5.464347839355468750e+01 4.542838573455810547e+00
4.774802780151367188e+01 5.527163314819335938e+01 4.538103103637695312e+00
4.751618194580078125e+01 5.475796127319335938e+01 4.516897678375244141e+00
4.903775787353515625e+01 8.191576385498046875e+01 5.531710624694824219e+00
4.875034332275390625e+01 8.213310241699218750e+01 5.684388160705566406e+00
4.929348373413085938e+01 8.209241485595703125e+01 5.888241291046142578e+00
4.895129013061523438e+01 8.225210571289062500e+01 6.032117366790771484e+00
4.061376953125000000e+01 2.095136451721191406e+01 3.902753829956054688e+00
4.040432739257812500e+01 2.050282859802246094e+01 3.957453012466430664e+00
4.112044906616210938e+01 2.092875099182128906e+01 3.863016366958618164e+00
4.093990325927734375e+01 2.047448158264160156e+01 3.885899543762207031e+00
5.146740341186523438e+01 8.279850006103515625e+01 2.068709850311279297e+00
5.133623123168945312e+01 8.249140930175781250e+01 2.160767078399658203e+00
5.161040496826171875e+01 8.273026275634765625e+01 2.422836542129516602e+00
5.148296356201171875e+01 8.241574096679687500e+01 2.533826351165771484e+00
5.170082473754882812e+01 3.151178741455078125e+01 6.649715900421142578e+00
5.146311950683593750e+01 3.140810203552246094e+01 6.865066528320312500e+00
5.191431045532226562e+01 3.163455200195312500e+01 6.926470279693603516e+00
5.166323471069335938e+01 3.156882286071777344e+01 7.108242988586425781e+00
5.444334030151367188e+01 3.679545593261718750e+01 -4.219725728034973145e-03
5.424419784545898438e+01 3.636281585693359375e+01 3.633217886090278625e-02
5.483586883544921875e+01 3.650333786010742188e+01 -2.194694802165031433e-02
5.465859603881835938e+01 3.608374786376953125e+01 1.540445443242788315e-02
3.699638748168945312e+01 1.996153831481933594e+01 7.115201652050018311e-02
3.706772613525390625e+01 1.957081794738769531e+01 1.556172072887420654e-01
3.700127029418945312e+01 1.979173088073730469e+01 3.618977069854736328e-01
3.708078002929687500e+01 1.940369606018066406e+01 4.487162530422210693e-01
4.942586135864257812e+01 8.225337982177734375e+01 5.985511779785156250e+00
4.907362365722656250e+01 8.240796661376953125e+01 6.139856815338134766e+00
4.961902236938476562e+01 8.243083953857421875e+01 6.333330154418945312e+00
4.932206726074218750e+01 8.243564605712890625e+01 6.401359558105468750e+00
4.774376296997070312e+01 8.281630706787109375e+01 1.855595231056213379e+00
4.733946990966796875e+01 8.302506256103515625e+01 2.229056596755981445e+00
4.793169784545898438e+01 8.281092834472656250e+01 2.046665430068969727e+00
4.753651046752929688e+01 8.299485015869140625e+01 2.401392459869384766e+00
4.325448226928710938e+01 2.706579589843750000e+01 3.881904602050781250e+00
4.296808624267578125e+01 2.651969909667968750e+01 3.925558090209960938e+00
4.380894851684570312e+01 2.691089630126953125e+01 3.876610517501831055e+00
4.356058502197265625e+01 2.639205741882324219e+01 3.914836168289184570e+00
4.467835235595703125e+01 3.230588150024414062e+01 7.374882698059082031e-03
4.444780731201171875e+01 3.185432815551757812e+01 3.768283128738403320e-02
4.515586471557617188e+01 3.212598037719726562e+01 -5.141768604516983032e-02
4.493586349487304688e+01 3.170487594604492188e+01 -1.851631328463554382e-02
4.780207824707031250e+01 5.327895355224609375e+01 4.727773189544677734e+00
4.759180450439453125e+01 5.286499023437500000e+01 4.693048477172851562e+00
4.829084014892578125e+01 5.333652877807617188e+01 4.802435398101806641e+00
4.808521652221679688e+01 5.288962936401367188e+01 4.786684513092041016e+00
4.569527435302734375e+01 4.957632446289062500e+01 -8.116293698549270630e-03
4.545972442626953125e+01 4.913891601562500000e+01 4.427011683583259583e-02
4.618722152709960938e+01 4.940901947021484375e+01 -1.729958131909370422e-02
4.594798278808593750e+01 4.897538375854492188e+01 3.937911987304687500e-02
4.297083663940429688e+01 1.507419490814208984e+01 -6.636763364076614380e-02
4.274176788330078125e+01 1.476816463470458984e+01 6.577671505510807037e-03
4.343875885009765625e+01 1.493908023834228516e+01 -1.267641410231590271e-02
4.321066284179687500e+01 1.461068820953369141e+01 6.624439358711242676e-02
4.137009811401367188e+01 4.518067550659179688e+01 3.853230237960815430e+00
4.112452316284179688e+01 4.479476547241210938e+01 3.906207084655761719e+00
4.186565017700195312e+01 4.498140716552734375e+01 3.864221334457397461e+00
4.162252044677734375e+01 4.458299255371093750e+01 3.902884721755981445e+00
5.877711868286132812e+01 2.723553276062011719e+01 -1.446612924337387085e-02
5.833986282348632812e+01 2.661934471130371094e+01 5.933195352554321289e-02
5.939701843261718750e+01 2.738525009155273438e+01 -4.838926345109939575e-02
5.901907730102539062e+01 2.681626129150390625e+01 6.227353587746620178e-03
4.872828292846679688e+01 5.664387893676757812e+01 4.751713752746582031e+00
4.859657287597656250e+01 5.601856613159179688e+01 4.788475513458251953e+00
4.918655395507812500e+01 5.656885528564453125e+01 4.800443649291992188e+00
4.905175781250000000e+01 5.596782684326171875e+01 4.836663246154785156e+00
6.072038650512695312e+01 2.990732002258300781e+01 1.081554293632507324e+00
6.075693893432617188e+01 2.940544509887695312e+01 1.303371191024780273e+00
6.074897384643554688e+01 2.983148765563964844e+01 1.507362723350524902e+00
6.080609130859375000e+01 2.936540985107421875e+01 1.669901728630065918e+00
5.020859909057617188e+01 2.057714462280273438e+01 5.358294010162353516e+00
4.999976730346679688e+01 2.041414260864257812e+01 5.484032630920410156e+00
5.050152969360351562e+01 2.087998962402343750e+01 5.251325607299804688e+00
5.035810089111328125e+01 2.059041404724121094e+01 5.316479206085205078e+00
4.597702407836914062e+01 3.235814666748046875e+01 -1.939813420176506042e-02
4.582762145996093750e+01 3.193512153625488281e+01 -1.122857443988323212e-03
4.638039398193359375e+01 3.202284622192382812e+01 -2.154032886028289795e-02
4.625204467773437500e+01 3.158779525756835938e+01 -5.912742111831903458e-03
5.069061660766601562e+01 1.347022342681884766e+01 3.597572803497314453e+00
5.028046798706054688e+01 1.341233825683593750e+01 3.713112115859985352e+00
5.100590133666992188e+01 1.367035293579101562e+01 3.836188077926635742e+00
5.067310333251953125e+01 1.360633659362792969e+01 3.954637289047241211e+00
4.827304458618164062e+01 6.988739776611328125e+01 4.695207118988037109e+00
4.824724197387695312e+01 6.913819885253906250e+01 4.712217330932617188e+00
4.844871902465820312e+01 6.999447631835937500e+01 4.965190887451171875e+00
4.844334411621093750e+01 6.924472808837890625e+01 4.956777572631835938e+00
5.710160827636718750e+01 5.260259246826171875e+01 -6.344200670719146729e-02
5.695518112182617188e+01 5.203086090087890625e+01 -7.945498079061508179e-02
5.761415100097656250e+01 5.239367294311523438e+01 6.694286316633224487e-02
5.746112060546875000e+01 5.188432693481445312e+01 7.700899243354797363e-02
4.589066314697265625e+01 1.778234100341796875e+01 3.916289091110229492e+00
4.582275009155273438e+01 1.726029205322265625e+01 3.887896060943603516e+00
4.629969406127929688e+01 1.760000801086425781e+01 3.906956911087036133e+00
4.623006439208984375e+01 1.716178131103515625e+01 3.861587285995483398e+00
5.411605453491210938e+01 5.096895599365234375e+01 3.916568756103515625e+00
5.397006607055664062e+01 5.041413497924804688e+01 3.945021629333496094e+00
5.449229812622070312e+01 5.063463592529296875e+01 3.858106851577758789e+00
5.433705139160156250e+01 5.008615493774414062e+01 3.884404897689819336e+00
4.173667526245117188e+01 2.862672615051269531e+01 -4.057620093226432800e-02
4.158309173583984375e+01 2.814696502685546875e+01 1.185822766274213791e-02
4.219588851928710938e+01 2.833973884582519531e+01 -1.926620677113533020e-02
4.203284072875976562e+01 2.784972190856933594e+01 2.969732321798801422e-02
3.883718490600585938e+01 4.781230163574218750e+01 1.650554418563842773e+00
3.889989089965820312e+01 4.744907379150390625e+01 1.854968547821044922e+00
3.884347152709960938e+01 4.781367874145507812e+01 2.133197069168090820e+00
3.890925979614257812e+01 4.745056915283203125e+01 2.333972454071044922e+00
6.006053543090820312e+01 5.030002593994140625e+01 -3.075832724571228027e-01
6.014860534667968750e+01 4.987526702880859375e+01 -2.995190024375915527e-01
6.011404037475585938e+01 5.032377243041992188e+01 1.788381487131118774e-01
6.018221664428710938e+01 4.989678573608398438e+01 2.066475450992584229e-01
5.204466247558593750e+01 8.160522460937500000e+01 3.377254486083984375e+00
5.189247131347656250e+01 8.116271209716796875e+01 3.359169244766235352e+00
5.253109741210937500e+01 8.158885192871093750e+01 3.409591197967529297e+00
5.234100723266601562e+01 8.112706756591796875e+01 3.428509235382080078e+00
4.268528366088867188e+01 3.173941612243652344e+01 -3.191876411437988281e-02
4.250049591064453125e+01 3.128857231140136719e+01 1.648116111755371094e-02
4.318352890014648438e+01 3.153754997253417969e+01 -3.639172390103340149e-02
4.299721908569335938e+01 3.106960678100585938e+01 5.483291461132466793e-04
5.629151916503906250e+01 5.608540725708007812e+01 2.540837526321411133e+00
5.606515502929687500e+01 5.602962875366210938e+01 2.776749610900878906e+00
5.648155593872070312e+01 5.581728744506835938e+01 2.664763927459716797e+00
5.627466201782226562e+01 5.572651290893554688e+01 2.912876129150390625e+00
4.612480163574218750e+01 1.788681030273437500e+01 3.890212774276733398e+00
4.607221603393554688e+01 1.738040161132812500e+01 3.851671695709228516e+00
4.652038574218750000e+01 1.769335937500000000e+01 3.922685861587524414e+00
4.645973587036132812e+01 1.726160621643066406e+01 3.880446672439575195e+00
4.952159881591796875e+01 1.409264659881591797e+01 -1.159834265708923340e-01
4.927818298339843750e+01 1.372849369049072266e+01 1.183766871690750122e-03
5.001310348510742188e+01 1.393483352661132812e+01 -4.130141437053680420e-02
4.979111099243164062e+01 1.356910037994384766e+01 7.047022134065628052e-02
4.999298858642578125e+01 3.091180992126464844e+01 -6.930079311132431030e-03
4.973557281494140625e+01 3.030359268188476562e+01 2.849513851106166840e-02
5.058774566650390625e+01 3.082008743286132812e+01 -5.773153901100158691e-02
5.030941390991210938e+01 3.024808692932128906e+01 -9.938371367752552032e-03
4.802245330810546875e+01 7.331896972656250000e+01 2.441324472427368164e+00
4.792601776123046875e+01 7.282277679443359375e+01 2.479745626449584961e+00
4.815830993652343750e+01 7.353872680664062500e+01 2.724321603775024414e+00
4.805760574340820312e+01 7.303700256347656250e+01 2.782919406890869141e+00
5.272992324829101562e+01 8.097499847412109375e+01 3.552150011062622070e+00
5.253290176391601562e+01 8.051389312744140625e+01 3.596855878829956055e+00
5.329722595214843750e+01 8.105083465576171875e+01 3.601235151290893555e+00
5.307093811035156250e+01 8.060224914550781250e+01 3.673941373825073242e+00
5.767817687988281250e+01 4.600589370727539062e+01 3.865702867507934570e+00
5.744293594360351562e+01 4.553466033935546875e+01 3.899504661560058594e+00
5.817571258544921875e+01 4.580570220947265625e+01 3.865598440170288086e+00
5.796582412719726562e+01 4.538961029052734375e+01 3.907552719116210938e+00
4.032075500488281250e+01 2.198510360717773438e+01 1.822309568524360657e-03
4.015981292724609375e+01 2.155691337585449219e+01 2.225575223565101624e-02
4.074111938476562500e+01 2.175568389892578125e+01 -2.272440493106842041e-02
4.057970428466796875e+01 2.135252189636230469e+01 -6.961074657738208771e-03
5.857161712646484375e+01 3.220812225341796875e+01 3.179469585418701172e+00
5.835807418823242188e+01 3.225674819946289062e+01 3.368296861648559570e+00
5.887826156616210938e+01 3.203945922851562500e+01 3.325654506683349609e+00
5.862028503417968750e+01 3.191533851623535156e+01 3.494709730148315430e+00
4.690003585815429688e+01 3.051788902282714844e+01 -3.593387454748153687e-02
4.678091430664062500e+01 2.992263984680175781e+01 -3.459770977497100830e-02
4.732667541503906250e+01 3.022495460510253906e+01 -2.987506985664367676e-02
4.720721435546875000e+01 2.959830665588378906e+01 -1.928832568228244781e-02
4.736360168457031250e+01 3.696938705444335938e+01 3.906688213348388672e+00
4.726757812500000000e+01 3.638937759399414062e+01 3.896589040756225586e+00
4.780574798583984375e+01 3.686034774780273438e+01 3.891673088073730469e+00
4.767428207397460938e+01 3.628174591064453125e+01 3.891401052474975586e+00
3.656544113159179688e+01 2.312266731262207031e+01 2.445484399795532227e+00
3.661165618896484375e+01 2.262002563476562500e+01 2.346735477447509766e+00
3.662192153930664062e+01 2.324681854248046875e+01 2.788978576660156250e+00
3.667108917236328125e+01 2.273752975463867188e+01 2.697207689285278320e+00
5.093385696411132812e+01 7.863932037353515625e+01 4.223854541778564453e+00
5.090944290161132812e+01 7.804002380371093750e+01 4.227934837341308594e+00
5.107536315917968750e+01 7.895758056640625000e+01 4.439184665679931641e+00
5.105292892456054688e+01 7.835703277587890625e+01 4.427690029144287109e+00
5.032403182983398438e+01 6.518618011474609375e+01 2.563783407211303711e+00
5.021137237548828125e+01 6.485379028320312500e+01 2.618172883987426758e+00
5.055112075805664062e+01 6.521292114257812500e+01 2.651516914367675781e+00
5.048730468750000000e+01 6.491390228271484375e+01 2.670764923095703125e+00
5.259872055053710938e+01 5.225455093383789062e+01 3.906729936599731445e+00
5.256837463378906250e+01 5.177974319458007812e+01 3.962644338607788086e+00
5.305216598510742188e+01 5.198429870605468750e+01 3.827919960021972656e+00
5.298600387573242188e+01 5.152640914916992188e+01 3.878902196884155273e+00
4.830567932128906250e+01 3.256895446777343750e+01 6.059005260467529297e+00
4.790627670288085938e+01 3.256856536865234375e+01 6.357375621795654297e+00
4.856135177612304688e+01 3.253271102905273438e+01 6.498250961303710938e+00
4.817749404907226562e+01 3.251767730712890625e+01 6.817966461181640625e+00
5.020539093017578125e+01 5.151126480102539062e+01 4.800791263580322266e+00
5.018924713134765625e+01 5.085472488403320312e+01 4.819516658782958984e+00
5.058625793457031250e+01 5.131943511962890625e+01 4.730329990386962891e+00
5.056405258178710938e+01 5.067028045654296875e+01 4.751942634582519531e+00
5.133412933349609375e+01 6.464759063720703125e+01 3.444577455520629883e+00
5.134370422363281250e+01 6.421640014648437500e+01 3.491415023803710938e+00
5.135548782348632812e+01 6.462239837646484375e+01 3.821581840515136719e+00
5.135904693603515625e+01 6.417874908447265625e+01 3.884665250778198242e+00
4.231677246093750000e+01 3.693429565429687500e+01 2.102646827697753906e+00
4.229145050048828125e+01 3.659196090698242188e+01 2.232828855514526367e+00
4.232825851440429688e+01 3.683218765258789062e+01 2.501162052154541016e+00
4.233026885986328125e+01 3.650749588012695312e+01 2.636130332946777344e+00
5.499194335937500000e+01 5.102779769897460938e+01 -1.879126578569412231e-02
5.470357894897460938e+01 5.055290985107421875e+01 6.316882371902465820e-02
5.547697448730468750e+01 5.104338455200195312e+01 -7.636578381061553955e-02
5.518075180053710938e+01 5.052821350097656250e+01 3.510154783725738525e-03
4.314000701904296875e+01 1.346874713897705078e+01 6.131884098052978516e+00
4.276048660278320312e+01 1.385909843444824219e+01 6.342143535614013672e+00
4.355770492553710938e+01 1.364683532714843750e+01 6.373984336853027344e+00
4.318693923950195312e+01 1.402275180816650391e+01 6.566711902618408203e+00
5.703904342651367188e+01 1.433346652984619141e+01 3.782225847244262695e+00
5.658907318115234375e+01 1.470866012573242188e+01 3.951052904129028320e+00
5.732854843139648438e+01 1.439745521545410156e+01 3.804400205612182617e+00
5.687720870971679688e+01 1.476299381256103516e+01 3.980230093002319336e+00
5.423736572265625000e+01 2.515399551391601562e+01 3.909292221069335938e+00
5.402428436279296875e+01 2.467471313476562500e+01 3.946763753890991211e+00
5.478559112548828125e+01 2.520701408386230469e+01 3.831577062606811523e+00
