-6.033453345298767090e-01 1.006639450788497925e-01 -9.416946768760681152e-02
5.835111737251281738e-01 -1.320343017578125000e-01 8.086299151182174683e-02
5.897328853607177734e-01 -1.156625300645828247e-01 7.188638299703598022e-02
5.949380397796630859e-01 -1.310359239578247070e-01 8.268293738365173340e-02
6.010487079620361328e-01 -1.147549375891685486e-01 7.728952914476394653e-02
1.113893091678619385e-01 8.191524446010589600e-02 9.196636080741882324e-02
1.033972054719924927e-01 1.027693301439285278e-01 9.341568499803543091e-02
1.322238296270370483e-01 8.425121009349822998e-02 9.326411783695220947e-02
1.248822510242462158e-01 1.058254539966583252e-01 9.527911990880966187e-02
3.114722371101379395e-01 -2.126507759094238281e-01 -1.343138664960861206e-01
3.210979700088500977e-01 -2.081659287214279175e-01 -1.385715752840042114e-01
3.248289525508880615e-01 -2.123461961746215820e-01 -1.250894069671630859e-01
3.323701322078704834e-01 -2.074235379695892334e-01 -1.261877119541168213e-01
3.190271556377410889e-01 -1.780133396387100220e-01 -7.813102006912231445e-02
3.105789124965667725e-01 -1.726575791835784912e-01 -6.453504413366317749e-02
3.312269449234008789e-01 -1.744605153799057007e-01 -6.929868459701538086e-02
3.249038159847259521e-01 -1.688519865274429321e-01 -5.850453302264213562e-02
3.131867051124572754e-01 2.879779040813446045e-01 -1.144456714391708374e-01
3.048299849033355713e-01 3.009897172451019287e-01 -1.103467345237731934e-01
3.334551453590393066e-01 2.854793369770050049e-01 -1.067289039492607117e-01
3.252332508563995361e-01 2.983558177947998047e-01 -1.023757234215736389e-01
5.619934201240539551e-01 -8.055046200752258301e-02 8.638049662113189697e-02
5.658100247383117676e-01 -6.761652231216430664e-02 8.286659419536590576e-02
5.816217064857482910e-01 -7.926476746797561646e-02 9.298307448625564575e-02
5.851339697837829590e-01 -6.588888913393020630e-02 8.939585089683532715e-02
-5.147805213928222656e-01 3.179072439670562744e-01 -1.079045683145523071e-01
-5.257593393325805664e-01 3.217392861843109131e-01 -9.539524465799331665e-02
-4.994900226593017578e-01 3.119762241840362549e-01 -9.958195686340332031e-02
-5.099317431449890137e-01 3.159188926219940186e-01 -8.717487007379531860e-02
1.598117649555206299e-01 2.615190148353576660e-01 -8.452787250280380249e-02
1.493256837129592896e-01 2.697331309318542480e-01 -7.129468023777008057e-02
1.733505725860595703e-01 2.620506584644317627e-01 -7.476998120546340942e-02
1.614468395709991455e-01 2.698617875576019287e-01 -6.212380900979042053e-02
-2.186487913131713867e-01 -3.213826194405555725e-02 -8.307072520256042480e-02
-2.093835771083831787e-01 -2.238097228109836578e-02 -9.475053846836090088e-02
-2.100361734628677368e-01 -3.351015597581863403e-02 -7.344777137041091919e-02
-2.018203139305114746e-01 -2.405478432774543762e-02 -8.479098975658416748e-02
-4.719240367412567139e-01 -1.419998854398727417e-01 -2.424801699817180634e-02
-4.880394637584686279e-01 -1.352746486663818359e-01 -1.207041740417480469e-02
-4.547617137432098389e-01 -1.503391563892364502e-01 -1.276465505361557007e-02
-4.721370339393615723e-01 -1.437350064516067505e-01 3.156196326017379761e-04
-4.141963720321655273e-01 1.192503124475479126e-01 -9.984501451253890991e-02
-4.128419160842895508e-01 1.339555978775024414e-01 -1.057241261005401611e-01
-3.956063091754913330e-01 1.195971295237541199e-01 -1.010722368955612183e-01
-3.975989818572998047e-01 1.349196583032608032e-01 -1.041800752282142639e-01
4.071208834648132324e-02 -1.329053938388824463e-01 2.659176848828792572e-02
2.615310996770858765e-02 -1.147816926240921021e-01 3.420251235365867615e-02
4.708001017570495605e-02 -1.261134296655654907e-01 3.387001529335975647e-02
3.306714072823524475e-02 -1.083237752318382263e-01 4.182436689734458923e-02
-1.021346300840377808e-01 1.374540179967880249e-01 7.179521024227142334e-02
-1.104651838541030884e-01 1.533049345016479492e-01 7.952637225389480591e-02
-8.635102957487106323e-02 1.387151032686233521e-01 7.339569181203842163e-02
-9.315749257802963257e-02 1.540530622005462646e-01 8.002021163702011108e-02
3.061998784542083740e-01 -6.413546949625015259e-02 -4.090004786849021912e-02
3.100141584873199463e-01 -4.725343361496925354e-02 -4.229128733277320862e-02
3.246490955352783203e-01 -6.839435547590255737e-02 -3.528463840484619141e-02
3.268221318721771240e-01 -5.185697972774505615e-02 -3.707688301801681519e-02
-4.946568608283996582e-01 1.832088083028793335e-01 -4.849169403314590454e-02
-5.029520392417907715e-01 1.944848895072937012e-01 -3.839543834328651428e-02
-4.799100458621978760e-01 1.903351545333862305e-01 -3.905660286545753479e-02
-4.889083504676818848e-01 2.020319551229476929e-01 -3.125168383121490479e-02
-1.296484470367431641e-01 3.071121573448181152e-01 -3.031229041516780853e-02
-1.229184940457344055e-01 3.132949173450469971e-01 -3.121693432331085205e-02
-1.133396178483963013e-01 3.052766621112823486e-01 -2.601912990212440491e-02
-1.142434701323509216e-01 3.092895746231079102e-01 -2.107299864292144775e-02
5.992262363433837891e-01 -2.104266285896301270e-01 -1.023937612771987915e-01
5.891786217689514160e-01 -2.030063718557357788e-01 -8.617463707923889160e-02
6.110043525695800781e-01 -2.029119431972503662e-01 -9.282585233449935913e-02
6.038092374801635742e-01 -1.951037794351577759e-01 -8.103682845830917358e-02
-1.260917037725448608e-01 2.863273918628692627e-01 -1.672968566417694092e-01
-1.261786520481109619e-01 3.032243549823760986e-01 -1.621185392141342163e-01
-1.080304011702537537e-01 2.885544896125793457e-01 -1.608003228902816772e-01
-1.075601726770401001e-01 3.067671656608581543e-01 -1.558672487735748291e-01
8.482313156127929688e-01 -2.769659757614135742e-01 -2.385799959301948547e-02
8.957127332687377930e-01 -2.683504223823547363e-01 -2.631153911352157593e-02
8.761375546455383301e-01 -2.698971927165985107e-01 -5.957210902124643326e-03
9.232166409492492676e-01 -2.612111270427703857e-01 -8.285887539386749268e-03
-1.532041728496551514e-01 -7.048868387937545776e-02 8.388611488044261932e-03
-1.543663293123245239e-01 -5.686680972576141357e-02 1.236727088689804077e-02
-1.387432962656021118e-01 -6.365620344877243042e-02 1.472610142081975937e-02
-1.391623169183731079e-01 -5.015647411346435547e-02 1.889350824058055878e-02
2.837238013744354248e-01 -1.306957453489303589e-01 6.361192464828491211e-02
2.798628509044647217e-01 -1.156918704509735107e-01 6.527932733297348022e-02
2.962219715118408203e-01 -1.273581236600875854e-01 6.449432671070098877e-02
2.927062809467315674e-01 -1.123534739017486572e-01 6.560695171356201172e-02
7.169311046600341797e-01 1.454939395189285278e-01 -5.136927589774131775e-02
7.053151130676269531e-01 1.593108177185058594e-01 -4.062279313802719116e-02
7.279861569404602051e-01 1.472438424825668335e-01 -4.177851602435112000e-02
7.162072658538818359e-01 1.605227589607238770e-01 -3.099720180034637451e-02
1.104439795017242432e-01 7.839319109916687012e-02 -1.973847858607769012e-02
9.879561513662338257e-02 8.942227065563201904e-02 -1.114789396524429321e-02
1.275333315134048462e-01 7.520753145217895508e-02 -1.014127023518085480e-02
1.179170757532119751e-01 8.805856108665466309e-02 -1.786134205758571625e-03
-1.393714845180511475e-01 1.109649986028671265e-01 -1.712232977151870728e-01
-1.441209614276885986e-01 1.314811557531356812e-01 -1.647705435752868652e-01
-1.228469833731651306e-01 1.127003058791160583e-01 -1.654735654592514038e-01
-1.282915174961090088e-01 1.319467425346374512e-01 -1.610513180494308472e-01
-4.015349745750427246e-01 -5.045470967888832092e-02 -7.274144142866134644e-02
-4.079267680644989014e-01 -3.342346101999282837e-02 -6.987728178501129150e-02
-3.924320340156555176e-01 -4.509672150015830994e-02 -6.782786548137664795e-02
-3.994576334953308105e-01 -2.751411497592926025e-02 -6.304939091205596924e-02
-8.431486040353775024e-02 1.787027865648269653e-01 -4.157837852835655212e-02
-8.192342519760131836e-02 1.917175352573394775e-01 -4.276246577501296997e-02
-6.875659525394439697e-02 1.816203296184539795e-01 -3.346922621130943298e-02
-6.490509212017059326e-02 1.953268945217132568e-01 -3.557158261537551880e-02
2.487199157476425171e-01 2.650938034057617188e-01 -3.005843050777912140e-02
2.315827608108520508e-01 2.720280885696411133e-01 -2.239429205656051636e-02
2.597759962081909180e-01 2.587155103683471680e-01 -1.572558656334877014e-02
2.401025444269180298e-01 2.665539979934692383e-01 -7.383713498711585999e-03
-3.071090281009674072e-01 1.295499652624130249e-01 -1.723122149705886841e-01
-3.038582801818847656e-01 1.473631560802459717e-01 -1.726686954498291016e-01
-2.899917066097259521e-01 1.315446943044662476e-01 -1.693783998489379883e-01
-2.880216240882873535e-01 1.496699154376983643e-01 -1.699156612157821655e-01
-2.645854949951171875e-01 5.630781874060630798e-02 4.858170822262763977e-02
-2.700704932212829590e-01 7.573319971561431885e-02 4.900357499718666077e-02
-2.499129474163055420e-01 5.844322964549064636e-02 4.300315305590629578e-02
-2.546779811382293701e-01 7.691533863544464111e-02 4.439917951822280884e-02
5.509839057922363281e-01 8.728975802659988403e-02 4.898173362016677856e-02
5.601465702056884766e-01 1.029115915298461914e-01 3.988613188266754150e-02
5.598954558372497559e-01 8.931013196706771851e-02 5.020792782306671143e-02
5.653216242790222168e-01 1.039463505148887634e-01 4.718000441789627075e-02
8.904930204153060913e-02 -2.021399587392807007e-01 5.132181569933891296e-02
7.410289347171783447e-02 -1.878895014524459839e-01 6.052287295460700989e-02
1.028235703706741333e-01 -1.993684023618698120e-01 6.381215900182723999e-02
8.971726894378662109e-02 -1.846843510866165161e-01 7.057005912065505981e-02
-1.092667952179908752e-01 8.265689015388488770e-02 -8.555241674184799194e-02
-1.182593405246734619e-01 9.428517520427703857e-02 -7.801580429077148438e-02
-9.974393993616104126e-02 8.684819936752319336e-02 -8.272427320480346680e-02
-1.076837927103042603e-01 9.803576022386550903e-02 -7.426822930574417114e-02
-2.625484392046928406e-02 2.860596776008605957e-01 8.758355677127838135e-02
-2.415042743086814880e-02 2.982485890388488770e-01 8.306049555540084839e-02
-6.961065344512462616e-03 2.810533940792083740e-01 9.188704937696456909e-02
-5.637799855321645737e-03 2.928973138332366943e-01 8.802050352096557617e-02
-5.655918270349502563e-02 3.073614537715911865e-01 -1.672019436955451965e-02
-7.128238677978515625e-02 3.098747432231903076e-01 -5.889605730772018433e-03
-4.591406136751174927e-02 3.037958741188049316e-01 -8.248215541243553162e-03
-5.935661867260932922e-02 3.064169585704803467e-01 2.738938666880130768e-03
2.336527854204177856e-01 -2.443593367934226990e-02 -7.308716326951980591e-02
2.384441792964935303e-01 -6.888843141496181488e-03 -7.577262818813323975e-02
2.489051520824432373e-01 -2.418593131005764008e-02 -6.812764704227447510e-02
2.535423934459686279e-01 -7.619727402925491333e-03 -7.102268189191818237e-02
1.027592420578002930e+00 1.197092607617378235e-01 5.793127790093421936e-02
1.022396445274353027e+00 1.483084857463836670e-01 6.070953607559204102e-02
1.031306028366088867e+00 1.156600564718246460e-01 8.804021775722503662e-02
1.026357412338256836e+00 1.430646777153015137e-01 9.093577414751052856e-02
-5.465177297592163086e-01 -5.086432769894599915e-02 -1.790176928043365479e-01
-5.474267005920410156e-01 -3.528669103980064392e-02 -1.735937595367431641e-01
-5.315809845924377441e-01 -4.835991933941841125e-02 -1.728308945894241333e-01
-5.328499078750610352e-01 -3.325749933719635010e-02 -1.677450984716415405e-01
-1.295137107372283936e-01 -1.048057973384857178e-01 -1.439705044031143188e-01
-1.291490346193313599e-01 -8.976303040981292725e-02 -1.457032859325408936e-01
-1.138187274336814880e-01 -9.687326848506927490e-02 -1.409855633974075317e-01
-1.185823678970336914e-01 -8.296805620193481445e-02 -1.384491920471191406e-01
7.867730408906936646e-02 1.429297327995300293e-01 2.356624789535999298e-02
7.044445723295211792e-02 1.581403762102127075e-01 2.399831078946590424e-02
9.775467962026596069e-02 1.431639045476913452e-01 2.423026971518993378e-02
8.727714419364929199e-02 1.590636223554611206e-01 2.654830925166606903e-02
-3.082387447357177734e-01 1.936962306499481201e-01 -4.194946214556694031e-02
-3.060563802719116211e-01 2.101801186800003052e-01 -4.497738182544708252e-02
-2.908580005168914795e-01 1.939702481031417847e-01 -3.851984068751335144e-02
-2.879118621349334717e-01 2.104524075984954834e-01 -4.211366176605224609e-02
-4.915080964565277100e-01 3.900446370244026184e-02 -1.116495355963706970e-01
-4.824025928974151611e-01 5.298734083771705627e-02 -1.229402422904968262e-01
-4.815168678760528564e-01 3.887818008661270142e-02 -9.934860467910766602e-02
-4.724742174148559570e-01 5.306991189718246460e-02 -1.111146956682205200e-01
6.789101958274841309e-01 1.354110091924667358e-01 -1.156853511929512024e-01
6.730038523674011230e-01 1.533780097961425781e-01 -1.096100136637687683e-01
7.013394236564636230e-01 1.296818405389785767e-01 -1.086838841438293457e-01
6.945450305938720703e-01 1.476519703865051270e-01 -1.035851091146469116e-01
3.237096667289733887e-01 1.763409376144409180e-01 -1.021985188126564026e-01
3.147367835044860840e-01 1.898296475410461426e-01 -9.838536381721496582e-02
3.385120928287506104e-01 1.754524856805801392e-01 -1.006030291318893433e-01
3.295427560806274414e-01 1.898950487375259399e-01 -9.645570069551467896e-02
-1.604520082473754883e-01 -1.078733205795288086e-01 1.181902736425399780e-02
-1.617949903011322021e-01 -9.504172205924987793e-02 1.237334217876195908e-02
-1.406827718019485474e-01 -1.070907413959503174e-01 1.276837103068828583e-02
-1.423363238573074341e-01 -9.434473514556884766e-02 1.323984935879707336e-02
3.547206819057464600e-01 2.494011223316192627e-01 1.039491221308708191e-02
3.349876999855041504e-01 2.555429637432098389e-01 2.225674502551555634e-02
3.697858452796936035e-01 2.493473738431930542e-01 2.112580463290214539e-02
3.509419560432434082e-01 2.559253871440887451e-01 3.036035783588886261e-02
2.939268648624420166e-01 2.288068681955337524e-01 7.368162274360656738e-03
2.865166366100311279e-01 2.357255518436431885e-01 1.126884203404188156e-02
3.081863224506378174e-01 2.251543998718261719e-01 2.034783549606800079e-02
2.994188964366912842e-01 2.317621260881423950e-01 2.555542998015880585e-02
-3.938072174787521362e-02 1.072716861963272095e-01 -1.721673160791397095e-01
-4.145898297429084778e-02 1.231990978121757507e-01 -1.709359586238861084e-01
-2.577210031449794769e-02 1.081609055399894714e-01 -1.709842234849929810e-01
-2.757277525961399078e-02 1.242746263742446899e-01 -1.691050231456756592e-01
-1.750202775001525879e-01 1.836828514933586121e-02 -1.742742657661437988e-01
-1.713325381278991699e-01 3.505932912230491638e-02 -1.690841764211654663e-01
-1.617470085620880127e-01 2.962802350521087646e-02 -1.689040809869766235e-01
-1.579762995243072510e-01 4.634269699454307556e-02 -1.635797321796417236e-01
-3.002337813377380371e-01 2.257155925035476685e-01 -1.509052515029907227e-01
-3.031765520572662354e-01 2.450061440467834473e-01 -1.493160873651504517e-01
-2.805278599262237549e-01 2.332149446010589600e-01 -1.520812064409255981e-01
-2.849172353744506836e-01 2.523918449878692627e-01 -1.488338559865951538e-01
1.405318230390548706e-01 -1.760780513286590576e-01 -1.345435231924057007e-01
1.423945128917694092e-01 -1.636618822813034058e-01 -1.397341340780258179e-01
1.599528938531875610e-01 -1.781791895627975464e-01 -1.279640197753906250e-01
1.587542593479156494e-01 -1.674707978963851929e-01 -1.316592395305633545e-01
-9.285174310207366943e-02 -9.314455837011337280e-02 -1.243954673409461975e-01
-1.057841852307319641e-01 -8.185754716396331787e-02 -1.150511279702186584e-01
-8.153736591339111328e-02 -8.118719607591629028e-02 -1.174500584602355957e-01
-9.571933746337890625e-02 -6.989311426877975464e-02 -1.070127263665199280e-01
1.108063384890556335e-01 2.208290398120880127e-01 8.825525641441345215e-02
1.135639473795890808e-01 2.368027716875076294e-01 8.436344563961029053e-02
1.353991925716400146e-01 2.186432033777236938e-01 9.418807178735733032e-02
1.384625434875488281e-01 2.362823188304901123e-01 9.041644632816314697e-02
2.973351776599884033e-01 2.696239352226257324e-01 3.214971721172332764e-02
2.764438986778259277e-01 2.754496037960052490e-01 4.339439794421195984e-02
3.162768483161926270e-01 2.657124698162078857e-01 4.304060339927673340e-02
2.951623499393463135e-01 2.725169360637664795e-01 5.407745018601417542e-02
2.207107096910476685e-01 -1.783019900321960449e-01 5.718407407402992249e-02
2.141393572092056274e-01 -1.660716533660888672e-01 6.190415099263191223e-02
2.368290424346923828e-01 -1.809160262346267700e-01 5.846309289336204529e-02
2.290904670953750610e-01 -1.687808483839035034e-01 6.275479495525360107e-02
1.138184368610382080e-01 5.232806503772735596e-02 -1.201160401105880737e-01
1.073911488056182861e-01 7.047224044799804688e-02 -1.182500571012496948e-01
1.218069344758987427e-01 5.481126904487609863e-02 -1.157589107751846313e-01
1.178477257490158081e-01 7.367948442697525024e-02 -1.155575513839721680e-01
6.803274750709533691e-01 -1.636866182088851929e-01 6.495177745819091797e-02
6.718820929527282715e-01 -1.454847455024719238e-01 6.773682683706283569e-02
6.939608454704284668e-01 -1.608309596776962280e-01 6.679206341505050659e-02
6.849489212036132812e-01 -1.438602060079574585e-01 7.113321870565414429e-02
-2.357030212879180908e-01 -7.739081233739852905e-02 -1.596278697252273560e-01
-2.396340817213058472e-01 -6.381169706583023071e-02 -1.586057096719741821e-01
-2.255732119083404541e-01 -7.856692373752593994e-02 -1.566878408193588257e-01
-2.305180877447128296e-01 -6.403192132711410522e-02 -1.558241993188858032e-01
-4.655504226684570312e-01 -3.522337228059768677e-02 -1.955617368221282959e-01
-4.680434167385101318e-01 -1.884429529309272766e-02 -1.936337649822235107e-01
-4.447392225265502930e-01 -3.031556867063045502e-02 -1.889729648828506470e-01
-4.475186765193939209e-01 -1.309696864336729050e-02 -1.875793784856796265e-01
8.131503462791442871e-01 1.291376799345016479e-01 1.314204782247543335e-01
8.108213543891906738e-01 1.493525207042694092e-01 1.306492090225219727e-01
8.324031233787536621e-01 1.340864300727844238e-01 1.344590336084365845e-01
8.298633098602294922e-01 1.543833017349243164e-01 1.334979236125946045e-01
2.177484780550003052e-01 1.884054392576217651e-01 3.343178331851959229e-02
2.336131930351257324e-01 1.994846016168594360e-01 2.279277704656124115e-02
2.278425693511962891e-01 1.941622793674468994e-01 4.543639719486236572e-02
2.442619800567626953e-01 2.053050845861434937e-01 3.480939939618110657e-02
1.473868638277053833e-02 2.887366116046905518e-01 -1.697375029325485229e-01
1.018079183995723724e-02 3.010523319244384766e-01 -1.580854654312133789e-01
3.071691468358039856e-02 2.899927198886871338e-01 -1.566637754440307617e-01
2.504123933613300323e-02 3.002615869045257568e-01 -1.428140699863433838e-01
6.894574761390686035e-01 -5.740775913000106812e-02 -8.710617572069168091e-02
6.940596699714660645e-01 -3.920011967420578003e-02 -9.037017077207565308e-02
7.028821110725402832e-01 -5.529265105724334717e-02 -8.978707343339920044e-02
7.075982689857482910e-01 -3.701877221465110779e-02 -9.293577820062637329e-02
5.065006017684936523e-01 -2.291751950979232788e-01 -1.525884568691253662e-01
5.031613111495971680e-01 -2.138964235782623291e-01 -1.560276895761489868e-01
5.282238125801086426e-01 -2.324526309967041016e-01 -1.513708829879760742e-01
5.237557888031005859e-01 -2.165109366178512573e-01 -1.538397669792175293e-01
-4.050978720188140869e-01 -1.459287256002426147e-01 -1.881565451622009277e-01
-4.172662496566772461e-01 -1.364396512508392334e-01 -1.790550202131271362e-01
-3.907792568206787109e-01 -1.471247076988220215e-01 -1.814257800579071045e-01
-4.033857882022857666e-01 -1.385325640439987183e-01 -1.710303127765655518e-01
6.543155312538146973e-01 -7.853341847658157349e-02 -5.120246857404708862e-02
6.573320031166076660e-01 -6.161461025476455688e-02 -5.311407893896102905e-02
6.694796085357666016e-01 -7.558219879865646362e-02 -4.781945794820785522e-02
6.725843548774719238e-01 -5.836740881204605103e-02 -4.993695393204689026e-02
2.210669070482254028e-01 6.301402300596237183e-02 -6.296174228191375732e-02
2.258980721235275269e-01 8.054047822952270508e-02 -6.144414469599723816e-02
2.356361299753189087e-01 6.836869567632675171e-02 -6.057931110262870789e-02
2.373004555702209473e-01 8.524829894304275513e-02 -5.941694229841232300e-02
-2.958612442016601562e-01 -3.504458069801330566e-02 -1.602118313312530518e-01
-2.940826117992401123e-01 -2.081646397709846497e-02 -1.567426025867462158e-01
-2.804138064384460449e-01 -2.674742229282855988e-02 -1.550153344869613647e-01
-2.779239416122436523e-01 -1.331978570669889450e-02 -1.511065214872360229e-01
-5.863195061683654785e-01 3.554587960243225098e-01 -1.033448725938796997e-01
-6.044344305992126465e-01 3.646714687347412109e-01 -9.166133403778076172e-02
-5.829320549964904785e-01 3.581962287425994873e-01 -9.411697089672088623e-02
-5.978731513023376465e-01 3.663809299468994141e-01 -8.089102059602737427e-02
-1.655066609382629395e-01 -1.303824931383132935e-01 -2.787818200886249542e-02
-1.582454890012741089e-01 -1.162035316228866577e-01 -3.551938012242317200e-02
-1.522571295499801636e-01 -1.331845819950103760e-01 -2.581473439931869507e-02
-1.427899301052093506e-01 -1.199040487408638000e-01 -3.383391723036766052e-02
1.981806606054306030e-01 1.448121964931488037e-01 -7.843643426895141602e-02
1.972274929285049438e-01 1.606642305850982666e-01 -7.812733203172683716e-02
2.103393822908401489e-01 1.479075849056243896e-01 -7.042079418897628784e-02
2.094086557626724243e-01 1.648653298616409302e-01 -7.166293263435363770e-02
1.844780333340167999e-02 1.177813019603490829e-02 -1.709727197885513306e-01
1.996623724699020386e-02 3.041377104818820953e-02 -1.653628349304199219e-01
3.161966055631637573e-02 2.018828503787517548e-02 -1.610988527536392212e-01
3.376286849379539490e-02 3.919727727770805359e-02 -1.560462564229965210e-01
6.033726334571838379e-01 -2.000923305749893188e-01 9.918984025716781616e-02
5.994907021522521973e-01 -1.834564357995986938e-01 1.010865271091461182e-01
6.254185438156127930e-01 -2.001535892486572266e-01 9.620213508605957031e-02
6.198471188545227051e-01 -1.840592473745346069e-01 9.862504899501800537e-02
2.262606471776962280e-01 -4.691542685031890869e-02 6.852652132511138916e-02
2.264555543661117554e-01 -2.767781540751457214e-02 6.920534372329711914e-02
2.412311285734176636e-01 -3.961489349603652954e-02 6.935754418373107910e-02
2.414426952600479126e-01 -1.967824250459671021e-02 7.072180509567260742e-02
-2.463593035936355591e-01 -1.354015916585922241e-01 -1.880676895380020142e-01
-2.468546926975250244e-01 -1.232014596462249756e-01 -1.858923137187957764e-01
-2.286622077226638794e-01 -1.381715536117553711e-01 -1.862318068742752075e-01
-2.318044602870941162e-01 -1.279053390026092529e-01 -1.816217601299285889e-01
-3.867337405681610107e-01 -1.047643721103668213e-01 5.729270353913307190e-02
-3.876539468765258789e-01 -8.920037746429443359e-02 6.157950311899185181e-02
-3.677165210247039795e-01 -1.008689999580383301e-01 5.798349156975746155e-02
-3.702818751335144043e-01 -8.510251343250274658e-02 6.198015064001083374e-02
-6.421078443527221680e-01 7.618040591478347778e-02 -8.783619850873947144e-02
-6.360600590705871582e-01 9.495403617620468140e-02 -8.874196559190750122e-02
-6.367873549461364746e-01 8.597458899021148682e-02 -7.441752403974533081e-02
-6.298869848251342773e-01 1.047652959823608398e-01 -7.541783154010772705e-02
-1.687229275703430176e-01 3.108217716217041016e-01 -7.259840518236160278e-02
-1.735419332981109619e-01 3.165017664432525635e-01 -6.264907866716384888e-02
-1.607429236173629761e-01 3.157017230987548828e-01 -6.337123364210128784e-02
-1.565892994403839111e-01 3.223715722560882568e-01 -6.048318371176719666e-02
6.795467138290405273e-01 1.158051937818527222e-02 -1.293098628520965576e-01
6.819275021553039551e-01 2.784047648310661316e-02 -1.289995312690734863e-01
6.940392851829528809e-01 1.731741800904273987e-02 -1.274231970310211182e-01
6.959790587425231934e-01 3.453652188181877136e-02 -1.275935769081115723e-01
4.739512205123901367e-01 8.723143488168716431e-02 -9.765591472387313843e-02
4.667427539825439453e-01 1.017173230648040771e-01 -9.293647855520248413e-02
4.875181019306182861e-01 9.528884291648864746e-02 -9.139041602611541748e-02
4.871661365032196045e-01 1.101686209440231323e-01 -8.898145705461502075e-02
-6.909588575363159180e-01 -8.938837796449661255e-03 -3.264943510293960571e-02
-6.826037168502807617e-01 8.925387635827064514e-03 -3.459345549345016479e-02
-6.789047718048095703e-01 -1.591174164786934853e-03 -1.884202100336551666e-02
-6.703599095344543457e-01 1.452640537172555923e-02 -2.100527845323085785e-02
8.451254665851593018e-02 -1.930668205022811890e-01 -4.143035411834716797e-02
8.057746291160583496e-02 -1.810902953147888184e-01 -4.112320393323898315e-02
9.908545017242431641e-02 -1.957756280899047852e-01 -3.702105209231376648e-02
9.097976237535476685e-02 -1.837216019630432129e-01 -3.362886980175971985e-02
-7.625775039196014404e-02 2.586441636085510254e-01 3.758796676993370056e-02
-7.237593084573745728e-02 2.684656977653503418e-01 2.979067713022232056e-02
-6.334006786346435547e-02 2.590878605842590332e-01 4.338881373405456543e-02
-6.062154471874237061e-02 2.700820565223693848e-01 3.629114851355552673e-02
5.607721209526062012e-01 9.456722438335418701e-02 -1.293342262506484985e-01
5.548149943351745605e-01 1.137233078479766846e-01 -1.253641992807388306e-01
5.798365473747253418e-01 9.582334011793136597e-02 -1.213503777980804443e-01
5.760950446128845215e-01 1.152107343077659607e-01 -1.187833473086357117e-01
1.020094037055969238e+00 8.950980380177497864e-03 -1.029524952173233032e-01
1.022100925445556641e+00 4.934016615152359009e-02 -9.807977080345153809e-02
1.029074907302856445e+00 2.117819897830486298e-02 -7.661554962396621704e-02
1.031432509422302246e+00 6.128320842981338501e-02 -7.153934985399246216e-02
-4.245560467243194580e-01 1.570643186569213867e-01 -3.162567317485809326e-02
-4.230424165725708008e-01 1.739868968725204468e-01 -3.228544443845748901e-02
-4.108719527721405029e-01 1.579580903053283691e-01 -2.781429514288902283e-02
-4.078846871852874756e-01 1.743721961975097656e-01 -2.924257330596446991e-02
1.733873635530471802e-01 -1.497000455856323242e-01 -9.209343791007995605e-02
1.760555058717727661e-01 -1.384145021438598633e-01 -9.691393375396728516e-02
1.810456663370132446e-01 -1.522866040468215942e-01 -8.395962417125701904e-02
1.831634938716888428e-01 -1.391650736331939697e-01 -9.032230079174041748e-02
2.083799093961715698e-01 -2.401748485863208771e-02 -1.557517647743225098e-01
2.057000100612640381e-01 -3.857227042317390442e-03 -1.560763120651245117e-01
2.238088399171829224e-01 -1.991218328475952148e-02 -1.524801105260848999e-01
2.210563570261001587e-01 9.505078196525573730e-06 -1.528596878051757812e-01
6.171993538737297058e-02 -5.044506490230560303e-02 7.853347063064575195e-02
5.747034773230552673e-02 -3.289203345775604248e-02 8.108197152614593506e-02
7.596973329782485962e-02 -4.127436876296997070e-02 7.642012834548950195e-02
7.114543765783309937e-02 -2.315447293221950531e-02 7.785334438085556030e-02
-8.937980234622955322e-02 -6.320051848888397217e-02 -5.933208018541336060e-02
-9.908778965473175049e-02 -4.833517596125602722e-02 -5.221021920442581177e-02
-7.863742858171463013e-02 -5.678719282150268555e-02 -5.294065922498703003e-02
-8.688833564519882202e-02 -4.103951901197433472e-02 -4.622119665145874023e-02
-4.660035371780395508e-01 -1.435859203338623047e-01 -3.976183757185935974e-02
-4.810253977775573730e-01 -1.347700953483581543e-01 -2.998748049139976501e-02
-4.524577558040618896e-01 -1.504736542701721191e-01 -2.550207078456878662e-02
-4.684331715106964111e-01 -1.429243832826614380e-01 -1.346321590244770050e-02
7.167162001132965088e-02 -5.670729279518127441e-02 -1.711277961730957031e-01
6.920186430215835571e-02 -3.869227692484855652e-02 -1.696793437004089355e-01
9.001698344945907593e-02 -5.171336606144905090e-02 -1.672313958406448364e-01
8.800840377807617188e-02 -3.251246362924575806e-02 -1.656620055437088013e-01
-5.265029072761535645e-01 -8.485820889472961426e-02 -8.825867623090744019e-02
-5.183189511299133301e-01 -7.215949147939682007e-02 -9.920725226402282715e-02
-5.182135105133056641e-01 -8.578155189752578735e-02 -8.509925007820129395e-02
-5.100966691970825195e-01 -7.142840325832366943e-02 -9.594563394784927368e-02
8.017560243606567383e-01 -1.369456052780151367e-01 1.050304546952247620e-01
8.014860153198242188e-01 -1.169622540473937988e-01 1.046378761529922485e-01
8.154466152191162109e-01 -1.293521821498870850e-01 1.110657155513763428e-01
8.156284689903259277e-01 -1.085237264633178711e-01 1.095164194703102112e-01
1.085783690214157104e-01 -4.920746013522148132e-02 -1.345730423927307129e-01
1.066916882991790771e-01 -3.096793964505195618e-02 -1.337791830301284790e-01
1.237329393625259399e-01 -3.999375924468040466e-02 -1.330361068248748779e-01
1.214476823806762695e-01 -2.261783927679061890e-02 -1.325464248657226562e-01
-3.993523418903350830e-01 -5.264293402433395386e-03 -7.684058696031570435e-02
-3.965260386466979980e-01 1.161219272762537003e-02 -8.011043071746826172e-02
-3.893113434314727783e-01 5.120025016367435455e-04 -6.962566822767257690e-02
-3.856232166290283203e-01 1.821383088827133179e-02 -7.198225706815719604e-02
-5.559001564979553223e-01 -9.469314664602279663e-02 -7.954788208007812500e-02
-5.479356646537780762e-01 -8.124759793281555176e-02 -9.095695614814758301e-02
-5.432639718055725098e-01 -9.603383392095565796e-02 -7.184340059757232666e-02
-5.349850058555603027e-01 -8.376639336347579956e-02 -8.350521326065063477e-02
-3.292096555233001709e-01 -1.591253131628036499e-01 -1.756108105182647705e-01
-3.418869376182556152e-01 -1.510114520788192749e-01 -1.692841202020645142e-01
-3.120190501213073730e-01 -1.689379960298538208e-01 -1.677073240280151367e-01
-3.240292668342590332e-01 -1.599836945533752441e-01 -1.627426147460937500e-01
8.580517023801803589e-03 2.893383204936981201e-01 5.465061590075492859e-02
5.774149671196937561e-03 2.990678846836090088e-01 5.166129767894744873e-02
2.844267338514328003e-02 2.826954126358032227e-01 6.048673018813133240e-02
2.402470819652080536e-02 2.922860085964202881e-01 5.825262889266014099e-02
8.638129830360412598e-01 -2.743654251098632812e-01 -8.894887566566467285e-02
8.896721005439758301e-01 -2.620331048965454102e-01 -9.447452425956726074e-02
8.900998830795288086e-01 -2.695235610008239746e-01 -7.316572964191436768e-02
9.222041964530944824e-01 -2.578680813312530518e-01 -7.604673504829406738e-02
-6.721463054418563843e-02 2.780812382698059082e-01 -4.547323286533355713e-02
-7.945811748504638672e-02 2.816469669342041016e-01 -3.408439829945564270e-02
-5.400808900594711304e-02 2.735973298549652100e-01 -3.714433312416076660e-02
-6.641834974288940430e-02 2.762057483196258545e-01 -2.568559721112251282e-02
7.904256582260131836e-01 -1.964897364377975464e-01 -9.824388474225997925e-02
7.943727970123291016e-01 -1.762986779212951660e-01 -9.975542128086090088e-02
7.968349456787109375e-01 -1.825335472822189331e-01 -8.820105344057083130e-02
7.993211746215820312e-01 -1.626110523939132690e-01 -8.822762966156005859e-02
7.063042521476745605e-01 1.174625754356384277e-01 -1.296866834163665771e-01
6.982147693634033203e-01 1.359614878892898560e-01 -1.250896155834197998e-01
7.262304425239562988e-01 1.104001104831695557e-01 -1.223635748028755188e-01
7.179149985313415527e-01 1.293575763702392578e-01 -1.200484558939933777e-01
2.978179156780242920e-01 2.884005606174468994e-01 -1.150819063186645508e-01
2.898678183555603027e-01 3.022021353244781494e-01 -1.107417568564414978e-01
3.172111213207244873e-01 2.871681451797485352e-01 -1.082585006952285767e-01
3.090266287326812744e-01 3.004481792449951172e-01 -1.043634861707687378e-01
5.421522855758666992e-01 5.871740169823169708e-03 -1.407826840877532959e-01
5.394917726516723633e-01 2.465751767158508301e-02 -1.392205506563186646e-01
5.619081258773803711e-01 1.185310445725917816e-02 -1.418885439634323120e-01
5.575383901596069336e-01 3.051589801907539368e-02 -1.393709182739257812e-01
-2.229389548301696777e-02 1.907030045986175537e-01 -2.801250852644443512e-02
-1.063352264463901520e-02 2.053096145391464233e-01 -3.338795900344848633e-02
-1.270173862576484680e-02 1.964744776487350464e-01 -1.861209794878959656e-02
-3.857288509607315063e-03 2.104905992746353149e-01 -2.291637100279331207e-02
-1.627354919910430908e-01 2.376300096511840820e-01 5.284497141838073730e-02
-1.580536663532257080e-01 2.536518871784210205e-01 4.760012030601501465e-02
-1.480345427989959717e-01 2.372281998395919800e-01 5.144640803337097168e-02
-1.430644243955612183e-01 2.536186277866363525e-01 4.595189169049263000e-02
-3.471605777740478516e-01 4.641408473253250122e-02 6.332335621118545532e-02
-3.446624577045440674e-01 6.364238262176513672e-02 6.170367822051048279e-02
-3.259713649749755859e-01 4.944944381713867188e-02 6.105691194534301758e-02
-3.221653103828430176e-01 6.629644334316253662e-02 5.876015126705169678e-02
-2.091147601604461670e-01 -1.628570258617401123e-01 5.975215509533882141e-02
-2.170242667198181152e-01 -1.479205936193466187e-01 6.732808798551559448e-02
-1.887542754411697388e-01 -1.616626977920532227e-01 6.232096254825592041e-02
-1.976854503154754639e-01 -1.477412134408950806e-01 7.081546634435653687e-02
7.620665431022644043e-01 -2.278449684381484985e-01 -1.243661046028137207e-01
7.660156488418579102e-01 -2.066265195608139038e-01 -1.268125474452972412e-01
7.699947953224182129e-01 -2.242931276559829712e-01 -1.166192665696144104e-01
7.741943597793579102e-01 -2.033457756042480469e-01 -1.191580891609191895e-01
8.039314150810241699e-01 -2.652735114097595215e-01 -1.062066778540611267e-01
8.201003670692443848e-01 -2.497902512550354004e-01 -1.119320988655090332e-01
8.134914636611938477e-01 -2.644640803337097168e-01 -9.312821179628372192e-02
8.357497453689575195e-01 -2.519851028919219971e-01 -9.924902766942977905e-02
7.393640279769897461e-01 2.367221713066101074e-01 -3.363292664289474487e-02
7.294854521751403809e-01 2.423157989978790283e-01 -2.009990811347961426e-02
7.505672574043273926e-01 2.368660122156143188e-01 -1.776772737503051758e-02
7.463499903678894043e-01 2.433616071939468384e-01 -1.172673515975475311e-02
2.086901217699050903e-01 -1.669392883777618408e-01 -1.690784841775894165e-01
2.098935991525650024e-01 -1.517059653997421265e-01 -1.682649254798889160e-01
2.291019111871719360e-01 -1.702900826930999756e-01 -1.729099899530410767e-01
2.301872074604034424e-01 -1.553580909967422485e-01 -1.716986596584320068e-01
4.337774217128753662e-01 -3.451183438301086426e-02 -1.409109234809875488e-01
4.305167496204376221e-01 -1.129905506968498230e-02 -1.418632119894027710e-01
4.543327689170837402e-01 -3.218054771423339844e-02 -1.429100632667541504e-01
4.522384405136108398e-01 -9.181374683976173401e-03 -1.428507566452026367e-01
-2.650057971477508545e-01 9.053992480039596558e-02 6.690993905067443848e-02
-2.674123346805572510e-01 1.092781350016593933e-01 7.027233392000198364e-02
-2.468565702438354492e-01 9.602654725313186646e-02 6.799288094043731689e-02
-2.492828816175460815e-01 1.156127676367759705e-01 7.185941934585571289e-02
7.401897907257080078e-01 -1.055607646703720093e-01 7.064416259527206421e-02
7.356669902801513672e-01 -9.021518379449844360e-02 7.441044598817825317e-02
7.484911084175109863e-01 -1.030836030840873718e-01 7.793635874986648560e-02
7.467295527458190918e-01 -8.592338114976882935e-02 7.797332853078842163e-02
8.002957105636596680e-01 -4.066202789545059204e-02 -7.697971165180206299e-02
8.022265434265136719e-01 -1.966730318963527679e-02 -8.098258823156356812e-02
8.012438416481018066e-01 -2.857906743884086609e-02 -6.538305431604385376e-02
8.036445379257202148e-01 -8.054323494434356689e-03 -6.966138631105422974e-02
1.707750409841537476e-01 1.712656468152999878e-01 -8.810058981180191040e-02
1.733819395303726196e-01 1.874063313007354736e-01 -8.818323165178298950e-02
1.863733381032943726e-01 1.733872592449188232e-01 -8.161064982414245605e-02
1.870540231466293335e-01 1.901841163635253906e-01 -8.384479582309722900e-02
-5.751466155052185059e-01 1.483499854803085327e-01 -8.111233264207839966e-02
-5.833026170730590820e-01 1.655294895172119141e-01 -7.607040554285049438e-02
-5.650238394737243652e-01 1.527109444141387939e-01 -7.728970050811767578e-02
-5.754489302635192871e-01 1.684910058975219727e-01 -7.044667005538940430e-02
-1.956710126250982285e-03 1.597479283809661865e-01 -9.492413699626922607e-02
2.892846008762717247e-03 1.770024150609970093e-01 -1.007687747478485107e-01
1.319003757089376450e-02 1.629136502742767334e-01 -9.166717529296875000e-02
1.697237603366374969e-02 1.800278574228286743e-01 -9.651445597410202026e-02
5.503470301628112793e-01 -1.736836880445480347e-02 4.116669297218322754e-02
5.472829341888427734e-01 7.947459816932678223e-04 4.068886488676071167e-02
5.579285621643066406e-01 -1.535560190677642822e-02 5.318186804652214050e-02
5.596889257431030273e-01 4.683176986873149872e-03 5.077557265758514404e-02
-4.166861772537231445e-01 -1.519971191883087158e-01 -1.047284621745347977e-02
-4.311122298240661621e-01 -1.419975161552429199e-01 3.296297043561935425e-03
-4.022237360477447510e-01 -1.523184031248092651e-01 -2.330491319298744202e-03
-4.149091839790344238e-01 -1.420975029468536377e-01 1.081792451441287994e-02
3.423313796520233154e-01 2.708770632743835449e-01 7.587253302335739136e-02
3.246684074401855469e-01 2.788259387016296387e-01 8.481987565755844116e-02
3.607609868049621582e-01 2.658630311489105225e-01 8.535367250442504883e-02
3.446264863014221191e-01 2.745231986045837402e-01 9.403770416975021362e-02
7.542648315429687500e-01 1.264235675334930420e-01 1.181275248527526855e-01
7.522907853126525879e-01 1.454010158777236938e-01 1.131194606423377991e-01
7.723577618598937988e-01 1.265882402658462524e-01 1.173659339547157288e-01
7.689150571823120117e-01 1.455442756414413452e-01 1.149358227849006653e-01
-5.640587210655212402e-01 1.543836146593093872e-01 6.299676746129989624e-02
-5.631572008132934570e-01 1.687149256467819214e-01 6.702362746000289917e-02
-5.508899092674255371e-01 1.664673388004302979e-01 6.536925584077835083e-02
-5.525665283203125000e-01 1.828119307756423950e-01 6.877177208662033081e-02
-2.917278409004211426e-01 -1.254626661539077759e-01 -1.906700134277343750e-01
-2.868678271770477295e-01 -1.091465726494789124e-01 -1.903674751520156860e-01
-2.734429836273193359e-01 -1.247628405690193176e-01 -1.939287036657333374e-01
-2.700428068637847900e-01 -1.099906489253044128e-01 -1.929453164339065552e-01
-4.991277679800987244e-02 2.686653733253479004e-01 8.389582484960556030e-02
-4.780912771821022034e-02 2.804426252841949463e-01 7.919792830944061279e-02
-3.226067498326301575e-02 2.620835304260253906e-01 8.978153765201568604e-02
-3.017412498593330383e-02 2.746002078056335449e-01 8.560363203287124634e-02
-1.597031950950622559e-01 -1.314705759286880493e-01 6.548424065113067627e-02
-1.690375357866287231e-01 -1.167153120040893555e-01 7.231766730546951294e-02
-1.423787027597427368e-01 -1.253284811973571777e-01 6.460251659154891968e-02
-1.518124043941497803e-01 -1.104700863361358643e-01 7.139283418655395508e-02
8.722335696220397949e-01 5.370834097266197205e-02 1.392589062452316284e-01
8.680344223976135254e-01 7.864867895841598511e-02 1.407782137393951416e-01
8.917927742004394531e-01 5.180864781141281128e-02 1.360958069562911987e-01
8.886015415191650391e-01 8.062060177326202393e-02 1.391494125127792358e-01
7.176436781883239746e-01 7.029385119676589966e-02 7.169582694768905640e-02
7.108467817306518555e-01 8.846540749073028564e-02 7.160769402980804443e-02
7.299159765243530273e-01 6.596487015485763550e-02 7.533723115921020508e-02
7.230821847915649414e-01 8.412094414234161377e-02 7.554436475038528442e-02
7.658383846282958984e-01 2.251341789960861206e-01 -8.878499269485473633e-03
7.647678852081298828e-01 2.325281947851181030e-01 -9.129192680120468140e-03
7.793278098106384277e-01 2.219314128160476685e-01 4.687555134296417236e-03
7.826942205429077148e-01 2.311399281024932861e-01 -2.642060397192835808e-03
-4.881207644939422607e-01 -1.065393313765525818e-01 -1.509766280651092529e-01
-4.945382475852966309e-01 -8.883635699748992920e-02 -1.464835405349731445e-01
-4.746932983398437500e-01 -9.912764281034469604e-02 -1.452307254076004028e-01
-4.805778861045837402e-01 -8.073186129331588745e-02 -1.412740200757980347e-01
-1.572490781545639038e-01 -4.065205901861190796e-02 -1.012262627482414246e-01
-1.528444439172744751e-01 -3.065396845340728760e-02 -1.033595129847526550e-01
-1.444848030805587769e-01 -3.582292050123214722e-02 -9.136285632848739624e-02
-1.440097987651824951e-01 -2.626574784517288208e-02 -8.870811015367507935e-02
-5.385470390319824219e-01 2.472261637449264526e-01 -1.432755589485168457e-01
-5.490085482597351074e-01 2.634682655334472656e-01 -1.347290426492691040e-01
-5.246515274047851562e-01 2.597123980522155762e-01 -1.383694559335708618e-01
-5.338764190673828125e-01 2.749896943569183350e-01 -1.286348104476928711e-01
-6.755306720733642578e-01 1.756052821874618530e-01 2.444395422935485840e-02
-6.738634705543518066e-01 1.948635876178741455e-01 2.634656801819801331e-02
-6.635235548019409180e-01 1.809200048446655273e-01 2.612032368779182434e-02
-6.614978909492492676e-01 1.991599947214126587e-01 2.877883799374103546e-02
-3.999840617179870605e-01 4.073110967874526978e-02 -6.183712929487228394e-02
-3.964889049530029297e-01 5.670649185776710510e-02 -6.804195791482925415e-02
-3.889568150043487549e-01 4.304523766040802002e-02 -5.532721430063247681e-02
-3.856357634067535400e-01 5.923108384013175964e-02 -6.172769889235496521e-02
-1.134608462452888489e-01 1.724907755851745605e-01 5.058749765157699585e-02
-1.181071251630783081e-01 1.877358853816986084e-01 5.420530587434768677e-02
-1.015894562005996704e-01 1.690112650394439697e-01 5.196787416934967041e-02
-1.056972071528434753e-01 1.843812614679336548e-01 5.541858077049255371e-02
-5.765625834465026855e-01 -1.036654636263847351e-01 4.608129337430000305e-02
-5.789626836776733398e-01 -8.984531462192535400e-02 4.723214730620384216e-02
-5.620276927947998047e-01 -9.665200859308242798e-02 4.669093713164329529e-02
-5.652145743370056152e-01 -8.083365857601165771e-02 4.667618870735168457e-02
3.873727619647979736e-01 -2.206074297428131104e-01 -1.268113553524017334e-01
3.957220911979675293e-01 -2.113390564918518066e-01 -1.411904990673065186e-01
4.063100218772888184e-01 -2.245412468910217285e-01 -1.171001866459846497e-01
4.118594825267791748e-01 -2.154426574707031250e-01 -1.293986141681671143e-01
-6.936190128326416016e-01 -6.597695499658584595e-02 5.140650086104869843e-03
-6.890331506729125977e-01 -5.023293197154998779e-02 2.553744241595268250e-03
-6.830102801322937012e-01 -6.006680801510810852e-02 1.332298666238784790e-02
-6.781867146492004395e-01 -4.566754400730133057e-02 9.580565616488456726e-03
-3.125251233577728271e-01 -9.176616370677947998e-02 -1.914104819297790527e-01
-3.083335161209106445e-01 -7.520313560962677002e-02 -1.899992972612380981e-01
-2.898349761962890625e-01 -9.345066547393798828e-02 -1.957129091024398804e-01
-2.875905036926269531e-01 -7.714028656482696533e-02 -1.948783248662948608e-01
5.718154907226562500e-01 -1.099838167428970337e-01 -3.095723502337932587e-02
5.768821835517883301e-01 -9.734264016151428223e-02 -3.121928498148918152e-02
5.833610296249389648e-01 -1.022867634892463684e-01 -2.463975362479686737e-02
5.891300439834594727e-01 -8.884400874376296997e-02 -2.524396777153015137e-02
6.722366809844970703e-01 5.731150507926940918e-02 2.767997793853282928e-03
6.660875678062438965e-01 6.435000151395797729e-02 1.509904768317937851e-02
6.859230995178222656e-01 5.844085663557052612e-02 1.171171106398105621e-02
6.764131784439086914e-01 6.551059335470199585e-02 2.579447627067565918e-02
-2.710262238979339600e-01 -1.066554710268974304e-01 -1.746753156185150146e-01
-2.713315784931182861e-01 -9.568288177251815796e-02 -1.737665086984634399e-01
-2.546586096286773682e-01 -1.077005639672279358e-01 -1.716037243604660034e-01
-2.547293603420257568e-01 -9.669908136129379272e-02 -1.704321652650833130e-01
2.338647395372390747e-01 -1.452806591987609863e-01 -3.989768773317337036e-02
2.380631566047668457e-01 -1.323059946298599243e-01 -4.486997053027153015e-02
2.470725923776626587e-01 -1.428876519203186035e-01 -3.444762155413627625e-02
2.518464028835296631e-01 -1.306682527065277100e-01 -3.917254507541656494e-02
-5.435839295387268066e-01 -5.789632722735404968e-02 -1.532801538705825806e-01
-5.443821549415588379e-01 -4.333939030766487122e-02 -1.496111154556274414e-01
-5.296524763107299805e-01 -5.367119610309600830e-02 -1.455425322055816650e-01
-5.316103696823120117e-01 -3.825888782739639282e-02 -1.424556970596313477e-01
-5.288324952125549316e-01 1.965660750865936279e-01 5.931596830487251282e-02
-5.279195308685302734e-01 2.124297022819519043e-01 5.447278171777725220e-02
-5.103309154510498047e-01 2.066164761781692505e-01 5.935268104076385498e-02
-5.104732513427734375e-01 2.220458388328552246e-01 5.564732477068901062e-02
-5.873665213584899902e-02 2.050789594650268555e-01 4.183432459831237793e-02
-5.431718006730079651e-02 2.212237566709518433e-01 3.338414803147315979e-02
-4.747025296092033386e-02 2.059971541166305542e-01 5.015620589256286621e-02
-4.305846244096755981e-02 2.218826860189437866e-01 4.181692749261856079e-02
1.461827605962753296e-01 2.570207118988037109e-01 2.175062522292137146e-02
1.499816775321960449e-01 2.663910686969757080e-01 1.934375613927841187e-02
1.648271977901458740e-01 2.555303871631622314e-01 3.839144483208656311e-02
1.753099858760833740e-01 2.660562396049499512e-01 2.749648690223693848e-02
3.954505622386932373e-01 -1.340114474296569824e-01 9.269740432500839233e-02
3.929642140865325928e-01 -1.176542341709136963e-01 9.465591609477996826e-02
4.121294915676116943e-01 -1.340057700872421265e-01 9.492103755474090576e-02
4.092077016830444336e-01 -1.171664372086524963e-01 9.686642885208129883e-02
-4.297599494457244873e-01 -1.530784219503402710e-01 5.346476286649703979e-02
-4.333591461181640625e-01 -1.385817229747772217e-01 5.927436053752899170e-02
-4.155623912811279297e-01 -1.516160368919372559e-01 5.602235719561576843e-02
-4.183044731616973877e-01 -1.371663957834243774e-01 6.148419156670570374e-02
1.899633556604385376e-01 -1.697807461023330688e-01 7.966203242540359497e-02
1.898489147424697876e-01 -1.557504683732986450e-01 8.499388396739959717e-02
2.036310285329818726e-01 -1.690431237220764160e-01 8.275707811117172241e-02
2.020168155431747437e-01 -1.554266661405563354e-01 8.836331218481063843e-02
6.433247327804565430e-01 -2.073909640312194824e-01 -8.103859424591064453e-02
6.508122086524963379e-01 -1.983053535223007202e-01 -8.422658592462539673e-02
6.542194485664367676e-01 -2.021621912717819214e-01 -7.530191540718078613e-02
6.640387773513793945e-01 -1.928283274173736572e-01 -8.194554597139358521e-02
-4.389308393001556396e-01 -1.511144042015075684e-01 -1.846088469028472900e-01
-4.506823420524597168e-01 -1.405478417873382568e-01 -1.768583506345748901e-01
-4.213531613349914551e-01 -1.520192474126815796e-01 -1.772060990333557129e-01
-4.332380294799804688e-01 -1.423572897911071777e-01 -1.690596491098403931e-01
-2.654308974742889404e-01 2.843521237373352051e-01 -5.526145920157432556e-02
-2.736285626888275146e-01 2.979181408882141113e-01 -4.479837417602539062e-02
-2.527173459529876709e-01 2.885172367095947266e-01 -4.705865308642387390e-02
-2.630139589309692383e-01 3.004353344440460205e-01 -3.406878560781478882e-02
6.621426939964294434e-01 -1.269937902688980103e-01 -1.527182757854461670e-01
6.601565480232238770e-01 -1.094453334808349609e-01 -1.487561762332916260e-01
6.773492097854614258e-01 -1.208074241876602173e-01 -1.477948427200317383e-01
6.743644475936889648e-01 -1.039262786507606506e-01 -1.424714624881744385e-01
2.630900740623474121e-01 -1.160742193460464478e-01 -1.494882851839065552e-01
2.601851522922515869e-01 -1.010057553648948669e-01 -1.474051922559738159e-01
2.783413827419281006e-01 -1.079848408699035645e-01 -1.432511657476425171e-01
2.731406986713409424e-01 -9.175942838191986084e-02 -1.406471878290176392e-01
-7.917907088994979858e-02 -6.317256391048431396e-02 9.784733876585960388e-03
