-4.639596641063690186e-01 -8.389991521835327148e-01 1.837816685438156128e-01
-4.414381086826324463e-01 -8.303660154342651367e-01 1.769666075706481934e-01
-4.388555288314819336e-01 -8.383635878562927246e-01 1.980453431606292725e-01
-4.154289066791534424e-01 -8.291836977005004883e-01 1.910990178585052490e-01
-4.633401334285736084e-01 -3.785045146942138672e-01 -5.308212712407112122e-02
-4.527816176414489746e-01 -3.715902566909790039e-01 -6.144797801971435547e-02
-4.500005245208740234e-01 -3.788450062274932861e-01 -4.536439850926399231e-02
-4.394302368164062500e-01 -3.714368641376495361e-01 -5.345715954899787903e-02
7.711042761802673340e-01 -2.170181125402450562e-01 -2.470772713422775269e-01
7.829505205154418945e-01 -2.000664323568344116e-01 -2.591683566570281982e-01
7.926201224327087402e-01 -2.200573682785034180e-01 -2.358947247266769409e-01
8.015586137771606445e-01 -2.026799172163009644e-01 -2.492799311876296997e-01
-4.166779518127441406e-01 -5.401598662137985229e-02 2.773966789245605469e-01
-4.194608330726623535e-01 -3.592215478420257568e-02 2.943832874298095703e-01
-3.943925201892852783e-01 -4.517879709601402283e-02 2.784356474876403809e-01
-3.965135812759399414e-01 -2.605539001524448395e-02 2.969565391540527344e-01
8.034790307283401489e-02 -1.082001477479934692e-01 -2.333612293004989624e-01
8.653303235769271851e-02 -9.860360622406005859e-02 -2.420427054166793823e-01
9.341711550951004028e-02 -1.106373965740203857e-01 -2.312303185462951660e-01
9.959445893764495850e-02 -1.016770452260971069e-01 -2.415304481983184814e-01
-4.150340259075164795e-01 -5.523535013198852539e-01 -9.975661337375640869e-02
-4.053092598915100098e-01 -5.366063117980957031e-01 -1.114206016063690186e-01
-3.956427276134490967e-01 -5.528035759925842285e-01 -9.140442311763763428e-02
-3.857744336128234863e-01 -5.365380644798278809e-01 -1.032872945070266724e-01
-5.854085087776184082e-01 1.051324009895324707e-01 2.923226058483123779e-01
-5.821902751922607422e-01 1.233802214264869690e-01 2.896819710731506348e-01
-5.760889649391174316e-01 1.044925600290298462e-01 3.064509332180023193e-01
-5.719702839851379395e-01 1.232162043452262878e-01 3.010019361972808838e-01
-1.840879768133163452e-01 -5.858820676803588867e-01 1.311044245958328247e-01
-1.711140424013137817e-01 -5.694466829299926758e-01 1.213801428675651550e-01
-1.594603955745697021e-01 -5.872183442115783691e-01 1.357781589031219482e-01
-1.462987065315246582e-01 -5.707114338874816895e-01 1.257507055997848511e-01
-5.622828602790832520e-01 -1.148046627640724182e-01 -9.245339035987854004e-02
-5.629978179931640625e-01 -1.033668145537376404e-01 -8.882929384708404541e-02
-5.622133016586303711e-01 -1.132880300283432007e-01 -7.973078638315200806e-02
-5.628575682640075684e-01 -1.016803756356239319e-01 -7.683689147233963013e-02
7.953151464462280273e-01 8.274050801992416382e-02 4.613224864006042480e-01
7.823744416236877441e-01 1.074133366346359253e-01 4.788334965705871582e-01
7.978479862213134766e-01 9.442913532257080078e-02 4.799167513847351074e-01
7.850696444511413574e-01 1.199717968702316284e-01 4.974251091480255127e-01
-5.282416939735412598e-01 -5.075524449348449707e-01 -1.627513170242309570e-01
-5.192210674285888672e-01 -4.919813573360443115e-01 -1.773008555173873901e-01
-5.096555352210998535e-01 -5.077239871025085449e-01 -1.570870727300643921e-01
-4.998184442520141602e-01 -4.920020401477813721e-01 -1.708797514438629150e-01
-1.687880009412765503e-01 -5.794732570648193359e-01 1.285293400287628174e-01
-1.555958986282348633e-01 -5.630039572715759277e-01 1.188855469226837158e-01
-1.439332962036132812e-01 -5.804213285446166992e-01 1.335246264934539795e-01
-1.310305744409561157e-01 -5.637868046760559082e-01 1.233172714710235596e-01
7.304816842079162598e-01 2.948062419891357422e-01 2.412570118904113770e-01
7.333140373229980469e-01 3.132676184177398682e-01 2.395142316818237305e-01
7.311902642250061035e-01 2.964158654212951660e-01 2.582745850086212158e-01
7.359907031059265137e-01 3.139892518520355225e-01 2.564060986042022705e-01
7.832406163215637207e-01 3.025038242340087891e-01 3.268451690673828125e-01
7.932747602462768555e-01 3.150327205657958984e-01 3.125875592231750488e-01
7.922383546829223633e-01 2.989414334297180176e-01 3.354287445545196533e-01
7.993612885475158691e-01 3.118792474269866943e-01 3.231777250766754150e-01
-5.992040038108825684e-01 -5.452384948730468750e-01 1.447513252496719360e-01
-6.016371250152587891e-01 -5.291952490806579590e-01 1.498924791812896729e-01
-5.946074724197387695e-01 -5.447406172752380371e-01 1.561651080846786499e-01
-5.975940823554992676e-01 -5.280368328094482422e-01 1.610234230756759644e-01
-5.220995545387268066e-01 1.407765597105026245e-01 2.810831367969512939e-01
-5.157568454742431641e-01 1.573301702737808228e-01 2.679545879364013672e-01
-5.010203719139099121e-01 1.414033472537994385e-01 2.880942821502685547e-01
-4.944538772106170654e-01 1.577085852622985840e-01 2.744703590869903564e-01
6.547762751579284668e-01 -1.631490141153335571e-01 -3.175418078899383545e-01
6.626972556114196777e-01 -1.448047459125518799e-01 -3.290955722332000732e-01
6.810745000839233398e-01 -1.599037200212478638e-01 -3.137084543704986572e-01
6.892086267471313477e-01 -1.416832059621810913e-01 -3.254525959491729736e-01
-1.252356264740228653e-02 -3.066175878047943115e-01 -1.074076257646083832e-02
-8.598233573138713837e-03 -2.966297864913940430e-01 4.999376833438873291e-04
8.135016076266765594e-03 -3.072685599327087402e-01 -1.356557942926883698e-03
1.404176838696002960e-02 -2.970150709152221680e-01 6.888973526656627655e-03
-4.738867580890655518e-01 -7.016749680042266846e-02 -1.700686961412429810e-01
-4.785883724689483643e-01 -5.299957469105720520e-02 -1.534876376390457153e-01
-4.540880918502807617e-01 -6.275098025798797607e-02 -1.698184758424758911e-01
-4.592516124248504639e-01 -4.544596374034881592e-02 -1.525803953409194946e-01
-5.866665840148925781e-01 2.697360143065452576e-02 7.640162110328674316e-02
-5.870977044105529785e-01 4.299456626176834106e-02 8.011774718761444092e-02
-5.873047113418579102e-01 3.320727869868278503e-02 9.437388926744461060e-02
-5.874430537223815918e-01 4.935998097062110901e-02 9.837342798709869385e-02
7.829583883285522461e-01 -2.878763154149055481e-02 -1.432795375585556030e-01
7.845264077186584473e-01 -1.366856042295694351e-02 -1.403049081563949585e-01
7.838981151580810547e-01 -2.571504190564155579e-02 -1.286491304636001587e-01
7.851117253303527832e-01 -1.097842305898666382e-02 -1.254203021526336670e-01
-5.895010232925415039e-01 4.143035039305686951e-02 2.009959518909454346e-01
-5.897083878517150879e-01 6.068142130970954895e-02 1.995125859975814819e-01
-5.891443490982055664e-01 4.876723140478134155e-02 2.170961797237396240e-01
-5.895602703094482422e-01 6.739452481269836426e-02 2.162353843450546265e-01
7.921864390373229980e-01 -8.091066032648086548e-02 -7.827427983283996582e-02
7.927959561347961426e-01 -6.519337743520736694e-02 -7.352548092603683472e-02
7.921644449234008789e-01 -7.481396198272705078e-02 -6.194999441504478455e-02
7.927774786949157715e-01 -5.909731984138488770e-02 -5.690100044012069702e-02
-5.611867308616638184e-01 -1.186216473579406738e-01 4.873068258166313171e-02
-5.617585778236389160e-01 -1.057565584778785706e-01 5.175241455435752869e-02
-5.623826980590820312e-01 -1.154877766966819763e-01 6.273283809423446655e-02
-5.628135204315185547e-01 -1.021907404065132141e-01 6.569296866655349731e-02
9.413253664970397949e-01 -3.751724362373352051e-01 4.707158356904983521e-02
9.413280487060546875e-01 -3.587759435176849365e-01 4.574660956859588623e-02
9.431777596473693848e-01 -3.778392076492309570e-01 6.341590732336044312e-02
9.433026909828186035e-01 -3.610062301158905029e-01 5.982724577188491821e-02
-1.531412750482559204e-01 6.081924214959144592e-02 3.297276496887207031e-01
-1.597706824541091919e-01 8.133763074874877930e-02 3.371098935604095459e-01
-1.251095533370971680e-01 6.053951755166053772e-02 3.257608115673065186e-01
-1.352885961532592773e-01 8.139518648386001587e-02 3.335064053535461426e-01
-6.422787308692932129e-01 -2.084178775548934937e-01 3.959847688674926758e-01
-6.519197821617126465e-01 -1.853296607732772827e-01 3.947957158088684082e-01
-6.280071139335632324e-01 -2.155394852161407471e-01 4.128255546092987061e-01
-6.372070908546447754e-01 -1.922599822282791138e-01 4.119109809398651123e-01
7.797564268112182617e-01 2.496408298611640930e-03 -1.015786975622177124e-01
7.797502279281616211e-01 1.516577415168285370e-02 -9.734916687011718750e-02
7.801097631454467773e-01 1.063996180891990662e-02 -8.485069870948791504e-02
7.799242138862609863e-01 2.379932813346385956e-02 -8.012355864048004150e-02
-2.967363297939300537e-01 -2.270318120718002319e-01 -3.169006407260894775e-01
-2.988085150718688965e-01 -2.115816920995712280e-01 -3.022019565105438232e-01
-2.758073806762695312e-01 -2.206583470106124878e-01 -3.166059851646423340e-01
-2.783240675926208496e-01 -2.051984071731567383e-01 -3.022227287292480469e-01
-7.197933793067932129e-01 1.204213500022888184e-01 7.596011459827423096e-02
-7.245925068855285645e-01 1.395772546529769897e-01 8.539021015167236328e-02
-7.155916094779968262e-01 1.280875205993652344e-01 9.490110725164413452e-02
-7.151029109954833984e-01 1.460363268852233887e-01 1.019394099712371826e-01
5.751944780349731445e-01 -9.592127799987792969e-02 -3.240399062633514404e-01
5.771772861480712891e-01 -7.901991158723831177e-02 -3.153568804264068604e-01
5.964361429214477539e-01 -8.687721192836761475e-02 -3.254019618034362793e-01
5.983034372329711914e-01 -7.017924636602401733e-02 -3.166868090629577637e-01
7.210839986801147461e-01 3.516062796115875244e-01 9.973476827144622803e-02
7.207324504852294922e-01 3.723069131374359131e-01 1.030400320887565613e-01
7.214675545692443848e-01 3.553804457187652588e-01 1.220754683017730713e-01
7.207684516906738281e-01 3.748646080493927002e-01 1.251831799745559692e-01
8.645822405815124512e-01 1.686490774154663086e-01 -4.664830490946769714e-02
8.607516884803771973e-01 1.913352459669113159e-01 -4.456960037350654602e-02
8.714079260826110840e-01 1.661504805088043213e-01 -2.373295277357101440e-02
8.670300841331481934e-01 1.889330297708511353e-01 -2.189808897674083710e-02
5.943635702133178711e-01 -1.891531795263290405e-01 2.222636714577674866e-02
6.048308014869689941e-01 -1.777776628732681274e-01 7.662985473871231079e-03
6.175721883773803711e-01 -1.936600506305694580e-01 2.986938878893852234e-02
6.274730563163757324e-01 -1.820313781499862671e-01 1.649656146764755249e-02
-5.905503034591674805e-01 5.683424323797225952e-02 1.956725865602493286e-02
-5.922281146049499512e-01 7.300325483083724976e-02 2.381569892168045044e-02
-5.892626047134399414e-01 6.234674155712127686e-02 3.623361513018608093e-02
-5.904507637023925781e-01 7.851258665323257446e-02 4.009939357638359070e-02
-1.923504099249839783e-02 -3.415701389312744141e-01 -2.497890889644622803e-01
2.580008935183286667e-03 -3.251854479312896729e-01 -2.587797343730926514e-01
1.032663416117429733e-02 -3.433113694190979004e-01 -2.402348220348358154e-01
3.276355564594268799e-02 -3.259596824645996094e-01 -2.496386468410491943e-01
2.758096754550933838e-01 2.060953080654144287e-01 3.395285010337829590e-01
2.776636779308319092e-01 2.254056334495544434e-01 3.332886099815368652e-01
2.959234416484832764e-01 2.092278599739074707e-01 3.397326767444610596e-01
2.976213097572326660e-01 2.286543697118759155e-01 3.346816003322601318e-01
7.644636034965515137e-01 1.136184334754943848e-01 3.950760662555694580e-01
7.601264715194702148e-01 1.331398487091064453e-01 4.019534587860107422e-01
7.669631242752075195e-01 1.160426735877990723e-01 4.129119813442230225e-01
7.604618668556213379e-01 1.366559416055679321e-01 4.221944808959960938e-01
6.793998181819915771e-02 -6.042094230651855469e-01 3.268747031688690186e-02
7.884756475687026978e-02 -5.901290178298950195e-01 2.237241528928279877e-02
9.210401773452758789e-02 -6.004121899604797363e-01 3.968949988484382629e-02
1.027227640151977539e-01 -5.858323574066162109e-01 2.807417139410972595e-02
7.105546593666076660e-01 4.259110093116760254e-01 1.021083965897560120e-01
7.054768800735473633e-01 4.387745559215545654e-01 1.067602336406707764e-01
7.135559916496276855e-01 4.242442548274993896e-01 1.225395202636718750e-01
7.099091410636901855e-01 4.384309649467468262e-01 1.250075846910476685e-01
3.409745693206787109e-01 1.506965160369873047e-01 -1.113332733511924744e-01
3.407916426658630371e-01 1.682213097810745239e-01 -9.495151042938232422e-02
3.618043363094329834e-01 1.601126939058303833e-01 -1.088930442929267883e-01
3.639068603515625000e-01 1.807296574115753174e-01 -9.105025231838226318e-02
3.644999563694000244e-01 1.314532160758972168e-01 3.337555229663848877e-01
3.643406033515930176e-01 1.511141657829284668e-01 3.449982702732086182e-01
3.850189149379730225e-01 1.345487982034683228e-01 3.339881300926208496e-01
3.834741413593292236e-01 1.547306030988693237e-01 3.442476093769073486e-01
7.733425498008728027e-01 3.477753326296806335e-02 3.811457380652427673e-02
7.739216685295104980e-01 5.078850314021110535e-02 4.183208197355270386e-02
7.721169590950012207e-01 3.519168123602867126e-02 5.355114117264747620e-02
7.728532552719116211e-01 5.046637356281280518e-02 5.727188289165496826e-02
8.454517722129821777e-01 1.491243541240692139e-01 4.957458078861236572e-01
8.398376703262329102e-01 1.748521476984024048e-01 4.988481402397155762e-01
8.374414443969726562e-01 1.559994965791702271e-01 5.166809558868408203e-01
8.317039608955383301e-01 1.818375587463378906e-01 5.199413895606994629e-01
-6.107929348945617676e-01 1.649548411369323730e-01 1.045132130384445190e-01
-6.089767217636108398e-01 1.822006255388259888e-01 1.052916422486305237e-01
-6.107758283615112305e-01 1.703766137361526489e-01 1.161164566874504089e-01
-6.088731288909912109e-01 1.875396966934204102e-01 1.169696003198623657e-01
5.618423819541931152e-01 -2.828245460987091064e-01 -2.125132530927658081e-01
5.757051706314086914e-01 -2.668203711509704590e-01 -2.190169990062713623e-01
5.825858116149902344e-01 -2.914611697196960449e-01 -2.019433528184890747e-01
5.957715511322021484e-01 -2.716769874095916748e-01 -2.104871273040771484e-01
8.352697491645812988e-01 2.187268882989883423e-01 -1.165514215826988220e-01
8.316622972488403320e-01 2.352498769760131836e-01 -1.061149463057518005e-01
8.518266081809997559e-01 2.251404821872711182e-01 -1.109239235520362854e-01
8.481337428092956543e-01 2.423771768808364868e-01 -1.004447117447853088e-01
6.614499092102050781e-01 4.482456445693969727e-01 8.637016266584396362e-02
6.537294983863830566e-01 4.566144347190856934e-01 9.731779992580413818e-02
6.740548014640808105e-01 4.497030377388000488e-01 1.003752574324607849e-01
6.667258143424987793e-01 4.594897925853729248e-01 1.103850603103637695e-01
7.719882726669311523e-01 -3.431488201022148132e-02 -1.966775655746459961e-01
7.799205183982849121e-01 -2.247773483395576477e-02 -2.018957138061523438e-01
7.779871225357055664e-01 -3.534372895956039429e-02 -1.874640733003616333e-01
7.854031324386596680e-01 -2.232277765870094299e-02 -1.914461106061935425e-01
9.047151207923889160e-01 -5.959300324320793152e-02 1.159688383340835571e-01
9.049088954925537109e-01 -4.004577919840812683e-02 1.221224367618560791e-01
9.027930498123168945e-01 -5.192926526069641113e-02 1.388447433710098267e-01
9.029475450515747070e-01 -3.320884332060813904e-02 1.446453481912612915e-01
2.383801639080047607e-01 1.482376754283905029e-01 -9.862052649259567261e-02
2.344811409711837769e-01 1.641156971454620361e-01 -8.079551160335540771e-02
2.643431723117828369e-01 1.562804281711578369e-01 -9.725136309862136841e-02
2.606164813041687012e-01 1.718091666698455811e-01 -8.002482354640960693e-02
3.177666962146759033e-01 -1.327413916587829590e-01 -1.899322867393493652e-01
3.222394287586212158e-01 -1.219521611928939819e-01 -2.004669606685638428e-01
3.345165252685546875e-01 -1.351374685764312744e-01 -1.855000108480453491e-01
3.393858969211578369e-01 -1.237061619758605957e-01 -1.971892267465591431e-01
7.692785859107971191e-01 4.776360839605331421e-02 -1.864029169082641602e-01
7.710811495780944824e-01 6.448411196470260620e-02 -1.874184757471084595e-01
7.706844806671142578e-01 5.271617323160171509e-02 -1.750812232494354248e-01
7.724779248237609863e-01 6.937067210674285889e-02 -1.757525205612182617e-01
7.777577638626098633e-01 3.484668433666229248e-01 -1.363765262067317963e-02
7.764809131622314453e-01 3.595808446407318115e-01 -4.904292523860931396e-03
7.927652001380920410e-01 3.555059134960174561e-01 -1.104539446532726288e-02
7.919296622276306152e-01 3.666360974311828613e-01 -2.518178895115852356e-03
-1.890150606632232666e-01 -8.056488633155822754e-01 2.047971636056900024e-01
-1.765689104795455933e-01 -7.956749796867370605e-01 1.940824985504150391e-01
-1.600251644849777222e-01 -8.073311448097229004e-01 2.062087059020996094e-01
-1.484865695238113403e-01 -7.970864772796630859e-01 1.946038752794265747e-01
-5.222093462944030762e-01 -3.529084920883178711e-01 1.604812741279602051e-01
-5.244875550270080566e-01 -3.326558172702789307e-01 1.654771417379379272e-01
-5.239198803901672363e-01 -3.469540178775787354e-01 1.819649189710617065e-01
-5.255192518234252930e-01 -3.270217776298522949e-01 1.862895935773849487e-01
-1.956733316183090210e-01 -3.639645278453826904e-01 -2.540484368801116943e-01
-1.865331083536148071e-01 -3.521524369716644287e-01 -2.640292346477508545e-01
-1.748099625110626221e-01 -3.674535751342773438e-01 -2.447221577167510986e-01
-1.656760275363922119e-01 -3.558545708656311035e-01 -2.548883557319641113e-01
-3.564358353614807129e-01 -7.712407112121582031e-01 2.287284582853317261e-01
-3.493784070014953613e-01 -7.597712278366088867e-01 2.210216373205184937e-01
-3.326153159141540527e-01 -7.712160348892211914e-01 2.314723134040832520e-01
-3.239894807338714600e-01 -7.605776786804199219e-01 2.233391553163528442e-01
-5.554727315902709961e-01 3.195921331644058228e-02 -8.625292032957077026e-02
-5.586159825325012207e-01 4.483470320701599121e-02 -7.397858053445816040e-02
-5.411439538002014160e-01 3.975815325975418091e-02 -8.497360348701477051e-02
-5.431593656539916992e-01 5.264813452959060669e-02 -7.252790033817291260e-02
9.399768710136413574e-01 -3.294925689697265625e-01 -9.810006618499755859e-02
9.476875662803649902e-01 -3.129842877388000488e-01 -9.849270433187484741e-02
9.476127624511718750e-01 -3.251286447048187256e-01 -8.115784823894500732e-02
9.544693827629089355e-01 -3.084486424922943115e-01 -8.074602484703063965e-02
5.688616633415222168e-01 -6.294630765914916992e-01 1.412193179130554199e-01
5.883677005767822266e-01 -6.162483692169189453e-01 1.335480660200119019e-01
5.918154716491699219e-01 -6.348101496696472168e-01 1.527723073959350586e-01
6.113649606704711914e-01 -6.218625307083129883e-01 1.451810002326965332e-01
-3.273153901100158691e-01 -3.376235961914062500e-01 -7.743227481842041016e-02
-3.219279646873474121e-01 -3.228059411048889160e-01 -9.216393530368804932e-02
-3.129398226737976074e-01 -3.385614454746246338e-01 -7.247875630855560303e-02
-3.061947822570800781e-01 -3.249953687191009521e-01 -8.448498696088790894e-02
4.518124461174011230e-01 2.208695411682128906e-01 3.458727896213531494e-01
4.541812539100646973e-01 2.371355444192886353e-01 3.423655629158020020e-01
4.730599224567413330e-01 2.243871688842773438e-01 3.473837673664093018e-01
4.761216640472412109e-01 2.399956583976745605e-01 3.426696658134460449e-01
8.424022048711776733e-02 3.574629127979278564e-01 9.131313860416412354e-02
7.708374410867691040e-02 3.595371842384338379e-01 1.092721149325370789e-01
9.867043793201446533e-02 3.668447136878967285e-01 1.077492907643318176e-01
9.781054407358169556e-02 3.695366084575653076e-01 1.202759221196174622e-01
1.921871453523635864e-01 -2.839359641075134277e-01 -3.577549010515213013e-02
1.990626454353332520e-01 -2.688396573066711426e-01 -5.210392922163009644e-02
2.112660557031631470e-01 -2.882457673549652100e-01 -2.962258458137512207e-02
2.184002697467803955e-01 -2.723621428012847900e-01 -4.647375270724296570e-02
4.280278459191322327e-02 -4.946748316287994385e-01 9.629755467176437378e-02
5.047837644815444946e-02 -4.776059985160827637e-01 8.370853215456008911e-02
6.990294903516769409e-02 -5.023552775382995605e-01 1.049524694681167603e-01
7.640222460031509399e-02 -4.853658080101013184e-01 9.279056638479232788e-02
-5.915614962577819824e-01 -5.824426412582397461e-01 -1.142440736293792725e-01
-6.040852665901184082e-01 -5.677805542945861816e-01 -1.033748090267181396e-01
-5.856192111968994141e-01 -5.860983133316040039e-01 -9.526603668928146362e-02
-5.987052321434020996e-01 -5.724559426307678223e-01 -8.468686789274215698e-02
8.750379681587219238e-01 -3.123458623886108398e-01 -1.315543204545974731e-01
8.805957436561584473e-01 -2.976722717285156250e-01 -1.390570998191833496e-01
8.863195776939392090e-01 -3.176830112934112549e-01 -1.214562058448791504e-01
8.921588659286499023e-01 -3.028088808059692383e-01 -1.281604170799255371e-01
8.947485685348510742e-01 -6.086302548646926880e-02 -3.453168272972106934e-01
8.935113549232482910e-01 -4.680404439568519592e-02 -3.435442149639129639e-01
8.968704342842102051e-01 -5.886869132518768311e-02 -3.298080861568450928e-01
8.948376178741455078e-01 -4.483652114868164062e-02 -3.285224735736846924e-01
6.126276254653930664e-01 2.097936905920505524e-02 2.017877697944641113e-01
6.080239415168762207e-01 3.557267785072326660e-02 2.172787636518478394e-01
6.342486143112182617e-01 3.270174562931060791e-02 2.038548588752746582e-01
6.272823810577392578e-01 4.575683921575546265e-02 2.190790176391601562e-01
7.509416341781616211e-01 1.385277658700942993e-01 3.011432886123657227e-01
7.510755062103271484e-01 1.594472080469131470e-01 2.999421954154968262e-01
7.510364055633544922e-01 1.447878628969192505e-01 3.171754181385040283e-01
7.498896718025207520e-01 1.638841181993484497e-01 3.179087638854980469e-01
-5.917889475822448730e-01 5.910394713282585144e-02 1.539749801158905029e-01
-5.919071435928344727e-01 7.475669682025909424e-02 1.543634086847305298e-01
-5.911058783531188965e-01 6.482954323291778564e-02 1.700767576694488525e-01
-5.910838246345520020e-01 8.250338584184646606e-02 1.694863736629486084e-01
7.389935255050659180e-01 2.585495114326477051e-01 1.547356396913528442e-01
7.369772195816040039e-01 2.785038948059082031e-01 1.542808562517166138e-01
7.393348813056945801e-01 2.604144215583801270e-01 1.693878769874572754e-01
7.377290129661560059e-01 2.808545231819152832e-01 1.685130447149276733e-01
5.416563749313354492e-01 -1.894413828849792480e-01 -8.160836994647979736e-02
5.471925139427185059e-01 -1.740501224994659424e-01 -9.609199315309524536e-02
5.548560023307800293e-01 -1.940387487411499023e-01 -7.466468214988708496e-02
5.601811408996582031e-01 -1.788422614336013794e-01 -8.910195529460906982e-02
-1.095078215003013611e-01 1.617609113454818726e-01 -4.234587028622627258e-02
-1.088838726282119751e-01 1.851156651973724365e-01 -1.775133609771728516e-02
-8.196368068456649780e-02 1.750512570142745972e-01 -3.845092654228210449e-02
-8.170159906148910522e-02 1.978971809148788452e-01 -1.445317827165126801e-02
8.743395209312438965e-01 1.011959463357925415e-01 3.363112509250640869e-01
8.747228980064392090e-01 1.267571598291397095e-01 3.377718031406402588e-01
8.801684379577636719e-01 1.072511300444602966e-01 3.535197973251342773e-01
8.782140612602233887e-01 1.317451447248458862e-01 3.549335598945617676e-01
-3.214043080806732178e-01 -3.477236330509185791e-01 -6.203250214457511902e-02
-3.152954578399658203e-01 -3.337401449680328369e-01 -7.484783232212066650e-02
-3.071848154067993164e-01 -3.498314023017883301e-01 -5.823249742388725281e-02
-3.001362085342407227e-01 -3.359521329402923584e-01 -7.020428031682968140e-02
5.219200998544692993e-02 -5.769538879394531250e-01 -6.618732586503028870e-04
6.197736784815788269e-02 -5.647205114364624023e-01 -9.325560182332992554e-03
7.705481350421905518e-02 -5.759912133216857910e-01 8.458781987428665161e-03
8.764685690402984619e-02 -5.637951493263244629e-01 2.110158093273639679e-04
5.685044527053833008e-01 -3.932610154151916504e-02 -2.941951155662536621e-01
5.601137876510620117e-01 -3.466701135039329529e-02 -2.842653989791870117e-01
5.812655091285705566e-01 -3.853960335254669189e-02 -2.882837057113647461e-01
5.710319876670837402e-01 -3.496549278497695923e-02 -2.785455286502838135e-01
-5.922450423240661621e-01 2.029384076595306396e-01 5.195528268814086914e-02
-6.028310656547546387e-01 2.195913344621658325e-01 6.757058203220367432e-02
-5.932232141494750977e-01 2.110464572906494141e-01 6.376951932907104492e-02
-6.039121150970458984e-01 2.275580465793609619e-01 8.002011477947235107e-02
-9.458870440721511841e-02 2.825667560100555420e-01 3.884284570813179016e-02
-1.093854084610939026e-01 2.982082366943359375e-01 6.139403954148292542e-02
-6.931637227535247803e-02 2.927289009094238281e-01 4.823013767600059509e-02
-8.376660197973251343e-02 3.050734698772430420e-01 6.818990409374237061e-02
-5.557634830474853516e-01 -1.666328608989715576e-01 4.282808601856231689e-01
-5.591091513633728027e-01 -1.401841640472412109e-01 4.290955662727355957e-01
-5.566948056221008301e-01 -1.622766554355621338e-01 4.427220523357391357e-01
-5.601816177368164062e-01 -1.359714269638061523e-01 4.437732696533203125e-01
-9.348336607217788696e-02 -2.154558449983596802e-01 -3.345943689346313477e-01
-9.476637840270996094e-02 -1.935006976127624512e-01 -3.261656463146209717e-01
-6.986043602228164673e-02 -2.139807492494583130e-01 -3.356929123401641846e-01
-7.131334394216537476e-02 -1.927372068166732788e-01 -3.277506232261657715e-01
7.766618728637695312e-01 1.602029055356979370e-02 1.273881047964096069e-01
7.771860957145690918e-01 2.948550134897232056e-02 1.291254013776779175e-01
7.762598991394042969e-01 1.552133169025182724e-02 1.415586173534393311e-01
7.757117748260498047e-01 2.918731607496738434e-02 1.435352116823196411e-01
-5.945456027984619141e-01 8.323991298675537109e-02 -1.226281747221946716e-03
-5.967840552330017090e-01 9.909535944461822510e-02 4.123240709304809570e-03
-5.924565792083740234e-01 8.880693465471267700e-02 1.382028777152299881e-02
-5.947499275207519531e-01 1.049439460039138794e-01 1.865608990192413330e-02
8.986082077026367188e-01 -2.310350537300109863e-02 -8.010014891624450684e-02
8.977697491645812988e-01 1.698499545454978943e-03 -7.843276858329772949e-02
8.966987729072570801e-01 -1.547686196863651276e-02 -5.860863253474235535e-02
8.956444263458251953e-01 9.551905095577239990e-03 -5.749117955565452576e-02
-5.468201637268066406e-01 -1.940235346555709839e-01 1.463950127363204956e-01
-5.519473552703857422e-01 -1.800092458724975586e-01 1.477745920419692993e-01
-5.412041544914245605e-01 -1.927732080221176147e-01 1.595490127801895142e-01
-5.475931167602539062e-01 -1.786540299654006958e-01 1.598756313323974609e-01
4.491757452487945557e-01 2.602663934230804443e-01 3.226217329502105713e-01
4.516561925411224365e-01 2.747104465961456299e-01 3.106474578380584717e-01
4.710402488708496094e-01 2.611072957515716553e-01 3.276185989379882812e-01
4.754057824611663818e-01 2.751466929912567139e-01 3.175556361675262451e-01
9.181669950485229492e-01 -1.522428840398788452e-01 -1.487857252359390259e-01
9.184300899505615234e-01 -1.287189126014709473e-01 -1.514110863208770752e-01
9.201406240463256836e-01 -1.557756960391998291e-01 -1.291791200637817383e-01
9.195188879966735840e-01 -1.296585500240325928e-01 -1.297005712985992432e-01
3.637363016605377197e-01 -2.360526174306869507e-01 5.481047555804252625e-03
3.596697449684143066e-01 -2.196705341339111328e-01 2.371880412101745605e-02
3.834129273891448975e-01 -2.295874059200286865e-01 8.180627599358558655e-03
3.801847398281097412e-01 -2.134549021720886230e-01 2.407811768352985382e-02
5.403124094009399414e-01 -3.734248280525207520e-01 6.822518259286880493e-02
5.528813600540161133e-01 -3.609483838081359863e-01 6.149280071258544922e-02
5.673210024833679199e-01 -3.752783238887786865e-01 7.540890574455261230e-02
5.779674053192138672e-01 -3.621386587619781494e-01 6.769237667322158813e-02
6.200953722000122070e-01 -7.230050116777420044e-02 -1.852155625820159912e-01
6.262037754058837891e-01 -6.326500326395034790e-02 -1.949222981929779053e-01
6.387756466865539551e-01 -7.355619221925735474e-02 -1.809830814599990845e-01
6.449591517448425293e-01 -6.440419703722000122e-02 -1.907963007688522339e-01
-6.308847665786743164e-01 1.622941195964813232e-01 2.265739440917968750e-02
-6.367360949516296387e-01 1.758365035057067871e-01 3.309079632163047791e-02
-6.214931011199951172e-01 1.644082516431808472e-01 3.097764402627944946e-02
-6.269769668579101562e-01 1.784831285476684570e-01 4.037319496273994446e-02
-1.821708232164382935e-01 -5.933696627616882324e-01 -2.059166692197322845e-02
-1.667416840791702271e-01 -5.785815715789794922e-01 -3.163495287299156189e-02
-1.550275087356567383e-01 -5.963145494461059570e-01 -7.832618430256843567e-03
-1.403075754642486572e-01 -5.812948942184448242e-01 -1.871317066252231598e-02
-5.719004273414611816e-01 -5.247424915432929993e-02 2.775050699710845947e-02
-5.725208520889282227e-01 -3.986323252320289612e-02 3.201923146843910217e-02
-5.729321241378784180e-01 -4.825555905699729919e-02 4.553247988224029541e-02
-5.731651186943054199e-01 -3.524283319711685181e-02 4.872386530041694641e-02
-6.489697098731994629e-01 -2.765185832977294922e-01 6.320939958095550537e-02
-6.491485834121704102e-01 -2.506471276283264160e-01 7.123580574989318848e-02
-6.524241566658020020e-01 -2.676635682582855225e-01 8.810911327600479126e-02
-6.523329019546508789e-01 -2.426128089427947998e-01 9.586438536643981934e-02
-6.032253503799438477e-01 2.304120548069477081e-02 -8.300923556089401245e-02
-6.094883680343627930e-01 3.602065145969390869e-02 -7.171670347452163696e-02
-5.937402844429016113e-01 3.027874603867530823e-02 -7.979422807693481445e-02
-5.988961458206176758e-01 4.252486675977706909e-02 -6.931094080209732056e-02
-6.761978864669799805e-01 -1.125809848308563232e-01 3.531936407089233398e-01
-6.782255172729492188e-01 -8.812317252159118652e-02 3.593119680881500244e-01
-6.758681535720825195e-01 -1.093582063913345337e-01 3.721617460250854492e-01
-6.780470013618469238e-01 -8.512713015079498291e-02 3.792662322521209717e-01
5.784081220626831055e-01 -1.828765720129013062e-01 -3.056979179382324219e-01
5.842483043670654297e-01 -1.685088872909545898e-01 -3.165532350540161133e-01
5.970017313957214355e-01 -1.880633383989334106e-01 -2.994243800640106201e-01
6.031236052513122559e-01 -1.732032597064971924e-01 -3.116184175014495850e-01
8.922063112258911133e-01 1.307055726647377014e-02 4.652698338031768799e-02
8.912451267242431641e-01 3.544225171208381653e-02 4.701455682516098022e-02
8.899612426757812500e-01 1.450911536812782288e-02 6.890127807855606079e-02
8.889430761337280273e-01 3.520534932613372803e-02 7.017491012811660767e-02
1.036382317543029785e-01 -3.086387217044830322e-01 -2.553304731845855713e-01
1.174199655652046204e-01 -2.896380126476287842e-01 -2.728434503078460693e-01
1.342651546001434326e-01 -3.093603551387786865e-01 -2.488027811050415039e-01
1.481257230043411255e-01 -2.900734245777130127e-01 -2.671696841716766357e-01
-6.910416483879089355e-01 8.700499683618545532e-02 2.737961709499359131e-01
-6.883133649826049805e-01 1.066061481833457947e-01 2.731862962245941162e-01
-6.881737112998962402e-01 9.085975587368011475e-02 2.932297587394714355e-01
-6.858211159706115723e-01 1.101607680320739746e-01 2.926463186740875244e-01
-9.541422128677368164e-03 -7.488057017326354980e-01 2.326603978872299194e-01
-7.328493986278772354e-03 -7.343734502792358398e-01 2.309834361076354980e-01
1.088093128055334091e-02 -7.453987002372741699e-01 2.302289009094238281e-01
1.199545618146657944e-02 -7.309758663177490234e-01 2.299821078777313232e-01
-5.098993778228759766e-01 -7.748305797576904297e-01 1.152134463191032410e-01
-5.057852864265441895e-01 -7.615407705307006836e-01 9.970903396606445312e-02
-4.925768375396728516e-01 -7.847639918327331543e-01 1.285002082586288452e-01
-4.860966205596923828e-01 -7.697666287422180176e-01 1.100145876407623291e-01
8.848780989646911621e-01 7.197803258895874023e-02 1.822654753923416138e-01
8.835357427597045898e-01 9.472855925559997559e-02 1.835382878780364990e-01
8.811601996421813965e-01 7.654358446598052979e-02 2.032233029603958130e-01
8.790870904922485352e-01 1.000245586037635803e-01 2.093828022480010986e-01
9.124092459678649902e-01 -1.124140322208404541e-01 3.966410830616950989e-02
9.120293855667114258e-01 -9.227029979228973389e-02 4.468911513686180115e-02
9.097419381141662598e-01 -1.092252880334854126e-01 6.154626607894897461e-02
9.090797901153564453e-01 -9.056872874498367310e-02 6.688948720693588257e-02
-4.312760829925537109e-01 -4.312388002872467041e-01 -2.210824042558670044e-01
-4.249862134456634521e-01 -4.140501022338867188e-01 -2.384658753871917725e-01
-4.069622755050659180e-01 -4.334110021591186523e-01 -2.158853262662887573e-01
-4.001495242118835449e-01 -4.165887236595153809e-01 -2.326437681913375854e-01
1.669601202011108398e-01 -1.890898123383522034e-02 -2.175117135047912598e-01
1.666492819786071777e-01 -4.714481066912412643e-03 -2.059334665536880493e-01
1.818922013044357300e-01 -1.083750557154417038e-02 -2.150762379169464111e-01
1.811609268188476562e-01 2.891462761908769608e-03 -2.036381214857101440e-01
-9.948574751615524292e-02 -5.302426815032958984e-01 -7.262332737445831299e-02
-8.302561938762664795e-02 -5.104650259017944336e-01 -8.571110665798187256e-02
-7.383058220148086548e-02 -5.237126946449279785e-01 -6.630440801382064819e-02
-5.708492174744606018e-02 -5.044816136360168457e-01 -7.903604954481124878e-02
3.169266879558563232e-01 3.855619728565216064e-01 7.291710376739501953e-02
3.044957518577575684e-01 3.898411691188812256e-01 8.895964175462722778e-02
3.324519991874694824e-01 3.929045200347900391e-01 8.138978481292724609e-02
3.222777247428894043e-01 3.979799449443817139e-01 9.579437226057052612e-02
8.712297081947326660e-01 1.226139888167381287e-01 -1.059911996126174927e-01
8.700108528137207031e-01 1.456227749586105347e-01 -9.775711596012115479e-02
8.751611113548278809e-01 1.298147886991500854e-01 -8.261751383543014526e-02
8.733307719230651855e-01 1.528742313385009766e-01 -7.481103390455245972e-02
-6.886821985244750977e-01 -2.636516466736793518e-02 4.037778377532958984e-01
-6.911631226539611816e-01 -4.730327054858207703e-03 4.123774766921997070e-01
-6.845946907997131348e-01 -1.831962540745735168e-02 4.256539940834045410e-01
-6.870813369750976562e-01 3.915417939424514771e-03 4.349009394645690918e-01
8.413144350051879883e-01 1.067798957228660583e-02 -2.778653204441070557e-01
8.331056833267211914e-01 3.158678859472274780e-02 -2.744945287704467773e-01
8.530353307723999023e-01 7.968819700181484222e-03 -2.639876306056976318e-01
8.446767926216125488e-01 2.953166142106056213e-02 -2.605964243412017822e-01
-2.438239902257919312e-01 3.078569769859313965e-01 1.092588081955909729e-01
-2.275393158197402954e-01 3.190231621265411377e-01 9.157083183526992798e-02
-2.287073731422424316e-01 3.081106245517730713e-01 1.312978267669677734e-01
-2.106023579835891724e-01 3.204717338085174561e-01 1.096117869019508362e-01
7.536386847496032715e-01 -9.847377985715866089e-02 6.143039837479591370e-02
7.487210035324096680e-01 -8.744221180677413940e-02 7.614159584045410156e-02
7.679663300514221191e-01 -8.804485946893692017e-02 6.501975655555725098e-02
7.635741829872131348e-01 -7.695117592811584473e-02 7.865393161773681641e-02
-2.563729584217071533e-01 1.916992068290710449e-01 2.771826684474945068e-01
-2.458298206329345703e-01 2.094394862651824951e-01 2.602994143962860107e-01
-2.271475344896316528e-01 1.919011026620864868e-01 2.809768617153167725e-01
-2.170110642910003662e-01 2.097029387950897217e-01 2.640369534492492676e-01
8.006937056779861450e-02 2.563854157924652100e-01 2.663608193397521973e-01
9.169963747262954712e-02 2.707789838314056396e-01 2.548873722553253174e-01
1.023399829864501953e-01 2.594689726829528809e-01 2.717556953430175781e-01
1.143295690417289734e-01 2.736478447914123535e-01 2.613524198532104492e-01
-2.311723530292510986e-01 -3.182418942451477051e-01 -3.040956258773803711e-01
-2.230233997106552124e-01 -3.045952618122100830e-01 -3.150215744972229004e-01
-2.135432511568069458e-01 -3.202049136161804199e-01 -2.976399064064025879e-01
-2.056403458118438721e-01 -3.060131072998046875e-01 -3.092437088489532471e-01
4.497754871845245361e-01 -5.195197463035583496e-01 9.823480620980262756e-03
4.653940200805664062e-01 -5.042592883110046387e-01 -9.043265599757432938e-04
4.720687270164489746e-01 -5.227441191673278809e-01 2.020556852221488953e-02
4.878787100315093994e-01 -5.066030621528625488e-01 8.764174766838550568e-03
-3.536510467529296875e-01 -3.049696236848831177e-02 -1.606755107641220093e-01
-3.552970588207244873e-01 -1.175657007843255997e-02 -1.418713331222534180e-01
-3.213375806808471680e-01 -2.028748765587806702e-02 -1.604658961296081543e-01
-3.236862719058990479e-01 -1.866603735834360123e-03 -1.423176527023315430e-01
4.118577241897583008e-01 3.938349187374114990e-01 7.207901775836944580e-02
4.147010445594787598e-01 4.008452892303466797e-01 7.906236499547958374e-02
4.179209470748901367e-01 4.018951952457427979e-01 8.134708553552627563e-02
4.312354326248168945e-01 4.076440930366516113e-01 8.007187396287918091e-02
2.936251647770404816e-02 -1.701042056083679199e-01 -3.171706795692443848e-01
2.682599984109401703e-02 -1.565396487712860107e-01 -3.076353669166564941e-01
4.879192635416984558e-02 -1.672815829515457153e-01 -3.168621063232421875e-01
4.393120855093002319e-02 -1.542626023292541504e-01 -3.049988448619842529e-01
-1.871851235628128052e-01 -6.383271217346191406e-01 1.625762134790420532e-01
-1.797372549772262573e-01 -6.220679879188537598e-01 1.532689630985260010e-01
-1.626197695732116699e-01 -6.404398083686828613e-01 1.692132502794265747e-01
-1.553064584732055664e-01 -6.248559951782226562e-01 1.598338335752487183e-01
8.975140452384948730e-01 -8.815649896860122681e-02 3.086052238941192627e-01
9.083255529403686523e-01 -7.531135529279708862e-02 3.054180145263671875e-01
8.993581533432006836e-01 -7.914194464683532715e-02 3.210414350032806396e-01
9.097622036933898926e-01 -6.577797234058380127e-02 3.182319700717926025e-01
-2.902281284332275391e-02 -6.791436076164245605e-01 2.059532105922698975e-01
-1.938264071941375732e-02 -6.677880883216857910e-01 1.988461464643478394e-01
-6.503987126052379608e-03 -6.808682680130004883e-01 2.094792872667312622e-01
6.221742369234561920e-04 -6.680359244346618652e-01 2.017953395843505859e-01
8.195453882217407227e-01 -5.505862236022949219e-01 2.116062194108963013e-01
8.257359266281127930e-01 -5.353716611862182617e-01 2.031745165586471558e-01
8.441964387893676758e-01 -5.524960160255432129e-01 2.146925479173660278e-01
8.504853248596191406e-01 -5.369397401809692383e-01 2.060608565807342529e-01
-5.451068282127380371e-01 -2.249321192502975464e-01 2.173179388046264648e-01
-5.470049381256103516e-01 -2.055090069770812988e-01 2.223325818777084351e-01
-5.439848303794860840e-01 -2.197518199682235718e-01 2.345872819423675537e-01
-5.455454587936401367e-01 -2.000483274459838867e-01 2.403636574745178223e-01
5.480966567993164062e-01 -2.222221791744232178e-01 -3.442889451980590820e-02
5.530643463134765625e-01 -2.085726708173751831e-01 -4.547367244958877563e-02
5.594441890716552734e-01 -2.241798043251037598e-01 -2.929114364087581635e-02
5.644943118095397949e-01 -2.111708968877792358e-01 -3.935978561639785767e-02
4.269291162490844727e-01 -2.213255614042282104e-01 -2.967050373554229736e-01
4.346610605716705322e-01 -2.048360705375671387e-01 -3.098358809947967529e-01
4.439499676227569580e-01 -2.203914821147918701e-01 -2.901939153671264648e-01
4.530299305915832520e-01 -2.044282853603363037e-01 -3.030260503292083740e-01
-5.715286731719970703e-01 -5.731559172272682190e-02 -5.396426841616630554e-02
-5.734977126121520996e-01 -3.836252540349960327e-02 -5.577974393963813782e-02
-5.706172585487365723e-01 -5.239325761795043945e-02 -3.761359304189682007e-02
-5.730291604995727539e-01 -3.224563598632812500e-02 -4.082737118005752563e-02
7.713117450475692749e-02 -5.701373890042304993e-02 2.123359441757202148e-01
7.180707156658172607e-02 -4.157961532473564148e-02 2.305191308259963989e-01
1.040600240230560303e-01 -4.059675708413124084e-02 2.142293155193328857e-01
9.838414192199707031e-02 -2.563178166747093201e-02 2.322010099887847900e-01
-5.530912280082702637e-01 -1.619800180196762085e-01 3.386611863970756531e-02
-5.540478825569152832e-01 -1.490917503833770752e-01 3.725095465779304504e-02
-5.528545975685119629e-01 -1.593076884746551514e-01 4.806158319115638733e-02
-5.538519024848937988e-01 -1.462503671646118164e-01 5.127748474478721619e-02
-5.866870880126953125e-01 2.095962129533290863e-02 2.300119725987315178e-03
-5.876342058181762695e-01 3.699762374162673950e-02 3.458925988525152206e-03
-5.850902795791625977e-01 2.108933217823505402e-02 2.121432498097419739e-02
-5.862528085708618164e-01 3.651615604758262634e-02 2.304293215274810791e-02
7.507213354110717773e-01 1.689458191394805908e-01 3.603762388229370117e-01
7.501244544982910156e-01 1.882735490798950195e-01 3.607555329799652100e-01
7.527235746383666992e-01 1.705587655305862427e-01 3.791665434837341309e-01
7.519494295120239258e-01 1.902021765708923340e-01 3.790389001369476318e-01
-5.767392516136169434e-01 -2.846853062510490417e-02 2.275868505239486694e-01
-5.805053114891052246e-01 -1.327989064157009125e-02 2.286760658025741577e-01
-5.749322772026062012e-01 -2.875261381268501282e-02 2.411396503448486328e-01
-5.784151554107666016e-01 -1.500578969717025757e-02 2.427661269903182983e-01
5.005841851234436035e-01 -5.340934395790100098e-01 3.318532556295394897e-02
5.166451930999755859e-01 -5.172500610351562500e-01 2.079920656979084015e-02
5.247576236724853516e-01 -5.351118445396423340e-01 4.286243766546249390e-02
5.420976281166076660e-01 -5.170782804489135742e-01 3.046616911888122559e-02
1.750464886426925659e-01 -5.705115944147109985e-02 -2.471034824848175049e-01
1.776375472545623779e-01 -4.538958147168159485e-02 -2.436611354351043701e-01
1.909213364124298096e-01 -5.652357637882232666e-02 -2.456140518188476562e-01
1.916399896144866943e-01 -4.402016103267669678e-02 -2.385710328817367554e-01
-3.702156543731689453e-01 -1.860520690679550171e-01 -2.552267909049987793e-01
-3.653829693794250488e-01 -1.700997650623321533e-01 -2.573712766170501709e-01
-3.542573750019073486e-01 -1.830740123987197876e-01 -2.527547776699066162e-01
-3.527189791202545166e-01 -1.678804159164428711e-01 -2.490314841270446777e-01
-5.591856837272644043e-01 2.079581022262573242e-01 1.949414014816284180e-01
-5.524442791938781738e-01 2.191431373357772827e-01 1.839723885059356689e-01
-5.521857142448425293e-01 2.096030861139297485e-01 2.072910815477371216e-01
-5.455257296562194824e-01 2.213499397039413452e-01 1.954107433557510376e-01
4.654871225357055664e-01 -1.893924474716186523e-01 -3.190065324306488037e-01
4.744026660919189453e-01 -1.722098141908645630e-01 -3.321283459663391113e-01
4.865818321704864502e-01 -1.867434084415435791e-01 -3.129043579101562500e-01
4.952257573604583740e-01 -1.689299643039703369e-01 -3.268948495388031006e-01
7.993245720863342285e-01 4.991680383682250977e-01 6.782664358615875244e-02
7.853053808212280273e-01 5.052237510681152344e-01 6.896501034498214722e-02
8.096847534179687500e-01 4.948320090770721436e-01 8.005500584840774536e-02
7.946848273277282715e-01 5.001394152641296387e-01 8.044097572565078735e-02
8.367494940757751465e-01 -2.071035802364349365e-01 -2.419545501470565796e-01
8.377387523651123047e-01 -1.888047456741333008e-01 -2.581980228424072266e-01
8.456082940101623535e-01 -2.138507068157196045e-01 -2.298729270696640015e-01
8.461683392524719238e-01 -1.955298632383346558e-01 -2.459461838006973267e-01
8.925009965896606445e-01 2.018743008375167847e-02 2.965935766696929932e-01
8.927738070487976074e-01 4.047777876257896423e-02 3.034826517105102539e-01
8.909155130386352539e-01 2.806328982114791870e-02 3.173747658729553223e-01
8.922732472419738770e-01 4.680959135293960571e-02 3.222474455833435059e-01
7.835460901260375977e-01 2.608898580074310303e-01 3.817082941532135010e-01
7.918983697891235352e-01 2.734720110893249512e-01 3.718317449092864990e-01
7.909640669822692871e-01 2.525373399257659912e-01 3.924965858459472656e-01
7.999144196510314941e-01 2.648345232009887695e-01 3.826876580715179443e-01
2.546964585781097412e-01 -7.290222644805908203e-01 2.018777877092361450e-01
2.735876441001892090e-01 -7.144039273262023926e-01 1.901158243417739868e-01
2.781481146812438965e-01 -7.312527298927307129e-01 2.134911715984344482e-01
2.972280085086822510e-01 -7.159590721130371094e-01 2.025860697031021118e-01
-5.419827103614807129e-01 -5.656838417053222656e-02 2.839173674583435059e-01
-5.449863672256469727e-01 -4.388005286455154419e-02 2.909694015979766846e-01
-5.284478664398193359e-01 -5.474143102765083313e-02 2.877401113510131836e-01
-5.311217904090881348e-01 -4.193463176488876343e-02 2.959329485893249512e-01
7.437744140625000000e-01 2.255445718765258789e-01 1.089499965310096741e-01
7.412056326866149902e-01 2.426599860191345215e-01 1.097204089164733887e-01
7.425686120986938477e-01 2.257764935493469238e-01 1.299685835838317871e-01
7.401672601699829102e-01 2.435658574104309082e-01 1.302763372659683228e-01
7.299461364746093750e-01 -1.740276813507080078e-01 -4.152791574597358704e-03
7.438285350799560547e-01 -1.650944799184799194e-01 -9.157891385257244110e-03
7.504556775093078613e-01 -1.731780767440795898e-01 -9.598920587450265884e-04
7.627590894699096680e-01 -1.623865067958831787e-01 -6.462290417402982712e-03
5.849947333335876465e-01 3.303948342800140381e-01 -1.346638426184654236e-03
5.788541436195373535e-01 3.424565196037292480e-01 1.399115659296512604e-02
6.131049394607543945e-01 3.432465493679046631e-01 -7.409928366541862488e-05
6.073489785194396973e-01 3.555291593074798584e-01 1.525639370083808899e-02
4.535877704620361328e-01 -6.522112488746643066e-01 1.499878764152526855e-01
4.626306295394897461e-01 -6.335147619247436523e-01 1.304121166467666626e-01
4.824620783329010010e-01 -6.486133933067321777e-01 1.597032546997070312e-01
4.921263158321380615e-01 -6.340550780296325684e-01 1.432531923055648804e-01
8.711646199226379395e-01 1.502072811126708984e-01 9.037134796380996704e-02
8.705422282218933105e-01 1.691040396690368652e-01 9.124535322189331055e-02
8.695127964019775391e-01 1.489345580339431763e-01 1.132088825106620789e-01
8.682944774627685547e-01 1.672267764806747437e-01 1.156821474432945251e-01
6.838232874870300293e-01 2.190785259008407593e-01 -9.931736439466476440e-02
6.816101074218750000e-01 2.335731536149978638e-01 -8.640898019075393677e-02
6.970663070678710938e-01 2.286159545183181763e-01 -9.620136022567749023e-02
6.947421431541442871e-01 2.431067377328872681e-01 -8.329775929450988770e-02
-2.281131148338317871e-01 -2.614305019378662109e-01 -1.343496292829513550e-01
-2.202972322702407837e-01 -2.495498210191726685e-01 -1.448662877082824707e-01
-2.078927755355834961e-01 -2.605435550212860107e-01 -1.317904591560363770e-01
-1.991208195686340332e-01 -2.491041421890258789e-01 -1.413561552762985229e-01
7.816118001937866211e-01 1.181930489838123322e-02 3.296706378459930420e-01
7.747533917427062988e-01 2.989785745739936829e-02 3.377902507781982422e-01
7.839736342430114746e-01 1.313913613557815552e-02 3.536406457424163818e-01
7.771866917610168457e-01 3.091736510396003723e-02 3.625455796718597412e-01
8.126163482666015625e-02 -4.662342742085456848e-02 2.216123193502426147e-01
7.584909349679946899e-02 -3.075408190488815308e-02 2.397944480180740356e-01
1.090800762176513672e-01 -3.078700602054595947e-02 2.240816354751586914e-01
1.033454015851020813e-01 -1.548799965530633926e-02 2.422531694173812866e-01
-1.984652429819107056e-01 -3.475541770458221436e-01 -4.078927263617515564e-02
-1.897874027490615845e-01 -3.362139761447906494e-01 -5.280730873346328735e-02
-1.832538694143295288e-01 -3.501880764961242676e-01 -3.701977059245109558e-02
-1.740566790103912354e-01 -3.392280042171478271e-01 -4.832012578845024109e-02
3.339680656790733337e-02 -2.110985070466995239e-01 -1.574812978506088257e-01
4.134176671504974365e-02 -2.006699591875076294e-01 -1.672901213169097900e-01
4.895551130175590515e-02 -2.148310691118240356e-01 -1.534624546766281128e-01
5.681358277797698975e-02 -2.037368714809417725e-01 -1.635993868112564087e-01
