0.925 0.975 1.03333 1.04375 1.12 1.14167 1.14 
2.55 1.975 1.75833 1.70625 1.675 1.65833 1.70333 
9.9 5.3625 3.91667 3.3 2.845 2.53333 2.22667 
10.5 5.8625 4.40833 3.525 3.005 2.6625 2.36667 
6.1 3.6625 2.8 2.36875 2.12 1.95 1.76 
7.375 4.125 3.15833 2.59375 2.315 2.075 1.84 
2.05 1.4 1.21667 1.1875 1.175 1.17083 1.1 
4.675 2.8375 2.20833 2.00625 1.815 1.7375 1.61 
0.85 0.9375 0.975 1.0125 1.03 1.02917 1.02 
11.175 5.675 3.84167 2.91875 2.345 1.97083 1.60333 
0.875 0.9125 0.891667 0.8875 0.855 0.829167 0.873333 
9.775 5.4125 4.04167 3.34375 2.905 2.56667 2.23667 
0.75 0.9125 0.933333 0.95 0.96 0.929167 0.973333 
3.85 2.45 2.00833 1.7125 1.6 1.53333 1.41667 
2.5 1.825 1.58333 1.38125 1.29 1.2125 1.20667 
0.975 1.0375 1.00833 0.9625 0.88 0.8875 0.9 
3.95 2.4375 1.90833 1.7 1.565 1.46667 1.33 
7.55 4.2 3.15 2.61875 2.24 2.0125 1.82333 
13.4 7.275 5.35 4.275 3.62 3.2 2.84333 
5.1 3.0625 2.31667 1.9625 1.765 1.63333 1.55333 
7.475 4.125 3.03333 2.49375 2.175 1.97083 1.77333 
7.75 4.3 3.24167 2.775 2.405 2.13333 1.85667 
2.775 1.8375 1.54167 1.3125 1.245 1.19167 1.11 
4.9 2.85 2.23333 1.95 1.795 1.69583 1.62333 
1.225 1.0875 1.025 1.01875 1.065 1.01667 0.97 
1.175 1.1125 1.15833 1.09375 1.03 1.01667 1.00333 
3.725 2.3625 1.95 1.66875 1.54 1.45833 1.36333 
7.15 3.875 2.83333 2.3125 2.085 1.89167 1.66333 
0.8 0.9875 0.991667 0.95625 0.925 0.925 0.943333 
8.225 4.7875 3.60833 2.9625 2.545 2.30417 2.02667 
1.025 1 0.95 1 0.985 1 0.993333 
10.525 5.775 4.03333 3.20625 2.695 2.40833 2.1 
0.625 0.825 0.841667 0.78125 0.765 0.8125 0.87 
1.275 1.1125 1.11667 1.125 1.1 1.07917 1.07333 
2.35 1.4875 1.23333 1.06875 0.93 0.866667 0.826667 
2.975 1.8875 1.58333 1.475 1.41 1.32917 1.30333 
1.725 1.275 1.15 1.1125 1.135 1.1625 1.14667 
0.95 1.0375 0.958333 0.9625 1.02 1.04583 1.03 
2.925 2.0125 1.63333 1.43125 1.35 1.27083 1.16333 
0.675 0.5875 0.666667 0.7375 0.76 0.775 0.796667 
4.65 2.9375 2.24167 1.925 1.7 1.6125 1.52333 
0.7 0.825 0.825 0.76875 0.82 0.8375 0.906667 
2.65 1.725 1.39167 1.20625 1.1 1.0625 1.02333 
7.4 4.2125 3.20833 2.5875 2.245 1.9875 1.71333 
5.925 3.525 2.55833 2.0875 1.92 1.8375 1.72667 
6.475 3.6625 2.75 2.24375 1.995 1.83333 1.66 
3.3 2.25 1.85 1.7 1.57 1.46667 1.4 
1.425 1.4 1.33333 1.275 1.205 1.14583 1.11 
4.3 2.7625 2.25 2.025 1.885 1.79167 1.66667 
1.125 1.1375 1.225 1.23125 1.19 1.12917 1.1 
10.925 6.0125 4.45833 3.6 3.025 2.67917 2.34 
14.35 7.5125 5.31667 4.2125 3.535 3.10833 2.65333 
8.325 4.875 3.66667 3.10625 2.72 2.425 2.21 
10.05 5.6625 4.11667 3.3875 2.995 2.69583 2.32 
3.7 2.225 1.725 1.425 1.29 1.27083 1.27667 
0.45 0.5625 0.658333 0.725 0.73 0.75 0.813333 
6.125 3.6375 2.71667 2.2125 1.94 1.8125 1.72333 
0.875 0.8625 0.9 0.9 0.945 0.941667 0.953333 
1.7 1.5625 1.48333 1.38125 1.34 1.27917 1.23333 
8.45 4.3625 2.94167 2.21875 1.8 1.525 1.24 
15.425 8.2875 5.74167 4.425 3.695 3.27083 2.84 
1.725 1.275 1.25 1.1875 1.19 1.17917 1.18333 
0.85 0.875 0.875 0.8125 0.845 0.841667 0.88 
1.325 1.3 1.31667 1.28125 1.22 1.2 1.18333 
2.225 1.6875 1.44167 1.325 1.295 1.25417 1.16667 
3.075 2.3125 1.99167 1.75625 1.66 1.6 1.53667 
3.125 2.1 1.875 1.7875 1.615 1.48333 1.37 
2.825 1.875 1.525 1.36875 1.275 1.22083 1.14333 
12.35 6.2125 4.25833 3.21875 2.58 2.1625 1.74 
6 3.225 2.475 2.0875 1.82 1.65417 1.51 
1.475 1.45 1.36667 1.30625 1.21 1.14583 1.08333 
13.875 7.7625 5.60833 4.41875 3.76 3.31667 2.87 
6.65 3.6 2.7 2.2625 1.975 1.8 1.64667 
1.425 1.2125 1.23333 1.175 1.175 1.1875 1.14333 
0.825 0.85 0.825 0.8375 0.825 0.820833 0.836667 
2.25 1.6875 1.53333 1.46875 1.515 1.55417 1.53 
1.475 1.35 1.24167 1.2125 1.145 1.0875 1.03 
7.925 4.4875 3.325 2.73125 2.375 2.1125 1.87333 
14.1 7.7375 5.48333 4.34375 3.695 3.20417 2.75667 
5 3.05 2.275 1.9125 1.73 1.55417 1.41 
0.85 0.9 0.933333 0.95625 0.995 0.966667 0.963333 
2.775 2.0125 1.71667 1.5875 1.505 1.4875 1.46333 
1.45 1.2125 1.1 1.05625 1.075 1.05833 1 
8.8 4.925 3.75 3.03125 2.625 2.3375 2.08333 
2.8 1.775 1.53333 1.43125 1.395 1.38333 1.33333 
1.15 1.15 1.09167 1.05 1.07 1.0875 1.07 
11.725 6.3125 4.525 3.6625 3.12 2.775 2.41 
1.225 1.1875 1.08333 1.04375 1.085 1.09167 1.11333 
2.9 1.775 1.5 1.40625 1.3 1.225 1.15667 
1.425 1.2625 1.13333 1.20625 1.205 1.125 1.11667 
0.85 0.9625 1.00833 1.075 1.095 1.09583 1.09 
9.6 5.45 3.95833 3.1375 2.67 2.37917 2.09333 
3.725 2.4625 1.96667 1.73125 1.625 1.525 1.41667 
14.075 7.375 5.23333 4.225 3.57 3.09167 2.66667 
1.075 1.075 1.15833 1.20625 1.135 1.05417 1.01667 
7 4.05 2.95833 2.43125 2.16 1.94167 1.82333 
3.375 2.2 1.725 1.4875 1.355 1.34167 1.31 
3.675 2.3875 2.075 1.78125 1.61 1.50417 1.44333 
12.2 6.6 4.70833 3.80625 3.25 2.87083 2.41333 
9.775 5.0125 3.475 2.64375 2.13 1.7875 1.44667 
1 1.2625 1.21667 1.10625 1.045 0.991667 0.986667 
2.075 1.5375 1.33333 1.25625 1.25 1.2375 1.25 
1.375 1.25 1.18333 1.18125 1.2 1.12917 1.10667 
6.05 3.5375 2.69167 2.24375 1.99 1.90833 1.77667 
8.05 4.4 3.3 2.7125 2.295 2.1125 1.86 
14.275 7.6625 5.41667 4.325 3.675 3.275 2.81 
1.025 1.1625 1.2 1.1625 1.145 1.13333 1.08333 
1 1.0625 1.18333 1.1625 1.155 1.12083 1.11333 
0.925 1.0375 1 0.98125 1.015 1.07917 1.11333 
1.575 1.45 1.30833 1.175 1.12 1.07083 1.04333 
3.6 2.5 2.025 1.78125 1.62 1.50417 1.34667 
1.35 1.3625 1.30833 1.1625 1.12 1.1 1.05667 
1.1 0.9875 0.975 0.925 0.935 0.904167 0.926667 
7.325 4.0375 3.05833 2.58125 2.165 1.92917 1.76 
0.775 0.85 1.00833 1 0.93 0.916667 0.9 
7.95 4.0375 2.71667 2.05625 1.685 1.44167 1.19333 
3.675 2.3375 1.9 1.675 1.54 1.43333 1.32667 
13 7.075 4.99167 4.1 3.575 3.13333 2.69667 
2.625 1.725 1.55 1.48125 1.34 1.25833 1.21333 
1.325 1.375 1.275 1.1625 1.16 1.09583 1.08667 
13.45 6.85 4.64167 3.525 2.84 2.375 1.92667 
13.275 7.325 5.40833 4.45 3.755 3.29583 2.78667 
4.95 3.0125 2.28333 1.90625 1.63 1.49583 1.33667 
6.05 3.5125 2.74167 2.44375 2.16 1.99167 1.81333 
2.025 1.4125 1.33333 1.33125 1.285 1.2625 1.19 
11.875 6.3875 4.575 3.6375 3.095 2.69583 2.31 
4.025 2.5125 2.1 1.8375 1.655 1.55 1.42 
8.1 4.5625 3.29167 2.68125 2.345 2.10417 1.84333 
0.55 0.65 0.766667 0.825 0.91 0.916667 0.92 
3.125 2.2375 1.86667 1.6375 1.51 1.45417 1.37 
5.625 3.2875 2.375 1.975 1.75 1.5875 1.44667 
8.3 4.6375 3.38333 2.76875 2.375 2.075 1.79333 
13.525 6.9125 4.69167 3.54375 2.88 2.45 1.98333 
1.075 1.075 1.04167 1.0375 0.98 0.933333 0.93 
9.375 5.1125 3.68333 3.00625 2.63 2.4125 2.16667 
4.675 2.8125 2.31667 2.08125 1.91 1.84167 1.68333 
8 4.5375 3.40833 2.79375 2.395 2.11667 1.84 
6.45 3.7875 2.875 2.40625 2.1 1.9 1.75333 
4 2.4375 1.95 1.66875 1.45 1.3625 1.27333 
1 1.025 1.09167 1.10625 1.085 1.00833 1.03667 
8.525 4.525 3.25833 2.73125 2.42 2.21667 1.94333 
3.975 2.3375 1.9 1.69375 1.56 1.44167 1.29 
12.275 6.6625 4.7 3.7875 3.23 2.81667 2.45 
5.15 3.1625 2.35 2.0125 1.84 1.70833 1.63333 
3.275 2.2 1.8 1.6 1.435 1.35417 1.28 
10 5.7875 4.16667 3.3625 2.92 2.59583 2.27333 
10.425 5.7625 4.175 3.325 2.845 2.55 2.26333 
1 0.9 0.9 0.875 0.845 0.854167 0.896667 
4.35 2.6875 2.225 1.95625 1.745 1.6 1.48667 
3.775 2.5 2.05833 1.86875 1.725 1.61667 1.52333 
5.8 3.3875 2.6 2.14375 1.88 1.67917 1.52667 
1.2 1.1625 1.14167 1.1125 1.02 1.02083 1.03 
10.35 5.775 4.35833 3.525 3.02 2.65833 2.34 
13.1 6.95 4.85 3.83125 3.205 2.81667 2.46 
1.1 1.1875 1.075 1.10625 1.085 1.08333 1.08667 
1.95 1.35 1.225 1.15625 1.13 1.10417 1.06333 
11.775 6.4625 4.63333 3.71875 3.2 2.84167 2.45333 
2.25 1.3625 1.09167 0.975 0.915 0.829167 0.783333 
6.5 3.7875 2.70833 2.3 2.035 1.8625 1.68333 
6.525 3.55 2.60833 2.21875 1.93 1.75417 1.63333 
2.825 2.1625 1.975 1.7125 1.635 1.54167 1.41 
1.8 1.375 1.34167 1.2 1.16 1.14167 1.07333 
1.725 1.2375 1.18333 1.13125 1.09 1.01667 0.983333 
1.1 1.2375 1.15 1.16875 1.195 1.14167 1.08667 
0.75 0.8 0.916667 1.05 1.035 1.05 1.01667 
14.125 7.775 5.60833 4.5125 3.845 3.37083 2.84333 
15.825 8.375 5.95 4.68125 3.975 3.49583 3.00667 
11.85 6.35 4.55833 3.6375 3.09 2.69583 2.29 
0.975 1.075 1.15 1.1875 1.1 1.1 1.05 
9.225 5 3.64167 2.99375 2.645 2.4125 2.09333 
5.775 3.05 2.21667 1.84375 1.59 1.44583 1.32 
1.475 1.4 1.19167 1.125 1.115 1.08333 1.04333 
10.125 5.1 3.44167 2.61875 2.12 1.7875 1.45333 
8.05 4.475 3.25 2.65625 2.33 2.10417 1.94333 
10.075 5.35 3.875 3.15 2.695 2.38333 2.04 
1.475 1.2875 1.125 1.05625 1.03 0.970833 0.93 
1.2 1.0375 1.04167 1.0125 1 0.995833 0.953333 
0.975 0.9125 0.858333 0.85 0.885 0.8875 0.906667 
5.75 3.4625 2.625 2.25 2.095 1.89583 1.69333 
1.325 1.375 1.35833 1.28125 1.22 1.2125 1.17333 
12.675 6.8375 4.975 4.0125 3.405 3.09583 2.67 
9.675 5.55 4.01667 3.33125 2.885 2.625 2.31 
0.85 0.9375 1.05833 1.0375 1.065 1.09583 1.11333 
9.4 4.85 3.31667 2.55 2.095 1.775 1.43667 
12.9 6.9625 4.88333 3.9375 3.29 2.89167 2.55 
6.65 3.7875 2.91667 2.40625 2.095 1.92083 1.79333 
10.45 5.5625 4.11667 3.26875 2.795 2.5 2.17 
1 0.85 0.8 0.80625 0.805 0.825 0.843333 
1.15 1.2 1.06667 1.0125 0.985 0.975 0.976667 
7.1 4.0375 3.05833 2.5125 2.195 2 1.80333 
1.475 1.225 1.225 1.10625 1.095 1.07083 1.03333 
0.6 0.65 0.766667 0.78125 0.805 0.8375 0.89 
4.15 2.5 2.00833 1.8375 1.705 1.575 1.44 
4.25 2.7375 2.19167 1.9375 1.765 1.68333 1.56333 
0.925 0.9875 1.05833 1.0875 1.09 1.11667 1.09667 
3.45 2.25 1.76667 1.65625 1.625 1.49167 1.45333 
11.55 5.9125 3.99167 3.0625 2.505 2.10417 1.71333 
5.775 3.4 2.60833 2.2125 1.92 1.77083 1.57667 
1.15 1.075 0.95 0.9375 0.89 0.870833 0.94 
9.975 5.6 4.03333 3.2625 2.825 2.49583 2.21667 
12.15 6.3 4.45 3.55625 3.015 2.6875 2.36 
5.375 3.3 2.5 2.19375 1.95 1.79583 1.62667 
11.85 6.5 4.81667 3.94375 3.38 3.01667 2.65667 
0.65 0.95 0.916667 0.8875 0.89 0.8875 0.92 
8.05 4.5375 3.275 2.625 2.295 2.0625 1.81667 
2.3 1.5125 1.33333 1.34375 1.24 1.2 1.14667 
0.75 0.7625 0.8 0.7875 0.775 0.791667 0.843333 
9.05 5 3.61667 2.98125 2.6 2.34167 2.08667 
1.275 1.1875 1.14167 1.1875 1.115 1.09583 1.06667 
3.725 2.4625 2.06667 1.9125 1.76 1.70417 1.59 
6.95 3.9875 3.125 2.63125 2.24 1.97917 1.79667 
1.025 1 0.933333 0.875 0.935 1.03333 1.02 
7.55 4.1875 3.15 2.625 2.25 2.00833 1.73 
14.425 7.725 5.45833 4.30625 3.685 3.22917 2.78333 
5.95 3.2 2.49167 2.15 1.895 1.70417 1.54667 
3.025 2.05 1.68333 1.55625 1.515 1.47083 1.40333 
4.675 3.0625 2.45833 2.15625 1.935 1.74167 1.56 
2.2 1.45 1.29167 1.225 1.16 1.125 1.13 
1.4 1.3625 1.225 1.16875 1.18 1.11667 1.03 
6.125 3.55 2.73333 2.275 1.995 1.84167 1.65333 
5.25 3.0375 2.21667 1.8375 1.67 1.575 1.49333 
1.125 1.1625 1.13333 1.075 1.03 0.9875 0.98 
8.8 5 3.70833 3.00625 2.63 2.375 2.08333 
4.8 2.7875 2.15 1.85625 1.625 1.49583 1.33333 
1.225 1 0.958333 1.05625 1.05 1.06667 1.07 
1.125 1.025 1.1 1.0625 1.07 1.0625 1.02 
8.2 4.4875 3.44167 2.825 2.52 2.34583 2.15 
2.8 1.975 1.64167 1.45625 1.35 1.24583 1.16667 
2.425 1.85 1.54167 1.36875 1.285 1.22083 1.20667 
4.575 2.925 2.34167 2.05625 1.84 1.70833 1.58667 
8.6 4.65 3.5 2.95625 2.57 2.33333 2.13667 
1.1 1.0375 1.04167 1.05 1.035 1.01667 1.04 
0.725 0.8875 0.95 0.9 0.875 0.879167 0.896667 
0.85 0.775 0.775 0.73125 0.74 0.7625 0.79 
1.45 1.5125 1.51667 1.3875 1.305 1.32083 1.29 
13.125 6.9625 4.975 3.93125 3.34 2.9375 2.52667 
8.875 5.025 3.61667 2.95625 2.585 2.26667 1.99 
1.9 1.175 1 0.89375 0.835 0.820833 0.783333 
1.2 1.1625 1.175 1.2375 1.235 1.17083 1.11333 
1.2 1.2625 1.25 1.2 1.13 1.1375 1.11 
14.85 7.9875 5.63333 4.5875 3.945 3.50833 3.06333 
9.975 5.7125 4.14167 3.375 2.95 2.625 2.25667 
5.075 3.175 2.44167 2.025 1.885 1.775 1.60667 
2.475 1.6125 1.39167 1.25 1.15 1.05 0.993333 
12.9 6.9 4.89167 3.89375 3.275 2.89583 2.53333 
0.7 0.8625 0.891667 0.93125 0.95 0.954167 0.98 
13.15 6.7 4.50833 3.43125 2.785 2.34583 1.88667 
3.125 2.2875 1.85 1.725 1.655 1.61667 1.6 
3.325 2.25 1.88333 1.7125 1.59 1.46667 1.40333 
3.775 1.9125 1.30833 1.025 0.835 0.708333 0.58 
7.125 3.9375 2.91667 2.40625 2.045 1.8125 1.63667 
6.8 3.85 2.9 2.3875 2.205 2.0125 1.86 
1.05 0.9125 0.916667 0.86875 0.925 0.95 1.02667 
1.35 1.1875 1.10833 1.1 1.07 0.9875 0.99 
7.3 4.075 2.975 2.5 2.175 1.9875 1.85333 
14.625 7.8875 5.7 4.6125 3.925 3.43333 2.94 
3.275 2.2125 1.85833 1.675 1.515 1.38333 1.23667 
11.15 5.9875 4.30833 3.44375 2.965 2.675 2.35333 
15.65 8.2125 5.69167 4.50625 3.85 3.3875 2.91667 
0.6 0.6375 0.633333 0.73125 0.855 0.895833 0.913333 
10.275 5.725 4.25 3.41875 2.935 2.61667 2.28333 
5.125 3.1 2.40833 2.05625 1.845 1.7375 1.56667 
0.925 0.775 0.708333 0.75 0.73 0.766667 0.79 
2.775 2.05 1.89167 1.6875 1.525 1.43333 1.36 
13.175 7.0625 4.94167 3.9 3.28 2.85 2.41667 
6.1 3.525 2.81667 2.35625 2.155 2.05 1.84333 
2.425 1.725 1.44167 1.3125 1.24 1.22083 1.20333 
8.75 5.025 3.65 2.98125 2.52 2.30833 2.03333 
0.9 0.925 0.941667 1.0125 1.07 1.14583 1.12333 
5.775 3.425 2.58333 2.23125 2 1.82083 1.65333 
5.375 3.1 2.25833 1.975 1.775 1.6875 1.56667 
4.575 2.6375 1.95833 1.6875 1.49 1.3625 1.30667 
5.025 2.7375 1.85833 1.41875 1.145 0.9625 0.776667 
10.925 6.1125 4.53333 3.5875 3.11 2.775 2.40667 
6.075 3.3625 2.6 2.24375 2.01 1.9 1.69333 
4.5 2.8125 2.15 1.81875 1.555 1.425 1.34 
0.9 1.0875 1.25833 1.25625 1.265 1.2375 1.21667 
14.55 7.9125 5.725 4.4875 3.795 3.30417 2.83 
5.4 2.975 2.31667 1.95625 1.765 1.69167 1.58333 
9.5 5.375 3.9 3.2 2.745 2.4625 2.12 
6.45 3.95 3.16667 2.61875 2.315 2.1 1.84333 
7.6 3.875 2.66667 2.0375 1.645 1.38333 1.12 
8.075 4.525 3.34167 2.7125 2.275 2.07917 1.90667 
10.375 5.825 4.175 3.40625 2.93 2.60833 2.29 
2 1.6875 1.40833 1.24375 1.185 1.14167 1.1 
14.55 7.3625 4.95 3.725 2.985 2.49167 2.01667 
12.375 6.5875 4.65 3.68125 3.085 2.69583 2.31 
0.8 0.875 0.875 0.99375 0.985 0.9625 0.943333 
9.95 5.4625 4.05 3.275 2.765 2.45 2.20333 
0.925 0.825 0.925 0.91875 0.92 0.916667 0.9 
11.85 6.45 4.575 3.61875 3.06 2.725 2.34667 
0.675 0.8 0.9 0.9 0.895 0.891667 0.916667 
6.475 3.6375 2.84167 2.6125 2.355 2.15833 1.90667 
8.975 4.9375 3.65 2.99375 2.56 2.27917 2.01667 
4.775 2.8125 2.325 2.04375 1.84 1.6625 1.52667 
0.775 1.0125 1.00833 1.01875 1.01 0.991667 0.973333 
3.625 2.2375 1.74167 1.5 1.41 1.325 1.25 
9.575 5.225 3.975 3.1875 2.75 2.49167 2.2 
1.05 0.9375 0.891667 0.875 0.935 0.958333 1.02667 
8.65 4.85 3.525 2.85625 2.47 2.22083 2.01667 
7.5 4.1375 3.06667 2.625 2.29 2.00833 1.73 
1.225 1.125 1.03333 1.0375 1.08 1.07083 1.03333 
8.975 4.6125 3.18333 2.4375 1.97 1.65 1.32333 
3.825 2.3125 1.83333 1.6375 1.505 1.425 1.39667 
3.15 2.1625 1.80833 1.71875 1.66 1.62083 1.60667 
5.05 3.1 2.49167 2.11875 1.895 1.73333 1.65667 
8.025 4.6 3.54167 2.8375 2.465 2.21667 1.95667 
8.925 4.8 3.51667 2.90625 2.59 2.3 2.03 
7.375 4.2625 3.23333 2.625 2.3 2.08333 1.84333 
8.1 4.4375 3.19167 2.6125 2.3 2.09583 1.86333 
7.45 4.15 3.05833 2.6 2.29 2 1.74333 
1.95 1.3875 1.21667 1.1125 1.09 1.025 0.993333 
8.45 4.775 3.65 3.05625 2.71 2.45 2.13333 
2.95 2.15 1.85 1.575 1.505 1.3875 1.24333 
2.85 1.9875 1.81667 1.65625 1.56 1.54583 1.52333 
9 4.8875 3.675 2.9875 2.585 2.325 2.12667 
9.475 5.15 3.725 2.9875 2.55 2.27083 1.96333 
11.1 6.1 4.49167 3.7 3.215 2.825 2.48333 
12.775 6.9 4.91667 3.86875 3.3 2.94583 2.50333 
1.1 1.1375 1.09167 1.0875 1.03 1.075 1.05 
0.6 0.775 0.758333 0.7625 0.845 0.945833 1 
6.675 4 2.90833 2.33125 2.015 1.77083 1.57 
3.5 2.2 1.65833 1.43125 1.295 1.22083 1.12333 
1.075 1.0125 0.933333 0.9625 0.98 1.02917 1.03 
1.15 1.0125 1.01667 1 0.955 0.966667 1 
5.925 3.2125 2.34167 1.93125 1.72 1.57083 1.46333 
12.85 6.8 4.875 3.89375 3.29 2.88333 2.5 
0.75 0.8375 0.725 0.7375 0.735 0.7625 0.803333 
1.475 1.3375 1.25833 1.25625 1.26 1.20833 1.16667 
11.3 6.15 4.425 3.59375 3.09 2.69583 2.31333 
0.875 1.0375 0.95 0.95625 0.94 0.954167 0.93 
3.175 2.05 1.61667 1.39375 1.315 1.2625 1.23667 
1.55 1.25 1.04167 1.0375 1.09 1.17083 1.14333 
8.95 4.5875 3.125 2.36875 1.915 1.63333 1.31333 
9.2 5.275 3.89167 3.1375 2.685 2.36667 2.09 
0.9 0.9125 0.883333 0.91875 0.905 0.895833 0.883333 
8.775 4.8375 3.58333 3.01875 2.665 2.43333 2.16667 
2.375 1.6 1.33333 1.1625 1.065 1 0.93 
0.9 1 0.966667 0.925 0.985 0.958333 0.946667 
0.9 1.025 0.925 0.90625 0.95 1.00417 1.03333 
1 0.9125 0.891667 0.88125 0.89 0.916667 0.99 
0.975 0.925 0.858333 0.8375 0.83 0.825 0.813333 
1.125 1.0875 0.958333 0.93125 0.925 0.9625 0.956667 
1.05 0.9125 0.933333 0.9625 1.02 1.00417 0.97 
12.85 7.0125 4.94167 3.975 3.485 3.15 2.67333 
1.9 1.5875 1.43333 1.33125 1.28 1.1625 1.10667 
9.925 5.3 3.85 3.0875 2.635 2.36667 2.07333 
6.725 4.0625 3 2.44375 2.16 1.98333 1.74 
11.475 6.1625 4.45 3.45 2.895 2.57083 2.26667 
0.8 0.95 0.908333 0.8625 0.855 0.895833 0.896667 
7.775 4.525 3.40833 2.8125 2.495 2.22917 1.96 
1.05 1.125 1.15 1.16875 1.17 1.18333 1.11333 
3.725 2.1125 1.65 1.4625 1.37 1.3125 1.24 
11.475 6.05 4.375 3.55 2.97 2.57083 2.21 
9.35 5.5125 3.99167 3.14375 2.74 2.4625 2.15667 
2.6 2.0125 1.78333 1.6375 1.555 1.525 1.5 
2.1 1.55 1.29167 1.2125 1.165 1.2 1.23 
5.075 3.1125 2.44167 2.1125 1.865 1.7 1.51667 
1.975 1.5125 1.29167 1.175 1.095 1.02917 0.936667 
10.925 6.1125 4.4 3.53125 3.03 2.69583 2.29667 
0.85 0.925 0.883333 0.93125 0.945 0.9875 0.973333 
8.125 4.1875 2.85833 2.19375 1.78 1.5125 1.24667 
9.925 5.4 3.86667 3.1375 2.7 2.4375 2.17333 
1.325 1.3125 1.23333 1.2625 1.27 1.25833 1.33 
0.475 0.625 0.691667 0.7625 0.825 0.8375 0.873333 
4.825 2.7625 2.08333 1.85625 1.73 1.6625 1.56 
1.175 0.8625 0.933333 0.98125 0.995 1.01667 1.05333 
14.225 7.7875 5.61667 4.54375 3.88 3.44167 2.95667 
3.65 2.1125 1.64167 1.48125 1.445 1.39583 1.33333 
11.375 6.0375 4.43333 3.56875 3.06 2.74583 2.44333 
7.5 4.3 3.2 2.64375 2.325 2.07917 1.83333 
7.925 4.4625 3.3 2.76875 2.455 2.17917 1.90667 
14.1 7.7625 5.54167 4.50625 3.815 3.4125 2.98667 
4.425 2.6875 2.075 1.8375 1.66 1.5375 1.44 
7.2 4.15 3.18333 2.7125 2.335 2.075 1.83 
14.425 7.2875 4.88333 3.69375 2.97 2.49583 2.02 
4.925 2.8625 2.34167 2.13125 1.89 1.70417 1.50667 
3.2 2.1875 1.83333 1.63125 1.52 1.43333 1.31 
6.5 3.6625 2.69167 2.25625 1.98 1.76667 1.59333 
7.9 4.575 3.36667 2.825 2.455 2.175 1.98667 
9.75 5.375 3.875 3.18125 2.765 2.45833 2.25667 
11.375 6.35 4.74167 3.825 3.275 2.9 2.53667 
1.075 1.1375 1.225 1.25625 1.215 1.18333 1.11667 
8.975 4.975 3.69167 2.95 2.5 2.20417 1.94 
1.85 1.275 1.14167 1.075 1.025 0.979167 0.973333 
14.325 7.7875 5.525 4.46875 3.815 3.37083 2.92 
5.525 3.2 2.49167 2.1 1.85 1.67917 1.52667 
5.25 3.25 2.425 2.025 1.875 1.78333 1.63 
1.825 1.3125 1.14167 1.1 1.08 1.075 1.09 
2.25 1.525 1.28333 1.175 1.085 1.0625 1.01333 
0.65 0.75 0.833333 0.8875 0.91 0.904167 0.883333 
1.5 1.5 1.41667 1.375 1.335 1.3 1.29667 
9.125 4.9125 3.64167 3 2.61 2.35 2.16333 
10.325 5.7 4.14167 3.375 2.87 2.59583 2.28 
1.175 1.0875 1.11667 1.04375 1.04 1.00417 1 
0.925 0.9375 0.958333 1 0.97 0.975 0.92 
10.15 5.2625 3.575 2.725 2.195 1.84583 1.48667 
15.425 8.075 5.70833 4.53125 3.795 3.30833 2.84333 
0.8 0.75 0.783333 0.8375 0.865 0.870833 0.88 
11 5.975 4.325 3.49375 2.91 2.6125 2.25333 
1.975 1.2875 1.08333 1.125 1.03 0.958333 0.86 
10.15 5.7125 4.25 3.41875 2.935 2.6125 2.34333 
3.1 2.1625 1.81667 1.6 1.49 1.43333 1.35667 
0.825 0.775 0.791667 0.7875 0.86 0.920833 0.976667 
5.1 3 2.25833 1.88125 1.735 1.65 1.51333 
1.8 1.475 1.375 1.29375 1.245 1.22083 1.19 
1.05 0.875 0.808333 0.775 0.82 0.8375 0.88 
10.475 5.825 4.2 3.36875 2.875 2.52917 2.25667 
3.05 1.9375 1.49167 1.3375 1.24 1.1625 1.09 
1.1 0.9125 0.925 0.94375 0.93 0.933333 0.95 
9.025 5.0375 3.70833 3.0375 2.595 2.34167 2.09333 
5.55 3.3 2.5 2.09375 1.89 1.8125 1.70333 
5.4 3.15 2.50833 2.225 1.97 1.7875 1.64333 
0.775 0.875 0.925 0.86875 0.84 0.9 0.973333 
3.8 2.35 1.81667 1.575 1.425 1.31667 1.29333 
11.85 6.3 4.50833 3.65 3.065 2.67083 2.30333 
0.925 0.825 0.866667 0.88125 0.87 0.8875 0.913333 
5.95 3.5875 2.69167 2.2125 1.93 1.775 1.61 
13.35 7.2875 5.20833 4.1125 3.525 3.1 2.65 
2.9 1.9125 1.59167 1.38125 1.295 1.26667 1.23 
2.125 1.4375 1.30833 1.21875 1.19 1.17083 1.15 
1.575 1.4 1.29167 1.225 1.18 1.14583 1.11667 
8.375 4.6875 3.48333 2.85625 2.44 2.17083 1.90667 
9.2 5.025 3.73333 3.04375 2.67 2.40833 2.15667 
1.275 1.15 1.175 1.06875 1.06 1.07917 1.07667 
6.35 3.7125 2.86667 2.34375 2.02 1.82917 1.67333 
0.75 1.075 1.06667 1 1.03 1.02917 1.05333 
3.025 2.1625 1.93333 1.83125 1.8 1.73333 1.69333 
7.775 4.2375 3.2 2.60625 2.265 2.04167 1.84667 
3.45 2.225 1.8 1.58125 1.475 1.36667 1.26667 
11.85 6.325 4.51667 3.61875 3.08 2.75 2.38333 
4 2.2375 1.74167 1.51875 1.38 1.33333 1.25667 
2.775 1.9125 1.65 1.4125 1.33 1.32083 1.31667 
0.825 0.8375 0.8 0.76875 0.79 0.8125 0.936667 
0.85 1.0875 1.06667 1.08125 1.07 1.06667 1.09667 
3.575 2.0875 1.75 1.5375 1.42 1.41667 1.34667 
0.8 0.9875 1 1.05 1.035 0.991667 1.00333 
6.675 3.925 2.78333 2.25625 1.95 1.74167 1.58333 
14 7.4375 5.13333 4.03125 3.33 2.89583 2.55 
5.8 3.425 2.7 2.2875 2.03 1.80833 1.58333 
6.275 3.6 2.73333 2.28125 2.055 1.825 1.63667 
6.275 3.5 2.6 2.15625 1.88 1.72917 1.55667 
4.225 2.7125 2.21667 2 1.87 1.75833 1.66 
7.575 4.2 3.15 2.625 2.27 2.0125 1.73667 
1.2 1.225 1.30833 1.21875 1.15 1.1875 1.17333 
0.8 0.9125 0.941667 0.9125 0.96 0.966667 1.00333 
0.775 0.8125 0.875 0.99375 1.05 1.025 1.01667 
0.6 0.6875 0.741667 0.81875 0.88 0.879167 0.923333 
6.45 3.75 2.86667 2.40625 2.12 1.90833 1.74333 
8.5 4.7875 3.65 3.075 2.755 2.49167 2.22333 
12.575 6.6625 4.80833 3.8375 3.245 2.82917 2.41333 
4.65 2.75 2.13333 1.85 1.685 1.55833 1.42333 
1.8 1.5 1.30833 1.2375 1.225 1.25 1.23 
4.225 2.6 2.03333 1.73125 1.61 1.51667 1.4 
10.025 5.45 4.01667 3.275 2.78 2.42917 2.14667 
9.05 5.2125 3.775 3.0875 2.7 2.375 2.1 
1.275 1.125 1.09167 1.125 1.145 1.13333 1.11333 
10.1 5.625 4.06667 3.4125 2.925 2.60833 2.29667 
3.375 2.05 1.61667 1.4625 1.345 1.2625 1.21333 
1.875 1.3 1.15833 1.09375 1.07 1.075 1.06 
15.45 8.125 5.71667 4.5625 3.91 3.425 2.9 
8.425 4.5125 3.50833 2.9 2.485 2.30417 2.12333 
17.3 9.1 6.39167 5.075 4.23 3.65833 3.16667 
1.275 1.225 1.15 1.09375 1.09 1.05833 1.05 
5.35 3.25 2.54167 2.1625 1.955 1.85417 1.69 
6.55 3.675 2.73333 2.21875 2.015 1.8375 1.65667 
7.65 4.6 3.56667 3.0125 2.615 2.33333 2.1 
14.275 7.75 5.51667 4.36875 3.665 3.22083 2.80667 
1.7 1.325 1.28333 1.15 1.085 1.09167 1.05333 
0.75 0.9625 1.08333 1.0375 1.04 1.02917 1 
14.825 7.5625 5.10833 3.8625 3.12 2.61667 2.11667 
8.9 5 3.66667 2.925 2.505 2.24167 2.01 
0.85 0.9125 0.891667 0.9 0.895 0.941667 0.953333 
10.25 5.4625 3.99167 3.2375 2.77 2.40833 2.05 
2.075 1.3375 1.20833 1.225 1.15 1.05833 0.983333 
2.825 1.7875 1.48333 1.35 1.265 1.20417 1.16 
3.45 2.3625 1.91667 1.7 1.505 1.39167 1.28333 
10.775 5.9 4.20833 3.4 2.855 2.5875 2.29333 
5.975 3.55 2.70833 2.25625 1.985 1.81667 1.66 
1.625 1.3375 1.325 1.38125 1.36 1.29583 1.26667 
1 1.0625 0.975 0.89375 0.875 0.9 0.903333 
9.4 5.175 4 3.25 2.74 2.45417 2.16 
0.95 1.0125 1.04167 1 0.93 0.958333 1.03 
11.875 6.3375 4.675 3.825 3.29 2.8875 2.48667 
5.15 3.1 2.44167 2.0875 1.88 1.76667 1.66667 
4.525 2.625 1.95 1.60625 1.495 1.45833 1.32333 
0.575 0.7 0.758333 0.8 0.805 0.8125 0.85 
9.075 5.025 3.775 3.05625 2.57 2.27917 2.03 
1.15 1.15 1.05833 1.06875 1.065 1.075 1.08667 
7.175 4.1625 3.1 2.525 2.195 2.01667 1.84333 
14.175 7.45 5.275 4.2375 3.58 3.1125 2.68 
15.4 8.125 5.74167 4.54375 3.895 3.44167 2.95667 
3.95 2.625 2.15 1.9 1.785 1.70833 1.64333 
7.95 4.6 3.45 2.85625 2.465 2.19167 2.01333 
12.375 6.8 4.83333 3.94375 3.385 3.03333 2.7 
1.325 1.3625 1.19167 1.10625 1.04 0.995833 0.973333 
6.875 3.8125 2.875 2.40625 2.16 2.02083 1.84333 
0.7 0.6375 0.65 0.64375 0.66 0.7 0.766667 
6 3.3625 2.48333 2.0875 1.85 1.67083 1.52 
6.975 3.8875 2.85 2.3375 2.03 1.875 1.64 
4.225 2.4875 1.90833 1.625 1.45 1.32083 1.24 
5.425 3.1125 2.35 1.99375 1.825 1.725 1.55 
6.625 3.7 2.75 2.28125 2.02 1.80417 1.6 
0.875 0.8375 0.941667 0.9375 0.925 0.941667 1.01 
4.725 2.7625 2.2 1.9125 1.65 1.52083 1.43 
0.95 1.0375 1.09167 1.11875 1.095 1.075 1.04667 
0.975 0.8875 0.991667 0.99375 0.96 0.958333 1.02333 
3.575 2.35 1.89167 1.83125 1.715 1.60833 1.53667 
2.7 1.7375 1.65 1.58125 1.5 1.44583 1.36667 
5.35 3.075 2.38333 2.05625 1.92 1.82917 1.67333 
5.5 2.9625 2.19167 1.78125 1.535 1.4125 1.24667 
1.575 1.2 1.09167 1.0875 1.11 1.07083 1.08 
1.125 1.0875 1.04167 0.99375 0.945 0.9 0.856667 
4.925 2.9125 2.25833 1.98125 1.82 1.66667 1.55 
5.5 3.2 2.44167 2.0625 1.82 1.67917 1.52 
0.7 0.85 0.825 0.825 0.86 0.8625 0.86 
3.675 2.4875 2.025 1.75625 1.635 1.575 1.48333 
1.35 1.35 1.3 1.1625 1.11 1.10417 1.05 
6.375 3.7125 2.94167 2.5375 2.24 2.03333 1.81333 
8.2 4.675 3.45833 2.9625 2.605 2.39583 2.14 
13.175 7.0375 4.93333 3.95625 3.3 2.87917 2.46 
1.025 1.1625 1.175 1.11875 1.115 1.09583 1.06667 
8.275 4.75 3.55833 2.9875 2.605 2.34167 2.06667 
11.125 5.9875 4.21667 3.375 2.925 2.62917 2.27 
0.75 0.9 0.925 0.95 0.975 0.958333 0.966667 
12.975 7.0375 4.88333 3.925 3.385 3.00833 2.58333 
8.825 4.95 3.53333 2.875 2.605 2.38333 2.22667 
5.825 3.4875 2.63333 2.2875 2.03 1.82083 1.63333 
6.925 3.625 2.48333 1.925 1.57 1.31667 1.06667 
3.35 2.375 1.875 1.69375 1.565 1.45833 1.36333 
1.075 0.9625 0.941667 0.96875 1.01 1.07917 1.08667 
11.875 6.3875 4.525 3.64375 3.125 2.77083 2.4 
8.75 4.4625 3.05 2.3375 1.89 1.5875 1.29333 
7.55 4.1125 3.025 2.425 2.1 1.91667 1.68667 
1.375 1.3125 1.25 1.225 1.215 1.24583 1.19 
0.975 1.0625 1.05 1.0375 1.03 1.04167 1.01333 
2.1 1.9 1.675 1.56875 1.48 1.45417 1.41667 
1 0.8125 0.775 0.7375 0.79 0.825 0.886667 
2.825 1.925 1.73333 1.5375 1.41 1.32083 1.33333 
2.5 1.6875 1.36667 1.31875 1.26 1.27917 1.23333 
11.5 6.05 4.35833 3.45 2.985 2.6625 2.32 
9.7 5.525 4.075 3.2625 2.82 2.5125 2.24667 
8.4 4.6625 3.575 2.85625 2.465 2.21667 1.96667 
7.4 4.15 3.125 2.6 2.22 1.96667 1.71667 
0.925 0.8625 0.841667 0.8625 0.845 0.858333 0.896667 
2.625 1.95 1.575 1.4375 1.355 1.26667 1.18333 
0.95 1.0125 0.991667 1.0125 1.03 1.02083 1.04333 
7.6 4.375 3.26667 2.7 2.33 2.0875 1.82 
1.275 1.4 1.36667 1.25625 1.19 1.1875 1.12 
1.35 1.325 1.175 1.16875 1.165 1.175 1.14333 
2.25 1.4875 1.3 1.24375 1.165 1.15833 1.16667 
8.325 4.7625 3.39167 2.81875 2.525 2.25 2.01 
1.625 0.8375 0.608333 0.46875 0.39 0.333333 0.29 
0.95 1 0.958333 0.90625 0.945 0.958333 1.02 
13.9 7.3625 5.08333 3.99375 3.365 2.96667 2.55667 
0.875 0.8625 0.858333 0.9125 0.95 0.958333 0.956667 
1.05 0.8875 0.933333 0.93125 0.94 0.983333 1.00667 
1.15 1.0875 1.125 1.0375 1.09 1.10833 1.13333 
9.225 4.8625 3.51667 2.9 2.48 2.18333 1.9 
0.7 0.8375 0.891667 1.0125 1.025 1.01667 1.02667 
1.25 1.15 1.16667 1.15 1.12 1.04583 1.02 
9.3 4.7375 3.24167 2.46875 1.995 1.675 1.36667 
10.5 5.7125 4.20833 3.48125 3.045 2.68333 2.30667 
7.575 4.2875 3.09167 2.4625 2.08 1.89583 1.66333 
6.925 3.8 2.85833 2.425 2.215 2.03333 1.85333 
2.05 1.3625 1.20833 1.10625 1.09 1.09167 1.08333 
1.275 1.225 1.14167 1.0875 1.065 1.025 0.98 
2.2 1.5 1.4 1.4 1.315 1.24167 1.22667 
7.3 4.0875 2.98333 2.4375 2.14 1.94167 1.75 
14.875 7.5125 5.05833 3.8125 3.085 2.5875 2.08333 
4.275 2.725 2.09167 1.8375 1.665 1.6125 1.50667 
12.275 6.6875 4.85833 3.9375 3.325 2.90833 2.51667 
1.275 1.0125 0.941667 0.9625 0.985 0.9875 0.923333 
1.025 0.95 1.00833 1.0375 1.03 1.00417 0.98 
0.875 0.8625 0.75 0.79375 0.785 0.829167 0.833333 
3.425 2.05 1.69167 1.5125 1.445 1.3375 1.27 
1.725 1.2375 1.10833 1.00625 0.95 0.941667 0.983333 
3.55 2.375 1.975 1.7625 1.68 1.61667 1.54333 
2.625 1.625 1.45833 1.3375 1.29 1.29583 1.25333 
0.8 0.7625 0.9 1.03125 1.08 1.09167 1.05 
4.15 2.6 2.15833 1.875 1.625 1.4625 1.34 
3.075 1.9625 1.58333 1.4375 1.38 1.29583 1.26333 
4.525 2.7875 2.16667 1.83125 1.615 1.50417 1.44333 
7.025 4.05 2.90833 2.43125 2.185 1.94167 1.71667 
2.7 1.875 1.48333 1.4 1.38 1.30833 1.28667 
2.675 1.825 1.65833 1.5125 1.405 1.37083 1.32667 
0.925 0.8875 0.925 0.9375 0.905 0.8875 0.946667 
14.75 7.525 5.075 3.8375 3.085 2.59583 2.10667 
9.45 5.2 3.73333 3.10625 2.645 2.32917 2.09 
8.675 4.825 3.60833 2.8625 2.45 2.13333 1.83 
5.925 3.45 2.6 2.15625 1.89 1.6875 1.59 
12.5 6.8 4.85833 3.825 3.295 2.9625 2.53 
1.325 1.0375 0.958333 0.95625 0.99 0.991667 1.00667 
4.05 2.525 2.04167 1.75 1.56 1.45417 1.34333 
5.675 3.2 2.30833 1.8625 1.655 1.55 1.38333 
1 0.9625 0.958333 0.9875 0.99 0.958333 0.963333 
8.725 4.725 3.5 2.84375 2.48 2.23333 2.01333 
8.85 5 3.79167 3.1375 2.81 2.5375 2.24333 
1.1 1.2125 1.10833 1.0875 1.105 1.06667 1.03333 
4.025 2.375 1.78333 1.58125 1.515 1.40833 1.29333 
6.9 4.025 3.21667 2.84375 2.535 2.2875 2.01667 
9.55 5.4625 4.00833 3.26875 2.86 2.55 2.27667 
8.8 4.9375 3.56667 2.96875 2.575 2.29167 2.02667 
5.425 3.325 2.65 2.1875 1.935 1.79167 1.65333 
4.475 2.6125 1.96667 1.675 1.485 1.375 1.40333 
1.075 1.0875 1.04167 0.96875 0.93 0.920833 0.906667 
14.2 7.25 4.9 3.7125 2.995 2.5125 2.02333 
10.95 5.6875 3.85 2.94375 2.375 1.99167 1.60667 
0.875 0.8 0.783333 0.86875 0.865 0.879167 0.896667 
15.9 8.4375 5.875 4.5875 3.895 3.4125 2.89333 
7.075 4.125 3.19167 2.625 2.27 1.99583 1.79 
5.225 2.9875 2.325 1.99375 1.74 1.60417 1.46667 
1.125 1.2125 1.125 1.09375 1.075 1.04583 1.05 
0.975 1.0875 1.075 0.98125 0.945 0.954167 0.906667 
4.975 2.8875 2.325 2.00625 1.75 1.69167 1.58 
1.125 1.0375 0.958333 0.98125 1.05 1.04167 1.03333 
11.75 6.4125 4.64167 3.7125 3.17 2.79583 2.40333 
6.25 3.625 2.7 2.24375 2 1.84583 1.65333 
4.925 3.075 2.33333 1.93125 1.68 1.54167 1.39333 
0.925 0.9 0.9 0.95 0.99 0.970833 0.95 
4.575 2.7875 2.175 1.85 1.655 1.54583 1.37333 
5.125 3.0375 2.29167 1.95 1.76 1.6 1.42333 
6.95 4.2875 3.20833 2.70625 2.325 2.1 1.84667 
8.8 4.9875 3.71667 3.125 2.715 2.47917 2.26 
10.65 5.725 4.13333 3.30625 2.83 2.55 2.27667 
5.05 3.1 2.35833 1.98125 1.825 1.66667 1.48333 
5.4 3.2625 2.51667 2.10625 1.84 1.66667 1.53 
0.9 1.0125 0.991667 0.95 0.93 0.916667 0.936667 
12.225 6.35 4.5 3.61875 3.08 2.75417 2.40667 
2.6 1.675 1.40833 1.225 1.16 1.12917 1.08667 
14.575 7.925 5.7 4.58125 3.855 3.42917 2.97 
3.375 2.1625 1.85 1.69375 1.595 1.49583 1.42333 
8.8 4.85 3.65833 3.0375 2.6 2.37917 2.08667 
3.425 2.375 1.98333 1.79375 1.69 1.61667 1.49667 
2.85 2 1.68333 1.4875 1.385 1.275 1.18667 
1.1 1.0125 0.958333 0.99375 0.99 0.970833 0.963333 
2.975 1.8 1.475 1.25625 1.185 1.125 1.09333 
10.8 5.5875 3.775 2.8625 2.3 1.925 1.57333 
9.3 5.075 3.55 2.85 2.465 2.2125 1.97 
1.1 0.9125 0.916667 0.94375 0.945 0.920833 0.98 
12.5 6.6375 4.74167 3.8 3.24 2.85833 2.44 
5.525 3.2375 2.5 2.11875 1.9 1.78333 1.64333 
9.6 4.85 3.3 2.5 2.035 1.7125 1.38 
2.25 1.6 1.35833 1.25 1.205 1.125 1.06667 
1 1.15 1.1 1.1 1.16 1.14583 1.09 
7.5 4.2875 3.13333 2.55625 2.255 2.0375 1.85333 
0.625 0.7 0.783333 0.76875 0.825 0.841667 0.886667 
5.525 3.2 2.40833 2.06875 1.84 1.64583 1.49333 
2.9 1.925 1.60833 1.4125 1.36 1.38333 1.33 
4.75 2.9625 2.33333 2.025 1.815 1.6875 1.48333 
0.75 0.875 0.933333 0.93125 0.93 0.933333 0.943333 
3.275 2.2875 1.825 1.56875 1.475 1.425 1.33 
1 0.825 0.808333 0.78125 0.785 0.779167 0.77 
5.425 3.3375 2.59167 2.2 2.025 1.8375 1.68667 
2.35 1.7 1.54167 1.5 1.435 1.42083 1.42667 
5.725 3.4 2.525 2.1 1.79 1.65417 1.49667 
0.95 0.925 0.908333 0.875 0.835 0.833333 0.896667 
12.375 6.6875 4.725 3.75 3.115 2.72083 2.37 
9.575 4.9 3.325 2.54375 2.07 1.75 1.42 
18.025 9.6 6.725 5.26875 4.32 3.71667 3.12 
8.6 4.925 3.55833 2.8625 2.465 2.2125 2.01667 
5.075 3.0375 2.4 2.0625 1.895 1.80417 1.66 
5.725 3.45 2.64167 2.23125 1.95 1.8125 1.69667 
10.9 6 4.26667 3.4375 2.97 2.63333 2.26333 
3.075 2.275 1.78333 1.625 1.53 1.475 1.41 
3.7 2.4125 1.925 1.68125 1.51 1.425 1.33333 
3.65 2.475 2.025 1.725 1.55 1.45417 1.37333 
14.5 7.75 5.56667 4.4625 3.91 3.475 2.96333 
13.225 7.025 4.925 3.96875 3.39 3.00417 2.57667 
1.125 1.1375 1.13333 1.11875 1.07 1.075 1.07667 
9.3 5.1625 3.85 3.24375 2.86 2.55 2.25333 
0.725 0.8625 0.825 0.7875 0.78 0.8 0.876667 
1.075 1.1875 1.18333 1.11875 1.14 1.13333 1.08333 
1.25 1.0625 1.01667 1.08125 1.08 1.12917 1.13667 
1.025 0.925 0.858333 0.9 0.955 0.941667 0.97 
1.25 1.025 0.983333 0.99375 1.04 1.05417 1.05 
11.425 6.025 4.3 3.40625 2.965 2.6375 2.25667 
6.325 3.825 2.85833 2.4375 2.155 1.92083 1.71667 
0.8 0.9125 0.983333 0.9 0.91 0.916667 0.89 
12.575 6.65 4.81667 3.83125 3.25 2.88333 2.46333 
7.425 4.15 3.08333 2.53125 2.2 2.025 1.85667 
0.825 1.075 1.06667 1.00625 1.025 1.02917 1.05 
9.825 5.325 3.90833 3.15625 2.695 2.38333 2.08 
10.5 5.9125 4.24167 3.39375 2.93 2.60833 2.26667 
0.85 0.775 0.783333 0.85 0.91 0.95 0.97 
3.725 2.3625 1.825 1.54375 1.475 1.37083 1.28 
1.375 1.3375 1.325 1.3375 1.315 1.3125 1.28 
4.675 2.7375 2.28333 2.05 1.915 1.82083 1.7 
15.1 7.9 5.5 4.33125 3.66 3.23333 2.77 
1.25 1.25 1.225 1.18125 1.195 1.175 1.13 
2.7 1.9 1.54167 1.35625 1.33 1.3125 1.25 
1.55 1.2 1.15833 1.15 1.055 1.025 0.986667 
8.175 4.5 3.38333 2.81875 2.475 2.2875 2.07333 
1.225 1.3 1.18333 1.1625 1.145 1.15 1.12333 
5.575 3.3375 2.55 2.16875 1.92 1.77083 1.64667 
0.8 0.925 0.883333 0.9375 0.985 0.9875 0.96 
3.275 2.15 1.90833 1.74375 1.595 1.48333 1.38667 
0.9 0.95 0.941667 0.95 0.975 0.991667 0.96 
6.85 3.6625 2.65833 2.1 1.795 1.64583 1.48 
1.1 0.9125 0.85 0.85625 0.865 0.883333 0.923333 
6.025 3.275 2.475 2.16875 1.925 1.79167 1.64333 
8.125 4.4875 3.39167 2.83125 2.455 2.20417 1.95 
1.025 0.9375 1.01667 0.9625 0.945 0.908333 0.923333 
3.025 2.2125 1.95 1.69375 1.58 1.5125 1.42333 
10.175 5.7375 4.05833 3.30625 2.93 2.65833 2.43333 
2.925 2.0875 1.74167 1.55625 1.42 1.3625 1.28667 
1.8 1.5125 1.36667 1.25625 1.235 1.2 1.15 
3.925 2.6875 2.325 2.075 1.905 1.85833 1.74 
2.425 1.5 1.30833 1.28125 1.3 1.25417 1.22 
4.55 2.7375 2.23333 1.88125 1.69 1.57083 1.45667 
1.975 1.4375 1.33333 1.24375 1.205 1.18333 1.2 
2.375 1.575 1.25833 1.19375 1.16 1.17917 1.16667 
12.3 6.6 4.68333 3.71875 3.145 2.775 2.43667 
1.3 1.1875 1.14167 1.075 1.06 1.075 1.02333 
1.975 1.575 1.38333 1.20625 1.195 1.19583 1.17667 
7.325 4.0875 3.06667 2.525 2.22 2.0125 1.80333 
2.4 1.55 1.31667 1.2375 1.225 1.20417 1.19333 
7.85 4.3125 3.125 2.6375 2.31 2.07917 1.9 
5.1 3.0375 2.425 2.10625 1.89 1.775 1.66 
2.475 1.6875 1.56667 1.5375 1.485 1.51667 1.50667 
1.075 0.9375 0.891667 1 1.035 1.075 1.07333 
0.525 0.5875 0.591667 0.675 0.67 0.75 0.83 
7.7 4.4625 3.33333 2.68125 2.315 2.075 1.87333 
0.775 0.725 0.825 0.8625 0.875 0.841667 0.85 
5.95 3.5875 2.75 2.225 2 1.82083 1.59667 
0.775 0.8875 0.9 0.9375 0.97 0.9875 1.01667 
4.95 3.0875 2.26667 1.9125 1.74 1.66667 1.56667 
3.725 2.275 1.81667 1.6125 1.535 1.42083 1.37333 
8.075 4.3625 3.225 2.6125 2.28 2.03333 1.83333 
0.625 0.75 0.875 0.95625 1.035 0.9875 0.97 
2.35 1.7375 1.56667 1.45 1.37 1.32083 1.25 
2.4 1.7125 1.46667 1.3375 1.24 1.2 1.17 
4.85 3.1625 2.575 2.23125 2.005 1.875 1.75333 
5.3 3.0625 2.34167 2.00625 1.755 1.57083 1.45667 
4.6 2.7375 2.20833 1.925 1.76 1.60833 1.44 
3.125 2.05 1.59167 1.48125 1.385 1.2875 1.20667 
7.725 4.5875 3.49167 2.95625 2.6 2.31667 2.04333 
1.975 1.375 1.25 1.26875 1.195 1.125 1.01667 
1.375 1.2125 1.26667 1.23125 1.14 1.1 1.09 
0.825 0.75 0.8 0.8 0.835 0.9 0.88 
11.675 6.475 4.775 3.90625 3.325 2.92083 2.52667 
1.2 1.2875 1.23333 1.15625 1.09 1.08333 1.08 
8.05 4.5 3.225 2.64375 2.245 2.00417 1.87 
9.85 5.375 3.85 3.1125 2.72 2.44583 2.17333 
8.075 4.4875 3.33333 2.7 2.29 2.075 1.90333 
5.825 3.3375 2.70833 2.325 2.06 1.8125 1.61333 
3.3 2.375 1.94167 1.675 1.585 1.45833 1.31 
4.25 2.75 2.20833 1.85 1.675 1.58333 1.50667 
2.85 1.85 1.56667 1.44375 1.38 1.33333 1.32333 
6.35 3.65 2.84167 2.38125 2.1 1.8875 1.7 
3.9 2.2875 1.84167 1.625 1.51 1.42917 1.31 
7.1 3.95 3.01667 2.5125 2.225 2.05833 1.88667 
0.625 0.725 0.658333 0.69375 0.7 0.725 0.796667 
0.575 0.6375 0.65 0.6875 0.83 0.925 0.91 
3.525 2.1875 1.75 1.50625 1.375 1.30417 1.24667 
12.325 6.2375 4.26667 3.26875 2.645 2.23333 1.81 
5.875 3.4875 2.63333 2.2375 2 1.77917 1.59333 
0.65 0.8125 0.8 0.81875 0.85 0.870833 0.883333 
0.825 0.9 0.9 0.925 0.985 0.975 0.956667 
0.625 0.7125 0.766667 0.825 0.825 0.841667 0.86 
0.775 1.025 1.09167 1.025 0.965 0.945833 0.923333 
1.375 1.4625 1.44167 1.3875 1.39 1.3625 1.3 
0.875 0.8125 0.775 0.81875 0.86 0.879167 0.876667 
0.65 0.8125 0.883333 0.85 0.875 0.916667 0.89 
0.8 0.75 0.716667 0.74375 0.765 0.75 0.74 
2.275 1.525 1.33333 1.275 1.25 1.19167 1.17 
7.625 4.2375 3.13333 2.64375 2.275 2.01667 1.74333 
6.425 3.75 2.825 2.26875 2.05 1.92083 1.76667 
1.175 1.125 1.05 1.075 1.08 1.06667 1.09333 
5.925 3.475 2.675 2.2625 1.965 1.81667 1.63 
2.775 2.1875 1.90833 1.80625 1.765 1.72917 1.7 
7.875 4.3625 3.19167 2.63125 2.31 2.15417 1.91333 
3.1 2.2125 1.91667 1.7125 1.61 1.54167 1.51667 
1.125 1.1125 1.08333 1.0875 1.025 1.0125 0.996667 
2.95 2.1625 1.9 1.70625 1.63 1.55 1.45 
14.175 7.675 5.48333 4.3625 3.695 3.27083 2.79 
9.35 5.0625 3.60833 2.91875 2.545 2.3 2 
6 3.6625 2.85833 2.375 2.06 1.81667 1.63667 
3.25 2.3875 2.025 1.75 1.555 1.4875 1.39333 
8.925 4.8875 3.49167 2.83125 2.515 2.22917 1.97667 
8.925 5.0875 3.73333 3.075 2.66 2.42083 2.15333 
0.875 0.925 1.08333 1.15625 1.105 1.10417 1.08667 
13.15 7.275 5.30833 4.31875 3.665 3.275 2.88667 
0.725 0.7375 0.8 0.86875 0.92 0.958333 0.98 
12.075 6.675 4.825 3.9625 3.44 3.0625 2.6 
1.35 1.2875 1.23333 1.20625 1.165 1.125 1.10333 
1.45 1.4 1.28333 1.16875 1.105 1.08333 1.09 
1.675 1.2875 1.25833 1.2375 1.195 1.18333 1.16333 
6.025 3.6 2.84167 2.49375 2.24 2.0625 1.91 
4.35 2.775 2.21667 1.91875 1.73 1.625 1.51 
1.525 1.2625 1.19167 1.1875 1.14 1.1125 1.09667 
5.7 3.2875 2.46667 2.05 1.85 1.7375 1.58 
2.95 2.1 1.70833 1.4375 1.295 1.22083 1.22 
2.675 1.8625 1.475 1.35625 1.275 1.26667 1.22333 
1 0.9625 0.991667 0.98125 0.96 0.970833 0.993333 
0.575 0.7125 0.783333 0.76875 0.785 0.8375 0.843333 
5.975 3.375 2.65833 2.26875 2 1.8125 1.63 
1.75 1.4 1.26667 1.14375 1.09 1.1125 1.08 
0.95 1.1375 1.13333 1.03125 1.02 0.9875 0.96 
1.5 1.375 1.34167 1.2125 1.145 1.15 1.11333 
9.5 5.3625 3.85833 3.06875 2.625 2.33333 2.00667 
0.925 0.9125 0.825 0.83125 0.835 0.85 0.866667 
0.75 0.7125 0.766667 0.8 0.815 0.866667 0.956667 
0.7 0.5375 0.683333 0.7875 0.86 0.854167 0.88 
7.85 4.45 3.31667 2.6625 2.225 2.03333 1.86333 
1.5 1.3 1.325 1.23125 1.165 1.125 1.07 
12.275 6.6 4.65833 3.65625 3.11 2.74167 2.33333 
0.75 0.925 0.958333 0.88125 0.925 0.945833 0.943333 
3.35 2.2 1.81667 1.64375 1.535 1.47083 1.38667 
0.675 0.7375 0.85 0.88125 0.895 0.908333 0.89 
11.35 6.325 4.7 3.79375 3.265 2.875 2.52 
7.1 4.0125 2.98333 2.46875 2.15 1.95 1.69 
10.075 5.5875 4.21667 3.4125 2.91 2.57083 2.23333 
1.95 1.55 1.45833 1.34375 1.32 1.30833 1.23667 
0.6 0.825 0.875 0.875 0.845 0.858333 0.85 
4.65 2.7125 2.09167 1.85625 1.65 1.4875 1.42 
0.675 0.6125 0.683333 0.7 0.735 0.758333 0.796667 
8.9 5.0875 3.78333 3.15 2.74 2.42917 2.09667 
4.15 2.775 2.40833 2.13125 1.995 1.87083 1.74333 
1.15 0.975 1 0.96875 0.99 0.975 0.96 
1.625 1.3125 1.15833 1.09375 1.07 1.0125 0.97 
3.9 2.45 1.86667 1.54375 1.365 1.35 1.31 
9.6 5.2625 3.76667 3.075 2.71 2.42917 2.14333 
0.675 0.7875 0.908333 0.975 1.03 1.03333 1.03667 
5.75 3.3875 2.58333 2.16875 1.99 1.85 1.68333 
4.225 2.5625 2.05 1.8 1.62 1.49167 1.38333 
2.975 2.1625 1.86667 1.725 1.615 1.52917 1.42 
0.9 0.8875 1.01667 1 0.955 0.9375 0.933333 
10.975 6.0875 4.48333 3.66875 3.21 2.8875 2.48667 
0.85 0.9375 0.958333 0.93125 0.93 0.966667 0.963333 
4.3 2.725 2.06667 1.8 1.655 1.52083 1.41333 
5.225 3.325 2.53333 2.13125 1.91 1.78333 1.65333 
7.2 4.0125 2.925 2.33125 2.005 1.75833 1.54333 
3.275 2.1875 1.775 1.51875 1.385 1.29583 1.26333 
12.4 6.6 4.625 3.6375 3.01 2.61667 2.31 
0.925 1.0625 1.00833 0.9875 0.935 0.9 0.893333 
6.275 3.5 2.55833 2.25 2.18 2.07917 1.87 
13.225 7.0875 4.90833 3.8375 3.25 2.84167 2.44667 
3.35 2.3375 1.95833 1.71875 1.565 1.475 1.36 
1 1.1125 1.05833 1.03125 1.025 0.995833 0.96 
0.8 1.0875 1.13333 1.05 1.04 1.09167 1.03 
0.975 0.8 0.808333 0.85625 0.88 0.895833 0.896667 
2.225 1.875 1.55 1.3375 1.255 1.2375 1.15667 
12.225 6.7 4.80833 3.8375 3.23 2.8125 2.44667 
2.6 1.9375 1.65833 1.5125 1.415 1.3375 1.29 
16.6 8.975 6.29167 5.025 4.225 3.6625 3.06333 
8.275 4.8125 3.65833 2.94375 2.515 2.275 1.99 
7.925 4.4375 3.26667 2.66875 2.345 2.12917 1.88667 
8.35 4.825 3.51667 2.94375 2.61 2.3375 2.04333 
7.575 4.2625 3.23333 2.64375 2.345 2.09167 1.87667 
7.675 4.35 3.29167 2.74375 2.415 2.13333 1.87667 
13.65 7.1375 5.025 3.90625 3.255 2.82083 2.43 
5.4 3.075 2.375 1.9875 1.76 1.62083 1.53333 
1.425 1.2 1.10833 1.05 1.075 1.0375 1.02333 
9.85 5.2375 3.85 3.08125 2.58 2.30833 2.03 
0.85 0.875 0.875 0.88125 0.915 0.933333 0.943333 
13.5 7.2375 5.21667 4.2375 3.59 3.15833 2.69 
4.85 2.8625 2.25833 1.98125 1.765 1.64583 1.51333 
4.65 3.025 2.36667 2.0875 1.87 1.72917 1.61 
0.675 0.625 0.691667 0.75625 0.74 0.775 0.776667 
12.85 6.95 4.93333 3.93125 3.32 2.97917 2.57667 
4.9 2.8375 2.16667 1.88125 1.745 1.57917 1.43667 
11.25 6.2 4.425 3.66875 3.225 2.9125 2.48667 
4.75 2.6625 2.04167 1.73125 1.505 1.39583 1.3 
9.45 5.15 3.69167 3.03125 2.655 2.38333 2.16 
11.775 6.625 4.89167 4.0125 3.375 2.93333 2.48333 
2.575 1.8125 1.56667 1.41875 1.335 1.20833 1.09 
9.225 5.0625 3.825 3.23125 2.845 2.48333 2.19 
1.225 1.175 1.1 1.1125 1.115 1.1 1.13667 
2.775 1.9 1.49167 1.3 1.235 1.19583 1.12667 
12.6 6.7375 4.75833 3.79375 3.27 2.91667 2.52333 
1.05 1.0375 1.03333 1.01875 1.015 1.05417 1.11 
6.6 3.625 2.73333 2.31875 2.045 1.85 1.69333 
7.5 4.4125 3.26667 2.675 2.295 2.10417 1.87667 
2.725 1.7625 1.46667 1.3375 1.31 1.25417 1.13 
4.275 2.6 2.11667 1.79375 1.595 1.52083 1.46 
2.525 1.8 1.46667 1.35 1.27 1.2375 1.17333 
0.825 0.9125 0.983333 0.95 0.965 0.966667 0.933333 
12.65 6.8625 4.85 3.8375 3.21 2.79167 2.41333 
3.125 2.15 1.80833 1.58125 1.48 1.45833 1.37667 
6.375 3.775 2.9 2.5 2.14 1.89583 1.67 
0.675 0.85 0.9 0.91875 0.9 0.883333 0.963333 
6.75 4.0125 3.075 2.625 2.345 2.11667 1.89 
2.35 1.5125 1.29167 1.25625 1.21 1.175 1.14 
9.2 4.9875 3.69167 3.0625 2.645 2.38333 2.13333 
7 4.3125 3.16667 2.63125 2.305 2.06667 1.82667 
8.425 4.7 3.475 2.9 2.54 2.25833 2.00667 
1.025 0.95 0.991667 0.9125 0.875 0.879167 0.863333 
6.65 3.825 2.85833 2.36875 2.135 1.975 1.81667 
7.4 4.1 2.95833 2.46875 2.22 2.04167 1.79667 
14.25 7.625 5.425 4.2875 3.63 3.1875 2.77333 
5.875 3.5375 2.74167 2.30625 2.075 1.90417 1.78667 
6.8 3.8875 2.9 2.375 2.08 1.93333 1.76333 
1 0.9375 0.875 0.91875 0.88 0.9125 0.97 
6 3.575 2.675 2.23125 1.98 1.80417 1.61 
1.9 1.5 1.4 1.3 1.235 1.17083 1.14667 
5.425 3.0625 2.36667 2.1375 1.955 1.775 1.61667 
0.9 0.975 0.991667 0.98125 0.975 0.95 0.94 
1.075 1.0375 1.1 1.15625 1.16 1.13333 1.07667 
0.95 0.875 0.891667 0.875 0.865 0.9 0.976667 
1.1 1.25 1.275 1.25625 1.24 1.19167 1.14667 
1.225 1.1125 1.03333 1.03125 1.1 1.09167 1.06 
3.775 2.3875 1.90833 1.74375 1.615 1.5 1.35333 
0.9 0.9625 1 0.94375 0.91 0.954167 0.993333 
1.35 1.15 1.03333 1.04375 1.12 1.1125 1.09 
6.325 3.7375 2.75 2.1875 1.88 1.74167 1.56 
1.35 1.2125 0.983333 0.89375 0.845 0.8 0.78 
5 2.9875 2.18333 1.85625 1.7 1.6375 1.51 
3.875 2.6375 2.1 1.80625 1.64 1.55417 1.46 
6.9 3.8875 2.925 2.45 2.19 2.00833 1.82333 
14.275 7.7125 5.475 4.3375 3.675 3.26667 2.78333 
3 1.95 1.55 1.30625 1.21 1.15833 1.07333 
5.525 3.1875 2.5 2.21875 2.025 1.925 1.78 
7.05 4.2625 3.13333 2.5625 2.225 2.03333 1.80667 
5.6 3.2 2.45833 2.03125 1.785 1.6625 1.56333 
12.05 6.85 4.98333 4.00625 3.445 3.0375 2.59 
8.725 4.7 3.40833 2.775 2.395 2.15833 1.97667 
1.15 1.125 1.06667 1.05 1.075 1.0625 1.09 
3.95 2.35 1.775 1.51875 1.375 1.32917 1.26 
1.7 1.3125 1.11667 1.0875 1.055 1.05 1.04667 
0.7 0.65 0.7 0.75625 0.72 0.758333 0.77 
1.2 1.225 1.20833 1.23125 1.19 1.17917 1.16333 
8.575 4.8625 3.61667 2.975 2.65 2.37917 2.07667 
1.15 1.175 1.1 0.99375 1.015 0.979167 0.973333 
10.375 5.825 4.15 3.325 2.83 2.50417 2.16667 
10.6 5.9 4.30833 3.5375 3.055 2.74167 2.37333 
5.525 3.2125 2.45 2.1125 1.86 1.7 1.56333 
7.3 4.2 3.09167 2.53125 2.2 2.02917 1.79333 
0.675 0.725 0.808333 0.8125 0.785 0.845833 0.903333 
2.95 1.85 1.65833 1.50625 1.44 1.38333 1.34 
6.8 3.675 2.65 2.14375 1.855 1.59583 1.40333 
9.55 5.25 3.71667 3.075 2.725 2.4875 2.28333 
5.875 3.35 2.49167 2.06875 1.865 1.72917 1.54667 
10.225 5.2 3.59167 2.71875 2.195 1.84583 1.50333 
0.95 1.125 1.16667 1.1125 1.105 1.1125 1.1 
9.425 5.0875 3.69167 3.05 2.595 2.38333 2.12667 
13.1 7.1625 4.98333 3.9625 3.355 2.94583 2.52667 
16.1 8.575 5.99167 4.725 3.975 3.5125 3.03333 
3.875 2.3625 1.94167 1.65625 1.505 1.39167 1.30667 
8.65 4.8125 3.63333 2.95625 2.525 2.25417 2.00333 
5.85 3.3625 2.5 2.0875 1.89 1.775 1.64667 
4.8 2.8375 2.15 1.80625 1.595 1.43333 1.34 
0.775 0.8625 0.891667 0.89375 0.875 0.891667 0.89 
1.2 1.275 1.25833 1.26875 1.23 1.24167 1.19 
2.15 1.6 1.45 1.31875 1.245 1.1625 1.08 
5.075 3.15 2.41667 2.075 1.83 1.71667 1.56333 
6.45 3.6875 2.74167 2.20625 1.925 1.7375 1.57333 
0.8 0.85 0.875 0.88125 0.88 0.895833 0.873333 
1.3 1.1875 1.19167 1.1375 1.13 1.1125 1.05667 
10.6 5.8125 4.16667 3.39375 2.895 2.56667 2.24 
0.975 0.925 0.95 1.0125 1.02 0.991667 1.06 
1.275 1.225 1.28333 1.2625 1.21 1.1625 1.14333 
11.025 6.3125 4.55 3.58125 3.075 2.75417 2.4 
0.75 0.825 0.891667 0.875 0.885 0.8875 0.883333 
4.225 2.575 2.03333 1.79375 1.71 1.57083 1.46667 
9.3 5.1 3.64167 2.9375 2.495 2.16667 1.85667 
10.375 5.725 4.25833 3.43125 2.865 2.50833 2.17 
4.125 2.4375 1.90833 1.64375 1.495 1.39583 1.33333 
0.9 0.8875 0.883333 0.975 1.005 1.02917 1.02667 
14.3 7.65 5.41667 4.28125 3.61 3.1625 2.77333 
0.975 0.925 0.991667 1.025 1.045 1.04583 1.03667 
11.6 6.25 4.40833 3.5125 2.95 2.61667 2.26667 
0.825 0.925 0.975 1.0125 1.01 1.05417 1.04333 
7.45 4.2625 3.15833 2.6375 2.295 2.0625 1.85 
19.625 10.525 7.35833 5.75625 4.84 4.15833 3.45 
13.275 7.0375 4.95833 3.9375 3.34 2.90417 2.50667 
7.525 4.1375 3.025 2.45 2.09 1.91667 1.72 
4.575 2.725 2.19167 1.86875 1.655 1.54583 1.44333 
4.475 2.7 2.15 1.8875 1.725 1.63333 1.49333 
15.025 8.025 5.66667 4.48125 3.75 3.29583 2.84667 
2.925 1.9625 1.61667 1.5 1.365 1.325 1.31 
2.35 1.6875 1.50833 1.36875 1.305 1.2125 1.18 
0.825 0.6875 0.716667 0.74375 0.75 0.7875 0.78 
0.725 0.6875 0.791667 0.93125 0.985 0.958333 0.91 
0.875 0.8875 0.933333 0.99375 1 0.995833 0.993333 
12.2 6.7375 4.85833 3.83125 3.32 2.89583 2.43667 
10.25 5.675 4.08333 3.275 2.765 2.46667 2.13667 
12.35 6.875 5.15 4.05625 3.425 3.05833 2.59333 
12.7 6.475 4.39167 3.3375 2.69 2.25417 1.83333 
3.225 2.1625 1.875 1.65625 1.54 1.45833 1.35333 
2.85 2.0125 1.68333 1.54375 1.48 1.38333 1.25667 
1 1.05 0.983333 0.975 0.975 0.966667 0.91 
3.25 2.15 1.83333 1.70625 1.555 1.45417 1.33333 
5.15 3.25 2.65 2.24375 1.99 1.84583 1.70333 
0.85 0.95 1.03333 1.05 1.01 1.05 1.07333 
0.775 0.75 0.808333 0.81875 0.84 0.845833 0.863333 
2.05 1.525 1.29167 1.15 1.095 1.0625 1.01333 
12.475 6.625 4.66667 3.68125 3.15 2.79583 2.44667 
10.075 5.5125 4.03333 3.30625 2.795 2.42917 2.14333 
3.15 1.95 1.625 1.4375 1.39 1.33333 1.27333 
0.6 0.7 0.758333 0.83125 0.825 0.8625 0.906667 
0.7 0.8 0.95 0.9375 0.96 0.991667 0.956667 
5.225 3.1375 2.35 2.025 1.84 1.72917 1.62 
0.65 0.825 0.85 0.85 0.84 0.8375 0.86 
7.75 4.5125 3.3 2.7125 2.37 2.12083 1.89667 
3.4 2.35 1.94167 1.80625 1.63 1.575 1.47667 
10.25 5.5625 4 3.23125 2.77 2.45 2.10333 
3.675 2.3875 1.99167 1.85625 1.73 1.65417 1.52 
9.775 5.525 4.125 3.4 2.935 2.625 2.24667 
9.4 5.1875 3.85833 3.14375 2.76 2.54167 2.28667 
0.8 0.7875 0.825 0.8125 0.77 0.720833 0.723333 
8.225 4.775 3.59167 2.88125 2.57 2.44583 2.21333 
0.95 0.95 0.983333 0.99375 0.96 0.958333 0.96 
1.325 1.35 1.25833 1.225 1.135 1.14583 1.11667 
0.75 0.725 0.733333 0.81875 0.835 0.879167 0.963333 
3.825 2.6 2.03333 1.73125 1.585 1.4625 1.32667 
4.375 2.825 2.21667 1.9125 1.765 1.65 1.49333 
3.55 2.1625 1.8 1.60625 1.53 1.49583 1.43333 
9.6 5.625 4 3.3125 2.905 2.56667 2.2 
9.625 5.375 4 3.29375 2.845 2.56667 2.26333 
3.85 2.4375 1.95833 1.76875 1.66 1.525 1.43333 
8.475 4.7625 3.50833 2.9375 2.555 2.32917 2.06 
9.05 4.95 3.71667 3.06875 2.67 2.39167 2.14333 
1.175 1.1125 0.991667 0.925 0.91 0.929167 0.98 
6.875 4.15 3.21667 2.6875 2.36 2.14583 1.88 
1.175 1.1375 1.11667 1.11875 1.125 1.07917 1.07 
2.7 1.65 1.35 1.18125 1.14 1.1 1.10333 
1.025 0.875 0.866667 0.89375 0.865 0.85 0.82 
7.8 3.9625 2.66667 2.025 1.65 1.40833 1.17 
1.25 0.9 0.891667 0.91875 0.925 0.929167 0.93 
1.1 1.0375 1 0.9625 0.96 0.9625 0.88 
1.525 1.35 1.34167 1.3625 1.36 1.31667 1.29333 
1.525 1.3 1.2 1.1625 1.065 1.00417 1.02333 
7.4 4.0625 2.89167 2.33125 2.025 1.8125 1.61 
0.6 0.7875 0.75 0.81875 0.84 0.816667 0.813333 
3.3 2.125 1.725 1.525 1.48 1.45 1.31333 
0.65 0.6375 0.608333 0.65625 0.665 0.683333 0.733333 
0.75 0.85 0.891667 0.96875 0.93 0.945833 0.946667 
1 0.9625 1 0.98125 0.95 0.9625 1 
6.925 3.825 2.78333 2.325 2.065 1.87917 1.69 
