1.176133398437500000e+04 -1.102733593750000000e+04 7.352382812500000000e+03
1.176042187500000000e+04 -1.102517089843750000e+04 7.353713867187500000e+03
1.163591699218750000e+04 -1.102060546875000000e+04 7.337348144531250000e+03
1.163753515625000000e+04 -1.101764355468750000e+04 7.338045410156250000e+03
1.163589062500000000e+04 -1.101766699218750000e+04 7.341250488281250000e+03
1.163766113281250000e+04 -1.101471972656250000e+04 7.341812500000000000e+03
1.174514160156250000e+04 -1.117611718750000000e+04 7.368088378906250000e+03
1.174816210937500000e+04 -1.117402539062500000e+04 7.367938964843750000e+03
1.174583593750000000e+04 -1.117388574218750000e+04 7.371087402343750000e+03
1.174856347656250000e+04 -1.117178320312500000e+04 7.371062011718750000e+03
1.163095800781250000e+04 -1.108793359375000000e+04 7.236442382812500000e+03
1.163313769531250000e+04 -1.108514062500000000e+04 7.236601074218750000e+03
1.163195898437500000e+04 -1.108695703125000000e+04 7.239825683593750000e+03
1.163421289062500000e+04 -1.108410058593750000e+04 7.239873535156250000e+03
1.174664355468750000e+04 -1.100322363281250000e+04 7.396652343750000000e+03
1.174406542968750000e+04 -1.100113085937500000e+04 7.398000000000000000e+03
1.174781542968750000e+04 -1.100498730468750000e+04 7.399189941406250000e+03
1.174536621093750000e+04 -1.100295996093750000e+04 7.400652343750000000e+03
1.176448535156250000e+04 -1.111123339843750000e+04 7.425589843750000000e+03
1.176488085937500000e+04 -1.110711328125000000e+04 7.426882324218750000e+03
1.176331152343750000e+04 -1.110880957031250000e+04 7.429279296875000000e+03
1.176363867187500000e+04 -1.110470214843750000e+04 7.430482421875000000e+03
1.173416503906250000e+04 -1.100025000000000000e+04 7.424287109375000000e+03
1.173124707031250000e+04 -1.099868652343750000e+04 7.424950195312500000e+03
1.173420117187500000e+04 -1.100210156250000000e+04 7.427185546875000000e+03
1.173137402343750000e+04 -1.100072363281250000e+04 7.427819824218750000e+03
1.177699218750000000e+04 -1.107459277343750000e+04 7.335801269531250000e+03
1.177555957031250000e+04 -1.107174316406250000e+04 7.337724121093750000e+03
1.177861718750000000e+04 -1.107345410156250000e+04 7.338179687500000000e+03
1.177769628906250000e+04 -1.107083984375000000e+04 7.340151855468750000e+03
1.161549609375000000e+04 -1.104969433593750000e+04 7.371733398437500000e+03
1.161644140625000000e+04 -1.104628222656250000e+04 7.372126464843750000e+03
1.161585449218750000e+04 -1.104807324218750000e+04 7.375893066406250000e+03
1.161682128906250000e+04 -1.104471972656250000e+04 7.376316894531250000e+03
1.170940234375000000e+04 -1.112859570312500000e+04 7.472453613281250000e+03
1.170952929687500000e+04 -1.112523535156250000e+04 7.474227539062500000e+03
1.171279101562500000e+04 -1.112717675781250000e+04 7.472283691406250000e+03
1.171295507812500000e+04 -1.112381054687500000e+04 7.474021484375000000e+03
1.166168554687500000e+04 -1.115690234375000000e+04 7.262807128906250000e+03
1.165914453125000000e+04 -1.115518945312500000e+04 7.264261230468750000e+03
1.166129785156250000e+04 -1.115892285156250000e+04 7.265598144531250000e+03
1.165835058593750000e+04 -1.115731835937500000e+04 7.266988769531250000e+03
1.161743457031250000e+04 -1.111862402343750000e+04 7.395422851562500000e+03
1.161693945312500000e+04 -1.111519921875000000e+04 7.396342773437500000e+03
1.161732324218750000e+04 -1.111852539062500000e+04 7.398367187500000000e+03
1.161678808593750000e+04 -1.111522167968750000e+04 7.399193847656250000e+03
1.160109667968750000e+04 -1.108289453125000000e+04 7.370620605468750000e+03
1.160007324218750000e+04 -1.108031445312500000e+04 7.371607421875000000e+03
1.160084179687500000e+04 -1.108317285156250000e+04 7.373703125000000000e+03
1.159990917968750000e+04 -1.108040234375000000e+04 7.374516601562500000e+03
1.171526464843750000e+04 -1.114688281250000000e+04 7.463032226562500000e+03
1.171520312500000000e+04 -1.114454492187500000e+04 7.465168457031250000e+03
1.171797167968750000e+04 -1.114547558593750000e+04 7.462593261718750000e+03
1.171784863281250000e+04 -1.114315527343750000e+04 7.464752929687500000e+03
1.169930859375000000e+04 -1.119784277343750000e+04 7.275446777343750000e+03
1.170071386718750000e+04 -1.119543164062500000e+04 7.274293945312500000e+03
1.170287402343750000e+04 -1.119800976562500000e+04 7.276623046875000000e+03
1.170374707031250000e+04 -1.119529492187500000e+04 7.275283203125000000e+03
1.165709472656250000e+04 -1.103199804687500000e+04 7.457436035156250000e+03
1.165820214843750000e+04 -1.102870410156250000e+04 7.456557617187500000e+03
1.166065234375000000e+04 -1.103048828125000000e+04 7.459380859375000000e+03
1.166168164062500000e+04 -1.102718066406250000e+04 7.458516601562500000e+03
1.164061718750000000e+04 -1.110624023437500000e+04 7.460396972656250000e+03
1.164144531250000000e+04 -1.110308007812500000e+04 7.460905273437500000e+03
1.164364160156250000e+04 -1.110474804687500000e+04 7.463042968750000000e+03
1.164456835937500000e+04 -1.110156250000000000e+04 7.463469238281250000e+03
1.169045507812500000e+04 -1.099052050781250000e+04 7.332457031250000000e+03
1.168985644531250000e+04 -1.098915820312500000e+04 7.335402343750000000e+03
1.169322558593750000e+04 -1.098949902343750000e+04 7.334384765625000000e+03
1.169235839843750000e+04 -1.098811132812500000e+04 7.337210937500000000e+03
1.176288867187500000e+04 -1.114003710937500000e+04 7.338880371093750000e+03
1.176384472656250000e+04 -1.113750292968750000e+04 7.339055175781250000e+03
1.176347949218750000e+04 -1.113883105468750000e+04 7.341666992187500000e+03
1.176441406250000000e+04 -1.113622753906250000e+04 7.341801757812500000e+03
1.168998730468750000e+04 -1.115790527343750000e+04 7.458702636718750000e+03
1.168980664062500000e+04 -1.115532324218750000e+04 7.460649902343750000e+03
1.169273437500000000e+04 -1.115669824218750000e+04 7.459172363281250000e+03
1.169257031250000000e+04 -1.115413476562500000e+04 7.461109863281250000e+03
1.162088964843750000e+04 -1.104378320312500000e+04 7.342567871093750000e+03
1.162216894531250000e+04 -1.104059277343750000e+04 7.343098632812500000e+03
1.162047851562500000e+04 -1.104165429687500000e+04 7.345627441406250000e+03
1.162190136718750000e+04 -1.103848242187500000e+04 7.346210449218750000e+03
1.176699804687500000e+04 -1.113549707031250000e+04 7.365210937500000000e+03
1.176743066406250000e+04 -1.113298339843750000e+04 7.366361816406250000e+03
1.176677929687500000e+04 -1.113401269531250000e+04 7.368568359375000000e+03
1.176720996093750000e+04 -1.113149218750000000e+04 7.369688476562500000e+03
1.163265234375000000e+04 -1.106622460937500000e+04 7.451972656250000000e+03
1.163342089843750000e+04 -1.106270507812500000e+04 7.451280761718750000e+03
1.163541796875000000e+04 -1.106593750000000000e+04 7.455478027343750000e+03
1.163607910156250000e+04 -1.106243554687500000e+04 7.454943847656250000e+03
1.168329882812500000e+04 -1.102152343750000000e+04 7.461026367187500000e+03
1.168537792968750000e+04 -1.101957519531250000e+04 7.459951171875000000e+03
1.168659179687500000e+04 -1.102111132812500000e+04 7.461703613281250000e+03
1.168846484375000000e+04 -1.101917480468750000e+04 7.460563476562500000e+03
1.164001757812500000e+04 -1.102784472656250000e+04 7.437104003906250000e+03
1.164151171875000000e+04 -1.102458789062500000e+04 7.436675292968750000e+03
1.164287597656250000e+04 -1.102596484375000000e+04 7.439561035156250000e+03
1.164440820312500000e+04 -1.102244921875000000e+04 7.438743164062500000e+03
1.161334375000000000e+04 -1.106038085937500000e+04 7.360276855468750000e+03
1.161429980468750000e+04 -1.105722265625000000e+04 7.360520507812500000e+03
1.161354687500000000e+04 -1.106099316406250000e+04 7.363854492187500000e+03
1.161451757812500000e+04 -1.105763281250000000e+04 7.363983886718750000e+03
1.169807910156250000e+04 -1.121956933593750000e+04 7.286229980468750000e+03
1.169937988281250000e+04 -1.121680957031250000e+04 7.284359375000000000e+03
1.170030566406250000e+04 -1.121935449218750000e+04 7.287366210937500000e+03
1.170153222656250000e+04 -1.121669238281250000e+04 7.285598144531250000e+03
1.175931152343750000e+04 -1.113913281250000000e+04 7.402488281250000000e+03
1.176004980468750000e+04 -1.113699414062500000e+04 7.402834472656250000e+03
1.175938574218750000e+04 -1.113765820312500000e+04 7.405500488281250000e+03
1.176015625000000000e+04 -1.113545800781250000e+04 7.405848632812500000e+03
1.161260644531250000e+04 -1.109022167968750000e+04 7.409767578125000000e+03
1.161307031250000000e+04 -1.108695898437500000e+04 7.410648925781250000e+03
1.161290039062500000e+04 -1.108978808593750000e+04 7.413452148437500000e+03
1.161324609375000000e+04 -1.108649707031250000e+04 7.413879882812500000e+03
1.168857617187500000e+04 -1.118538476562500000e+04 7.410753417968750000e+03
1.169185351562500000e+04 -1.118471875000000000e+04 7.410231933593750000e+03
1.169035546875000000e+04 -1.118466699218750000e+04 7.412985351562500000e+03
1.169401855468750000e+04 -1.118419824218750000e+04 7.412634277343750000e+03
1.174970312500000000e+04 -1.100520214843750000e+04 7.388153320312500000e+03
1.174705566406250000e+04 -1.100247070312500000e+04 7.389450683593750000e+03
1.175020507812500000e+04 -1.100616406250000000e+04 7.391701660156250000e+03
1.174777832031250000e+04 -1.100363476562500000e+04 7.393043945312500000e+03
1.175246093750000000e+04 -1.112538867187500000e+04 7.289226562500000000e+03
1.175338085937500000e+04 -1.112245996093750000e+04 7.288519042968750000e+03
1.175361328125000000e+04 -1.112352832031250000e+04 7.291487792968750000e+03
1.175442285156250000e+04 -1.112066699218750000e+04 7.290916015625000000e+03
1.163606640625000000e+04 -1.112979296875000000e+04 7.282287109375000000e+03
1.163481445312500000e+04 -1.112723828125000000e+04 7.283142089843750000e+03
1.163472070312500000e+04 -1.112982226562500000e+04 7.285449218750000000e+03
1.163371191406250000e+04 -1.112716601562500000e+04 7.286369140625000000e+03
1.170842480468750000e+04 -1.116067285156250000e+04 7.454316894531250000e+03
1.170944140625000000e+04 -1.115787109375000000e+04 7.456514648437500000e+03
1.171129882812500000e+04 -1.115840039062500000e+04 7.454600097656250000e+03
1.171239355468750000e+04 -1.115562304687500000e+04 7.456835937500000000e+03
1.162864648437500000e+04 -1.110253417968750000e+04 7.262782226562500000e+03
1.162921777343750000e+04 -1.109891894531250000e+04 7.263408203125000000e+03
1.162925292968750000e+04 -1.110040625000000000e+04 7.265901367187500000e+03
1.162987792968750000e+04 -1.109672753906250000e+04 7.266420898437500000e+03
1.162379687500000000e+04 -1.114453906250000000e+04 7.335372070312500000e+03
1.162325195312500000e+04 -1.114156835937500000e+04 7.336714843750000000e+03
1.162316601562500000e+04 -1.114348632812500000e+04 7.339565429687500000e+03
1.162292773437500000e+04 -1.114048730468750000e+04 7.340278320312500000e+03
1.167818359375000000e+04 -1.112082519531250000e+04 7.477508300781250000e+03
1.167789941406250000e+04 -1.111806152343750000e+04 7.478200683593750000e+03
1.168210058593750000e+04 -1.111962792968750000e+04 7.478176269531250000e+03
1.168185839843750000e+04 -1.111671191406250000e+04 7.478944335937500000e+03
1.169019042968750000e+04 -1.118492871093750000e+04 7.419636230468750000e+03
1.169063574218750000e+04 -1.118456250000000000e+04 7.421793457031250000e+03
1.169248632812500000e+04 -1.118416601562500000e+04 7.421024414062500000e+03
1.169291113281250000e+04 -1.118359765625000000e+04 7.423166992187500000e+03
1.169470898437500000e+04 -1.099601367187500000e+04 7.322974121093750000e+03
1.169376464843750000e+04 -1.099450976562500000e+04 7.325325195312500000e+03
1.169770507812500000e+04 -1.099446093750000000e+04 7.324269531250000000e+03
1.169665429687500000e+04 -1.099297070312500000e+04 7.326608398437500000e+03
1.167079785156250000e+04 -1.115422949218750000e+04 7.218058105468750000e+03
1.166720996093750000e+04 -1.115270214843750000e+04 7.218803710937500000e+03
1.167314062500000000e+04 -1.115595312500000000e+04 7.220740234375000000e+03
1.167013769531250000e+04 -1.115459277343750000e+04 7.221506347656250000e+03
1.165558203125000000e+04 -1.105278320312500000e+04 7.467802246093750000e+03
1.165647265625000000e+04 -1.104996679687500000e+04 7.466914062500000000e+03
1.165842285156250000e+04 -1.105270996093750000e+04 7.469301757812500000e+03
1.165946679687500000e+04 -1.105006738281250000e+04 7.468450195312500000e+03
1.160175585937500000e+04 -1.107949414062500000e+04 7.349838378906250000e+03
1.160046972656250000e+04 -1.107714355468750000e+04 7.351187011718750000e+03
1.160065625000000000e+04 -1.107973925781250000e+04 7.352995605468750000e+03
1.159936914062500000e+04 -1.107737695312500000e+04 7.354333984375000000e+03
1.162321289062500000e+04 -1.114268847656250000e+04 7.334824218750000000e+03
1.162272070312500000e+04 -1.113968261718750000e+04 7.336121093750000000e+03
1.162271386718750000e+04 -1.114175585937500000e+04 7.338458496093750000e+03
1.162240332031250000e+04 -1.113884375000000000e+04 7.339373535156250000e+03
1.164619531250000000e+04 -1.102687207031250000e+04 7.444776855468750000e+03
1.164779492187500000e+04 -1.102320214843750000e+04 7.443838378906250000e+03
1.164901171875000000e+04 -1.102514257812500000e+04 7.446665527343750000e+03
1.165063769531250000e+04 -1.102143457031250000e+04 7.445745605468750000e+03
1.162105078125000000e+04 -1.103643652343750000e+04 7.354974609375000000e+03
1.162287402343750000e+04 -1.103314062500000000e+04 7.355448730468750000e+03
1.162102929687500000e+04 -1.103492773437500000e+04 7.358168457031250000e+03
1.162257226562500000e+04 -1.103179003906250000e+04 7.358675292968750000e+03
1.172969433593750000e+04 -1.106147070312500000e+04 7.469073730468750000e+03
1.172933398437500000e+04 -1.105897167968750000e+04 7.468425292968750000e+03
1.173183398437500000e+04 -1.106419238281250000e+04 7.468212402343750000e+03
1.173100585937500000e+04 -1.106161621093750000e+04 7.467927734375000000e+03
1.175975195312500000e+04 -1.115145800781250000e+04 7.342430664062500000e+03
1.176068652343750000e+04 -1.114904003906250000e+04 7.341940917968750000e+03
1.176028417968750000e+04 -1.115050292968750000e+04 7.344689453125000000e+03
1.176124218750000000e+04 -1.114809179687500000e+04 7.344130859375000000e+03
1.175329687500000000e+04 -1.101235644531250000e+04 7.358949218750000000e+03
1.175178710937500000e+04 -1.101002734375000000e+04 7.359208984375000000e+03
1.175423925781250000e+04 -1.101272949218750000e+04 7.361538574218750000e+03
1.175274316406250000e+04 -1.101039550781250000e+04 7.361872558593750000e+03
1.171714843750000000e+04 -1.116152148437500000e+04 7.407466308593750000e+03
1.172006640625000000e+04 -1.116092578125000000e+04 7.406334960937500000e+03
1.172029199218750000e+04 -1.116091308593750000e+04 7.410036621093750000e+03
1.172319042968750000e+04 -1.116033789062500000e+04 7.408908691406250000e+03
1.168833300781250000e+04 -1.099274707031250000e+04 7.328647460937500000e+03
1.168773925781250000e+04 -1.099137695312500000e+04 7.331548339843750000e+03
1.169095214843750000e+04 -1.099127441406250000e+04 7.330562011718750000e+03
1.169034375000000000e+04 -1.098986328125000000e+04 7.333564941406250000e+03
1.164581933593750000e+04 -1.106621191406250000e+04 7.267094726562500000e+03
1.164837890625000000e+04 -1.106234472656250000e+04 7.267208496093750000e+03
1.164759863281250000e+04 -1.106304589843750000e+04 7.270752441406250000e+03
1.165019433593750000e+04 -1.105911816406250000e+04 7.270849609375000000e+03
1.171908496093750000e+04 -1.108055175781250000e+04 7.476986328125000000e+03
1.171866113281250000e+04 -1.107565234375000000e+04 7.476842285156250000e+03
1.172266699218750000e+04 -1.108025976562500000e+04 7.475626464843750000e+03
1.172221679687500000e+04 -1.107554394531250000e+04 7.475427246093750000e+03
1.167197070312500000e+04 -1.117812207031250000e+04 7.385986328125000000e+03
1.167006054687500000e+04 -1.117627246093750000e+04 7.387852539062500000e+03
1.167475488281250000e+04 -1.117851367187500000e+04 7.387887207031250000e+03
1.167259667968750000e+04 -1.117677246093750000e+04 7.389779785156250000e+03
1.175710742187500000e+04 -1.111142382812500000e+04 7.287579589843750000e+03
1.175752636718750000e+04 -1.110801953125000000e+04 7.287271484375000000e+03
1.175786035156250000e+04 -1.111073632812500000e+04 7.290593750000000000e+03
1.175839355468750000e+04 -1.110731835937500000e+04 7.290680664062500000e+03
1.175519238281250000e+04 -1.109670703125000000e+04 7.282714355468750000e+03
1.175522363281250000e+04 -1.109257128906250000e+04 7.281433105468750000e+03
1.175584765625000000e+04 -1.109603222656250000e+04 7.285954589843750000e+03
1.175588476562500000e+04 -1.109176660156250000e+04 7.284407226562500000e+03
1.164412402343750000e+04 -1.110985937500000000e+04 7.463357421875000000e+03
1.164497949218750000e+04 -1.110682812500000000e+04 7.463714355468750000e+03
1.164745117187500000e+04 -1.110885937500000000e+04 7.466077148437500000e+03
1.164831835937500000e+04 -1.110572753906250000e+04 7.466479492187500000e+03
1.172245605468750000e+04 -1.115142675781250000e+04 7.236688476562500000e+03
1.172473242187500000e+04 -1.114847167968750000e+04 7.236268066406250000e+03
1.172428125000000000e+04 -1.115007812500000000e+04 7.240294921875000000e+03
1.172654589843750000e+04 -1.114719531250000000e+04 7.239815429687500000e+03
1.175670312500000000e+04 -1.116251074218750000e+04 7.366469238281250000e+03
1.175849414062500000e+04 -1.115963671875000000e+04 7.366313964843750000e+03
1.175765722656250000e+04 -1.116032031250000000e+04 7.368809570312500000e+03
1.175928027343750000e+04 -1.115762011718750000e+04 7.368796875000000000e+03
1.171893945312500000e+04 -1.115456445312500000e+04 7.455614257812500000e+03
1.171946484375000000e+04 -1.115206152343750000e+04 7.458174316406250000e+03
1.172151074218750000e+04 -1.115224609375000000e+04 7.456044433593750000e+03
1.172182617187500000e+04 -1.114983691406250000e+04 7.458559570312500000e+03
1.168569140625000000e+04 -1.107136816406250000e+04 7.480337890625000000e+03
1.168583105468750000e+04 -1.106826757812500000e+04 7.479691406250000000e+03
1.168898632812500000e+04 -1.107138085937500000e+04 7.480199707031250000e+03
1.168921582031250000e+04 -1.106839648437500000e+04 7.479674804687500000e+03
1.164691992187500000e+04 -1.101253027343750000e+04 7.430967773437500000e+03
1.164843066406250000e+04 -1.100961425781250000e+04 7.429859375000000000e+03
1.164908105468750000e+04 -1.101300878906250000e+04 7.434261718750000000e+03
1.165053710937500000e+04 -1.100998242187500000e+04 7.433173339843750000e+03
1.174658398437500000e+04 -1.106648437500000000e+04 7.299386230468750000e+03
1.174566113281250000e+04 -1.106306152343750000e+04 7.298915527343750000e+03
1.174817871093750000e+04 -1.106637695312500000e+04 7.302281250000000000e+03
1.174727734375000000e+04 -1.106307128906250000e+04 7.301786132812500000e+03
1.163516308593750000e+04 -1.107341992187500000e+04 7.454715332031250000e+03
1.163575097656250000e+04 -1.106995019531250000e+04 7.454337890625000000e+03
1.163727929687500000e+04 -1.107362500000000000e+04 7.457464355468750000e+03
1.163832714843750000e+04 -1.106979980468750000e+04 7.457679199218750000e+03
1.176354101562500000e+04 -1.114244824218750000e+04 7.377064941406250000e+03
1.176419042968750000e+04 -1.113978320312500000e+04 7.377706054687500000e+03
1.176310058593750000e+04 -1.114113476562500000e+04 7.380314941406250000e+03
1.176373046875000000e+04 -1.113829003906250000e+04 7.380928710937500000e+03
1.171008886718750000e+04 -1.101368652343750000e+04 7.455777832031250000e+03
1.171108300781250000e+04 -1.101164453125000000e+04 7.452956054687500000e+03
1.171367773437500000e+04 -1.101600390625000000e+04 7.456355957031250000e+03
1.171443847656250000e+04 -1.101391210937500000e+04 7.453600097656250000e+03
1.170093164062500000e+04 -1.117481738281250000e+04 7.397049804687500000e+03
1.170384765625000000e+04 -1.117316796875000000e+04 7.396084960937500000e+03
1.170211816406250000e+04 -1.117383691406250000e+04 7.400241210937500000e+03
1.170526074218750000e+04 -1.117230273437500000e+04 7.399265136718750000e+03
1.174685937500000000e+04 -1.114372460937500000e+04 7.285910644531250000e+03
1.174812207031250000e+04 -1.114049316406250000e+04 7.285958496093750000e+03
1.174838476562500000e+04 -1.114304687500000000e+04 7.289127441406250000e+03
1.174965625000000000e+04 -1.113970605468750000e+04 7.289289062500000000e+03
1.161267968750000000e+04 -1.107357324218750000e+04 7.392516113281250000e+03
1.161333593750000000e+04 -1.107049609375000000e+04 7.392983886718750000e+03
1.161276855468750000e+04 -1.107335644531250000e+04 7.396514648437500000e+03
1.161343457031250000e+04 -1.107030664062500000e+04 7.397056152343750000e+03
1.167255664062500000e+04 -1.118646777343750000e+04 7.378510742187500000e+03
1.167051171875000000e+04 -1.118388281250000000e+04 7.379273437500000000e+03
1.167490917968750000e+04 -1.118673339843750000e+04 7.380901855468750000e+03
1.167299121093750000e+04 -1.118417578125000000e+04 7.381645019531250000e+03
1.170172265625000000e+04 -1.120998242187500000e+04 7.338250000000000000e+03
1.170421777343750000e+04 -1.120857031250000000e+04 7.337331542968750000e+03
1.170346582031250000e+04 -1.120939257812500000e+04 7.339959472656250000e+03
1.170614648437500000e+04 -1.120778027343750000e+04 7.339222167968750000e+03
1.161311132812500000e+04 -1.108165722656250000e+04 7.399735839843750000e+03
1.161352832031250000e+04 -1.107852050781250000e+04 7.400632812500000000e+03
1.161306738281250000e+04 -1.108050585937500000e+04 7.403706542968750000e+03
1.161349414062500000e+04 -1.107719433593750000e+04 7.404560058593750000e+03
1.171991015625000000e+04 -1.120764941406250000e+04 7.289599609375000000e+03
1.172061621093750000e+04 -1.120516015625000000e+04 7.288655761718750000e+03
1.172130664062500000e+04 -1.120738281250000000e+04 7.291086425781250000e+03
1.172208203125000000e+04 -1.120483496093750000e+04 7.290155273437500000e+03
1.168585351562500000e+04 -1.121578125000000000e+04 7.318720214843750000e+03
1.168445898437500000e+04 -1.121437402343750000e+04 7.320420898437500000e+03
1.168773730468750000e+04 -1.121545996093750000e+04 7.320770019531250000e+03
1.168622558593750000e+04 -1.121383300781250000e+04 7.322657714843750000e+03
1.164503027343750000e+04 -1.113799707031250000e+04 7.270266113281250000e+03
1.164339941406250000e+04 -1.113577148437500000e+04 7.271443359375000000e+03
1.164380468750000000e+04 -1.113904101562500000e+04 7.273253417968750000e+03
1.164216992187500000e+04 -1.113673437500000000e+04 7.274469726562500000e+03
1.171152734375000000e+04 -1.120208593750000000e+04 7.317428710937500000e+03
1.171391601562500000e+04 -1.120021777343750000e+04 7.317453125000000000e+03
1.171247070312500000e+04 -1.119930078125000000e+04 7.319524902343750000e+03
1.171486328125000000e+04 -1.119762695312500000e+04 7.319618652343750000e+03
1.166568652343750000e+04 -1.098512011718750000e+04 7.377480468750000000e+03
1.166903125000000000e+04 -1.098325683593750000e+04 7.375160644531250000e+03
1.166735449218750000e+04 -1.098404296875000000e+04 7.380635742187500000e+03
1.167086816406250000e+04 -1.098215234375000000e+04 7.378033203125000000e+03
1.167562207031250000e+04 -1.103947070312500000e+04 7.287157226562500000e+03
1.167469433593750000e+04 -1.103770605468750000e+04 7.290879394531250000e+03
1.167892382812500000e+04 -1.103850683593750000e+04 7.288544921875000000e+03
1.167839453125000000e+04 -1.103614550781250000e+04 7.292146484375000000e+03
1.161989062500000000e+04 -1.105176171875000000e+04 7.411952148437500000e+03
1.162075878906250000e+04 -1.104847753906250000e+04 7.411743164062500000e+03
1.162056542968750000e+04 -1.105171093750000000e+04 7.415108886718750000e+03
1.162166894531250000e+04 -1.104817089843750000e+04 7.414757324218750000e+03
1.172105175781250000e+04 -1.119130273437500000e+04 7.362000000000000000e+03
1.172540625000000000e+04 -1.118889355468750000e+04 7.361022949218750000e+03
1.172251855468750000e+04 -1.118961523437500000e+04 7.365409179687500000e+03
1.172697363281250000e+04 -1.118715917968750000e+04 7.364511230468750000e+03
1.177189062500000000e+04 -1.108493261718750000e+04 7.400463867187500000e+03
1.177206835937500000e+04 -1.108183593750000000e+04 7.401264648437500000e+03
1.177119433593750000e+04 -1.108342089843750000e+04 7.403795898437500000e+03
1.177136035156250000e+04 -1.108043847656250000e+04 7.404543945312500000e+03
1.164927343750000000e+04 -1.103863378906250000e+04 7.304513671875000000e+03
1.165273828125000000e+04 -1.103613476562500000e+04 7.304137207031250000e+03
1.164893847656250000e+04 -1.103493359375000000e+04 7.307832519531250000e+03
1.165249218750000000e+04 -1.103246875000000000e+04 7.307320312500000000e+03
1.174457226562500000e+04 -1.100924511718750000e+04 7.421115234375000000e+03
1.174208203125000000e+04 -1.100773339843750000e+04 7.422408691406250000e+03
1.174429296875000000e+04 -1.101138769531250000e+04 7.424177246093750000e+03
1.174173535156250000e+04 -1.100978417968750000e+04 7.425503906250000000e+03
1.161136523437500000e+04 -1.109512304687500000e+04 7.337311523437500000e+03
1.161050781250000000e+04 -1.109184375000000000e+04 7.337615234375000000e+03
1.161168359375000000e+04 -1.109485351562500000e+04 7.340493652343750000e+03
1.161065039062500000e+04 -1.109169042968750000e+04 7.340882324218750000e+03
1.162106250000000000e+04 -1.103770410156250000e+04 7.350360351562500000e+03
1.162292968750000000e+04 -1.103450195312500000e+04 7.350876953125000000e+03
1.162135156250000000e+04 -1.103613183593750000e+04 7.353992187500000000e+03
1.162330761718750000e+04 -1.103273535156250000e+04 7.354531738281250000e+03
1.170760742187500000e+04 -1.120446875000000000e+04 7.320302246093750000e+03
1.171008593750000000e+04 -1.120284960937500000e+04 7.320172851562500000e+03
1.170806933593750000e+04 -1.120144726562500000e+04 7.322596679687500000e+03
1.171053417968750000e+04 -1.119994433593750000e+04 7.322359375000000000e+03
1.169977734375000000e+04 -1.122445410156250000e+04 7.293540527343750000e+03
1.170165332031250000e+04 -1.122313867187500000e+04 7.292197265625000000e+03
1.170146093750000000e+04 -1.122395996093750000e+04 7.294906738281250000e+03
1.170346777343750000e+04 -1.122269335937500000e+04 7.294255371093750000e+03
1.169973046875000000e+04 -1.108353906250000000e+04 7.482260742187500000e+03
1.169929785156250000e+04 -1.107890527343750000e+04 7.482099121093750000e+03
1.170308398437500000e+04 -1.108295214843750000e+04 7.481874023437500000e+03
1.170261425781250000e+04 -1.107817089843750000e+04 7.481680175781250000e+03
1.168361230468750000e+04 -1.098614062500000000e+04 7.347407226562500000e+03
1.168110058593750000e+04 -1.098540625000000000e+04 7.351232910156250000e+03
1.168540722656250000e+04 -1.098402148437500000e+04 7.350851074218750000e+03
1.168337792968750000e+04 -1.098328027343750000e+04 7.354243652343750000e+03
1.161600292968750000e+04 -1.104658789062500000e+04 7.372452148437500000e+03
1.161695312500000000e+04 -1.104323535156250000e+04 7.372892089843750000e+03
1.161627246093750000e+04 -1.104535058593750000e+04 7.376845703125000000e+03
1.161737207031250000e+04 -1.104204199218750000e+04 7.377127441406250000e+03
1.172295019531250000e+04 -1.120511523437500000e+04 7.290966308593750000e+03
1.172397949218750000e+04 -1.120254296875000000e+04 7.290003417968750000e+03
1.172372949218750000e+04 -1.120426367187500000e+04 7.293368652343750000e+03
1.172513671875000000e+04 -1.120180664062500000e+04 7.292336425781250000e+03
1.169792285156250000e+04 -1.097952929687500000e+04 7.378874023437500000e+03
1.169443066406250000e+04 -1.097992382812500000e+04 7.382125976562500000e+03
1.170066601562500000e+04 -1.097908105468750000e+04 7.381859375000000000e+03
1.169708984375000000e+04 -1.097937109375000000e+04 7.385007324218750000e+03
1.164442968750000000e+04 -1.113423046875000000e+04 7.249944824218750000e+03
1.164238769531250000e+04 -1.113175488281250000e+04 7.250802246093750000e+03
1.164513281250000000e+04 -1.113483691406250000e+04 7.253270996093750000e+03
1.164311523437500000e+04 -1.113236132812500000e+04 7.254132324218750000e+03
1.162373632812500000e+04 -1.114375195312500000e+04 7.324613769531250000e+03
1.162325000000000000e+04 -1.114012500000000000e+04 7.325972656250000000e+03
1.162360839843750000e+04 -1.114205664062500000e+04 7.327987304687500000e+03
1.162314648437500000e+04 -1.113861328125000000e+04 7.329395019531250000e+03
1.160376757812500000e+04 -1.108386328125000000e+04 7.333446289062500000e+03
1.160314648437500000e+04 -1.108109863281250000e+04 7.334691406250000000e+03
1.160323828125000000e+04 -1.108299902343750000e+04 7.337244140625000000e+03
1.160263476562500000e+04 -1.108038476562500000e+04 7.338357421875000000e+03
1.163233691406250000e+04 -1.108204296875000000e+04 7.452355468750000000e+03
1.163245410156250000e+04 -1.107884375000000000e+04 7.451715820312500000e+03
1.163480859375000000e+04 -1.108132031250000000e+04 7.455607910156250000e+03
1.163489550781250000e+04 -1.107815917968750000e+04 7.454956542968750000e+03
1.169431640625000000e+04 -1.117983203125000000e+04 7.430571777343750000e+03
1.169375390625000000e+04 -1.117810253906250000e+04 7.433044921875000000e+03
1.169724902343750000e+04 -1.117900488281250000e+04 7.431654785156250000e+03
1.169678710937500000e+04 -1.117719238281250000e+04 7.434061523437500000e+03
1.171407519531250000e+04 -1.104101660156250000e+04 7.286747558593750000e+03
1.171198046875000000e+04 -1.103912988281250000e+04 7.288071289062500000e+03
1.171761230468750000e+04 -1.104114843750000000e+04 7.287726562500000000e+03
1.171537402343750000e+04 -1.103932910156250000e+04 7.288826660156250000e+03
1.174499414062500000e+04 -1.113748144531250000e+04 7.446268066406250000e+03
1.174667187500000000e+04 -1.113459082031250000e+04 7.445733886718750000e+03
1.174415820312500000e+04 -1.113534375000000000e+04 7.448863281250000000e+03
1.174580664062500000e+04 -1.113266308593750000e+04 7.448646972656250000e+03
1.175850878906250000e+04 -1.104358886718750000e+04 7.429132324218750000e+03
1.175675878906250000e+04 -1.104143554687500000e+04 7.430723632812500000e+03
1.175658203125000000e+04 -1.104363769531250000e+04 7.432170410156250000e+03
1.175473046875000000e+04 -1.104138867187500000e+04 7.433911621093750000e+03
1.172115234375000000e+04 -1.116103515625000000e+04 7.390322753906250000e+03
1.172439648437500000e+04 -1.116072851562500000e+04 7.390017578125000000e+03
1.172342480468750000e+04 -1.116005957031250000e+04 7.392875976562500000e+03
1.172678125000000000e+04 -1.115978417968750000e+04 7.392628906250000000e+03
1.178548632812500000e+04 -1.107743164062500000e+04 7.366825683593750000e+03
1.178617871093750000e+04 -1.107487792968750000e+04 7.366344726562500000e+03
1.178495898437500000e+04 -1.107684960937500000e+04 7.370024414062500000e+03
1.178531640625000000e+04 -1.107422460937500000e+04 7.369638183593750000e+03
1.164377929687500000e+04 -1.108042187500000000e+04 7.463294433593750000e+03
1.164486718750000000e+04 -1.107628417968750000e+04 7.463883300781250000e+03
1.164660546875000000e+04 -1.107974316406250000e+04 7.466183593750000000e+03
1.164734765625000000e+04 -1.107585156250000000e+04 7.466655761718750000e+03
1.164582910156250000e+04 -1.118702246093750000e+04 7.324495605468750000e+03
1.164359277343750000e+04 -1.118423242187500000e+04 7.324556640625000000e+03
1.164762500000000000e+04 -1.118801953125000000e+04 7.327466308593750000e+03
1.164536914062500000e+04 -1.118526367187500000e+04 7.327598144531250000e+03
1.175803222656250000e+04 -1.116035058593750000e+04 7.352652343750000000e+03
1.175953808593750000e+04 -1.115707617187500000e+04 7.352474121093750000e+03
1.175864355468750000e+04 -1.115865722656250000e+04 7.355617187500000000e+03
1.176019433593750000e+04 -1.115550195312500000e+04 7.355458984375000000e+03
1.169707812500000000e+04 -1.111597949218750000e+04 7.478370605468750000e+03
1.169731835937500000e+04 -1.111125390625000000e+04 7.479603515625000000e+03
1.170088281250000000e+04 -1.111398339843750000e+04 7.478491699218750000e+03
1.170105175781250000e+04 -1.110925097656250000e+04 7.479746582031250000e+03
1.163496875000000000e+04 -1.108617187500000000e+04 7.262125000000000000e+03
1.163669531250000000e+04 -1.108275878906250000e+04 7.261750976562500000e+03
1.163618359375000000e+04 -1.108387011718750000e+04 7.265172363281250000e+03
1.163788671875000000e+04 -1.108050097656250000e+04 7.264730468750000000e+03
1.167203320312500000e+04 -1.098524902343750000e+04 7.403089355468750000e+03
1.167397460937500000e+04 -1.098341210937500000e+04 7.402429687500000000e+03
1.167415234375000000e+04 -1.098341503906250000e+04 7.404953125000000000e+03
1.167608203125000000e+04 -1.098156347656250000e+04 7.404255371093750000e+03
1.163036523437500000e+04 -1.112442285156250000e+04 7.293375488281250000e+03
1.162982519531250000e+04 -1.112106542968750000e+04 7.294019042968750000e+03
1.162893261718750000e+04 -1.112407031250000000e+04 7.296573242187500000e+03
1.162834277343750000e+04 -1.112039843750000000e+04 7.297258789062500000e+03
1.167879296875000000e+04 -1.098095117187500000e+04 7.390520507812500000e+03
1.168244628906250000e+04 -1.097993847656250000e+04 7.388481445312500000e+03
1.168065722656250000e+04 -1.098046972656250000e+04 7.393434082031250000e+03
1.168434277343750000e+04 -1.097953417968750000e+04 7.391476074218750000e+03
1.166464062500000000e+04 -1.119176562500000000e+04 7.326831054687500000e+03
1.166240625000000000e+04 -1.119045410156250000e+04 7.327482910156250000e+03
1.166618554687500000e+04 -1.119255957031250000e+04 7.329241210937500000e+03
1.166403222656250000e+04 -1.119114843750000000e+04 7.329844238281250000e+03
1.175676953125000000e+04 -1.110150683593750000e+04 7.287322753906250000e+03
1.175679785156250000e+04 -1.109735253906250000e+04 7.285916015625000000e+03
1.175742187500000000e+04 -1.110087402343750000e+04 7.289905761718750000e+03
1.175747265625000000e+04 -1.109689355468750000e+04 7.288754882812500000e+03
1.163662304687500000e+04 -1.112877539062500000e+04 7.280213867187500000e+03
1.163535156250000000e+04 -1.112629296875000000e+04 7.281124023437500000e+03
1.163543261718750000e+04 -1.112916992187500000e+04 7.283286132812500000e+03
1.163430273437500000e+04 -1.112661621093750000e+04 7.284109375000000000e+03
1.177067187500000000e+04 -1.107773046875000000e+04 7.418391113281250000e+03
1.177007226562500000e+04 -1.107472656250000000e+04 7.419121093750000000e+03
1.176932812500000000e+04 -1.107729492187500000e+04 7.422284667968750000e+03
1.176874609375000000e+04 -1.107416894531250000e+04 7.423077148437500000e+03
1.162932812500000000e+04 -1.110300292968750000e+04 7.247953125000000000e+03
1.162975292968750000e+04 -1.109925000000000000e+04 7.248275878906250000e+03
1.162943359375000000e+04 -1.110188085937500000e+04 7.251422851562500000e+03
1.162995117187500000e+04 -1.109814550781250000e+04 7.251726562500000000e+03
1.175524121093750000e+04 -1.116571386718750000e+04 7.350051757812500000e+03
1.175682226562500000e+04 -1.116248730468750000e+04 7.349730957031250000e+03
1.175614355468750000e+04 -1.116374902343750000e+04 7.352780761718750000e+03
1.175774609375000000e+04 -1.116055566406250000e+04 7.352515136718750000e+03
1.167713867187500000e+04 -1.102217578125000000e+04 7.460738769531250000e+03
1.167880761718750000e+04 -1.102033886718750000e+04 7.459659179687500000e+03
1.168001757812500000e+04 -1.102258984375000000e+04 7.461565917968750000e+03
1.168199218750000000e+04 -1.102067480468750000e+04 7.460506347656250000e+03
1.172080761718750000e+04 -1.112465332031250000e+04 7.470803710937500000e+03
1.172114062500000000e+04 -1.112143750000000000e+04 7.472062011718750000e+03
1.172380664062500000e+04 -1.112225976562500000e+04 7.470522460937500000e+03
1.172400292968750000e+04 -1.111924804687500000e+04 7.471757324218750000e+03
1.163893457031250000e+04 -1.106695410156250000e+04 7.297673339843750000e+03
1.164088378906250000e+04 -1.106305859375000000e+04 7.297506347656250000e+03
1.163805078125000000e+04 -1.106497851562500000e+04 7.300746093750000000e+03
1.163991796875000000e+04 -1.106107714843750000e+04 7.300705566406250000e+03
1.176008984375000000e+04 -1.107548242187500000e+04 7.440569335937500000e+03
1.175971191406250000e+04 -1.107180761718750000e+04 7.441336914062500000e+03
1.175757226562500000e+04 -1.107457714843750000e+04 7.443954589843750000e+03
1.175715820312500000e+04 -1.107084960937500000e+04 7.444704589843750000e+03
1.172938671875000000e+04 -1.110824121093750000e+04 7.469916992187500000e+03
1.172803613281250000e+04 -1.110531835937500000e+04 7.471119628906250000e+03
1.173268261718750000e+04 -1.110625488281250000e+04 7.468599609375000000e+03
1.173149023437500000e+04 -1.110361718750000000e+04 7.469708496093750000e+03
1.174946972656250000e+04 -1.103683300781250000e+04 7.440955566406250000e+03
1.174771386718750000e+04 -1.103442187500000000e+04 7.441703613281250000e+03
1.174757714843750000e+04 -1.103805664062500000e+04 7.443193359375000000e+03
1.174592773437500000e+04 -1.103555859375000000e+04 7.443944335937500000e+03
1.175640625000000000e+04 -1.113089941406250000e+04 7.431416015625000000e+03
1.175760546875000000e+04 -1.112751757812500000e+04 7.431745605468750000e+03
1.175579101562500000e+04 -1.112832714843750000e+04 7.434105468750000000e+03
1.175699023437500000e+04 -1.112525097656250000e+04 7.434412597656250000e+03
1.176366406250000000e+04 -1.112569433593750000e+04 7.407730468750000000e+03
1.176478906250000000e+04 -1.112287500000000000e+04 7.407489257812500000e+03
1.176377148437500000e+04 -1.112435449218750000e+04 7.410922851562500000e+03
1.176477832031250000e+04 -1.112148925781250000e+04 7.410970214843750000e+03
1.174458007812500000e+04 -1.115940820312500000e+04 7.424392578125000000e+03
1.174646191406250000e+04 -1.115655468750000000e+04 7.424037597656250000e+03
1.174450585937500000e+04 -1.115778417968750000e+04 7.426893554687500000e+03
1.174632714843750000e+04 -1.115495507812500000e+04 7.426534667968750000e+03
1.176751074218750000e+04 -1.111345800781250000e+04 7.408027343750000000e+03
1.176818945312500000e+04 -1.111046093750000000e+04 7.408742187500000000e+03
1.176726074218750000e+04 -1.111181250000000000e+04 7.412038574218750000e+03
1.176792187500000000e+04 -1.110873437500000000e+04 7.412895019531250000e+03
1.174803710937500000e+04 -1.116730371093750000e+04 7.300272949218750000e+03
1.174923339843750000e+04 -1.116467773437500000e+04 7.299120605468750000e+03
1.174885351562500000e+04 -1.116645019531250000e+04 7.302359863281250000e+03
1.175024121093750000e+04 -1.116356054687500000e+04 7.301576660156250000e+03
1.176988183593750000e+04 -1.111169531250000000e+04 7.398564941406250000e+03
1.177056054687500000e+04 -1.110839062500000000e+04 7.399203613281250000e+03
1.176963867187500000e+04 -1.110924804687500000e+04 7.402004882812500000e+03
1.177032128906250000e+04 -1.110608789062500000e+04 7.402709960937500000e+03
1.161939453125000000e+04 -1.112608105468750000e+04 7.337126953125000000e+03
1.161855957031250000e+04 -1.112269433593750000e+04 7.338611816406250000e+03
1.161878222656250000e+04 -1.112557128906250000e+04 7.340738769531250000e+03
1.161798730468750000e+04 -1.112219140625000000e+04 7.342113281250000000e+03
1.175088183593750000e+04 -1.114925683593750000e+04 7.423946777343750000e+03
1.175197363281250000e+04 -1.114648437500000000e+04 7.424082519531250000e+03
1.175082324218750000e+04 -1.114705664062500000e+04 7.426788574218750000e+03
1.175197167968750000e+04 -1.114434277343750000e+04 7.426897949218750000e+03
1.174417285156250000e+04 -1.117672949218750000e+04 7.301258300781250000e+03
1.174594726562500000e+04 -1.117370312500000000e+04 7.300997558593750000e+03
1.174556347656250000e+04 -1.117551464843750000e+04 7.303708496093750000e+03
1.174715234375000000e+04 -1.117241796875000000e+04 7.303321289062500000e+03
1.168622363281250000e+04 -1.122268457031250000e+04 7.366137695312500000e+03
1.168533496093750000e+04 -1.122157128906250000e+04 7.368622558593750000e+03
1.168888183593750000e+04 -1.122351171875000000e+04 7.367793457031250000e+03
1.168773339843750000e+04 -1.122224609375000000e+04 7.370771972656250000e+03
1.171404296875000000e+04 -1.119991992187500000e+04 7.321823730468750000e+03
1.171641601562500000e+04 -1.119842773437500000e+04 7.321912597656250000e+03
1.171475000000000000e+04 -1.119832421875000000e+04 7.323697753906250000e+03
1.171711523437500000e+04 -1.119694433593750000e+04 7.323916015625000000e+03
1.174124023437500000e+04 -1.116305761718750000e+04 7.284443847656250000e+03
1.174151757812500000e+04 -1.115999218750000000e+04 7.283644531250000000e+03
1.174349218750000000e+04 -1.116195507812500000e+04 7.286776367187500000e+03
1.174374804687500000e+04 -1.115894238281250000e+04 7.285891601562500000e+03
1.164715429687500000e+04 -1.113783789062500000e+04 7.239600097656250000e+03
1.164476367187500000e+04 -1.113517480468750000e+04 7.240980957031250000e+03
1.164839746093750000e+04 -1.113870507812500000e+04 7.242492675781250000e+03
1.164606542968750000e+04 -1.113617675781250000e+04 7.243851562500000000e+03
1.170276464843750000e+04 -1.122389941406250000e+04 7.300277832031250000e+03
1.170495410156250000e+04 -1.122260253906250000e+04 7.300116699218750000e+03
1.170395605468750000e+04 -1.122212402343750000e+04 7.302396484375000000e+03
1.170659667968750000e+04 -1.122070312500000000e+04 7.302002929687500000e+03
1.175347363281250000e+04 -1.116890722656250000e+04 7.358714355468750000e+03
1.175551367187500000e+04 -1.116586523437500000e+04 7.358495605468750000e+03
1.175438085937500000e+04 -1.116696191406250000e+04 7.361835937500000000e+03
1.175641308593750000e+04 -1.116394433593750000e+04 7.361576660156250000e+03
1.167036230468750000e+04 -1.108615234375000000e+04 7.480500976562500000e+03
1.167097070312500000e+04 -1.108325878906250000e+04 7.480431152343750000e+03
1.167341992187500000e+04 -1.108578906250000000e+04 7.480956542968750000e+03
1.167344824218750000e+04 -1.108315527343750000e+04 7.480854492187500000e+03
1.165616015625000000e+04 -1.109976562500000000e+04 7.473322265625000000e+03
1.165587890625000000e+04 -1.109649707031250000e+04 7.473475585937500000e+03
1.165964648437500000e+04 -1.110107910156250000e+04 7.474390136718750000e+03
1.165908203125000000e+04 -1.109775488281250000e+04 7.474490234375000000e+03
1.165765917968750000e+04 -1.118717382812500000e+04 7.370399414062500000e+03
1.165508105468750000e+04 -1.118490429687500000e+04 7.371226074218750000e+03
1.166088769531250000e+04 -1.118752539062500000e+04 7.372224121093750000e+03
1.165838476562500000e+04 -1.118498046875000000e+04 7.373054687500000000e+03
1.172636621093750000e+04 -1.120179492187500000e+04 7.295608398437500000e+03
1.172808300781250000e+04 -1.119903515625000000e+04 7.294567871093750000e+03
1.172736132812500000e+04 -1.120055761718750000e+04 7.298736816406250000e+03
1.172918164062500000e+04 -1.119796777343750000e+04 7.297808593750000000e+03
1.169231542968750000e+04 -1.104539062500000000e+04 7.273811523437500000e+03
1.169076660156250000e+04 -1.104439550781250000e+04 7.277280273437500000e+03
1.169469628906250000e+04 -1.104465039062500000e+04 7.276343261718750000e+03
1.169337695312500000e+04 -1.104349023437500000e+04 7.279630371093750000e+03
1.162243847656250000e+04 -1.112779785156250000e+04 7.319745605468750000e+03
1.162121484375000000e+04 -1.112437402343750000e+04 7.321958984375000000e+03
1.162150292968750000e+04 -1.112669238281250000e+04 7.323266113281250000e+03
1.162037207031250000e+04 -1.112329101562500000e+04 7.325394042968750000e+03
1.169681250000000000e+04 -1.115979785156250000e+04 7.213150878906250000e+03
1.169853417968750000e+04 -1.115813378906250000e+04 7.210396484375000000e+03
1.169940039062500000e+04 -1.115897851562500000e+04 7.214664062500000000e+03
1.170122460937500000e+04 -1.115729199218750000e+04 7.212037597656250000e+03
1.173092382812500000e+04 -1.119459765625000000e+04 7.315544921875000000e+03
1.173347558593750000e+04 -1.119307226562500000e+04 7.314414550781250000e+03
1.173221484375000000e+04 -1.119321093750000000e+04 7.318229492187500000e+03
1.173476171875000000e+04 -1.119156933593750000e+04 7.317309082031250000e+03
1.170523925781250000e+04 -1.117165527343750000e+04 7.262259765625000000e+03
1.170620800781250000e+04 -1.116970996093750000e+04 7.260757812500000000e+03
1.170697851562500000e+04 -1.117118847656250000e+04 7.264044921875000000e+03
1.170787207031250000e+04 -1.116912402343750000e+04 7.262501464843750000e+03
1.167339550781250000e+04 -1.120096679687500000e+04 7.359484375000000000e+03
1.167150195312500000e+04 -1.119832910156250000e+04 7.360032226562500000e+03
1.167445214843750000e+04 -1.120132812500000000e+04 7.362139160156250000e+03
1.167286328125000000e+04 -1.119853515625000000e+04 7.362547363281250000e+03
1.164884082031250000e+04 -1.106811718750000000e+04 7.465755859375000000e+03
1.164946191406250000e+04 -1.106459667968750000e+04 7.465639648437500000e+03
1.165188183593750000e+04 -1.106701953125000000e+04 7.467720703125000000e+03
1.165239453125000000e+04 -1.106353320312500000e+04 7.467611328125000000e+03
1.177439062500000000e+04 -1.107141992187500000e+04 7.365565917968750000e+03
1.177390625000000000e+04 -1.106900195312500000e+04 7.366200195312500000e+03
1.177319433593750000e+04 -1.107136914062500000e+04 7.368092773437500000e+03
1.177262890625000000e+04 -1.106894335937500000e+04 7.368778808593750000e+03
1.176673925781250000e+04 -1.113624121093750000e+04 7.363920898437500000e+03
1.176717089843750000e+04 -1.113373046875000000e+04 7.365055175781250000e+03
1.176658984375000000e+04 -1.113496582031250000e+04 7.367419921875000000e+03
1.176702050781250000e+04 -1.113244531250000000e+04 7.368540039062500000e+03
1.167069824218750000e+04 -1.098637597656250000e+04 7.405949707031250000e+03
1.167262890625000000e+04 -1.098445410156250000e+04 7.405150390625000000e+03
1.167287304687500000e+04 -1.098470605468750000e+04 7.407748535156250000e+03
1.167473925781250000e+04 -1.098270996093750000e+04 7.406874023437500000e+03
1.166097851562500000e+04 -1.115145996093750000e+04 7.250354980468750000e+03
1.165901660156250000e+04 -1.114988867187500000e+04 7.252040527343750000e+03
1.166110742187500000e+04 -1.115266796875000000e+04 7.253692382812500000e+03
1.165915820312500000e+04 -1.115103222656250000e+04 7.255216796875000000e+03
1.176687988281250000e+04 -1.106602734375000000e+04 7.422476562500000000e+03
1.176606445312500000e+04 -1.106295703125000000e+04 7.423482421875000000e+03
1.176540625000000000e+04 -1.106530859375000000e+04 7.426047363281250000e+03
1.176452343750000000e+04 -1.106217089843750000e+04 7.426919921875000000e+03
1.172535839843750000e+04 -1.105120898437500000e+04 7.242521484375000000e+03
1.172233007812500000e+04 -1.105036425781250000e+04 7.244057617187500000e+03
1.172743945312500000e+04 -1.105190820312500000e+04 7.245308105468750000e+03
1.172441210937500000e+04 -1.105067968750000000e+04 7.246507324218750000e+03
1.166912011718750000e+04 -1.117003613281250000e+04 7.440983398437500000e+03
1.166656835937500000e+04 -1.116775976562500000e+04 7.442126464843750000e+03
1.167191015625000000e+04 -1.117006542968750000e+04 7.441518554687500000e+03
1.166972851562500000e+04 -1.116797167968750000e+04 7.443071777343750000e+03
1.172190136718750000e+04 -1.100655371093750000e+04 7.442915527343750000e+03
1.172244238281250000e+04 -1.100480078125000000e+04 7.439846679687500000e+03
1.172460058593750000e+04 -1.100932226562500000e+04 7.444287109375000000e+03
1.172377832031250000e+04 -1.100769335937500000e+04 7.442335937500000000e+03
1.165692871093750000e+04 -1.102340429687500000e+04 7.311158691406250000e+03
1.165762402343750000e+04 -1.102109570312500000e+04 7.312399414062500000e+03
1.165813867187500000e+04 -1.102018066406250000e+04 7.312982421875000000e+03
1.165885058593750000e+04 -1.101798632812500000e+04 7.314155761718750000e+03
1.164725878906250000e+04 -1.117495996093750000e+04 7.414248535156250000e+03
1.164459277343750000e+04 -1.117342871093750000e+04 7.415352539062500000e+03
1.164935156250000000e+04 -1.117691796875000000e+04 7.416379394531250000e+03
1.164684375000000000e+04 -1.117517089843750000e+04 7.417156250000000000e+03
1.165277343750000000e+04 -1.114484863281250000e+04 7.256527343750000000e+03
1.165052734375000000e+04 -1.114241015625000000e+04 7.257615234375000000e+03
1.165306738281250000e+04 -1.114622070312500000e+04 7.259286621093750000e+03
1.165085449218750000e+04 -1.114373632812500000e+04 7.260408203125000000e+03
1.161857714843750000e+04 -1.111712304687500000e+04 7.328708984375000000e+03
