-4.926307499408721924e-01 -1.398656517267227173e-01 2.281563580036163330e-01
-4.822857379913330078e-01 -1.268292516469955444e-01 2.244379818439483643e-01
-6.491308808326721191e-01 -6.649153679609298706e-02 4.459275007247924805e-01
-6.540978550910949707e-01 -2.772726677358150482e-02 4.491666853427886963e-01
-6.162527203559875488e-01 -5.424521863460540771e-02 4.373477697372436523e-01
-6.190241575241088867e-01 -2.062903158366680145e-02 4.401252865791320801e-01
-3.070826828479766846e-01 -3.723854124546051025e-01 8.205527812242507935e-02
-3.067891895771026611e-01 -3.499563932418823242e-01 8.023646473884582520e-02
-2.849270999431610107e-01 -3.708328008651733398e-01 7.568205893039703369e-02
-2.843140065670013428e-01 -3.491078019142150879e-01 7.468750327825546265e-02
3.247755765914916992e-01 -2.901804149150848389e-01 -3.361292481422424316e-01
3.323178887367248535e-01 -2.739990353584289551e-01 -3.419318795204162598e-01
3.436136245727539062e-01 -2.845981419086456299e-01 -3.371715843677520752e-01
3.508656919002532959e-01 -2.682162523269653320e-01 -3.431634008884429932e-01
-1.123402789235115051e-01 -7.730926573276519775e-02 -6.651705596596002579e-03
-1.121374815702438354e-01 -5.116817727684974670e-02 -6.175334565341472626e-03
-8.978994190692901611e-02 -7.129459828138351440e-02 -1.275215577334165573e-02
-8.965052664279937744e-02 -4.708063974976539612e-02 -1.171328686177730560e-02
-2.386429458856582642e-01 -3.940405845642089844e-01 -2.363588213920593262e-01
-2.355495840311050415e-01 -3.798541426658630371e-01 -2.401427477598190308e-01
-2.248339802026748657e-01 -3.914952576160430908e-01 -2.375729382038116455e-01
-2.221938520669937134e-01 -3.774442672729492188e-01 -2.413291633129119873e-01
-1.088429093360900879e-01 -6.998849511146545410e-01 -1.918987184762954712e-01
-1.110297590494155884e-01 -6.792997121810913086e-01 -1.925573348999023438e-01
-9.144790470600128174e-02 -7.008035182952880859e-01 -1.948824077844619751e-01
-9.393948316574096680e-02 -6.792348623275756836e-01 -1.961736977100372314e-01
-3.724521398544311523e-01 5.099029093980789185e-02 -6.143570691347122192e-02
-3.570874631404876709e-01 7.244068384170532227e-02 -7.505447417497634888e-02
-3.570403456687927246e-01 6.491087377071380615e-02 -4.344645515084266663e-02
-3.429881036281585693e-01 8.535227179527282715e-02 -5.804415792226791382e-02
-2.770222723484039307e-01 1.426824778318405151e-01 1.344902627170085907e-02
-2.652457654476165771e-01 1.548555642366409302e-01 7.347270846366882324e-03
-2.692716717720031738e-01 1.498912721872329712e-01 2.427055872976779938e-02
-2.580857276916503906e-01 1.620418280363082886e-01 1.850608177483081818e-02
-2.062703669071197510e-01 -7.070448994636535645e-01 -1.762509793043136597e-01
-2.034858465194702148e-01 -6.942600607872009277e-01 -1.789869964122772217e-01
-1.950599104166030884e-01 -7.086206078529357910e-01 -1.750475913286209106e-01
-1.943955421447753906e-01 -6.924437880516052246e-01 -1.760644912719726562e-01
-6.309763789176940918e-01 -1.462159752845764160e-01 2.170838415622711182e-01
-6.370424032211303711e-01 -1.322041004896163940e-01 2.252920120954513550e-01
-6.211579442024230957e-01 -1.448247730731964111e-01 2.316539734601974487e-01
-6.299984455108642578e-01 -1.308261603116989136e-01 2.425412833690643311e-01
-2.162561863660812378e-01 1.504630148410797119e-01 3.160988688468933105e-01
-2.102338522672653198e-01 1.659161448478698730e-01 3.078322708606719971e-01
-2.059304267168045044e-01 1.517246812582015991e-01 3.259058892726898193e-01
-1.998896002769470215e-01 1.680804193019866943e-01 3.178054690361022949e-01
-5.806231498718261719e-01 -1.514704674482345581e-01 -2.415134757757186890e-01
-5.759022235870361328e-01 -1.340397447347640991e-01 -2.454588562250137329e-01
-5.650411248207092285e-01 -1.511240303516387939e-01 -2.414423972368240356e-01
-5.605606436729431152e-01 -1.339616030454635620e-01 -2.453127503395080566e-01
-5.258828997611999512e-01 1.173429116606712341e-01 -1.856078803539276123e-01
-5.156080722808837891e-01 1.321806609630584717e-01 -1.884092539548873901e-01
-5.169624090194702148e-01 1.266015768051147461e-01 -1.703068166971206665e-01
-5.072734951972961426e-01 1.410690993070602417e-01 -1.733289808034896851e-01
-1.666224002838134766e-02 -3.302702307701110840e-01 -2.763260602951049805e-01
-1.743513531982898712e-02 -3.117152452468872070e-01 -2.791011929512023926e-01
-2.386588137596845627e-03 -3.318064212799072266e-01 -2.765115797519683838e-01
-3.628389444202184677e-03 -3.120716810226440430e-01 -2.796441316604614258e-01
-2.641499973833560944e-02 1.718051284551620483e-01 2.511332333087921143e-01
-2.768313884735107422e-02 1.904194802045822144e-01 2.510916590690612793e-01
-8.594306185841560364e-03 1.719507575035095215e-01 2.472979575395584106e-01
-9.546406567096710205e-03 1.914281994104385376e-01 2.466271221637725830e-01
-1.988433748483657837e-01 1.996963918209075928e-01 5.144511163234710693e-02
-1.916394382715225220e-01 2.083371281623840332e-01 4.826086759567260742e-02
-1.928377300500869751e-01 2.044408172369003296e-01 5.866778269410133362e-02
-1.857358813285827637e-01 2.130153328180313110e-01 5.513124912977218628e-02
4.579358920454978943e-02 -4.185307621955871582e-01 -2.667870521545410156e-01
4.664890095591545105e-02 -4.043145775794982910e-01 -2.690306901931762695e-01
5.986320227384567261e-02 -4.157531261444091797e-01 -2.661986649036407471e-01
5.975330993533134460e-02 -4.005467891693115234e-01 -2.683401405811309814e-01
-2.882454693317413330e-01 -1.764925122261047363e-01 -2.696798145771026611e-01
-2.883329391479492188e-01 -1.612475961446762085e-01 -2.703984081745147705e-01
-2.737830579280853271e-01 -1.764137446880340576e-01 -2.701498568058013916e-01
-2.743216156959533691e-01 -1.596372425556182861e-01 -2.697679996490478516e-01
-5.488427877426147461e-01 -1.541896164417266846e-01 1.091771945357322693e-01
-5.463994741439819336e-01 -1.383889019489288330e-01 9.913579374551773071e-02
-5.354048609733581543e-01 -1.553588956594467163e-01 1.170817464590072632e-01
-5.323947072029113770e-01 -1.396169513463973999e-01 1.075275987386703491e-01
-5.971522927284240723e-01 8.934643119573593140e-02 4.263577759265899658e-01
-5.977949500083923340e-01 1.247322112321853638e-01 4.223695993423461914e-01
-5.568434596061706543e-01 8.857183903455734253e-02 4.171845018863677979e-01
-5.587910413742065430e-01 1.211292967200279236e-01 4.129897952079772949e-01
-7.594499588012695312e-01 4.380393773317337036e-02 -2.494297176599502563e-01
-7.547161579132080078e-01 6.210967153310775757e-02 -2.533181905746459961e-01
-7.398298978805541992e-01 5.076555535197257996e-02 -2.539964914321899414e-01
-7.365890741348266602e-01 6.842438131570816040e-02 -2.563558220863342285e-01
-2.554331719875335693e-01 3.814395070075988770e-01 -3.766140937805175781e-01
-2.539206445217132568e-01 3.973402082920074463e-01 -3.803069591522216797e-01
-2.398870885372161865e-01 3.809105157852172852e-01 -3.789333701133728027e-01
-2.380874902009963989e-01 3.959813117980957031e-01 -3.823051452636718750e-01
-6.415845155715942383e-01 2.186472415924072266e-01 -3.015097379684448242e-01
-6.325110197067260742e-01 2.320933192968368530e-01 -3.112822473049163818e-01
-6.210512518882751465e-01 2.245677262544631958e-01 -3.019001185894012451e-01
-6.102121472358703613e-01 2.372602820396423340e-01 -3.127753734588623047e-01
5.802321434020996094e-02 4.343896508216857910e-01 1.541460156440734863e-01
4.618342965841293335e-02 4.423926174640655518e-01 1.613734513521194458e-01
7.742951065301895142e-02 4.299584031105041504e-01 1.595215797424316406e-01
6.442382931709289551e-02 4.378854334354400635e-01 1.674869656562805176e-01
-8.312699198722839355e-02 -5.583178997039794922e-01 -2.200013697147369385e-01
-8.672161400318145752e-02 -5.428605675697326660e-01 -2.221215367317199707e-01
-6.654089689254760742e-02 -5.579857826232910156e-01 -2.236799299716949463e-01
-7.037194073200225830e-02 -5.420608520507812500e-01 -2.257264256477355957e-01
-7.200437784194946289e-01 1.249426528811454773e-01 -2.628614604473114014e-01
-7.223008871078491211e-01 1.431861817836761475e-01 -2.649158835411071777e-01
-7.051596641540527344e-01 1.220854893326759338e-01 -2.636252045631408691e-01
-7.075415253639221191e-01 1.397511214017868042e-01 -2.666964232921600342e-01
-1.101221442222595215e-01 3.305934667587280273e-01 -1.615409404039382935e-01
-1.028586328029632568e-01 3.421944677829742432e-01 -1.636336594820022583e-01
-1.007125526666641235e-01 3.385385572910308838e-01 -1.491000950336456299e-01
-9.334119409322738647e-02 3.503997623920440674e-01 -1.511797159910202026e-01
8.803643286228179932e-02 -3.957769870758056641e-01 -2.708797454833984375e-01
8.575341850519180298e-02 -3.835687935352325439e-01 -2.676109373569488525e-01
1.007828414440155029e-01 -3.947263062000274658e-01 -2.713575065135955811e-01
9.551812708377838135e-02 -3.833864331245422363e-01 -2.665432095527648926e-01
3.320799767971038818e-02 1.070313006639480591e-01 2.360282838344573975e-01
3.065136261284351349e-02 1.263125836849212646e-01 2.366334646940231323e-01
5.206979066133499146e-02 1.106569245457649231e-01 2.318915873765945435e-01
4.979940876364707947e-02 1.299086809158325195e-01 2.327876091003417969e-01
-5.025211572647094727e-01 1.872023195028305054e-01 -3.161432445049285889e-01
-4.977716803550720215e-01 2.001648098230361938e-01 -3.202373087406158447e-01
-4.894027709960937500e-01 1.861345320940017700e-01 -3.147015869617462158e-01
-4.838968515396118164e-01 1.990050673484802246e-01 -3.194770514965057373e-01
1.391955465078353882e-01 -1.904903501272201538e-01 2.400707751512527466e-01
1.364842355251312256e-01 -1.677146703004837036e-01 2.398847490549087524e-01
1.609362512826919556e-01 -1.859331279993057251e-01 2.339054197072982788e-01
1.578720211982727051e-01 -1.637602448463439941e-01 2.338041514158248901e-01
4.652994275093078613e-01 -7.234710454940795898e-02 -7.581427693367004395e-02
4.791150391101837158e-01 -5.736252292990684509e-02 -8.030620962381362915e-02
4.754932820796966553e-01 -6.250473111867904663e-02 -5.665625259280204773e-02
4.915489256381988525e-01 -4.709795117378234863e-02 -6.153100728988647461e-02
-3.141247928142547607e-01 5.407329276204109192e-02 1.871117055416107178e-01
-3.029149472713470459e-01 6.989426165819168091e-02 1.825408637523651123e-01
-3.017895817756652832e-01 6.330129504203796387e-02 2.032551318407058716e-01
-2.907004952430725098e-01 7.911215722560882568e-02 1.986610740423202515e-01
-1.956931501626968384e-01 5.948246717453002930e-01 -4.245737493038177490e-01
-1.974999755620956421e-01 6.153665184974670410e-01 -4.261305630207061768e-01
-1.732225120067596436e-01 5.944982171058654785e-01 -4.241504371166229248e-01
-1.767678558826446533e-01 6.150202155113220215e-01 -4.248390793800354004e-01
4.778645187616348267e-02 -3.457070589065551758e-01 2.733460366725921631e-01
4.838817566633224487e-02 -3.265672624111175537e-01 2.734943330287933350e-01
6.548945605754852295e-02 -3.412728011608123779e-01 2.688569128513336182e-01
6.593608111143112183e-02 -3.219171166419982910e-01 2.690418362617492676e-01
-4.390102624893188477e-02 2.989860475063323975e-01 2.596620023250579834e-01
-3.736046701669692993e-02 3.082098662853240967e-01 2.549619376659393311e-01
-3.774418309330940247e-02 3.028750419616699219e-01 2.681092917919158936e-01
-3.099764510989189148e-02 3.124156296253204346e-01 2.633820176124572754e-01
-8.642718195915222168e-02 -1.375932395458221436e-01 -3.076360225677490234e-01
-8.709809929132461548e-02 -1.201931014657020569e-01 -3.109839558601379395e-01
-7.131808251142501831e-02 -1.405861824750900269e-01 -3.090381622314453125e-01
-6.916332989931106567e-02 -1.250411123037338257e-01 -3.131060004234313965e-01
-4.718208014965057373e-01 -1.292588114738464355e-01 3.650415539741516113e-01
-4.701431989669799805e-01 -1.136420965194702148e-01 3.585922718048095703e-01
-4.576017558574676514e-01 -1.291341334581375122e-01 3.655575215816497803e-01
-4.552291035652160645e-01 -1.133485287427902222e-01 3.596798479557037354e-01
-4.351857304573059082e-01 2.028523758053779602e-02 6.935604661703109741e-02
-4.360578358173370361e-01 2.733535692095756531e-02 7.338073104619979858e-02
-4.254103600978851318e-01 2.229817211627960205e-02 8.058464527130126953e-02
-4.261055290699005127e-01 2.938234806060791016e-02 8.436997979879379272e-02
-4.255301952362060547e-01 -1.155580766499042511e-02 -3.809008747339248657e-02
-4.149609804153442383e-01 2.343916799873113632e-03 -4.410901665687561035e-02
-4.140550494194030762e-01 8.115218952298164368e-05 -2.829889208078384399e-02
-4.032500386238098145e-01 1.321934442967176437e-02 -3.397259861230850220e-02
-6.637840867042541504e-01 2.322741448879241943e-01 4.310195744037628174e-01
-6.695725321769714355e-01 2.715096175670623779e-01 4.303511083126068115e-01
-6.317127943038940430e-01 2.399290055036544800e-01 4.250521659851074219e-01
-6.372615694999694824e-01 2.785566151142120361e-01 4.243231117725372314e-01
-3.204669654369354248e-01 2.605710923671722412e-01 7.380872219800949097e-02
-3.125655949115753174e-01 2.745942473411560059e-01 7.074054330587387085e-02
-3.173731267452239990e-01 2.687512338161468506e-01 8.313599973917007446e-02
-3.091301918029785156e-01 2.812962532043457031e-01 7.923103868961334229e-02
-1.961347162723541260e-01 -3.131290376186370850e-01 3.292402625083923340e-02
-2.002643793821334839e-01 -2.899291515350341797e-01 3.258743137121200562e-02
-1.759297549724578857e-01 -3.131331801414489746e-01 2.802694775164127350e-02
-1.808275729417800903e-01 -2.893162369728088379e-01 2.853055112063884735e-02
-2.366485595703125000e-01 2.675637789070606232e-02 -3.155593872070312500e-01
-2.330511212348937988e-01 3.949921950697898865e-02 -3.195929527282714844e-01
-2.215072363615036011e-01 2.689273282885551453e-02 -3.179910480976104736e-01
-2.172757387161254883e-01 3.965840116143226624e-02 -3.217782080173492432e-01
-3.686000108718872070e-01 5.601055547595024109e-02 -5.198671668767929077e-02
-3.533452153205871582e-01 7.747356593608856201e-02 -6.601688265800476074e-02
-3.540047407150268555e-01 6.998078525066375732e-02 -3.332143649458885193e-02
-3.391900658607482910e-01 9.028024226427078247e-02 -4.795034974813461304e-02
8.112296462059020996e-02 -1.812563389539718628e-01 -3.115559816360473633e-01
8.265774697065353394e-02 -1.696528047323226929e-01 -3.153764903545379639e-01
9.873218834400177002e-02 -1.870231777429580688e-01 -3.124798834323883057e-01
9.935101121664047241e-02 -1.751097142696380615e-01 -3.161491453647613525e-01
-3.800362050533294678e-01 -9.551870636641979218e-03 1.189705878496170044e-01
-3.888998329639434814e-01 3.491169773042201996e-04 1.212238892912864685e-01
-3.759527206420898438e-01 -8.124788291752338409e-03 1.222346574068069458e-01
-3.852567374706268311e-01 1.904412172734737396e-03 1.248567253351211548e-01
-5.579627156257629395e-01 -2.688115537166595459e-01 -2.149187922477722168e-01
-5.542193055152893066e-01 -2.555266022682189941e-01 -2.184973061084747314e-01
-5.442997217178344727e-01 -2.702214121818542480e-01 -2.173530608415603638e-01
-5.399380922317504883e-01 -2.568137645721435547e-01 -2.213268578052520752e-01
3.023928701877593994e-01 8.364626765251159668e-02 -3.107808530330657959e-01
2.858263552188873291e-01 1.025537699460983276e-01 -3.031114041805267334e-01
3.146737813949584961e-01 7.805866003036499023e-02 -2.930675745010375977e-01
2.970227003097534180e-01 9.674303978681564331e-02 -2.858440279960632324e-01
2.556003630161285400e-02 -1.889267861843109131e-01 -2.002753876149654388e-02
2.272978611290454865e-02 -1.625503003597259521e-01 -2.015078999102115631e-02
4.665873572230339050e-02 -1.879944354295730591e-01 -2.331828698515892029e-02
4.400466382503509521e-02 -1.606116294860839844e-01 -2.354410290718078613e-02
1.587626338005065918e-01 -2.573853135108947754e-01 -3.156741261482238770e-01
1.558531820774078369e-01 -2.419046908617019653e-01 -3.183052241802215576e-01
1.725914478302001953e-01 -2.582932412624359131e-01 -3.173342645168304443e-01
1.694057285785675049e-01 -2.420920580625534058e-01 -3.199469149112701416e-01
-1.611962020397186279e-01 -3.602308928966522217e-01 2.755470201373100281e-02
-1.654693037271499634e-01 -3.343152701854705811e-01 2.818245626986026764e-02
-1.389809548854827881e-01 -3.598338067531585693e-01 2.286136709153652191e-02
-1.430514901876449585e-01 -3.350633382797241211e-01 2.372475713491439819e-02
-2.344295978546142578e-01 7.101216167211532593e-02 3.242023885250091553e-01
-2.315160036087036133e-01 8.674754947423934937e-02 3.202576637268066406e-01
-2.208352088928222656e-01 7.822673022747039795e-02 3.265337944030761719e-01
-2.176311910152435303e-01 9.390963613986968994e-02 3.224292099475860596e-01
-3.001466691493988037e-01 -4.696447849273681641e-01 -2.182673960924148560e-01
-3.034507334232330322e-01 -4.547837078571319580e-01 -2.222193479537963867e-01
-2.853349745273590088e-01 -4.717498123645782471e-01 -2.202387899160385132e-01
-2.881975471973419189e-01 -4.564325213432312012e-01 -2.235309928655624390e-01
3.341577649116516113e-01 1.256228387355804443e-01 1.672489345073699951e-01
3.298498690128326416e-01 1.430060714483261108e-01 1.668157279491424561e-01
3.541683256626129150e-01 1.226858869194984436e-01 1.650577783584594727e-01
3.460004925727844238e-01 1.396993547677993774e-01 1.658665239810943604e-01
-5.228812620043754578e-02 -8.283859491348266602e-02 -2.393260598182678223e-02
-5.156252533197402954e-02 -6.015224754810333252e-02 -2.329530939459800720e-02
-2.938373759388923645e-02 -7.697241008281707764e-02 -2.843871526420116425e-02
-2.903110906481742859e-02 -5.437857657670974731e-02 -2.854601107537746429e-02
5.732796713709831238e-02 2.160725146532058716e-01 -6.523600220680236816e-02
5.809654667973518372e-02 2.393570691347122192e-01 -6.681274622678756714e-02
8.053468912839889526e-02 2.203186154365539551e-01 -7.190659642219543457e-02
8.100838214159011841e-02 2.443761527538299561e-01 -7.258720695972442627e-02
-5.502704977989196777e-01 -1.148674264550209045e-01 -1.454181671142578125e-01
-5.408095717430114746e-01 -1.010602489113807678e-01 -1.531918793916702271e-01
-5.424700975418090820e-01 -1.112374886870384216e-01 -1.292717456817626953e-01
-5.332361459732055664e-01 -9.752736240625381470e-02 -1.361906230449676514e-01
-2.591531276702880859e-01 -5.124388933181762695e-01 -2.147764712572097778e-01
-2.579230666160583496e-01 -4.940906167030334473e-01 -2.165054678916931152e-01
-2.411706000566482544e-01 -5.125718712806701660e-01 -2.180808931589126587e-01
-2.393584996461868286e-01 -4.945633411407470703e-01 -2.197831124067306519e-01
-4.206846952438354492e-01 -3.160316050052642822e-01 -2.228682637214660645e-01
-4.196003377437591553e-01 -2.981580197811126709e-01 -2.260348498821258545e-01
-4.078487455844879150e-01 -3.171070814132690430e-01 -2.243180871009826660e-01
-4.081568419933319092e-01 -2.992217242717742920e-01 -2.275908142328262329e-01
-5.162355899810791016e-01 -3.144320845603942871e-01 -2.168910950422286987e-01
-5.128602981567382812e-01 -3.004875481128692627e-01 -2.193072438240051270e-01
-5.019377470016479492e-01 -3.164244890213012695e-01 -2.185301482677459717e-01
-4.995371997356414795e-01 -3.017433583736419678e-01 -2.203679233789443970e-01
-7.137933969497680664e-01 -1.319045424461364746e-01 -1.983731985092163086e-01
-7.132504582405090332e-01 -1.148500964045524597e-01 -2.021080702543258667e-01
-7.022916674613952637e-01 -1.258348673582077026e-01 -1.959242224693298340e-01
-7.026112675666809082e-01 -1.082366630434989929e-01 -2.006292343139648438e-01
-3.100308179855346680e-01 3.280781209468841553e-02 2.924364507198333740e-01
-3.000098764896392822e-01 4.276696965098381042e-02 2.888321876525878906e-01
-3.067178428173065186e-01 3.555268421769142151e-02 3.055734336376190186e-01
-2.968156933784484863e-01 4.511254653334617615e-02 3.017305433750152588e-01
2.680294215679168701e-01 -3.446131944656372070e-01 -3.176874518394470215e-01
2.736464142799377441e-01 -3.258661031723022461e-01 -3.227387666702270508e-01
2.872727811336517334e-01 -3.383803367614746094e-01 -3.186019062995910645e-01
2.927027344703674316e-01 -3.190910220146179199e-01 -3.232650756835937500e-01
-8.859590440988540649e-02 -6.088284254074096680e-01 -2.097956687211990356e-01
-9.150043129920959473e-02 -5.880273580551147461e-01 -2.130459696054458618e-01
-6.874197721481323242e-02 -6.062863469123840332e-01 -2.161925137042999268e-01
-7.200382649898529053e-02 -5.846784114837646484e-01 -2.192382216453552246e-01
-1.341836601495742798e-01 5.357706919312477112e-02 -5.880227778106927872e-03
-1.345325410366058350e-01 7.745899260044097900e-02 -7.660828996449708939e-03
-1.106767430901527405e-01 5.953293666243553162e-02 -1.170640159398317337e-02
-1.101003512740135193e-01 8.279019594192504883e-02 -1.330066099762916565e-02
-1.629859209060668945e-01 -4.174198508262634277e-01 3.354157805442810059e-01
-1.636150777339935303e-01 -3.993051350116729736e-01 3.360993266105651855e-01
-1.486581414937973022e-01 -4.163362979888916016e-01 3.309315741062164307e-01
-1.490026414394378662e-01 -3.982140123844146729e-01 3.310112059116363525e-01
-5.929755568504333496e-01 1.799806207418441772e-01 -3.010507225990295410e-01
-5.920425057411193848e-01 1.936307549476623535e-01 -3.087330460548400879e-01
-5.767034292221069336e-01 1.772005409002304077e-01 -3.030566573143005371e-01
-5.778926610946655273e-01 1.908833533525466919e-01 -3.096733391284942627e-01
-3.540875017642974854e-01 -1.633254624903202057e-02 3.462072312831878662e-01
-3.446955084800720215e-01 -6.319229491055011749e-03 3.437408208847045898e-01
-3.521445095539093018e-01 -8.363324217498302460e-03 3.591351509094238281e-01
-3.430444896221160889e-01 1.714955084025859833e-03 3.565648198127746582e-01
2.547994852066040039e-01 -2.071739733219146729e-01 -3.344463706016540527e-01
2.583997547626495361e-01 -1.911060661077499390e-01 -3.391509354114532471e-01
2.687284946441650391e-01 -2.058661282062530518e-01 -3.367849588394165039e-01
2.722140550613403320e-01 -1.898691356182098389e-01 -3.414545953273773193e-01
-5.405939817428588867e-01 -3.111315965652465820e-01 5.212770774960517883e-04
-5.567233562469482422e-01 -2.986574172973632812e-01 1.147636026144027710e-02
-5.267185568809509277e-01 -3.153185844421386719e-01 1.962688192725181580e-02
-5.415216088294982910e-01 -3.037976622581481934e-01 3.117011301219463348e-02
3.433864414691925049e-01 -2.561680376529693604e-01 1.874295026063919067e-01
3.399026989936828613e-01 -2.365417480468750000e-01 1.881862729787826538e-01
3.623700737953186035e-01 -2.543355822563171387e-01 1.831734776496887207e-01
3.601565957069396973e-01 -2.339929491281509399e-01 1.826411783695220947e-01
-5.837612748146057129e-01 -1.735013425350189209e-01 1.216243878006935120e-01
-5.796358585357666016e-01 -1.610180288553237915e-01 1.194439157843589783e-01
-5.748844146728515625e-01 -1.738539487123489380e-01 1.327078044414520264e-01
-5.707991719245910645e-01 -1.610716730356216431e-01 1.301352679729461670e-01
-2.842299640178680420e-01 2.636223733425140381e-01 -3.541209995746612549e-01
-2.896948456764221191e-01 2.795487642288208008e-01 -3.553000390529632568e-01
-2.711606621742248535e-01 2.644414305686950684e-01 -3.572544455528259277e-01
-2.767447233200073242e-01 2.809456586837768555e-01 -3.585112690925598145e-01
-3.932761847972869873e-01 7.061683386564254761e-02 -1.988005489110946655e-01
-3.824111521244049072e-01 8.410928398370742798e-02 -2.026753127574920654e-01
-3.847222328186035156e-01 7.281422615051269531e-02 -1.790468394756317139e-01
-3.744957745075225830e-01 8.665552735328674316e-02 -1.830713003873825073e-01
-7.841842770576477051e-01 1.360661350190639496e-02 -2.400743067264556885e-01
-7.795303463935852051e-01 2.998427860438823700e-02 -2.453350275754928589e-01
-7.650774121284484863e-01 1.671310514211654663e-02 -2.437078654766082764e-01
-7.604154348373413086e-01 3.189546614885330200e-02 -2.481628060340881348e-01
-5.738567709922790527e-01 -2.552122771739959717e-01 7.733833789825439453e-02
-5.829620361328125000e-01 -2.428069710731506348e-01 8.857111632823944092e-02
-5.628585815429687500e-01 -2.578062713146209717e-01 9.437804669141769409e-02
-5.728347897529602051e-01 -2.438086569309234619e-01 1.030553653836250305e-01
5.335535109043121338e-02 3.809191882610321045e-01 2.246820330619812012e-01
6.072206795215606689e-02 3.965674638748168945e-01 2.183724939823150635e-01
6.674779206514358521e-02 3.794611096382141113e-01 2.294353544712066650e-01
7.398455590009689331e-02 3.949311077594757080e-01 2.228574305772781372e-01
-7.815005183219909668e-01 -2.349665164947509766e-01 -1.967033743858337402e-01
-7.857010960578918457e-01 -2.178544998168945312e-01 -1.972964257001876831e-01
-7.647528648376464844e-01 -2.369677871465682983e-01 -1.997109204530715942e-01
-7.692987322807312012e-01 -2.196758985519409180e-01 -2.002729922533035278e-01
1.521039158105850220e-01 -1.506882011890411377e-01 -7.464767247438430786e-02
1.472988575696945190e-01 -1.261709332466125488e-01 -7.065920531749725342e-02
1.742561906576156616e-01 -1.446783840656280518e-01 -8.071037381887435913e-02
1.698267459869384766e-01 -1.199511215090751648e-01 -7.667355239391326904e-02
-2.099061757326126099e-01 2.626724243164062500e-01 3.095285892486572266e-01
-2.109610736370086670e-01 2.875174582004547119e-01 3.093451261520385742e-01
-1.901681721210479736e-01 2.677032351493835449e-01 3.047675490379333496e-01
-1.906593739986419678e-01 2.932041585445404053e-01 3.050824403762817383e-01
-3.410596251487731934e-01 3.160881996154785156e-01 -2.986750006675720215e-01
-3.309182226657867432e-01 3.340705335140228271e-01 -3.071994483470916748e-01
-3.304130733013153076e-01 3.222212791442871094e-01 -2.835802733898162842e-01
-3.203790783882141113e-01 3.410764336585998535e-01 -2.921526432037353516e-01
-6.281384229660034180e-01 -3.528181016445159912e-01 -1.979656070470809937e-01
-6.202709674835205078e-01 -3.414777517318725586e-01 -2.017339617013931274e-01
-6.100199818611145020e-01 -3.542263805866241455e-01 -1.980788111686706543e-01
-6.053820848464965820e-01 -3.423094749450683594e-01 -2.022555023431777954e-01
-2.378738224506378174e-01 -5.273230671882629395e-01 3.552186191082000732e-01
-2.359363436698913574e-01 -5.087039470672607422e-01 3.554130494594573975e-01
-2.211988717317581177e-01 -5.239040851593017578e-01 3.541697263717651367e-01
-2.189185321331024170e-01 -5.051940083503723145e-01 3.539410233497619629e-01
-3.311101719737052917e-02 2.703497707843780518e-01 -3.200756013393402100e-02
-3.556843474507331848e-02 2.923828661441802979e-01 -3.265203908085823059e-02
-1.469030138105154037e-02 2.715272307395935059e-01 -3.697014600038528442e-02
-1.742718741297721863e-02 2.949333488941192627e-01 -3.778234869241714478e-02
-7.701321691274642944e-02 -1.705111414194107056e-01 2.824804782867431641e-01
-8.604729920625686646e-02 -1.532981693744659424e-01 2.871313095092773438e-01
-6.170995905995368958e-02 -1.725742965936660767e-01 2.784964442253112793e-01
-7.090122997760772705e-02 -1.554892510175704956e-01 2.830826938152313232e-01
-9.991180896759033203e-02 -6.217131018638610840e-01 -2.078266590833663940e-01
-1.030193716287612915e-01 -6.019879579544067383e-01 -2.115215212106704712e-01
-7.761242985725402832e-02 -6.190258264541625977e-01 -2.146101742982864380e-01
-8.095245808362960815e-02 -5.975798368453979492e-01 -2.176131606101989746e-01
-3.886077404022216797e-01 3.693271800875663757e-02 -8.709996193647384644e-02
-3.724188208580017090e-01 5.834995210170745850e-02 -9.814127534627914429e-02
-3.751697540283203125e-01 4.787258058786392212e-02 -6.846344470977783203e-02
-3.596168756484985352e-01 6.901039183139801025e-02 -8.113671839237213135e-02
2.179580181837081909e-01 -3.011635541915893555e-01 -2.127487510442733765e-01
2.282681763172149658e-01 -2.830865681171417236e-01 -2.231077402830123901e-01
2.296731472015380859e-01 -2.909773290157318115e-01 -2.017850875854492188e-01
2.408850342035293579e-01 -2.731216251850128174e-01 -2.124793976545333862e-01
-1.730219572782516479e-01 4.891055226325988770e-01 -4.135724306106567383e-01
-1.777045428752899170e-01 5.015686750411987305e-01 -4.179620444774627686e-01
-1.591620594263076782e-01 4.853063225746154785e-01 -4.147395193576812744e-01
-1.633719354867935181e-01 4.975778758525848389e-01 -4.189339578151702881e-01
1.983594298362731934e-01 -1.479735225439071655e-01 2.212117314338684082e-01
1.936207413673400879e-01 -1.270694881677627563e-01 2.217963933944702148e-01
2.184626758098602295e-01 -1.467410624027252197e-01 2.174160629510879517e-01
2.143892198801040649e-01 -1.261308044195175171e-01 2.173482030630111694e-01
-4.566194713115692139e-01 -2.534597367048263550e-02 -1.311161518096923828e-01
-4.453611969947814941e-01 -1.106949895620346069e-02 -1.362067759037017822e-01
-4.495557844638824463e-01 -2.067242749035358429e-02 -1.209193393588066101e-01
-4.375996887683868408e-01 -5.173112265765666962e-03 -1.263038963079452515e-01
-8.149259537458419800e-02 3.959948420524597168e-01 -4.075038433074951172e-01
-7.472731918096542358e-02 4.079331755638122559e-01 -4.131881892681121826e-01
-7.126723974943161011e-02 3.936187028884887695e-01 -4.081255793571472168e-01
-6.387390941381454468e-02 4.054938256740570068e-01 -4.139518141746520996e-01
-7.432059943675994873e-02 -6.245776414871215820e-01 -2.073092758655548096e-01
-7.798635214567184448e-02 -6.030135154724121094e-01 -2.103463858366012573e-01
-5.218005925416946411e-02 -6.227336525917053223e-01 -2.146617174148559570e-01
-5.624181032180786133e-02 -6.012727618217468262e-01 -2.173663377761840820e-01
-5.025576949119567871e-01 7.461438328027725220e-02 1.305088549852371216e-01
-4.932639896869659424e-01 8.604339510202407837e-02 1.281856745481491089e-01
-4.970735311508178711e-01 7.896663248538970947e-02 1.458337604999542236e-01
-4.877648949623107910e-01 9.203653782606124878e-02 1.420171260833740234e-01
-5.233170390129089355e-01 -1.163009181618690491e-02 1.144127696752548218e-01
-5.132612586021423340e-01 2.923547755926847458e-03 1.080679744482040405e-01
-5.115053653717041016e-01 -9.064592421054840088e-03 1.259771585464477539e-01
-5.022202134132385254e-01 5.383087322115898132e-03 1.198685169219970703e-01
-6.422688961029052734e-01 -9.740546345710754395e-02 2.067417353391647339e-01
-6.323710083961486816e-01 -8.537933230400085449e-02 2.039699852466583252e-01
-6.365472674369812012e-01 -9.149545431137084961e-02 2.214524596929550171e-01
-6.292771100997924805e-01 -7.860749214887619019e-02 2.209607511758804321e-01
-5.360750555992126465e-01 1.023442149162292480e-01 -2.129255831241607666e-01
-5.254651904106140137e-01 1.172588616609573364e-01 -2.160667330026626587e-01
-5.282853841781616211e-01 1.102987378835678101e-01 -1.984733939170837402e-01
-5.178471803665161133e-01 1.252078115940093994e-01 -2.014138698577880859e-01
-5.440840721130371094e-01 -1.366120427846908569e-01 5.271955858916044235e-03
-5.305993556976318359e-01 -1.192924603819847107e-01 -1.187639310956001282e-03
-5.318668484687805176e-01 -1.318884342908859253e-01 2.481377869844436646e-02
-5.191325545310974121e-01 -1.148101612925529480e-01 1.806339062750339508e-02
-2.806896865367889404e-01 5.180091038346290588e-02 4.603327065706253052e-02
-2.736512720584869385e-01 6.964758783578872681e-02 3.962454572319984436e-02
-2.730503082275390625e-01 5.677488446235656738e-02 5.288499221205711365e-02
-2.658621370792388916e-01 7.486523687839508057e-02 4.672623798251152039e-02
-4.231843352317810059e-01 3.846231400966644287e-01 -3.613068163394927979e-01
-4.199020564556121826e-01 4.007989466190338135e-01 -3.628578782081604004e-01
-4.072194099426269531e-01 3.882028162479400635e-01 -3.629695177078247070e-01
-4.043845236301422119e-01 4.044011831283569336e-01 -3.645054101943969727e-01
-5.253860950469970703e-01 -9.780847281217575073e-02 -1.205759420990943909e-01
-5.149315595626831055e-01 -8.265693485736846924e-02 -1.239051222801208496e-01
-5.142791867256164551e-01 -8.785995095968246460e-02 -1.067968979477882385e-01
-5.031225681304931641e-01 -7.237641513347625732e-02 -1.085793003439903259e-01
4.276192784309387207e-01 2.155143767595291138e-03 -4.009200632572174072e-01
4.279449284076690674e-01 1.785070076584815979e-02 -4.022384285926818848e-01
4.421474337577819824e-01 9.211977012455463409e-04 -4.013004302978515625e-01
4.410345852375030518e-01 1.689722388982772827e-02 -4.019967615604400635e-01
7.926911115646362305e-03 -4.698769152164459229e-01 2.926824390888214111e-01
6.725787650793790817e-03 -4.483381509780883789e-01 2.912874817848205566e-01
2.994957938790321350e-02 -4.669621288776397705e-01 2.870039343833923340e-01
2.946975082159042358e-02 -4.458981454372406006e-01 2.862892150878906250e-01
1.250129891559481621e-03 4.266690015792846680e-01 2.358588278293609619e-01
1.877742586657404900e-03 4.454365968704223633e-01 2.338436841964721680e-01
1.621282659471035004e-02 4.296897351741790771e-01 2.397814989089965820e-01
1.941207423806190491e-02 4.476219713687896729e-01 2.360960394144058228e-01
2.759819030761718750e-01 -3.675642609596252441e-02 -3.701467216014862061e-01
2.761948406696319580e-01 -2.278748713433742523e-02 -3.710309267044067383e-01
2.922047078609466553e-01 -3.733659535646438599e-02 -3.708527386188507080e-01
2.923844456672668457e-01 -2.242875844240188599e-02 -3.720783591270446777e-01
-3.079148530960083008e-01 -2.700087726116180420e-01 3.528061211109161377e-01
-3.088979125022888184e-01 -2.472522705793380737e-01 3.517152965068817139e-01
-2.869180142879486084e-01 -2.680171132087707520e-01 3.486400842666625977e-01
-2.875955104827880859e-01 -2.455098628997802734e-01 3.470129966735839844e-01
-3.088642954826354980e-01 1.815060675144195557e-01 3.401611149311065674e-01
-3.108865916728973389e-01 2.055813372135162354e-01 3.385466933250427246e-01
-2.905379235744476318e-01 1.838637888431549072e-01 3.366489112377166748e-01
-2.921428978443145752e-01 2.078388184309005737e-01 3.356288969516754150e-01
-6.367773413658142090e-01 -4.236014932394027710e-02 7.133063673973083496e-02
-6.200664043426513672e-01 -2.467177994549274445e-02 6.694782525300979614e-02
-6.248347759246826172e-01 -3.187198936939239502e-02 8.712233603000640869e-02
-6.068800687789916992e-01 -1.550291571766138077e-02 8.252119272947311401e-02
-4.850150346755981445e-01 -1.258307993412017822e-01 2.635111808776855469e-01
-4.786725044250488281e-01 -1.158191934227943420e-01 2.567401528358459473e-01
-4.770483672618865967e-01 -1.201841160655021667e-01 2.730347216129302979e-01
-4.714197218418121338e-01 -1.105328127741813660e-01 2.655190825462341309e-01
-6.425723433494567871e-02 3.715453445911407471e-01 -1.502414196729660034e-01
-5.727677047252655029e-02 3.831039667129516602e-01 -1.523318141698837280e-01
-5.343848094344139099e-02 3.809464275836944580e-01 -1.343827396631240845e-01
-5.380068346858024597e-02 3.900316357612609863e-01 -1.325734704732894897e-01
-2.828410863876342773e-01 -1.655365154147148132e-02 -3.017971217632293701e-01
-2.828690707683563232e-01 -2.630625851452350616e-03 -3.046206235885620117e-01
-2.698700726032257080e-01 -1.671529933810234070e-02 -3.035816252231597900e-01
-2.699949741363525391e-01 -2.195497043430805206e-03 -3.062095642089843750e-01
1.630826666951179504e-02 3.927781283855438232e-01 -2.045279592275619507e-01
6.928258575499057770e-03 4.043778479099273682e-01 -1.972056478261947632e-01
2.885203063488006592e-02 3.884972631931304932e-01 -1.847785860300064087e-01
2.084491588175296783e-02 3.992734849452972412e-01 -1.759546250104904175e-01
-7.059260271489620209e-03 -1.222135126590728760e-01 -3.170594871044158936e-01
-8.646156638860702515e-04 -1.094236746430397034e-01 -3.230454623699188232e-01
9.318217635154724121e-03 -1.220068857073783875e-01 -3.157049715518951416e-01
1.391593553125858307e-02 -1.098048165440559387e-01 -3.223505020141601562e-01
5.404643341898918152e-02 1.567948460578918457e-01 -3.746581375598907471e-01
5.324910953640937805e-02 1.726587414741516113e-01 -3.771966695785522461e-01
7.214815169572830200e-02 1.563270837068557739e-01 -3.732196986675262451e-01
7.071132957935333252e-02 1.712524890899658203e-01 -3.753806948661804199e-01
-5.133767724037170410e-01 5.327165126800537109e-02 9.900692850351333618e-02
-5.044252276420593262e-01 6.247609108686447144e-02 9.860897064208984375e-02
-5.088933110237121582e-01 5.693254992365837097e-02 1.172261908650398254e-01
-4.999997019767761230e-01 6.652453541755676270e-02 1.163632124662399292e-01
1.223581135272979736e-01 -4.927921891212463379e-01 2.596935629844665527e-01
1.205233857035636902e-01 -4.693067967891693115e-01 2.626721560955047607e-01
1.406342387199401855e-01 -4.878833293914794922e-01 2.546425163745880127e-01
1.399380862712860107e-01 -4.642910957336425781e-01 2.574517726898193359e-01
1.860443875193595886e-02 -2.214316427707672119e-01 -2.981469929218292236e-01
1.938095316290855408e-02 -2.055435627698898315e-01 -3.040365278720855713e-01
3.621412068605422974e-02 -2.226949334144592285e-01 -2.995559275150299072e-01
3.603199496865272522e-02 -2.071489095687866211e-01 -3.047903776168823242e-01
-1.582932621240615845e-01 2.193716317415237427e-01 -3.549952208995819092e-01
-1.586009711027145386e-01 2.314501106739044189e-01 -3.553979396820068359e-01
-1.445507556200027466e-01 2.205469757318496704e-01 -3.574122786521911621e-01
-1.449274122714996338e-01 2.329333722591400146e-01 -3.574615716934204102e-01
-5.543639659881591797e-01 3.116886317729949951e-01 -3.281547725200653076e-01
-5.547229051589965820e-01 3.271865844726562500e-01 -3.312989175319671631e-01
-5.412640571594238281e-01 3.136508762836456299e-01 -3.317185342311859131e-01
-5.409784317016601562e-01 3.277952969074249268e-01 -3.346096575260162354e-01
-7.470557093620300293e-02 4.831252619624137878e-03 -6.318525876849889755e-03
-7.433811575174331665e-02 2.675011381506919861e-02 -6.330214906483888626e-03
-5.318028479814529419e-02 9.863756597042083740e-03 -1.281027030199766159e-02
-5.288295820355415344e-02 3.166866302490234375e-02 -1.293012965470552444e-02
9.605026245117187500e-02 -4.672918617725372314e-01 4.809730686247348785e-03
1.098275259137153625e-01 -4.543191790580749512e-01 2.588426461443305016e-03
1.045356094837188721e-01 -4.609689414501190186e-01 2.183566056191921234e-02
1.182675436139106750e-01 -4.482436776161193848e-01 2.002889290452003479e-02
-2.988332808017730713e-01 4.633347094058990479e-01 -3.954286873340606689e-01
-2.978075742721557617e-01 4.828261137008666992e-01 -4.010339975357055664e-01
-2.786271572113037109e-01 4.631471335887908936e-01 -3.991623520851135254e-01
-2.773693799972534180e-01 4.824899137020111084e-01 -4.045195281505584717e-01
-5.490782260894775391e-01 -9.968844056129455566e-02 -2.471730113029479980e-01
-5.497552156448364258e-01 -7.958633452653884888e-02 -2.514326870441436768e-01
-5.345296263694763184e-01 -1.001079380512237549e-01 -2.448919862508773804e-01
-5.343031287193298340e-01 -8.046898990869522095e-02 -2.493350207805633545e-01
-5.514768958091735840e-01 -1.827270537614822388e-01 4.222247600555419922e-01
-5.476129055023193359e-01 -1.678553372621536255e-01 4.220258593559265137e-01
-5.394128561019897461e-01 -1.767607480287551880e-01 4.273427724838256836e-01
-5.340491533279418945e-01 -1.630982905626296997e-01 4.265945255756378174e-01
-1.713311970233917236e-01 2.568567097187042236e-01 -3.025918826460838318e-02
-1.628145426511764526e-01 2.690784037113189697e-01 -3.127735480666160583e-02
-1.611336618661880493e-01 2.616571485996246338e-01 -2.073715999722480774e-02
-1.528147310018539429e-01 2.739622592926025391e-01 -2.234768494963645935e-02
2.531421184539794922e-01 -2.691073715686798096e-01 -1.194273009896278381e-01
2.657859921455383301e-01 -2.543087005615234375e-01 -1.273234337568283081e-01
2.606057524681091309e-01 -2.664340436458587646e-01 -1.034429594874382019e-01
2.735403776168823242e-01 -2.516199052333831787e-01 -1.116775646805763245e-01
-8.814239501953125000e-02 1.599587351083755493e-01 2.806193232536315918e-01
-8.727028220891952515e-02 1.795310527086257935e-01 2.800693213939666748e-01
-6.998484581708908081e-02 1.682728976011276245e-01 2.774001359939575195e-01
-6.912218779325485229e-02 1.868839412927627563e-01 2.772248387336730957e-01
-3.836952522397041321e-02 -8.669285476207733154e-02 -3.144282698631286621e-01
-3.871995210647583008e-02 -7.340908050537109375e-02 -3.183648884296417236e-01
-2.542774751782417297e-02 -8.732391893863677979e-02 -3.143174052238464355e-01
-2.546694315969944000e-02 -7.438027113676071167e-02 -3.181982934474945068e-01
-5.269532203674316406e-01 -6.538563966751098633e-02 4.122349321842193604e-01
-5.265212059020996094e-01 -3.997906297445297241e-02 4.125570952892303467e-01
-5.000808238983154297e-01 -5.329326167702674866e-02 4.047577977180480957e-01
-4.981076419353485107e-01 -2.970464341342449188e-02 4.039698541164398193e-01
2.394581288099288940e-01 2.044590115547180176e-01 1.793032437562942505e-01
2.407247126102447510e-01 2.206222862005233765e-01 1.773249208927154541e-01
2.567894756793975830e-01 2.009729444980621338e-01 1.743613034486770630e-01
2.544401586055755615e-01 2.159798443317413330e-01 1.732359230518341064e-01
-5.269879698753356934e-01 1.590075492858886719e-01 4.017709791660308838e-01
-5.268769860267639160e-01 1.946790218353271484e-01 4.031142890453338623e-01
-4.988759756088256836e-01 1.655006706714630127e-01 3.943448364734649658e-01
-4.977928102016448975e-01 2.001309990882873535e-01 3.962642848491668701e-01
-1.510237902402877808e-02 3.432156443595886230e-01 -4.032096862792968750e-01
-1.474843733012676239e-02 3.543004691600799561e-01 -4.062083363533020020e-01
-1.776120858266949654e-03 3.434379398822784424e-01 -4.037790000438690186e-01
-2.090967609547078609e-04 3.547056317329406738e-01 -4.064514338970184326e-01
-8.415516465902328491e-02 2.835752665996551514e-01 1.569881290197372437e-01
-7.247452437877655029e-02 3.066775798797607422e-01 1.417411267757415771e-01
-7.716638594865798950e-02 2.888932824134826660e-01 1.764197349548339844e-01
-6.701985001564025879e-02 3.093515634536743164e-01 1.623278260231018066e-01
-5.386673212051391602e-01 -1.911735087633132935e-01 3.190079033374786377e-01
-5.523665547370910645e-01 -1.795373708009719849e-01 3.326648473739624023e-01
-5.387902259826660156e-01 -1.868227869272232056e-01 3.364634811878204346e-01
-5.448524355888366699e-01 -1.755324602127075195e-01 3.431581854820251465e-01
4.027600884437561035e-01 -3.086829558014869690e-02 1.566218882799148560e-01
4.018280208110809326e-01 -1.019774191081523895e-02 1.570537537336349487e-01
4.226755201816558838e-01 -3.250069916248321533e-02 1.523266881704330444e-01
4.212942421436309814e-01 -1.106596365571022034e-02 1.527240276336669922e-01
-3.993114829063415527e-01 -4.344365298748016357e-01 7.519220001995563507e-03
-4.256642460823059082e-01 -4.110735654830932617e-01 1.758221723139286041e-02
-3.791600465774536133e-01 -4.461325109004974365e-01 1.685277372598648071e-02
-4.055127799510955811e-01 -4.227695465087890625e-01 2.691577002406120300e-02
-1.471379250288009644e-01 2.164145559072494507e-01 2.500022947788238525e-01
-1.405413597822189331e-01 2.241858690977096558e-01 2.479647397994995117e-01
-1.408828943967819214e-01 2.202168256044387817e-01 2.619402110576629639e-01
-1.340203434228897095e-01 2.280544638633728027e-01 2.600649893283843994e-01
-2.398093640804290771e-01 2.890476584434509277e-01 -3.664710819721221924e-01
-2.377937138080596924e-01 3.034682273864746094e-01 -3.685876727104187012e-01
-2.279541790485382080e-01 2.921256124973297119e-01 -3.667003214359283447e-01
-2.258223444223403931e-01 3.072673678398132324e-01 -3.686469495296478271e-01
2.297530919313430786e-01 -1.813382841646671295e-02 2.048289924860000610e-01
2.265401333570480347e-01 3.190730698406696320e-03 2.069521993398666382e-01
2.460136562585830688e-01 -2.041372656822204590e-02 2.009827047586441040e-01
2.433521151542663574e-01 9.953789412975311279e-05 2.019571661949157715e-01
-4.468097984790802002e-01 8.579295873641967773e-02 6.298036128282546997e-02
-4.338063299655914307e-01 9.494218230247497559e-02 6.353877484798431396e-02
-4.399313330650329590e-01 8.718538284301757812e-02 7.690495252609252930e-02
-4.269815087318420410e-01 9.662123024463653564e-02 7.758480310440063477e-02
-2.893849015235900879e-01 3.427576422691345215e-01 -3.612927794456481934e-01
-2.847092449665069580e-01 3.560989797115325928e-01 -3.671259880065917969e-01
-2.732622623443603516e-01 3.419074416160583496e-01 -3.613650202751159668e-01
-2.688298225402832031e-01 3.557412624359130859e-01 -3.670836389064788818e-01
-1.879877746105194092e-01 2.479187250137329102e-01 -3.594561815261840820e-01
-1.884575635194778442e-01 2.640612423419952393e-01 -3.616890013217926025e-01
-1.735607087612152100e-01 2.509016692638397217e-01 -3.599855899810791016e-01
-1.744989901781082153e-01 2.670478820800781250e-01 -3.623349070549011230e-01
-2.466161847114562988e-01 -4.674223661422729492e-01 3.434881567955017090e-01
-2.494693547487258911e-01 -4.499148726463317871e-01 3.441359996795654297e-01
-2.316697090864181519e-01 -4.656322002410888672e-01 3.398447334766387939e-01
-2.337629646062850952e-01 -4.477765858173370361e-01 3.401222527027130127e-01
-3.725093007087707520e-01 -5.408804416656494141e-01 -1.604200899600982666e-01
-3.667346239089965820e-01 -5.203112959861755371e-01 -1.665488034486770630e-01
-3.523398935794830322e-01 -5.391490459442138672e-01 -1.655429750680923462e-01
-3.487472236156463623e-01 -5.179490447044372559e-01 -1.708569079637527466e-01
-1.354548484086990356e-01 -3.404050171375274658e-01 -2.675289511680603027e-01
-1.360180079936981201e-01 -3.287994563579559326e-01 -2.670905590057373047e-01
-1.240944564342498779e-01 -3.406935632228851318e-01 -2.669132053852081299e-01
-1.243037581443786621e-01 -3.287106752395629883e-01 -2.668159008026123047e-01
-6.815383434295654297e-01 -1.135707646608352661e-01 1.329647600650787354e-01
-6.879191994667053223e-01 -1.013395190238952637e-01 1.417503952980041504e-01
-6.787210106849670410e-01 -1.078938990831375122e-01 1.475767791271209717e-01
-6.856384277343750000e-01 -9.565370529890060425e-02 1.570823639631271362e-01
-5.436187982559204102e-01 -1.369912177324295044e-01 7.525853812694549561e-02
-5.386897921562194824e-01 -1.211540102958679199e-01 6.508560478687286377e-02
-5.354051589965820312e-01 -1.405926048755645752e-01 8.096618950366973877e-02
-5.298899412155151367e-01 -1.248746067285537720e-01 7.092537730932235718e-02
7.515303790569305420e-02 -1.581628620624542236e-01 2.557388544082641602e-01
7.400131970643997192e-02 -1.361767500638961792e-01 2.567326128482818604e-01
9.439615905284881592e-02 -1.564692556858062744e-01 2.502738237380981445e-01
9.182447940111160278e-02 -1.340791285037994385e-01 2.506306171417236328e-01
-8.121451735496520996e-02 2.832283675670623779e-01 2.266191691160202026e-01
-7.735379040241241455e-02 2.914990484714508057e-01 2.213011831045150757e-01
-7.755497097969055176e-02 2.840090095996856689e-01 2.382376194000244141e-01
-7.339315861463546753e-02 2.923670113086700439e-01 2.329328507184982300e-01
-1.729944050312042236e-01 8.257547020912170410e-02 3.073301017284393311e-01
-1.736782193183898926e-01 1.018566489219665527e-01 3.066746294498443604e-01
-1.566953510046005249e-01 8.432990312576293945e-02 3.058967292308807373e-01
-1.578784435987472534e-01 1.039197966456413269e-01 3.054793775081634521e-01
-4.471208751201629639e-01 -3.074432313442230225e-01 3.981447517871856689e-01
-4.419969320297241211e-01 -2.858112454414367676e-01 3.979097008705139160e-01
-4.192675054073333740e-01 -2.961238920688629150e-01 3.968113362789154053e-01
-4.134463965892791748e-01 -2.730402946472167969e-01 3.956286311149597168e-01
-3.160095214843750000e-01 6.865040957927703857e-02 -3.192948102951049805e-01
-3.149960935115814209e-01 8.240454643964767456e-02 -3.230177164077758789e-01
-3.036520481109619141e-01 6.657949090003967285e-02 -3.185586631298065186e-01
-3.026528060436248779e-01 8.032464981079101562e-02 -3.229255080223083496e-01
-3.815298974514007568e-01 4.798918068408966064e-01 -3.909933567047119141e-01
-3.762288987636566162e-01 5.026490092277526855e-01 -4.004815220832824707e-01
-3.584337830543518066e-01 4.813338518142700195e-01 -3.966081440448760986e-01
-3.530432283878326416e-01 5.042576789855957031e-01 -4.058953225612640381e-01
-4.699789360165596008e-02 -4.503279328346252441e-01 -2.310759425163269043e-01
-4.420655220746994019e-02 -4.367883503437042236e-01 -2.356554269790649414e-01
-2.995967492461204529e-02 -4.546574056148529053e-01 -2.320879995822906494e-01
-2.566748112440109253e-02 -4.407612383365631104e-01 -2.364738881587982178e-01
-4.241222143173217773e-02 -6.212476640939712524e-02 -3.240600526332855225e-01
-4.307924583554267883e-02 -5.033694207668304443e-02 -3.269685506820678711e-01
