1.020350000000000007e-01 9.187900000000000234e-02 -1.627649999999999930e-01
-2.319620000000000015e-01 -1.484000000000000076e-03 -8.387100000000000111e-02
-8.187999999999999445e-02 -1.083339999999999997e-01 1.302500000000000012e-02
-1.349970000000000059e-01 3.004680000000000129e-01 8.627200000000000146e-02
7.530599999999999794e-02 -9.492000000000000437e-02 1.627119999999999955e-01
-8.709500000000000575e-02 -1.050900000000000029e-01 1.378399999999999938e-02
3.755470000000000197e-01 -1.670649999999999913e-01 -1.041259999999999963e-01
-4.704450000000000021e-01 -2.699670000000000125e-01 -1.126240000000000019e-01
-3.046949999999999936e-01 9.894200000000000217e-02 -1.292190000000000005e-01
-1.194769999999999999e-01 2.326880000000000059e-01 -1.927830000000000099e-01
6.514119999999999910e-01 -4.755090000000000150e-01 -1.388359999999999872e-01
4.390080000000000093e-01 1.381199999999999962e-02 -5.710900000000000004e-02
-3.374090000000000145e-01 -1.962470000000000048e-01 1.240490000000000065e-01
5.798419999999999686e-01 -4.187239999999999851e-01 -1.003300000000000025e-02
-4.974900000000000155e-02 2.689119999999999844e-01 4.755500000000000005e-02
5.353900000000000325e-02 6.885919999999999819e-01 -6.658300000000000329e-02
-5.676179999999999559e-01 -2.855599999999999805e-01 -3.550000000000000096e-04
2.801330000000000209e-01 -3.144429999999999725e-01 -1.021599999999999939e-02
2.226680000000000048e-01 -7.907500000000000639e-02 1.988790000000000002e-01
6.088310000000000111e-01 -4.024499999999999744e-01 3.430500000000000216e-02
-3.819399999999999878e-02 -1.041440000000000005e-01 8.712100000000000399e-02
-1.963300000000000045e-01 -4.569700000000000151e-02 -6.054999999999999619e-03
4.748649999999999816e-01 -4.315519999999999912e-01 1.062420000000000031e-01
-8.944599999999999773e-02 5.245959999999999512e-01 -5.119999999999999768e-04
3.882249999999999868e-01 -6.507599999999999496e-02 1.741099999999999870e-01
-1.555620000000000058e-01 3.272459999999999813e-01 -5.702499999999999930e-02
2.333119999999999916e-01 -1.392049999999999954e-01 -1.289279999999999871e-01
-4.058099999999999902e-02 1.562070000000000125e-01 -1.661799999999999944e-01
1.341340000000000032e-01 1.336859999999999993e-01 1.215519999999999934e-01
-2.186099999999999849e-02 2.708880000000000177e-01 -3.873499999999999860e-02
1.170999999999999992e-02 1.936350000000000016e-01 1.175279999999999936e-01
4.053050000000000264e-01 -8.088599999999999957e-02 6.263000000000000511e-02
8.612899999999999723e-02 -1.799070000000000114e-01 -8.064999999999999947e-02
-4.563820000000000099e-01 -2.781730000000000036e-01 -9.883799999999999530e-02
3.057929999999999815e-01 -3.078609999999999958e-01 -1.662200000000000136e-02
-4.810699999999999976e-01 -8.523000000000000020e-02 1.460329999999999961e-01
-1.771280000000000077e-01 -5.324500000000000066e-02 -3.609999999999999928e-03
-5.242280000000000273e-01 -3.423570000000000224e-01 1.169970000000000038e-01
5.683350000000000346e-01 1.294859999999999900e-01 -1.089750000000000024e-01
-3.831089999999999773e-01 -8.849300000000000221e-02 3.068159999999999776e-01
-2.242699999999999902e-02 2.429659999999999875e-01 -1.013069999999999943e-01
3.993349999999999955e-01 -3.577150000000000052e-01 6.494700000000000473e-02
3.070099999999999912e-02 1.128709999999999991e-01 1.594009999999999871e-01
-2.902819999999999845e-01 -4.068999999999999700e-02 4.649500000000000161e-02
2.713430000000000009e-01 -1.233319999999999972e-01 2.119749999999999968e-01
-2.213259999999999950e-01 1.383330000000000115e-01 1.083739999999999981e-01
2.242560000000000109e-01 -1.432100000000000040e-02 -9.638499999999999845e-02
2.563119999999999843e-01 2.464799999999999977e-02 9.318700000000000594e-02
-5.707050000000000178e-01 -3.918329999999999869e-01 8.499299999999999911e-02
-2.548059999999999770e-01 -9.757000000000000048e-03 2.885800000000000171e-02
3.157389999999999919e-01 -7.075399999999999745e-02 2.044469999999999898e-01
-4.302889999999999771e-01 -1.759870000000000045e-01 -1.273410000000000097e-01
7.259999999999999960e-03 2.566789999999999905e-01 -4.780899999999999733e-02
-4.215459999999999763e-01 -2.192209999999999992e-01 2.058989999999999987e-01
-3.218619999999999814e-01 -1.611329999999999985e-01 1.189550000000000052e-01
-2.165880000000000027e-01 3.218030000000000057e-01 2.872299999999999853e-02
4.409009999999999874e-01 -1.362099999999999943e-02 9.167500000000000648e-02
3.519220000000000126e-01 6.062000000000000027e-02 1.468029999999999891e-01
2.856870000000000243e-01 4.630399999999999794e-02 1.164759999999999962e-01
-9.150099999999999900e-02 -2.200200000000000072e-02 1.013059999999999933e-01
-5.195020000000000193e-01 -8.052700000000000136e-02 -3.461629999999999985e-01
-4.239699999999999719e-02 6.007649999999999935e-01 -1.474999999999999922e-02
-1.683159999999999934e-01 2.315560000000000118e-01 1.187700000000000006e-01
3.173719999999999875e-01 -1.509100000000000025e-02 1.903350000000000042e-01
3.305339999999999945e-01 -3.067110000000000114e-01 1.075450000000000017e-01
5.872299999999999742e-02 1.935709999999999931e-01 -1.153489999999999932e-01
6.894949999999999690e-01 -4.901090000000000169e-01 -7.829400000000000248e-02
-1.216829999999999995e-01 2.596849999999999992e-01 1.097469999999999973e-01
4.748220000000000218e-01 3.537999999999999912e-03 1.395250000000000101e-01
4.437969999999999970e-01 -3.313300000000000273e-02 1.005609999999999976e-01
5.058650000000000091e-01 2.196940000000000004e-01 8.433300000000000518e-02
-3.102900000000000102e-02 6.213670000000000027e-01 -1.391500000000000029e-02
-2.702499999999999902e-01 -7.132000000000000318e-03 3.152400000000000341e-02
-2.908040000000000069e-01 -5.833599999999999897e-02 4.010099999999999776e-02
5.697339999999999627e-01 -4.120059999999999834e-01 9.657399999999999318e-02
-6.235199999999999632e-01 -3.539209999999999856e-01 5.710699999999999804e-02
-4.191579999999999750e-01 1.107090000000000019e-01 -2.821900000000000103e-02
3.968889999999999918e-01 -1.059070000000000011e-01 4.181900000000000200e-02
1.257040000000000102e-01 -1.375730000000000008e-01 1.908370000000000066e-01
-3.486099999999999755e-01 -5.011899999999999689e-02 -9.597100000000000075e-02
-1.362069999999999947e-01 3.076889999999999903e-01 -1.534850000000000103e-01
5.358589999999999742e-01 9.760199999999999432e-02 1.220559999999999978e-01
-1.234190000000000009e-01 5.148779999999999468e-01 5.454999999999999780e-03
4.901860000000000106e-01 1.324700000000000009e-02 1.351030000000000009e-01
-2.945720000000000005e-01 -1.411630000000000107e-01 4.229999999999999819e-04
1.411360000000000114e-01 -2.370500000000000107e-01 1.647009999999999863e-01
1.525309999999999999e-01 4.690250000000000252e-01 -1.513720000000000065e-01
-4.899519999999999986e-01 -3.585949999999999971e-01 9.072500000000000009e-02
6.603040000000000020e-01 -4.645880000000000010e-01 -1.442319999999999991e-01
-3.109899999999999887e-01 1.543200000000000127e-01 -1.378179999999999961e-01
2.374199999999999922e-01 5.289399999999999658e-02 5.725600000000000134e-02
-1.266380000000000006e-01 7.452000000000000290e-02 -1.536369999999999958e-01
-1.297169999999999990e-01 2.837959999999999927e-01 9.916200000000000014e-02
-6.378200000000000536e-02 -9.248800000000000077e-02 -5.247099999999999681e-02
4.072700000000000209e-01 -8.909000000000000252e-02 -1.052030000000000048e-01
3.693930000000000269e-01 -2.765070000000000028e-01 -3.298999999999999849e-02
-4.560969999999999747e-01 -1.492159999999999875e-01 -2.946139999999999870e-01
1.375860000000000138e-01 -2.966210000000000235e-01 4.821000000000000285e-02
5.453980000000000494e-01 3.263739999999999974e-01 4.712000000000000216e-02
-2.966289999999999760e-01 1.038660000000000000e-01 -1.333739999999999926e-01
3.348659999999999970e-01 -1.304700000000000026e-01 -1.314510000000000123e-01
-8.641999999999999682e-02 5.132219999999999560e-01 -3.450700000000000295e-02
1.973610000000000086e-01 1.255979999999999874e-01 7.373000000000000213e-03
3.396000000000000147e-03 5.714600000000000235e-02 1.632869999999999877e-01
-1.689799999999999913e-01 2.235600000000000087e-01 -1.959440000000000071e-01
5.940029999999999477e-01 2.079660000000000120e-01 -1.330300000000000094e-01
-5.956129999999999480e-01 -3.338249999999999829e-01 1.032100000000000031e-02
-5.530460000000000376e-01 -7.989899999999999780e-02 -3.786430000000000073e-01
-1.334819999999999895e-01 -6.754300000000000581e-02 -2.474000000000000157e-02
8.668399999999999717e-02 1.979460000000000108e-01 7.617300000000000459e-02
-5.148610000000000131e-01 -9.589200000000000501e-02 -5.641499999999999987e-02
-3.626659999999999884e-01 -6.107400000000000329e-02 2.437040000000000040e-01
-1.449799999999999978e-01 3.922399999999999776e-01 -8.409999999999999507e-04
3.160540000000000016e-01 -3.641199999999999992e-02 1.948509999999999964e-01
-8.308400000000000507e-02 2.198019999999999974e-01 9.608300000000000174e-02
-2.948169999999999957e-01 -1.395770000000000066e-01 1.031999999999999931e-03
-3.990699999999999803e-01 -3.876799999999999691e-02 2.671870000000000078e-01
-2.769829999999999792e-01 1.359499999999999875e-01 -1.567070000000000130e-01
-4.820280000000000120e-01 -1.621579999999999966e-01 -3.117389999999999883e-01
1.015569999999999945e-01 2.124939999999999884e-01 -2.675999999999999993e-03
1.051050000000000040e-01 -2.767149999999999888e-01 4.983699999999999936e-02
2.531019999999999937e-01 -9.291900000000000159e-02 2.053699999999999970e-01
1.062599999999999933e-01 1.050620000000000026e-01 1.520849999999999980e-01
-6.602800000000000336e-02 2.864269999999999872e-01 -8.933900000000000174e-02
-4.239680000000000115e-01 -8.006099999999999328e-02 1.445279999999999898e-01
4.994799999999999934e-02 -1.951150000000000106e-01 1.091320000000000068e-01
1.254599999999999986e-02 5.764199999999999879e-02 -1.760019999999999918e-01
3.412700000000000178e-01 -3.157860000000000111e-01 8.676599999999999591e-02
5.472339999999999982e-01 1.100079999999999947e-01 -1.063820000000000043e-01
2.178499999999999881e-01 -1.035520000000000052e-01 -1.218729999999999952e-01
2.684200000000000128e-02 4.419440000000000035e-01 -1.708550000000000069e-01
4.340999999999999859e-01 -1.814709999999999934e-01 5.928000000000000110e-03
2.673730000000000273e-01 -2.101870000000000127e-01 -1.162040000000000017e-01
-1.209549999999999931e-01 2.415589999999999959e-01 -1.903529999999999944e-01
4.754749999999999810e-01 8.120700000000000141e-02 1.164820000000000022e-01
2.844920000000000226e-01 -2.514419999999999988e-01 1.806770000000000043e-01
2.402799999999999936e-01 -2.544080000000000230e-01 1.809499999999999997e-01
5.067100000000000076e-02 -1.890370000000000106e-01 -4.605100000000000166e-02
6.286100000000000021e-01 -4.837929999999999731e-01 -1.406400000000000011e-02
-5.259080000000000421e-01 -7.058100000000000485e-02 -3.660209999999999853e-01
4.376539999999999875e-01 -9.374100000000000488e-02 -3.903899999999999731e-02
6.228700000000000209e-02 1.274069999999999925e-01 -1.639130000000000031e-01
4.173450000000000215e-01 -1.427980000000000083e-01 -8.504299999999999360e-02
-4.514730000000000132e-01 -2.836179999999999812e-01 -5.278900000000000259e-02
-1.219559999999999950e-01 1.528190000000000104e-01 1.177620000000000056e-01
1.939869999999999928e-01 1.278739999999999877e-01 3.740700000000000275e-02
3.096499999999999808e-01 -7.363000000000000100e-02 2.047559999999999936e-01
4.428880000000000039e-01 6.036699999999999705e-02 -1.231180000000000052e-01
-4.341459999999999764e-01 -2.844430000000000014e-01 6.725399999999999434e-02
1.660149999999999959e-01 -1.899820000000000120e-01 -1.146500000000000019e-01
-1.323759999999999937e-01 3.487430000000000252e-01 -4.699999999999999859e-04
-1.501560000000000117e-01 4.730320000000000080e-01 -9.990000000000001049e-04
-3.803500000000000214e-01 9.190299999999999858e-02 -9.382899999999999574e-02
-3.818999999999999912e-03 6.352569999999999606e-01 -2.235499999999999987e-02
-1.798230000000000106e-01 2.516749999999999821e-01 -1.816000000000000114e-01
2.464590000000000114e-01 2.596299999999999997e-02 1.519230000000000025e-01
8.459300000000000153e-02 -1.230700000000000023e-02 -1.637200000000000044e-01
3.992450000000000165e-01 5.944599999999999884e-02 -1.144550000000000012e-01
-7.282000000000000278e-03 6.121269999999999767e-01 -4.210699999999999860e-02
5.358669999999999822e-01 -4.451010000000000244e-01 9.194700000000000095e-02
-3.729180000000000272e-01 -2.321670000000000122e-01 -1.552389999999999881e-01
9.797699999999999465e-02 1.563300000000000106e-02 -1.667780000000000096e-01
-4.317619999999999791e-01 -2.890809999999999769e-01 3.618500000000000189e-02
-1.502159999999999884e-01 3.256970000000000143e-01 -1.634999999999999952e-03
9.499199999999999311e-02 1.252330000000000110e-01 -1.513490000000000113e-01
-3.092340000000000089e-01 3.227599999999999913e-02 2.997270000000000212e-01
-5.283550000000000191e-01 -2.752870000000000039e-01 1.025449999999999973e-01
-5.173029999999999573e-01 -1.470130000000000048e-01 9.686000000000000165e-02
1.717200000000000115e-01 -2.155469999999999886e-01 1.883950000000000069e-01
5.316699999999999759e-01 6.880100000000000104e-02 1.274319999999999897e-01
-3.228320000000000078e-01 -2.108569999999999889e-01 -3.928700000000000248e-02
-3.485940000000000150e-01 -1.921700000000000075e-01 -2.949200000000000155e-01
-3.842940000000000245e-01 -1.834389999999999910e-01 -1.984009999999999940e-01
-6.487600000000000311e-02 4.079369999999999941e-01 3.645799999999999735e-02
6.057010000000000449e-01 1.981940000000000091e-01 -9.862799999999999345e-02
-4.164400000000000046e-02 3.824870000000000214e-01 -1.254929999999999934e-01
-1.181190000000000018e-01 3.448439999999999839e-01 -1.687909999999999966e-01
-3.314449999999999896e-01 -2.227860000000000118e-01 -7.990999999999999839e-03
-4.054769999999999763e-01 -2.817379999999999884e-01 -1.101840000000000042e-01
-4.442659999999999942e-01 -2.989100000000000090e-01 1.230000000000000082e-04
-1.013430000000000025e-01 3.842690000000000272e-01 -1.643850000000000033e-01
3.200959999999999916e-01 -3.522589999999999888e-01 7.110900000000000554e-02
3.461049999999999960e-01 -1.567749999999999977e-01 2.023020000000000096e-01
-9.743200000000000471e-02 2.915280000000000094e-01 -9.452900000000000191e-02
-4.847400000000000320e-02 1.513160000000000061e-01 1.364960000000000062e-01
-5.113569999999999505e-01 -6.501300000000000134e-02 -2.979700000000000057e-02
-3.041719999999999979e-01 1.157450000000000007e-01 3.433820000000000205e-01
-3.635700000000000043e-02 1.392380000000000007e-01 1.419660000000000089e-01
-2.624670000000000059e-01 2.156720000000000026e-01 9.649399999999999644e-02
4.303290000000000171e-01 -3.472569999999999824e-01 1.024940000000000018e-01
-3.756889999999999952e-01 8.167000000000000648e-02 -9.719099999999999961e-02
1.081789999999999974e-01 4.674389999999999934e-01 -1.846349999999999936e-01
4.028999999999999596e-03 2.055200000000000082e-01 -1.281039999999999957e-01
4.267969999999999819e-01 -2.182699999999999918e-01 -2.285999999999999838e-02
5.407859999999999889e-01 3.577549999999999897e-01 3.658000000000000140e-02
3.953430000000000000e-01 -3.874759999999999871e-01 8.605000000000000149e-02
-2.463609999999999967e-01 1.436659999999999882e-01 1.042199999999999932e-01
7.839200000000000335e-02 -1.537080000000000113e-01 1.580920000000000103e-01
-2.922719999999999763e-01 -7.604199999999999848e-02 3.752599999999999686e-02
-2.534930000000000239e-01 1.682200000000000015e-02 -9.936000000000000387e-02
-4.619309999999999805e-01 -8.993400000000000005e-02 2.406750000000000000e-01
2.851770000000000138e-01 -2.114379999999999871e-01 2.032360000000000000e-01
2.594090000000000007e-01 -2.814400000000000235e-01 1.597580000000000111e-01
-4.299790000000000001e-01 -2.950539999999999830e-01 -4.502300000000000052e-02
-5.045570000000000332e-01 -4.242599999999999844e-02 5.229899999999999827e-02
1.537280000000000035e-01 1.638249999999999984e-01 -4.492499999999999966e-02
1.910789999999999988e-01 -1.761600000000000110e-01 -1.215500000000000053e-01
-4.382159999999999944e-01 -2.994169999999999887e-01 -3.000000000000000062e-03
2.033659999999999912e-01 -2.636839999999999740e-01 1.697319999999999940e-01
-4.780399999999999927e-02 2.791290000000000160e-01 -5.848199999999999926e-02
5.138420000000000210e-01 1.965530000000000055e-01 9.952400000000000135e-02
8.290999999999999759e-03 4.875450000000000061e-01 -1.791989999999999972e-01
-2.273380000000000123e-01 5.272500000000000103e-02 8.999699999999999367e-02
-8.423100000000000032e-02 3.623770000000000047e-01 -1.864059999999999884e-01
-3.639689999999999870e-01 2.899399999999999894e-02 3.430590000000000028e-01
3.310370000000000257e-01 -2.953239999999999754e-01 -2.861299999999999955e-02
4.005110000000000059e-01 -1.038160000000000055e-01 3.178899999999999781e-02
1.414499999999999924e-01 -2.442060000000000064e-01 1.594830000000000136e-01
-3.401759999999999784e-01 -2.181990000000000041e-01 -9.350600000000000578e-02
1.931519999999999904e-01 -1.385810000000000097e-01 -1.249050000000000021e-01
-2.985200000000000076e-01 -1.459989999999999899e-01 7.718000000000000034e-03
-2.629230000000000178e-01 7.517999999999999683e-02 9.045100000000000362e-02
3.719759999999999733e-01 5.782600000000000240e-02 9.586000000000000076e-02
4.926459999999999728e-01 9.878199999999999481e-02 -7.474799999999999500e-02
-3.556999999999999745e-02 6.259989999999999721e-01 -1.313699999999999937e-02
5.473170000000000535e-01 3.270279999999999854e-01 5.696699999999999681e-02
5.330169999999999630e-01 2.508020000000000249e-01 9.392599999999999560e-02
-7.728799999999999559e-02 2.056739999999999957e-01 1.037600000000000050e-01
2.619520000000000182e-01 2.541799999999999962e-02 4.948899999999999827e-02
-9.515500000000000347e-02 3.784839999999999871e-01 -1.783019999999999883e-01
-5.158329999999999860e-01 -1.815620000000000012e-01 5.910599999999999882e-02
-1.391259999999999997e-01 1.591760000000000119e-01 1.205969999999999959e-01
4.177600000000000063e-02 -2.132610000000000061e-01 5.745299999999999713e-02
4.279140000000000166e-01 -1.739340000000000053e-01 9.686599999999999377e-02
3.797969999999999957e-01 -2.486099999999999977e-01 1.429429999999999867e-01
3.924090000000000078e-01 -2.452969999999999873e-01 1.184840000000000060e-01
1.746100000000000083e-02 2.145700000000000107e-01 -1.161289999999999961e-01
-3.440360000000000085e-01 -1.473510000000000097e-01 -1.236840000000000023e-01
5.071500000000000313e-02 4.751750000000000140e-01 -1.561539999999999873e-01
-6.734000000000000402e-03 4.672040000000000082e-01 -1.492650000000000088e-01
-4.517189999999999817e-01 -2.991329999999999822e-01 3.319500000000000228e-02
3.995429999999999815e-01 -1.724310000000000009e-01 1.776610000000000134e-01
-4.436180000000000123e-01 -2.952310000000000212e-01 3.397100000000000120e-02
1.816500000000000059e-01 -9.879799999999999693e-02 1.988350000000000117e-01
-9.769200000000000106e-02 4.852629999999999999e-01 8.665000000000000827e-03
-2.354890000000000039e-01 2.477899999999999894e-02 -1.097039999999999960e-01
6.597999999999999698e-02 -2.275109999999999910e-01 -1.571699999999999833e-02
-3.757210000000000272e-01 -1.607400000000000148e-02 1.077580000000000066e-01
5.761399999999999855e-01 -4.529380000000000073e-01 7.224899999999999378e-02
2.960960000000000258e-01 -3.092759999999999954e-01 -1.858599999999999836e-02
-2.671499999999999916e-02 5.824329999999999785e-01 -2.998299999999999924e-02
-2.005220000000000058e-01 2.636439999999999895e-01 9.699800000000000089e-02
-4.900189999999999824e-01 -1.222450000000000064e-01 1.627359999999999918e-01
5.379500000000000254e-02 -4.299100000000000144e-02 1.646880000000000011e-01
4.142799999999999955e-02 7.895399999999999641e-02 -1.779910000000000103e-01
-4.231409999999999894e-01 -2.856500000000000150e-01 -8.037300000000000000e-02
-6.028909999999999547e-01 -3.764629999999999921e-01 4.231000000000000039e-02
-5.250340000000000007e-01 -1.559520000000000073e-01 5.065800000000000164e-02
6.731009999999999494e-01 -4.703180000000000138e-01 -3.362799999999999817e-02
-3.516999999999999987e-02 3.412620000000000098e-01 -8.519000000000000530e-03
-3.625959999999999739e-01 -1.957569999999999866e-01 -1.238130000000000064e-01
-3.631210000000000271e-01 -2.449139999999999928e-01 -2.392940000000000067e-01
-1.911300000000000152e-02 3.228449999999999931e-01 -1.677970000000000017e-01
4.380009999999999737e-01 -1.177890000000000048e-01 -7.083000000000000407e-02
-4.369319999999999871e-01 -1.058830000000000049e-01 1.538029999999999953e-01
-3.086079999999999934e-01 -9.224999999999999867e-02 -9.049500000000000599e-02
-3.620000000000000301e-02 1.157610000000000028e-01 1.476619999999999877e-01
-5.917780000000000262e-01 -2.422880000000000034e-01 4.027300000000000324e-02
1.614230000000000109e-01 1.659420000000000062e-01 1.218699999999999992e-02
4.281320000000000126e-01 -1.863559999999999939e-01 2.056699999999999848e-02
1.343260000000000010e-01 -2.676999999999999866e-02 1.654329999999999967e-01
-4.035819999999999963e-01 1.122149999999999953e-01 -7.000599999999999878e-02
8.252600000000000213e-02 -2.286360000000000059e-01 1.204810000000000048e-01
3.727980000000000183e-01 2.319399999999999934e-02 7.908800000000000552e-02
6.825130000000000363e-01 2.208100000000000063e-01 -1.250189999999999912e-01
8.488800000000000512e-02 3.830000000000000071e-03 -1.684759999999999869e-01
1.902749999999999997e-01 -2.697280000000000233e-01 -6.783100000000000240e-02
-7.931299999999999462e-02 3.893460000000000254e-01 5.584100000000000175e-02
-5.472690000000000055e-01 -2.907460000000000044e-01 1.100720000000000032e-01
-2.935749999999999749e-01 7.184200000000000308e-02 3.371310000000000140e-01
-3.839640000000000275e-01 8.184999999999999568e-03 3.218550000000000022e-01
9.875499999999999556e-02 -2.698249999999999815e-01 1.490000000000000005e-02
-3.166970000000000063e-01 5.621500000000000108e-02 3.090570000000000261e-01
-3.781579999999999941e-01 1.456270000000000064e-01 2.536499999999999866e-02
-5.053569999999999451e-01 -4.636200000000000043e-02 2.412900000000000114e-02
-3.539089999999999736e-01 -2.513980000000000103e-01 -2.235900000000000040e-02
2.458589999999999942e-01 3.637100000000000055e-02 7.724000000000000310e-02
-3.552500000000000102e-02 4.036529999999999840e-01 -1.359019999999999950e-01
1.417329999999999979e-01 -2.685460000000000069e-01 1.339849999999999930e-01
-2.241370000000000029e-01 2.845969999999999889e-01 -1.426800000000000013e-01
-3.799730000000000052e-01 -2.041109999999999869e-01 -3.276769999999999960e-01
-3.415290000000000270e-01 -2.209799999999999959e-02 3.352890000000000037e-01
-5.654190000000000049e-01 -3.445719999999999894e-01 1.161110000000000059e-01
-4.457360000000000211e-01 -1.894720000000000015e-01 -1.628449999999999898e-01
5.969510000000000094e-01 -4.623079999999999967e-01 4.551800000000000290e-02
2.333490000000000009e-01 4.785050000000000137e-01 -1.887250000000000039e-01
-1.853899999999999992e-01 2.563779999999999948e-01 1.055859999999999993e-01
3.488939999999999819e-01 1.071599999999999983e-02 -1.256680000000000019e-01
7.409300000000000608e-02 1.785000000000000128e-02 -1.727609999999999979e-01
3.068290000000000184e-01 -3.351500000000000035e-01 5.520200000000000107e-02
-3.244440000000000102e-01 6.832799999999999985e-02 3.158980000000000121e-01
-4.165380000000000194e-01 -4.161399999999999821e-02 1.262530000000000041e-01
5.276359999999999939e-01 1.392599999999999949e-01 1.136000000000000065e-01
4.892400000000000221e-02 4.680819999999999981e-01 -1.565040000000000042e-01
3.914710000000000134e-01 -2.156770000000000076e-01 -7.501700000000000035e-02
-2.662780000000000147e-01 2.618070000000000119e-01 7.491000000000000436e-02
5.058059999999999778e-01 1.035419999999999952e-01 -1.227919999999999984e-01
-2.063999999999999863e-02 2.446740000000000026e-01 4.729799999999999977e-02
-3.966210000000000013e-01 -2.872359999999999913e-01 -2.392599999999999935e-02
3.885540000000000105e-01 -6.625699999999999645e-02 4.593400000000000261e-02
-4.849559999999999982e-01 -3.075599999999999862e-02 7.508599999999999997e-02
-4.960860000000000269e-01 -1.214520000000000044e-01 -3.651369999999999894e-01
-4.179189999999999849e-01 1.475500000000000075e-02 -9.412800000000000333e-02
-5.174180000000000446e-01 -3.923570000000000113e-01 4.056699999999999889e-02
5.955340000000000078e-01 1.641420000000000101e-01 -1.265529999999999988e-01
-2.788109999999999755e-01 2.786859999999999893e-01 2.775599999999999942e-02
2.765469999999999873e-01 -3.383380000000000276e-01 5.116699999999999721e-02
3.452819999999999778e-01 -2.980709999999999749e-01 1.071669999999999984e-01
2.368689999999999962e-01 -3.131039999999999934e-01 1.213000000000000050e-01
2.312950000000000006e-01 2.505900000000000141e-02 -7.638300000000000645e-02
6.978490000000000526e-01 -4.808189999999999964e-01 -7.950999999999999734e-02
-3.129970000000000252e-01 -1.845579999999999998e-01 1.180400000000000026e-02
-4.826989999999999892e-01 -1.244070000000000037e-01 -1.040439999999999976e-01
4.432130000000000236e-01 9.474799999999999889e-02 -8.738100000000000034e-02
-5.266079999999999650e-01 -3.709270000000000067e-01 1.369000000000000078e-02
1.431369999999999865e-01 4.778000000000000129e-03 -1.465789999999999871e-01
-1.948050000000000059e-01 -1.314500000000000043e-02 -8.012299999999999978e-02
4.596549999999999803e-01 -3.941660000000000164e-01 1.317059999999999897e-01
8.024599999999999789e-02 1.289599999999999913e-01 -1.561829999999999885e-01
-2.165539999999999965e-01 1.101649999999999990e-01 -1.624549999999999883e-01
-3.810910000000000131e-01 -2.768309999999999937e-01 -2.632999999999999924e-02
1.544959999999999944e-01 6.060000000000000282e-03 -1.416860000000000064e-01
-3.403099999999999875e-02 -9.999600000000000155e-02 9.312800000000000245e-02
5.147800000000000292e-02 -3.313100000000000073e-02 -1.548809999999999909e-01
5.045509999999999717e-01 7.546799999999999342e-02 1.337299999999999878e-01
2.215500000000000108e-02 2.171970000000000012e-01 8.601100000000000412e-02
-1.435649999999999982e-01 3.256539999999999990e-01 6.188500000000000251e-02
-5.619180000000000286e-01 -1.119570000000000010e-01 -3.548149999999999915e-01
4.983839999999999937e-01 8.663999999999999826e-03 1.273610000000000020e-01
5.849599999999999939e-02 4.627089999999999814e-01 -1.857229999999999992e-01
4.400020000000000042e-01 2.036200000000000163e-02 -5.786199999999999677e-02
-9.234299999999999453e-02 -2.410999999999999949e-03 1.104649999999999938e-01
-1.481949999999999934e-01 4.687430000000000208e-01 -2.319299999999999834e-02
4.882090000000000041e-01 3.696829999999999838e-01 1.952999999999999875e-02
4.839910000000000045e-01 8.613800000000000623e-02 -1.249060000000000031e-01
-3.475190000000000223e-01 2.751500000000000126e-02 2.853559999999999985e-01
-4.726730000000000098e-01 -1.161179999999999990e-01 2.422950000000000104e-01
2.254869999999999930e-01 -3.263380000000000170e-01 8.558999999999999941e-02
1.556140000000000023e-01 1.529179999999999984e-01 7.366300000000000625e-02
-3.040829999999999922e-01 7.761600000000000443e-02 3.656710000000000238e-01
3.503410000000000135e-01 6.960199999999999720e-02 1.223989999999999939e-01
3.591559999999999753e-01 -1.842570000000000041e-01 -1.066909999999999942e-01
-5.265870000000000273e-01 -1.313209999999999933e-01 -7.309999999999999658e-03
-1.446679999999999910e-01 4.333509999999999862e-01 -8.644000000000000641e-03
1.252350000000000130e-01 1.674910000000000010e-01 -9.093199999999999894e-02
-3.977020000000000000e-01 -2.826469999999999816e-01 -5.366100000000000037e-02
-3.964929999999999843e-01 -1.789560000000000040e-01 -2.604290000000000216e-01
-1.016380000000000061e-01 4.119200000000000084e-01 4.459099999999999869e-02
5.267000000000000154e-02 -2.264940000000000009e-01 5.764099999999999779e-02
-3.217729999999999757e-01 -2.049950000000000105e-01 -6.998799999999999466e-02
-5.052699999999999969e-01 -1.368020000000000069e-01 1.345840000000000092e-01
-5.537600000000000300e-01 -8.081299999999999595e-02 -3.784759999999999791e-01
1.261499999999999948e-02 6.854820000000000357e-01 -6.620399999999999896e-02
3.728230000000000155e-01 -2.785309999999999730e-01 -2.565299999999999872e-02
1.132670000000000066e-01 3.058500000000000107e-02 1.672579999999999900e-01
3.661619999999999875e-01 -7.299999999999999632e-04 1.753190000000000026e-01
-3.255569999999999853e-01 3.688799999999999718e-02 2.945510000000000073e-01
1.398040000000000116e-01 -2.836899999999999977e-01 -2.382000000000000089e-02
2.875759999999999983e-01 -3.090430000000000121e-01 1.311420000000000086e-01
3.038910000000000222e-01 -5.710300000000000098e-02 -1.449459999999999915e-01
5.277099999999999846e-02 -1.098490000000000022e-01 -1.098719999999999974e-01
-6.221910000000000496e-01 -3.153900000000000037e-01 8.067699999999999871e-02
-4.855099999999999694e-02 -6.839099999999999346e-02 -9.226199999999999679e-02
-3.386600000000000027e-02 -8.790800000000000003e-02 -8.427999999999999381e-02
-4.215240000000000098e-01 1.081020000000000036e-01 -2.315499999999999850e-02
1.449870000000000048e-01 -4.557699999999999946e-02 1.712609999999999966e-01
-3.347740000000000160e-01 1.025500000000000023e-02 9.207200000000000106e-02
1.650699999999999945e-01 -2.450539999999999941e-01 -8.293100000000000471e-02
1.142999999999999919e-03 6.520700000000000107e-02 -1.763810000000000100e-01
-5.215359999999999996e-01 -1.742100000000000037e-01 -1.820199999999999943e-02
-3.935890000000000222e-01 -1.996030000000000026e-01 2.038919999999999899e-01
4.322909999999999808e-01 -1.092619999999999980e-01 1.074510000000000048e-01
-3.626639999999999864e-01 -9.774099999999999455e-02 2.305059999999999887e-01
-1.306700000000000084e-01 3.174919999999999964e-01 -3.283099999999999907e-02
-3.682070000000000065e-01 -5.447599999999999665e-02 1.404269999999999963e-01
-4.388830000000000231e-01 -6.054999999999999966e-02 2.591539999999999955e-01
-1.034029999999999949e-01 3.785290000000000044e-01 -1.533899999999999986e-01
-3.863929999999999865e-01 -1.754840000000000011e-01 -2.616479999999999917e-01
6.349069999999999991e-01 -5.001480000000000370e-01 -1.067850000000000049e-01
4.365049999999999764e-01 -9.448099999999999554e-02 -3.523799999999999849e-02
1.369090000000000029e-01 1.314589999999999925e-01 1.208359999999999990e-01
-1.917719999999999980e-01 -4.262300000000000116e-02 -2.626900000000000068e-02
5.601429999999999465e-01 -3.930739999999999790e-01 2.533499999999999988e-02
-2.869849999999999901e-01 -3.106799999999999840e-02 -7.969000000000000389e-03
-1.219490000000000018e-01 3.248380000000000156e-01 7.529900000000000482e-02
4.238739999999999730e-01 -3.588149999999999951e-01 1.227479999999999960e-01
3.271120000000000139e-01 -7.482900000000000662e-02 -1.411310000000000064e-01
3.325380000000000003e-01 -1.823390000000000011e-01 -1.176630000000000037e-01
-5.233719999999999484e-01 -7.928699999999999637e-02 6.218100000000000016e-02
-5.299899999999999750e-02 3.899420000000000108e-01 -1.283610000000000029e-01
-5.614320000000000421e-01 -2.526140000000000052e-01 7.058000000000000038e-03
-1.055240000000000067e-01 4.298089999999999966e-01 -2.595499999999999891e-02
-5.259110000000000174e-01 -1.076050000000000062e-01 3.977399999999999686e-02
-2.385200000000000167e-02 -1.293000000000000052e-02 1.434219999999999939e-01
-1.012780000000000069e-01 -4.505800000000000083e-02 -8.196100000000000607e-02
-4.666000000000000009e-02 -7.094899999999999818e-02 -9.129600000000000215e-02
-2.620160000000000267e-01 -1.973400000000000154e-02 -4.451000000000000095e-03
-2.603920000000000123e-01 2.978939999999999921e-01 1.498999999999999985e-02
-3.163610000000000033e-01 -2.566999999999999837e-02 2.798900000000000277e-01
-7.368500000000000050e-02 4.432260000000000089e-01 -1.545179999999999887e-01
2.386280000000000068e-01 -2.656930000000000125e-01 -7.983099999999999918e-02
2.319999999999999840e-02 6.992340000000000222e-01 -6.893900000000000028e-02
-9.021600000000000452e-02 2.158120000000000038e-01 1.036849999999999994e-01
3.317689999999999806e-01 -1.298200000000000048e-02 -4.680399999999999838e-02
6.358589999999999520e-01 -4.514480000000000159e-01 3.083899999999999836e-02
-4.602729999999999877e-01 -1.350449999999999984e-01 2.636040000000000050e-01
6.982890000000000486e-01 -5.033450000000000424e-01 -1.700230000000000075e-01
-5.883669999999999733e-01 -2.629049999999999998e-01 8.391800000000000648e-02
1.272799999999999973e-02 1.069119999999999931e-01 1.588749999999999885e-01
-5.139099999999999779e-01 -1.978290000000000048e-01 7.637999999999999824e-03
-4.366220000000000101e-01 -2.984479999999999911e-01 -2.068000000000000047e-02
-4.754229999999999845e-01 -2.058830000000000104e-01 1.615399999999999892e-01
-2.064159999999999884e-01 1.611720000000000097e-01 -1.810960000000000070e-01
-3.729569999999999830e-01 -1.237670000000000020e-01 1.857310000000000072e-01
-3.204499999999999710e-02 -1.414259999999999962e-01 4.594899999999999679e-02
3.262149999999999772e-01 5.539999999999999786e-02 1.061249999999999971e-01
7.021340000000000359e-01 -4.537939999999999752e-01 -1.198309999999999931e-01
-3.636369999999999880e-01 -4.024900000000000005e-02 -9.833799999999999486e-02
1.825279999999999958e-01 -1.380300000000000138e-01 2.056820000000000037e-01
-7.749999999999999944e-02 3.712100000000000122e-02 1.290429999999999910e-01
6.080910000000000482e-01 1.666499999999999926e-01 -1.236470000000000069e-01
-2.931650000000000089e-01 6.582399999999999363e-02 3.495139999999999914e-01
-1.933860000000000023e-01 1.944990000000000052e-01 1.202079999999999954e-01
1.797159999999999869e-01 1.429390000000000105e-01 -2.962100000000000150e-02
-4.059809999999999808e-01 3.149400000000000116e-02 -9.805200000000000027e-02
7.322399999999999742e-02 9.723400000000000098e-02 1.640189999999999981e-01
1.225360000000000060e-01 -2.280000000000000082e-01 -8.126300000000000190e-02
-3.648779999999999801e-01 -1.250890000000000057e-01 2.403579999999999883e-01
5.940830000000000277e-01 -4.110460000000000225e-01 -2.194000000000000117e-02
6.759950000000000125e-01 -4.352659999999999862e-01 -4.840099999999999958e-02
6.670999999999999847e-03 4.356709999999999749e-01 -1.628509999999999958e-01
1.860980000000000134e-01 -2.585290000000000088e-01 1.688479999999999981e-01
-5.226720000000000255e-01 -1.099679999999999963e-01 -2.117199999999999985e-02
-4.788760000000000239e-01 -1.089559999999999973e-01 -3.201890000000000014e-01
-1.351620000000000044e-01 3.707219999999999960e-01 -7.239999999999999908e-03
2.278000000000000164e-02 6.928269999999999706e-01 -2.681599999999999956e-02
-4.849970000000000114e-01 -2.270379999999999898e-01 -7.790900000000000603e-02
4.294400000000000300e-02 -2.110150000000000081e-01 6.920999999999999375e-02
1.044390000000000041e-01 -1.206190000000000040e-01 -1.111380000000000007e-01
5.779149999999999565e-01 -4.244439999999999880e-01 -5.667000000000000162e-03
-5.915820000000000523e-01 -3.890270000000000117e-01 6.444900000000000628e-02
-2.861580000000000235e-01 2.721319999999999850e-01 2.339799999999999866e-02
-2.769199999999999995e-01 2.481079999999999952e-01 -1.271089999999999998e-01
-5.356560000000000210e-01 -2.848700000000000121e-01 1.086460000000000065e-01
-3.818509999999999960e-01 -2.479389999999999927e-01 -2.609940000000000038e-01
-2.751609999999999889e-01 2.000879999999999881e-01 -1.641940000000000066e-01
-1.038999999999999993e-02 4.637390000000000123e-01 -1.474330000000000085e-01
-7.206100000000000005e-02 4.339330000000000132e-01 1.804899999999999907e-02
-1.785600000000000034e-02 6.322969999999999979e-01 -1.637600000000000167e-02
1.937389999999999946e-01 4.633070000000000244e-01 -1.772980000000000111e-01
-4.957600000000000201e-02 -1.136149999999999938e-01 -3.499599999999999933e-02
3.468870000000000009e-01 -1.250429999999999875e-01 2.028989999999999960e-01
2.976670000000000149e-01 -3.267729999999999801e-01 2.583900000000000086e-02
5.610230000000000494e-01 2.862219999999999764e-01 5.674900000000000083e-02
4.336010000000000142e-01 8.422599999999999532e-02 -1.109659999999999952e-01
1.364589999999999970e-01 1.349899999999999989e-01 -1.162519999999999942e-01
-1.022210000000000063e-01 3.624649999999999817e-01 6.504300000000000359e-02
6.456199999999999439e-02 -9.219299999999999717e-02 -1.248380000000000045e-01
5.100999999999999979e-01 -4.455830000000000068e-01 9.102599999999999580e-02
7.162100000000000410e-02 -1.876110000000000000e-01 1.387829999999999897e-01
-3.416029999999999900e-01 -9.808999999999999664e-02 1.633709999999999885e-01
2.218219999999999914e-01 -2.078780000000000072e-01 2.006950000000000123e-01
8.860899999999999332e-02 3.918399999999999661e-02 1.725700000000000012e-01
-4.388759999999999883e-01 -1.805370000000000030e-01 -2.096850000000000103e-01
-3.963840000000000141e-01 -1.487779999999999936e-01 -2.863109999999999822e-01
-5.566339999999999621e-01 -2.737769999999999926e-01 1.027330000000000049e-01
4.097700000000000231e-01 -2.255449999999999955e-01 3.744800000000000212e-02
-1.961559999999999970e-01 6.031099999999999656e-02 9.799900000000000277e-02
-4.488539999999999752e-01 -7.441599999999999604e-02 2.751009999999999844e-01
-3.829500000000000126e-01 -6.240500000000000214e-02 1.439320000000000044e-01
-5.842399999999999677e-02 8.015400000000000302e-02 1.427470000000000128e-01
-1.278019999999999989e-01 3.589559999999999973e-01 6.074199999999999738e-02
-2.147449999999999914e-01 -3.057299999999999948e-02 2.360200000000000145e-02
-3.201970000000000094e-01 2.395220000000000127e-01 -4.130000000000000338e-02
4.724349999999999938e-01 1.217629999999999962e-01 -8.383599999999999386e-02
1.518000000000000078e-02 -1.544079999999999897e-01 -4.931499999999999773e-02
1.456850000000000089e-01 -2.782330000000000081e-01 1.238130000000000064e-01
3.111280000000000157e-01 -1.013560000000000016e-01 2.091959999999999931e-01
5.287629999999999830e-01 -4.414319999999999911e-01 9.690899999999999515e-02
8.666000000000000092e-02 1.115120000000000000e-01 -1.625959999999999905e-01
-9.077100000000000446e-02 1.773929999999999951e-01 1.133519999999999944e-01
-3.492100000000000204e-01 -1.448889999999999900e-01 1.718010000000000093e-01
-5.230669999999999487e-01 -2.998600000000000154e-01 1.171859999999999985e-01
-1.032200000000000062e-01 2.669909999999999783e-01 -1.886990000000000056e-01
-1.491490000000000038e-01 3.663899999999999796e-02 -1.284579999999999889e-01
4.535719999999999752e-01 -2.144799999999999832e-02 1.395399999999999974e-01
1.349650000000000016e-01 -1.591160000000000074e-01 1.947609999999999897e-01
-2.284309999999999952e-01 -5.529000000000000060e-03 -7.971899999999999820e-02
-2.801870000000000194e-01 1.402229999999999865e-01 3.616099999999999870e-01
-3.782030000000000114e-01 1.478849999999999887e-01 2.323100000000000165e-02
3.710060000000000024e-01 -3.333940000000000237e-01 1.026320000000000010e-01
-3.760649999999999826e-01 6.399299999999999433e-02 7.671999999999999653e-02
-6.699499999999999900e-02 3.451930000000000276e-01 -1.926740000000000119e-01
-1.462469999999999881e-01 6.115299999999999903e-02 1.077169999999999933e-01
-1.120820000000000011e-01 2.528380000000000072e-01 1.090809999999999974e-01
-3.738110000000000044e-01 -1.377230000000000121e-01 2.325639999999999930e-01
-1.400959999999999983e-01 1.179970000000000047e-01 1.168600000000000055e-01
7.189050000000000162e-01 -4.916200000000000014e-01 -1.425119999999999998e-01
1.238220000000000015e-01 -2.109860000000000069e-01 -9.449899999999999967e-02
-4.679260000000000086e-01 -2.453720000000000068e-01 -4.733699999999999714e-02
-2.961440000000000183e-01 2.488680000000000059e-01 -9.176700000000000135e-02
3.898659999999999903e-01 -1.364600000000000014e-02 7.334599999999999453e-02
1.188739999999999936e-01 1.657399999999999846e-02 -1.605129999999999890e-01
8.682499999999999940e-02 1.116169999999999940e-01 -1.624649999999999983e-01
6.178390000000000271e-01 -4.566569999999999796e-01 -8.796700000000000352e-02
3.636940000000000173e-01 2.931200000000000125e-02 -7.325099999999999667e-02
-1.262890000000000124e-01 4.261759999999999993e-01 2.687200000000000005e-02
3.379299999999999665e-02 -1.096300000000000052e-02 1.669400000000000051e-01
-3.910139999999999727e-01 -2.678679999999999950e-01 -6.540100000000000080e-02
-5.370310000000000361e-01 -9.222400000000000042e-02 -3.754080000000000195e-01
-1.897109999999999908e-01 2.432870000000000033e-01 1.093360000000000026e-01
-4.142250000000000099e-01 -2.735389999999999766e-01 8.561299999999999466e-02
-4.768859999999999766e-01 -2.629099999999999840e-02 -6.279200000000000059e-02
-5.004640000000000200e-01 -1.482670000000000099e-01 1.414779999999999927e-01
3.335750000000000104e-01 -3.156999999999999806e-01 3.396899999999999920e-02
5.056589999999999696e-01 7.467500000000000526e-02 -1.087719999999999937e-01
-8.950800000000000423e-02 8.015899999999999415e-02 1.311910000000000021e-01
-4.706529999999999880e-01 -1.134290000000000020e-01 2.350559999999999872e-01
3.201950000000000074e-01 -3.279300000000000270e-02 -1.408349999999999880e-01
-4.834319999999999729e-01 -3.564490000000000158e-01 4.214600000000000291e-02
1.443000000000000116e-01 -8.329300000000000592e-02 1.820090000000000041e-01
5.464849999999999985e-01 2.144699999999999940e-01 9.067400000000000460e-02
-4.273529999999999829e-01 9.553599999999999592e-02 5.284999999999999767e-03
-1.119219999999999937e-01 1.008750000000000063e-01 -1.631029999999999980e-01
4.358989999999999809e-01 3.087499999999999967e-02 7.713699999999999724e-02
5.076899999999999746e-01 3.159719999999999751e-01 7.989499999999999380e-02
-5.365799999999999736e-02 1.315429999999999933e-01 -1.707720000000000071e-01
-2.984370000000000078e-01 9.377699999999999925e-02 3.427910000000000124e-01
2.651910000000000101e-01 -1.502599999999999943e-02 -1.130099999999999993e-01
-1.220050000000000023e-01 2.280419999999999947e-01 -1.945550000000000057e-01
3.362649999999999806e-01 1.490900000000000038e-02 -1.191590000000000010e-01
-4.101569999999999938e-01 -1.235300000000000009e-01 -3.234170000000000100e-01
-2.391260000000000052e-01 2.528070000000000039e-01 9.255499999999999838e-02
7.116280000000000383e-01 2.789840000000000098e-01 -1.234630000000000033e-01
5.570070000000000299e-01 1.667150000000000021e-01 8.952699999999999547e-02
3.944289999999999741e-01 -4.739899999999999669e-02 1.654120000000000035e-01
-5.573350000000000248e-01 -6.162399999999999822e-02 -3.624850000000000017e-01
-1.748639999999999917e-01 1.674920000000000020e-01 1.223420000000000063e-01
-3.575450000000000017e-01 1.349900000000000058e-02 9.328999999999999793e-02
3.232140000000000013e-01 -1.977669999999999983e-01 -1.145339999999999969e-01
-3.660390000000000033e-01 1.381399999999999989e-02 9.534499999999999920e-02
3.877950000000000008e-01 -7.495599999999999485e-02 2.787800000000000000e-02
5.313729999999999842e-01 3.653259999999999841e-01 6.122199999999999864e-02
-3.091130000000000266e-01 -1.241609999999999936e-01 2.698000000000000051e-02
-4.057100000000000289e-02 -6.049899999999999722e-02 1.137139999999999956e-01
3.047899999999999915e-02 7.869199999999999806e-02 -1.782950000000000090e-01
1.033850000000000047e-01 -1.980570000000000108e-01 -8.572100000000000553e-02
3.358200000000000074e-02 -1.956559999999999966e-01 7.988099999999999368e-02
7.898299999999999765e-02 -2.095170000000000088e-01 -5.501600000000000240e-02
4.508899999999999714e-02 2.437479999999999924e-01 -3.551900000000000196e-02
-7.328199999999999992e-02 2.966960000000000153e-01 -1.932470000000000021e-01
1.853360000000000007e-01 -1.434169999999999889e-01 -1.239289999999999975e-01
4.925209999999999866e-01 -2.005999999999999971e-03 1.212740000000000068e-01
3.711769999999999792e-01 -2.506289999999999907e-01 1.506649999999999934e-01
-2.752140000000000142e-01 2.552800000000000069e-01 -1.190910000000000024e-01
3.505869999999999820e-01 -2.327780000000000127e-01 1.767499999999999905e-01
-3.223170000000000202e-01 1.717059999999999975e-01 3.780870000000000064e-01
-3.127499999999999725e-01 -1.365250000000000075e-01 1.218729999999999952e-01
2.934860000000000246e-01 3.013000000000000053e-02 1.749699999999999867e-01
5.115469999999999740e-01 1.967299999999999882e-01 6.531099999999999406e-02
6.598340000000000316e-01 -4.711839999999999917e-01 -1.466200000000000003e-01
-3.849750000000000116e-01 -2.784869999999999846e-01 4.431000000000000043e-03
-3.251959999999999851e-01 -2.075869999999999937e-01 -7.781399999999999428e-02
4.192389999999999728e-01 -8.099999999999999561e-03 1.567379999999999884e-01
-5.211679999999999646e-01 -7.740099999999999758e-02 3.015100000000000072e-02
3.599589999999999734e-01 -2.932640000000000247e-01 7.318399999999999905e-02
1.621470000000000133e-01 -2.449429999999999941e-01 1.698679999999999912e-01
-1.294299999999999895e-01 2.348149999999999959e-01 -1.941980000000000095e-01
-4.652800000000000269e-01 -3.116189999999999793e-01 3.786899999999999988e-02
-4.505040000000000155e-01 -1.150449999999999945e-01 2.114699999999999913e-01
6.072020000000000195e-01 -4.035880000000000023e-01 -1.390599999999999996e-02
1.999799999999999911e-01 1.196310000000000012e-01 -2.294200000000000059e-02
4.878219999999999779e-01 7.951600000000000334e-02 1.238729999999999970e-01
4.330749999999999877e-01 -5.424600000000000255e-02 -3.654700000000000309e-02
4.252940000000000054e-01 -7.799999999999999859e-04 -1.256379999999999997e-01
1.993449999999999944e-01 -2.833099999999999855e-02 -1.185480000000000006e-01
-6.578699999999999826e-02 5.915479999999999627e-01 -4.569399999999999851e-02
3.528699999999999892e-02 -8.636499999999999733e-02 1.476530000000000065e-01
-5.007999999999999952e-02 3.701249999999999818e-01 -1.189909999999999995e-01
5.090299999999999825e-01 -3.801640000000000019e-01 1.209640000000000021e-01
1.610860000000000070e-01 -1.197440000000000032e-01 2.002639999999999976e-01
4.930789999999999895e-01 7.914100000000000301e-02 8.336699999999999666e-02
-8.867600000000000482e-02 2.962339999999999973e-01 -5.861700000000000244e-02
3.523410000000000153e-01 -3.032549999999999968e-01 9.683999999999999900e-03
-1.225870000000000015e-01 3.380040000000000266e-01 -1.621160000000000101e-01
-4.541049999999999809e-01 -7.611300000000000010e-02 2.565870000000000095e-01
1.121999999999999942e-01 -2.571339999999999737e-01 -3.829199999999999965e-02
2.132779999999999954e-01 6.316399999999999793e-02 -7.885100000000000442e-02
-1.369100000000000004e-02 3.756689999999999752e-01 -1.610520000000000007e-01
-5.967550000000000354e-01 -3.615510000000000113e-01 1.023189999999999933e-01
3.037500000000000200e-01 -1.162220000000000059e-01 -1.361729999999999885e-01
-4.684699999999999975e-01 -1.737460000000000115e-01 -1.292280000000000095e-01
-2.995249999999999857e-01 -1.476099999999999912e-01 -7.005799999999999528e-02
3.683399999999999869e-02 1.338799999999999990e-01 -1.678090000000000137e-01
1.512479999999999936e-01 -1.082329999999999959e-01 1.951600000000000001e-01
4.108979999999999855e-01 3.336299999999999683e-02 1.611029999999999962e-01
-2.695910000000000251e-01 -1.316900000000000015e-02 -5.872100000000000236e-02
3.741519999999999846e-01 -3.365110000000000046e-01 7.245000000000000051e-02
5.307269999999999488e-01 -4.612189999999999901e-01 3.707699999999999885e-02
1.533990000000000076e-01 -2.542479999999999740e-01 1.585499999999999965e-01
-5.185049999999999937e-01 -1.320989999999999942e-01 2.271899999999999961e-02
4.178560000000000052e-01 -1.120329999999999937e-01 1.660669999999999924e-01
2.581350000000000033e-01 3.693899999999999961e-02 1.287179999999999991e-01
3.880430000000000268e-01 -2.375520000000000131e-01 1.434809999999999974e-01
2.502860000000000085e-01 1.558700000000000016e-02 -5.206000000000000211e-02
-5.484820000000000251e-01 -3.172920000000000185e-01 1.189520000000000022e-01
-4.452820000000000111e-01 -2.822200000000000264e-01 9.342000000000000304e-02
-3.295529999999999848e-01 1.346090000000000064e-01 3.507399999999999962e-01
3.055700000000000083e-01 -3.307370000000000032e-01 4.439200000000000090e-02
2.202340000000000131e-01 9.289600000000000635e-02 -9.590000000000000000e-04
-3.165000000000000036e-01 -1.758389999999999953e-01 -8.489199999999999524e-02
-1.288999999999999868e-01 1.198540000000000022e-01 1.171999999999999986e-01
6.883599999999999441e-02 -4.420000000000000318e-03 -1.678860000000000074e-01
3.375100000000000322e-02 -1.679150000000000087e-01 -5.134500000000000175e-02
-2.467139999999999889e-01 2.924769999999999870e-01 6.561999999999999778e-02
-1.039799999999999926e-02 4.412200000000000150e-02 1.585370000000000112e-01
2.824180000000000024e-01 -3.039290000000000047e-01 1.366759999999999919e-01
