-1.933315545320510864e-01 7.318028714507818222e-03 7.789935916662216187e-02
-3.232309818267822266e-01 -5.455768667161464691e-03 2.796589434146881104e-01
-3.237950205802917480e-01 4.052096046507358551e-03 2.820230722427368164e-01
-3.165910840034484863e-01 -2.917881123721599579e-03 2.855758070945739746e-01
-3.171236813068389893e-01 6.872466299682855606e-03 2.877854406833648682e-01
4.391917586326599121e-01 -2.433970198035240173e-02 1.466818004846572876e-01
4.390827715396881104e-01 -1.211460400372743607e-02 1.481267213821411133e-01
4.482899010181427002e-01 -2.167151123285293579e-02 1.430088132619857788e-01
4.486936032772064209e-01 -9.956004098057746887e-03 1.450856626033782959e-01
-1.221935302019119263e-01 1.123966369777917862e-02 1.033072397112846375e-01
-1.268199086189270020e-01 2.252365648746490479e-02 1.055515930056571960e-01
-1.104932203888893127e-01 1.055256277322769165e-02 1.068721860647201538e-01
-1.143723130226135254e-01 2.217213623225688934e-02 1.091845631599426270e-01
-2.807098329067230225e-01 -8.528128266334533691e-03 -7.577833533287048340e-02
-2.766602039337158203e-01 -1.264712307602167130e-03 -8.376554399728775024e-02
-2.714684009552001953e-01 -7.304089143872261047e-03 -6.954248994588851929e-02
-2.681544721126556396e-01 -1.114208716899156570e-03 -7.758551836013793945e-02
-3.571158349514007568e-01 4.752149060368537903e-02 -1.059288978576660156e-01
-3.554295301437377930e-01 5.978896841406822205e-02 -1.047067865729331970e-01
-3.464725017547607422e-01 5.216329917311668396e-02 -1.076891496777534485e-01
-3.443198502063751221e-01 6.441210955381393433e-02 -1.065179705619812012e-01
1.243721842765808105e-01 -1.485295146703720093e-01 -1.065957471728324890e-01
1.299036741256713867e-01 -1.345993727445602417e-01 -1.117521077394485474e-01
1.363542526960372925e-01 -1.452659368515014648e-01 -1.101021319627761841e-01
1.420199573040008545e-01 -1.317095309495925903e-01 -1.141059324145317078e-01
-5.046786069869995117e-01 -2.794024944305419922e-01 1.028220504522323608e-01
-5.051356554031372070e-01 -2.676704525947570801e-01 1.044681444764137268e-01
-4.934112727642059326e-01 -2.784113585948944092e-01 1.007373407483100891e-01
-4.948612451553344727e-01 -2.670525312423706055e-01 1.035625785589218140e-01
1.006337925791740417e-01 -2.283443808555603027e-01 1.405614316463470459e-01
9.743544459342956543e-02 -2.167609632015228271e-01 1.461551934480667114e-01
1.086915060877799988e-01 -2.258893996477127075e-01 1.483020484447479248e-01
1.056237667798995972e-01 -2.141227126121520996e-01 1.539667248725891113e-01
1.496800184249877930e-01 -1.439695507287979126e-01 2.007255256175994873e-01
1.487234681844711304e-01 -1.348598003387451172e-01 2.005769908428192139e-01
1.629230678081512451e-01 -1.444147676229476929e-01 2.033012360334396362e-01
1.622012555599212646e-01 -1.348446905612945557e-01 2.031599730253219604e-01
1.383878290653228760e-01 4.701262712478637695e-02 1.558741033077239990e-01
1.411030590534210205e-01 5.677479878067970276e-02 1.520444005727767944e-01
1.466401368379592896e-01 4.257123172283172607e-02 1.548401117324829102e-01
1.494462788105010986e-01 5.151256546378135681e-02 1.500557959079742432e-01
6.514078974723815918e-01 -5.120402574539184570e-01 -1.310649365186691284e-01
6.490355730056762695e-01 -5.028069615364074707e-01 -1.319491714239120483e-01
6.525174379348754883e-01 -5.173227190971374512e-01 -1.245813220739364624e-01
6.499218940734863281e-01 -5.084860324859619141e-01 -1.252071708440780640e-01
2.477692812681198120e-01 3.763368725776672363e-02 1.481912797316908836e-03
2.426704168319702148e-01 4.633062332868576050e-02 6.149604916572570801e-03
2.512921690940856934e-01 3.582311794161796570e-02 1.539240777492523193e-02
2.459154576063156128e-01 4.415390640497207642e-02 1.958518847823143005e-02
-4.475641623139381409e-02 6.467811465263366699e-01 -3.019812144339084625e-02
-3.538573533296585083e-02 6.587046384811401367e-01 -3.092481382191181183e-02
-3.688340634107589722e-02 6.503717303276062012e-01 -2.780370227992534637e-02
-2.918266318738460541e-02 6.621944308280944824e-01 -2.831369265913963318e-02
-5.437517166137695312e-01 -4.048729240894317627e-01 6.989391893148422241e-02
-5.475158095359802246e-01 -4.012086093425750732e-01 7.908771932125091553e-02
-5.337718129158020020e-01 -4.037333130836486816e-01 7.248567044734954834e-02
-5.370683073997497559e-01 -3.995961546897888184e-01 8.157773315906524658e-02
3.261679410934448242e-01 -3.006350398063659668e-01 -2.670039050281047821e-02
3.356173336505889893e-01 -2.942147850990295410e-01 -2.673096582293510437e-02
3.359265327453613281e-01 -2.986136972904205322e-01 -1.824625395238399506e-02
3.453692793846130371e-01 -2.920195758342742920e-01 -1.855362579226493835e-02
1.334744989871978760e-01 1.687216758728027344e-01 7.533507049083709717e-02
1.241353601217269897e-01 1.722947359085083008e-01 7.984890043735504150e-02
1.377842873334884644e-01 1.661338657140731812e-01 8.329711854457855225e-02
1.283584237098693848e-01 1.694394797086715698e-01 8.713635057210922241e-02
-6.690920889377593994e-02 4.297945201396942139e-01 -1.860725283622741699e-01
-5.945169925689697266e-02 4.404352307319641113e-01 -1.870606541633605957e-01
-7.066033035516738892e-02 4.402185678482055664e-01 -1.775157302618026733e-01
-6.181669980287551880e-02 4.517100155353546143e-01 -1.794866025447845459e-01
2.375628799200057983e-01 1.947469264268875122e-02 -7.298431545495986938e-02
2.315924465656280518e-01 3.015214391052722931e-02 -7.183788716793060303e-02
2.417390644550323486e-01 1.835891231894493103e-02 -6.572896242141723633e-02
2.355515062808990479e-01 2.920954674482345581e-02 -6.453851610422134399e-02
-3.410767614841461182e-01 -1.944548487663269043e-01 1.447340399026870728e-01
-3.346776068210601807e-01 -1.832124739885330200e-01 1.434130370616912842e-01
-3.405611515045166016e-01 -1.887963861227035522e-01 1.535395979881286621e-01
-3.339222073554992676e-01 -1.770496219396591187e-01 1.522974222898483276e-01
2.579958736896514893e-01 -1.997111290693283081e-01 2.096473723649978638e-01
2.563317120075225830e-01 -1.856528967618942261e-01 2.151961624622344971e-01
2.715173661708831787e-01 -1.966479569673538208e-01 2.093105763196945190e-01
2.696286141872406006e-01 -1.829955726861953735e-01 2.146404534578323364e-01
1.124143525958061218e-01 -2.210558801889419556e-01 -7.793649286031723022e-02
1.057641059160232544e-01 -2.137532979249954224e-01 -7.919394969940185547e-02
1.122347787022590637e-01 -2.329034656286239624e-01 -7.352721691131591797e-02
1.083693653345108032e-01 -2.261718660593032837e-01 -7.782714813947677612e-02
-1.307443231344223022e-01 4.125722348690032959e-01 -1.857320591807365417e-02
-1.284396946430206299e-01 4.237743318080902100e-01 -2.103804610669612885e-02
-1.242119371891021729e-01 4.100492000579833984e-01 -1.701039075851440430e-02
-1.213494166731834412e-01 4.211934804916381836e-01 -1.970956847071647644e-02
4.010282158851623535e-01 -1.921675950288772583e-01 1.694092303514480591e-01
4.002504646778106689e-01 -1.831734478473663330e-01 1.734243184328079224e-01
4.030533730983734131e-01 -1.854841262102127075e-01 1.714079529047012329e-01
4.036980271339416504e-01 -1.755817234516143799e-01 1.740854829549789429e-01
3.469275534152984619e-01 2.291710861027240753e-02 7.826641201972961426e-02
3.457857668399810791e-01 3.084775619208812714e-02 8.526373654603958130e-02
3.585820794105529785e-01 2.626380696892738342e-02 8.023201674222946167e-02
3.572285473346710205e-01 3.401821851730346680e-02 8.693475276231765747e-02
1.011472269892692566e-01 -1.876955181360244751e-01 1.709728986024856567e-01
1.010581552982330322e-01 -1.759635955095291138e-01 1.732793599367141724e-01
1.122996583580970764e-01 -1.830935478210449219e-01 1.775371432304382324e-01
1.122708395123481750e-01 -1.713883876800537109e-01 1.798868030309677124e-01
2.117428183555603027e-01 4.501818120479583740e-02 -9.173401445150375366e-02
2.092537581920623779e-01 5.556985735893249512e-02 -9.222125262022018433e-02
2.168827056884765625e-01 4.602950438857078552e-02 -8.401293307542800903e-02
2.140741795301437378e-01 5.671000480651855469e-02 -8.479080349206924438e-02
-3.466365635395050049e-01 1.430542469024658203e-01 5.985714495182037354e-02
-3.414878845214843750e-01 1.545758694410324097e-01 5.908480286598205566e-02
-3.344559967517852783e-01 1.453185081481933594e-01 6.759148836135864258e-02
-3.296028375625610352e-01 1.571253091096878052e-01 6.683050096035003662e-02
-3.820464909076690674e-01 -8.102218620479106903e-03 2.734680771827697754e-01
-3.843368291854858398e-01 1.662883907556533813e-03 2.808683812618255615e-01
-3.742060661315917969e-01 -9.111170656979084015e-04 2.777947783470153809e-01
-3.758898973464965820e-01 9.114345535635948181e-03 2.848301231861114502e-01
5.683315917849540710e-03 1.724871806800365448e-02 1.635478436946868896e-01
4.862863570451736450e-03 3.003498166799545288e-02 1.644041091203689575e-01
1.913954317569732666e-02 1.870043762028217316e-02 1.653535366058349609e-01
1.775511913001537323e-02 3.184306249022483826e-02 1.664517968893051147e-01
-1.533770561218261719e-01 -3.117340616881847382e-02 6.675283610820770264e-02
-1.572720259428024292e-01 -1.863647438585758209e-02 7.390148192644119263e-02
-1.425174623727798462e-01 -3.080175071954727173e-02 7.009348273277282715e-02
-1.466408818960189819e-01 -1.811879873275756836e-02 7.677618414163589478e-02
-3.168689906597137451e-01 6.702121347188949585e-03 3.409439921379089355e-01
-3.179959356784820557e-01 1.826085522770881653e-02 3.474274277687072754e-01
-3.070083856582641602e-01 1.331489533185958862e-02 3.408298790454864502e-01
-3.080090284347534180e-01 2.479708008468151093e-02 3.472792208194732666e-01
-7.385127246379852295e-02 4.399830996990203857e-01 -1.745610833168029785e-01
-6.507733464241027832e-02 4.513845443725585938e-01 -1.767635494470596313e-01
-7.498746365308761597e-02 4.497641026973724365e-01 -1.679070293903350830e-01
-6.626595556735992432e-02 4.610852003097534180e-01 -1.708072572946548462e-01
4.208403229713439941e-01 -8.831200003623962402e-02 -1.429197750985622406e-02
4.148463606834411621e-01 -8.090209215879440308e-02 -8.450057357549667358e-03
4.141203165054321289e-01 -8.905135095119476318e-02 -3.544573904946446419e-03
4.079248905181884766e-01 -8.163996040821075439e-02 2.488479251042008400e-03
-3.196576237678527832e-01 1.888699978590011597e-01 -1.227362379431724548e-01
-3.133862018585205078e-01 2.014249861240386963e-01 -1.220865994691848755e-01
-3.224900960922241211e-01 2.010750621557235718e-01 -1.145450472831726074e-01
-3.160603642463684082e-01 2.136362493038177490e-01 -1.140248700976371765e-01
4.412737488746643066e-01 -1.299421638250350952e-01 -4.209519550204277039e-02
4.431168735027313232e-01 -1.172964945435523987e-01 -4.153430461883544922e-02
4.381970167160034180e-01 -1.290418207645416260e-01 -3.115364909172058105e-02
4.377605020999908447e-01 -1.181201562285423279e-01 -2.883403189480304718e-02
-4.419790804386138916e-01 -2.837071418762207031e-01 -9.335277974605560303e-02
-4.494490623474121094e-01 -2.800704836845397949e-01 -8.513270318508148193e-02
-4.361662864685058594e-01 -2.848342657089233398e-01 -8.459767699241638184e-02
-4.430159628391265869e-01 -2.818922400474548340e-01 -7.605909556150436401e-02
-4.576433002948760986e-01 3.419859707355499268e-02 -3.901360183954238892e-02
-4.485749304294586182e-01 4.751131311058998108e-02 -4.099418222904205322e-02
-4.581457674503326416e-01 4.426735639572143555e-02 -2.952697128057479858e-02
-4.488370716571807861e-01 5.824577435851097107e-02 -3.182754665613174438e-02
-4.054223299026489258e-01 -2.126074731349945068e-01 2.043839544057846069e-01
-4.039520621299743652e-01 -2.067472338676452637e-01 2.096204012632369995e-01
-4.010272026062011719e-01 -2.047022730112075806e-01 2.133080661296844482e-01
-3.965554237365722656e-01 -1.975667029619216919e-01 2.157666236162185669e-01
3.336375355720520020e-01 -2.898727357387542725e-01 -4.147451743483543396e-02
3.415065407752990723e-01 -2.824338376522064209e-01 -4.288332536816596985e-02
3.423638045787811279e-01 -2.884010970592498779e-01 -3.347008302807807922e-02
3.503266572952270508e-01 -2.806249260902404785e-01 -3.446962311863899231e-02
7.100222110748291016e-01 2.708259224891662598e-01 -1.347313523292541504e-01
7.142394185066223145e-01 2.791906297206878662e-01 -1.372102051973342896e-01
7.125378847122192383e-01 2.739464044570922852e-01 -1.292181909084320068e-01
7.167090177536010742e-01 2.824323773384094238e-01 -1.315072923898696899e-01
2.492057979106903076e-01 -3.271223902702331543e-01 1.240282412618398666e-02
2.585340440273284912e-01 -3.210839331150054932e-01 -1.037845388054847717e-03
2.610123157501220703e-01 -3.281319737434387207e-01 1.878293603658676147e-02
2.710496187210083008e-01 -3.218390345573425293e-01 6.062104366719722748e-03
3.721834123134613037e-01 -2.182450294494628906e-01 -8.364062756299972534e-02
3.763443529605865479e-01 -2.063655406236648560e-01 -8.843497186899185181e-02
3.830723762512207031e-01 -2.177821546792984009e-01 -7.589913904666900635e-02
3.875015676021575928e-01 -2.050378173589706421e-01 -8.092654496431350708e-02
2.383279800415039062e-01 -1.119439378380775452e-01 -1.317517906427383423e-01
2.418165057897567749e-01 -9.724126011133193970e-02 -1.314695924520492554e-01
2.509670555591583252e-01 -1.075760722160339355e-01 -1.346117705106735229e-01
2.553431689739227295e-01 -9.287742525339126587e-02 -1.342931240797042847e-01
-1.266880333423614502e-01 4.140298962593078613e-01 2.827794849872589111e-02
-1.231253892183303833e-01 4.265028536319732666e-01 2.756814472377300262e-02
-1.221693232655525208e-01 4.165650308132171631e-01 3.409469872713088989e-02
-1.183539852499961853e-01 4.291083216667175293e-01 3.336957097053527832e-02
-4.600340723991394043e-01 -3.029388189315795898e-01 1.637918129563331604e-02
-4.534480571746826172e-01 -2.986861169338226318e-01 1.448714360594749451e-02
-4.556587338447570801e-01 -3.005078434944152832e-01 2.292275615036487579e-02
-4.485552310943603516e-01 -2.964572310447692871e-01 2.115223929286003113e-02
-2.155556827783584595e-01 3.074406832456588745e-02 -1.185633838176727295e-01
-2.120593786239624023e-01 3.789926320314407349e-02 -1.265682727098464966e-01
-2.028100043535232544e-01 2.900435961782932281e-02 -1.170889735221862793e-01
-1.992920488119125366e-01 3.612656146287918091e-02 -1.257399767637252808e-01
-4.324715435504913330e-01 -1.954111307859420776e-01 -3.420299291610717773e-01
-4.319056868553161621e-01 -1.827473342418670654e-01 -3.469039201736450195e-01
-4.192670881748199463e-01 -1.970303356647491455e-01 -3.396618366241455078e-01
-4.171861708164215088e-01 -1.842254102230072021e-01 -3.452865779399871826e-01
2.983345687389373779e-01 -7.059750612825155258e-03 -6.927462667226791382e-02
3.010852038860321045e-01 -1.125010661780834198e-03 -7.311263680458068848e-02
3.051177263259887695e-01 -8.368335664272308350e-03 -6.124721094965934753e-02
3.096880018711090088e-01 -3.117910353466868401e-03 -6.803201138973236084e-02
4.907489418983459473e-01 3.114211261272430420e-01 6.031438335776329041e-02
4.932165443897247314e-01 3.225928544998168945e-01 6.298673897981643677e-02
4.989905953407287598e-01 3.080498874187469482e-01 6.458447128534317017e-02
5.016854405403137207e-01 3.196256160736083984e-01 6.744638830423355103e-02
-1.880239099264144897e-01 2.817165553569793701e-01 -1.622107326984405518e-01
-1.943539381027221680e-01 2.872066199779510498e-01 -1.495232284069061279e-01
-1.785188764333724976e-01 2.912137806415557861e-01 -1.546771973371505737e-01
-1.846521347761154175e-01 2.969339191913604736e-01 -1.421169340610504150e-01
-2.878495752811431885e-01 8.922106027603149414e-02 -1.320670247077941895e-01
-2.810627818107604980e-01 1.010414510965347290e-01 -1.405358910560607910e-01
-2.765516042709350586e-01 8.367970585823059082e-02 -1.345719695091247559e-01
-2.701734900474548340e-01 9.500727057456970215e-02 -1.428780108690261841e-01
-5.340915322303771973e-01 -3.146050572395324707e-01 1.741992455208674073e-04
-5.303900837898254395e-01 -3.044098317623138428e-01 1.080636138794943690e-04
-5.196970105171203613e-01 -3.125434219837188721e-01 1.891158317448571324e-04
-5.157973170280456543e-01 -3.024093210697174072e-01 -4.201873089186847210e-04
3.527822792530059814e-01 -2.053037732839584351e-01 1.872132569551467896e-01
3.533971011638641357e-01 -1.952615976333618164e-01 1.932757645845413208e-01
3.646371364593505859e-01 -1.998882889747619629e-01 1.838258653879165649e-01
3.633472323417663574e-01 -1.906960904598236084e-01 1.900885105133056641e-01
-5.116622447967529297e-01 -1.341457664966583252e-01 -6.398695707321166992e-02
-5.137054920196533203e-01 -1.206761300563812256e-01 -5.923837050795555115e-02
-5.168020725250244141e-01 -1.267946362495422363e-01 -5.078673362731933594e-02
-5.183969140052795410e-01 -1.135998666286468506e-01 -4.646088555455207825e-02
4.974367320537567139e-01 7.964298874139785767e-02 1.314410418272018433e-01
5.011238455772399902e-01 8.640834689140319824e-02 1.277723908424377441e-01
5.025640130043029785e-01 7.909439504146575928e-02 1.342629641294479370e-01
5.065383911132812500e-01 8.621710538864135742e-02 1.305260360240936279e-01
-3.470845520496368408e-01 3.744461806491017342e-03 2.745778560638427734e-01
-3.487526774406433105e-01 1.371635869145393372e-02 2.815524339675903320e-01
-3.395389020442962646e-01 7.370374165475368500e-03 2.765875458717346191e-01
-3.409221768379211426e-01 1.735568791627883911e-02 2.829217910766601562e-01
-4.852515161037445068e-01 9.416343644261360168e-03 -7.336160168051719666e-03
-4.762483239173889160e-01 2.483877539634704590e-02 -1.038778014481067657e-02
-4.810123443603515625e-01 1.923488639295101166e-02 5.009958986192941666e-03
-4.720508754253387451e-01 3.418201580643653870e-02 1.618338515982031822e-03
1.120644360780715942e-01 4.836799800395965576e-01 -1.498004347085952759e-01
1.181298419833183289e-01 4.923972785472869873e-01 -1.551819592714309692e-01
1.225470528006553650e-01 4.838282465934753418e-01 -1.455520987510681152e-01
1.284153312444686890e-01 4.924556314945220947e-01 -1.509302854537963867e-01
3.305535614490509033e-01 2.610535174608230591e-02 7.826299220323562622e-02
3.289005160331726074e-01 3.393372893333435059e-02 8.575647324323654175e-02
3.424828946590423584e-01 2.932144515216350555e-02 8.095925301313400269e-02
3.412232995033264160e-01 3.716646134853363037e-02 8.788803219795227051e-02
1.878293007612228394e-01 -1.862453296780586243e-02 -1.241063773632049561e-01
1.897141337394714355e-01 -7.913456298410892487e-03 -1.222219914197921753e-01
1.989887356758117676e-01 -1.700847782194614410e-02 -1.182131618261337280e-01
2.001908868551254272e-01 -6.810980848968029022e-03 -1.161653995513916016e-01
-5.119535923004150391e-01 -1.998564004898071289e-01 -1.626880606636404991e-03
-5.140019059181213379e-01 -1.883486807346343994e-01 1.653221435844898224e-03
-5.155035853385925293e-01 -1.960626393556594849e-01 1.253278180956840515e-02
-5.170700550079345703e-01 -1.840484291315078735e-01 1.582462713122367859e-02
6.376854777336120605e-01 -5.078874230384826660e-01 -9.614530205726623535e-02
6.337747573852539062e-01 -5.015840530395507812e-01 -9.026815742254257202e-02
6.334197521209716797e-01 -5.087316632270812988e-01 -8.779393881559371948e-02
6.307113766670227051e-01 -5.012893676757812500e-01 -8.196188509464263916e-02
7.013177871704101562e-01 2.546513676643371582e-01 -1.403996050357818604e-01
7.051059007644653320e-01 2.632149755954742432e-01 -1.435029953718185425e-01
7.045745849609375000e-01 2.564632594585418701e-01 -1.327074766159057617e-01
7.085081338882446289e-01 2.652000188827514648e-01 -1.357783079147338867e-01
4.123468101024627686e-01 -2.590706571936607361e-02 8.120981603860855103e-02
4.062150716781616211e-01 -1.468588970601558685e-02 8.067028969526290894e-02
4.185722470283508301e-01 -2.522155642509460449e-02 8.595270663499832153e-02
4.151320159435272217e-01 -1.478794310241937637e-02 8.503036946058273315e-02
-4.652657359838485718e-02 3.948296010494232178e-01 -1.915149688720703125e-01
-4.300137609243392944e-02 4.042292833328247070e-01 -1.918605864048004150e-01
-4.570291936397552490e-02 3.992130756378173828e-01 -1.860270947217941284e-01
-4.157751426100730896e-02 4.085841178894042969e-01 -1.871142536401748657e-01
-4.147656559944152832e-01 -6.900835782289505005e-02 2.951191365718841553e-01
-4.198460578918457031e-01 -5.982075631618499756e-02 3.044552505016326904e-01
-4.056502580642700195e-01 -6.020479276776313782e-02 3.002377748489379883e-01
-4.102919399738311768e-01 -5.027481541037559509e-02 3.094387352466583252e-01
-3.556752800941467285e-01 -2.515062391757965088e-01 -5.037961900234222412e-02
-3.472352027893066406e-01 -2.410215288400650024e-01 -5.128513276576995850e-02
-3.532993793487548828e-01 -2.491934746503829956e-01 -3.914779052138328552e-02
-3.448388576507568359e-01 -2.388051748275756836e-01 -4.012953862547874451e-02
5.626012384891510010e-02 -1.498032361268997192e-01 -8.297076821327209473e-02
6.004830822348594666e-02 -1.433990150690078735e-01 -9.146033972501754761e-02
6.715479493141174316e-02 -1.569809615612030029e-01 -8.244963735342025757e-02
7.067838311195373535e-02 -1.505438536405563354e-01 -9.057539701461791992e-02
5.472031831741333008e-01 1.124920696020126343e-01 -1.077876985073089600e-01
5.531367659568786621e-01 1.234851032495498657e-01 -1.104696840047836304e-01
5.598678588867187500e-01 1.183282211422920227e-01 -1.027015969157218933e-01
5.658177733421325684e-01 1.290302872657775879e-01 -1.054641827940940857e-01
6.935765594244003296e-02 2.095631062984466553e-01 -9.109154343605041504e-02
5.878669768571853638e-02 2.179482281208038330e-01 -8.224508166313171387e-02
8.116202056407928467e-02 2.078024297952651978e-01 -8.241574466228485107e-02
7.067414373159408569e-02 2.150752246379852295e-01 -7.370782643556594849e-02
-7.496675103902816772e-02 -5.664526671171188354e-02 -8.551737666130065918e-02
-8.482377976179122925e-02 -5.456580594182014465e-02 -8.298770338296890259e-02
-7.164795696735382080e-02 -6.486425548791885376e-02 -7.980111241340637207e-02
-8.155126869678497314e-02 -6.267380714416503906e-02 -7.720640301704406738e-02
5.585753321647644043e-01 2.734718918800354004e-01 5.231233313679695129e-02
5.586572289466857910e-01 2.850932776927947998e-01 5.323768779635429382e-02
5.613304376602172852e-01 2.752451002597808838e-01 6.052276492118835449e-02
5.618640780448913574e-01 2.864730358123779297e-01 6.156853586435317993e-02
-3.010724782943725586e-01 -3.341947495937347412e-02 -7.235527783632278442e-02
-2.993072271347045898e-01 -2.235027588903903961e-02 -7.520008087158203125e-02
-2.967564463615417480e-01 -3.369878232479095459e-02 -6.194776296615600586e-02
-2.940494120121002197e-01 -2.373115159571170807e-02 -6.500892341136932373e-02
-3.564144968986511230e-01 -2.353746891021728516e-01 -9.701129794120788574e-02
-3.499882221221923828e-01 -2.246227413415908813e-01 -1.000981852412223816e-01
-3.533707857131958008e-01 -2.348253726959228516e-01 -8.651132136583328247e-02
-3.472738265991210938e-01 -2.240107059478759766e-01 -8.954340964555740356e-02
7.107167840003967285e-01 -4.755270183086395264e-01 -1.416692733764648438e-01
7.095966339111328125e-01 -4.663066864013671875e-01 -1.372917145490646362e-01
7.139030694961547852e-01 -4.704892337322235107e-01 -1.334979385137557983e-01
7.119052410125732422e-01 -4.618712663650512695e-01 -1.286912858486175537e-01
7.141922712326049805e-01 2.953548133373260498e-01 -1.334865987300872803e-01
7.144995927810668945e-01 3.041784465312957764e-01 -1.346173733472824097e-01
7.159453034400939941e-01 2.953896820545196533e-01 -1.279319673776626587e-01
7.164255380630493164e-01 3.042041361331939697e-01 -1.300044953823089600e-01
5.463222265243530273e-01 -4.714295268058776855e-01 2.265677973628044128e-02
5.356040000915527344e-01 -4.648796617984771729e-01 3.441443294286727905e-02
5.507782697677612305e-01 -4.689722061157226562e-01 2.922474965453147888e-02
5.418422818183898926e-01 -4.625613391399383545e-01 4.090192168951034546e-02
-5.228077173233032227e-01 -1.204540133476257324e-01 2.589343301951885223e-02
-5.213335752487182617e-01 -1.079535856842994690e-01 2.607272379100322723e-02
-5.233560204505920410e-01 -1.176807135343551636e-01 3.979658707976341248e-02
-5.223098993301391602e-01 -1.050444766879081726e-01 3.968100622296333313e-02
6.742133498191833496e-01 -4.889522194862365723e-01 -1.685886532068252563e-01
6.749796271324157715e-01 -4.781762659549713135e-01 -1.668845415115356445e-01
6.831828355789184570e-01 -4.834316670894622803e-01 -1.662424653768539429e-01
6.827843189239501953e-01 -4.732195138931274414e-01 -1.623564362525939941e-01
-3.965445160865783691e-01 -2.784686684608459473e-01 -8.295652270317077637e-02
-3.870992958545684814e-01 -2.690788805484771729e-01 -8.397245407104492188e-02
-3.906144797801971436e-01 -2.738009393215179443e-01 -7.059226185083389282e-02
-3.803878128528594971e-01 -2.645416259765625000e-01 -7.183615118265151978e-02
-4.259740114212036133e-01 -9.660605341196060181e-02 -1.053524017333984375e-01
-4.306086599826812744e-01 -8.531871438026428223e-02 -1.044427156448364258e-01
-4.129944145679473877e-01 -9.622041136026382446e-02 -1.072269156575202942e-01
-4.171229898929595947e-01 -8.513415604829788208e-02 -1.063835620880126953e-01
7.689145952463150024e-02 2.246186435222625732e-01 -2.850231155753135681e-02
6.688456237316131592e-02 2.307214885950088501e-01 -1.761386916041374207e-02
8.521750569343566895e-02 2.241996973752975464e-01 -1.697386614978313446e-02
7.620558142662048340e-02 2.307746857404708862e-01 -6.103802938014268875e-03
-2.887898683547973633e-01 -1.052931547164916992e-01 -1.816092990338802338e-02
-2.871304452419281006e-01 -9.411384165287017822e-02 -1.628699339926242828e-02
-2.899960577487945557e-01 -1.027339026331901550e-01 -7.982619106769561768e-03
-2.888074815273284912e-01 -9.150312095880508423e-02 -5.513136740773916245e-03
3.383770585060119629e-02 4.480946063995361328e-01 -1.818848997354507446e-01
3.743176907300949097e-02 4.556332826614379883e-01 -1.851203441619873047e-01
4.264284297823905945e-02 4.497792124748229980e-01 -1.783004999160766602e-01
4.657082259654998779e-02 4.578243792057037354e-01 -1.818496882915496826e-01
-3.417083621025085449e-01 -5.550701171159744263e-02 3.083391785621643066e-01
-3.425449132919311523e-01 -4.585785791277885437e-02 3.124194145202636719e-01
-3.330986499786376953e-01 -5.098291859030723572e-02 3.096989393234252930e-01
-3.327364921569824219e-01 -4.152817651629447937e-02 3.126784563064575195e-01
-4.736944437026977539e-01 -1.569288074970245361e-01 2.516713738441467285e-01
-4.745485782623291016e-01 -1.454341560602188110e-01 2.545486688613891602e-01
-4.641453027725219727e-01 -1.570211797952651978e-01 2.619793117046356201e-01
-4.649249911308288574e-01 -1.455169618129730225e-01 2.651195228099822998e-01
-4.578398168087005615e-01 -2.071356326341629028e-01 -2.428516000509262085e-01
-4.514043033123016357e-01 -2.038864493370056152e-01 -2.419113516807556152e-01
-4.572030603885650635e-01 -2.072529196739196777e-01 -2.294170260429382324e-01
-4.481536746025085449e-01 -2.037496417760848999e-01 -2.289572358131408691e-01
-3.043011128902435303e-01 2.002352327108383179e-01 -1.348049491643905640e-01
-2.978271543979644775e-01 2.124530673027038574e-01 -1.343215107917785645e-01
-3.064684271812438965e-01 2.128530889749526978e-01 -1.266122609376907349e-01
-3.000678718090057373e-01 2.250513732433319092e-01 -1.258613169193267822e-01
-4.251438677310943604e-01 -1.181721761822700500e-01 -3.184479475021362305e-01
-4.360468387603759766e-01 -1.143710017204284668e-01 -3.173587918281555176e-01
-4.164969325065612793e-01 -1.232790127396583557e-01 -3.102254569530487061e-01
-4.261057078838348389e-01 -1.182048395276069641e-01 -3.110831379890441895e-01
5.203227400779724121e-01 -4.490066468715667725e-01 8.566903322935104370e-02
5.134770274162292480e-01 -4.453979730606079102e-01 9.485621005296707153e-02
5.286672711372375488e-01 -4.472399950027465820e-01 8.701629191637039185e-02
5.221341848373413086e-01 -4.433554410934448242e-01 9.616669267416000366e-02
2.382293194532394409e-01 -2.818968594074249268e-01 -6.466897577047348022e-02
2.428880929946899414e-01 -2.741382420063018799e-01 -7.355575263500213623e-02
2.499140799045562744e-01 -2.862032055854797363e-01 -6.216817721724510193e-02
2.546102702617645264e-01 -2.784943282604217529e-01 -7.180016487836837769e-02
4.602656960487365723e-01 5.436129868030548096e-02 -1.199199184775352478e-01
4.671389460563659668e-01 6.767956167459487915e-02 -1.199420988559722900e-01
4.750815629959106445e-01 6.006171554327011108e-02 -1.175127699971199036e-01
4.828875958919525146e-01 7.403928786516189575e-02 -1.185909137129783630e-01
-4.178504049777984619e-01 -3.450058773159980774e-02 -9.912572801113128662e-02
-4.195288717746734619e-01 -2.360681444406509399e-02 -9.706190973520278931e-02
-4.066869318485260010e-01 -3.047465905547142029e-02 -1.006031110882759094e-01
-4.082404077053070068e-01 -2.044673450291156769e-02 -9.860222041606903076e-02
-4.801279306411743164e-01 -2.933799624443054199e-01 4.672962240874767303e-03
-4.770168066024780273e-01 -2.867757380008697510e-01 1.770039554685354233e-03
-4.741567075252532959e-01 -2.919098436832427979e-01 9.060221724212169647e-03
-4.710215032100677490e-01 -2.851481437683105469e-01 6.027614697813987732e-03
2.916567623615264893e-01 -1.961916685104370117e-01 -1.182150468230247498e-01
2.954741418361663818e-01 -1.842147260904312134e-01 -1.218747869133949280e-01
3.069267570972442627e-01 -1.987917870283126831e-01 -1.156820505857467651e-01
3.105353116989135742e-01 -1.867848634719848633e-01 -1.191085353493690491e-01
-4.609959945082664490e-02 3.034118711948394775e-01 -1.044152826070785522e-01
-5.045215412974357605e-02 3.086788952350616455e-01 -1.012003123760223389e-01
-3.824074193835258484e-02 3.013082742691040039e-01 -9.864965081214904785e-02
-4.402242973446846008e-02 3.060563802719116211e-01 -9.415699541568756104e-02
5.071668624877929688e-01 2.284713834524154663e-01 5.702656507492065430e-02
5.091517567634582520e-01 2.426921576261520386e-01 5.753017216920852661e-02
5.063418745994567871e-01 2.277995049953460693e-01 6.636838614940643311e-02
5.084955096244812012e-01 2.420144230127334595e-01 6.703771650791168213e-02
4.111540019512176514e-01 -1.771592646837234497e-01 1.660657078027725220e-01
4.139927625656127930e-01 -1.666824966669082642e-01 1.668205112218856812e-01
4.106750190258026123e-01 -1.687364280223846436e-01 1.698350459337234497e-01
4.134789705276489258e-01 -1.580805331468582153e-01 1.706664264202117920e-01
1.573000997304916382e-01 1.118496283888816833e-01 1.186501011252403259e-01
1.514374166727066040e-01 1.199551746249198914e-01 1.138818636536598206e-01
1.638352572917938232e-01 1.004729121923446655e-01 1.216429993510246277e-01
1.582577675580978394e-01 1.087943390011787415e-01 1.173110753297805786e-01
5.248695611953735352e-01 2.944412529468536377e-01 3.715824335813522339e-02
5.239019989967346191e-01 3.066286742687225342e-01 3.640501573681831360e-02
5.320819020271301270e-01 2.904746234416961670e-01 4.103224352002143860e-02
5.311953425407409668e-01 3.025040626525878906e-01 4.024509340524673462e-02
1.018610820174217224e-01 -5.977111682295799255e-02 -1.402460336685180664e-01
1.086432710289955139e-01 -4.890643805265426636e-02 -1.472684442996978760e-01
1.168764457106590271e-01 -6.159396469593048096e-02 -1.368568092584609985e-01
1.200538501143455505e-01 -4.911083728075027466e-02 -1.418477296829223633e-01
-2.625418603420257568e-01 1.523347496986389160e-01 -1.716646254062652588e-01
-2.616722285747528076e-01 1.640339642763137817e-01 -1.730832606554031372e-01
-2.513266801834106445e-01 1.558752059936523438e-01 -1.761833429336547852e-01
-2.505861818790435791e-01 1.677709966897964478e-01 -1.770654618740081787e-01
4.491078257560729980e-01 -3.568496555089950562e-03 -1.115513592958450317e-01
4.547933936119079590e-01 8.505780249834060669e-03 -1.143932566046714783e-01
4.606374800205230713e-01 -1.878981944173574448e-03 -1.066783219575881958e-01
4.664217829704284668e-01 1.022201124578714371e-02 -1.088736876845359802e-01
7.058540582656860352e-01 2.886810302734375000e-01 -1.168271377682685852e-01
7.072372436523437500e-01 2.975719869136810303e-01 -1.202700063586235046e-01
7.084276080131530762e-01 2.886032462120056152e-01 -1.116466596722602844e-01
7.098107933998107910e-01 2.974942028522491455e-01 -1.150895282626152039e-01
-1.474257856607437134e-01 2.975051403045654297e-01 -1.335574537515640259e-01
-1.548829823732376099e-01 3.021377027034759521e-01 -1.219430267810821533e-01
-1.436372846364974976e-01 3.022246658802032471e-01 -1.259160190820693970e-01
-1.517104655504226685e-01 3.059856891632080078e-01 -1.135670766234397888e-01
4.470746815204620361e-01 -4.093427360057830811e-01 1.237359121441841125e-01
4.424575567245483398e-01 -4.031887650489807129e-01 1.286787837743759155e-01
4.573132991790771484e-01 -4.088190793991088867e-01 1.261009275913238525e-01
4.532170891761779785e-01 -4.023809432983398438e-01 1.309368014335632324e-01
-9.115198254585266113e-02 -5.616440623998641968e-02 -7.261602580547332764e-02
-1.007320061326026917e-01 -5.395812168717384338e-02 -7.039558887481689453e-02
-8.909472823143005371e-02 -6.507004052400588989e-02 -6.566230952739715576e-02
-9.877068549394607544e-02 -6.285482645034790039e-02 -6.351276487112045288e-02
-4.705531895160675049e-01 -2.736836969852447510e-01 9.891013801097869873e-02
-4.740255475044250488e-01 -2.653205692768096924e-01 1.029408797621726990e-01
-4.603555500507354736e-01 -2.740148603916168213e-01 1.012991815805435181e-01
-4.638830423355102539e-01 -2.655409574508666992e-01 1.061040684580802917e-01
5.087982416152954102e-01 3.670186996459960938e-01 7.397384941577911377e-02
5.019629597663879395e-01 3.749634027481079102e-01 7.398945093154907227e-02
5.067575573921203613e-01 3.591394126415252686e-01 8.244396001100540161e-02
5.000290870666503906e-01 3.668993115425109863e-01 8.251989632844924927e-02
-3.617985919117927551e-02 4.401939809322357178e-01 -1.968707591295242310e-01
-2.979766018688678741e-02 4.503905177116394043e-01 -2.012581974267959595e-01
-2.825072780251502991e-02 4.443658590316772461e-01 -1.936194747686386108e-01
-2.253031730651855469e-02 4.540778398513793945e-01 -1.984590291976928711e-01
1.070271357893943787e-01 1.236675456166267395e-01 -1.456011235713958740e-01
1.001614779233932495e-01 1.327749788761138916e-01 -1.441431194543838501e-01
1.177504807710647583e-01 1.212108731269836426e-01 -1.425304114818572998e-01
1.102918013930320740e-01 1.308163851499557495e-01 -1.413474380970001221e-01
2.122631855309009552e-02 1.723356917500495911e-02 1.666258424520492554e-01
1.987838558852672577e-02 3.045370057225227356e-02 1.678037941455841064e-01
3.532281145453453064e-02 1.783381216228008270e-02 1.693928390741348267e-01
3.302495181560516357e-02 3.112006001174449921e-02 1.701493114233016968e-01
-1.130300760269165039e-01 4.007561206817626953e-01 4.451382532715797424e-02
-1.093907058238983154e-01 4.128456413745880127e-01 4.297244921326637268e-02
-1.050344258546829224e-01 3.995978236198425293e-01 4.953021556138992310e-02
-1.016224399209022522e-01 4.116041958332061768e-01 4.763619974255561829e-02
-4.955863952636718750e-01 -2.709347009658813477e-02 -1.565054431557655334e-02
-4.892942011356353760e-01 -1.346175279468297958e-02 -1.592223159968852997e-02
-4.952592253684997559e-01 -1.789557561278343201e-02 -4.307689610868692398e-03
-4.887499511241912842e-01 -4.400442354381084442e-03 -4.588396288454532623e-03
1.788633018732070923e-01 -2.661687731742858887e-01 -6.800230592489242554e-02
1.845598518848419189e-01 -2.584857642650604248e-01 -7.610232383012771606e-02
1.918843537569046021e-01 -2.707036435604095459e-01 -6.700456887483596802e-02
1.980918645858764648e-01 -2.626845836639404297e-01 -7.462932914495468140e-02
3.815368413925170898e-01 1.563248410820960999e-02 1.691790372133255005e-01
3.831987977027893066e-01 2.247585356235504150e-02 1.658829748630523682e-01
3.925784826278686523e-01 1.348516251891851425e-02 1.685874164104461670e-01
3.941139280796051025e-01 2.067187614738941193e-02 1.659196615219116211e-01
-1.079588532447814941e-01 -9.475322067737579346e-02 2.122682146728038788e-02
-1.152187064290046692e-01 -8.573427796363830566e-02 2.807188779115676880e-02
-9.861408919095993042e-02 -9.471179544925689697e-02 3.180812671780586243e-02
-1.054483354091644287e-01 -8.512398600578308105e-02 3.905601054430007935e-02
4.481253623962402344e-01 -4.300356209278106689e-01 1.036242544651031494e-01
4.427191317081451416e-01 -4.235529601573944092e-01 1.093899384140968323e-01
4.590009450912475586e-01 -4.291914701461791992e-01 1.056939810514450073e-01
4.534289538860321045e-01 -4.229132831096649170e-01 1.113335564732551575e-01
6.212621331214904785e-01 2.259294241666793823e-01 -1.497697830200195312e-01
6.296969056129455566e-01 2.353589981794357300e-01 -1.516835987567901611e-01
6.238195300102233887e-01 2.341323494911193848e-01 -1.443674862384796143e-01
6.320239901542663574e-01 2.435010522603988647e-01 -1.464075893163681030e-01
-4.781424403190612793e-01 -6.676571071147918701e-02 -7.913371920585632324e-02
-4.716334342956542969e-01 -5.449780076742172241e-02 -7.941608875989913940e-02
-4.783613085746765137e-01 -5.842747166752815247e-02 -7.337454706430435181e-02
-4.714448153972625732e-01 -4.584289714694023132e-02 -7.373853027820587158e-02
5.169032216072082520e-01 3.989619389176368713e-02 1.253771185874938965e-01
5.212715864181518555e-01 5.180007219314575195e-02 1.250036060810089111e-01
5.254014134407043457e-01 4.376716166734695435e-02 1.268551051616668701e-01
5.296229124069213867e-01 5.552511289715766907e-02 1.241028830409049988e-01
-4.922858178615570068e-01 -1.714155077934265137e-01 1.767083257436752319e-01
-4.955600500106811523e-01 -1.585196107625961304e-01 1.790258288383483887e-01
-4.914838969707489014e-01 -1.690064072608947754e-01 1.880222558975219727e-01
-4.950633049011230469e-01 -1.561226695775985718e-01 1.905093789100646973e-01
2.863205671310424805e-01 -1.702806800603866577e-01 2.132007181644439697e-01
2.864425480365753174e-01 -1.582657694816589355e-01 2.144692838191986084e-01
3.017583191394805908e-01 -1.664312034845352173e-01 2.123149633407592773e-01
3.003970384597778320e-01 -1.545221060514450073e-01 2.145270258188247681e-01
6.894162893295288086e-01 -4.410421252250671387e-01 -1.014947295188903809e-01
6.833060979843139648e-01 -4.336385130882263184e-01 -9.646245837211608887e-02
6.922488212585449219e-01 -4.426894485950469971e-01 -9.345436096191406250e-02
6.852845549583435059e-01 -4.350926578044891357e-01 -8.817958831787109375e-02
1.082241162657737732e-01 -1.475688815116882324e-01 -1.016853377223014832e-01
1.140244677662849426e-01 -1.335354298353195190e-01 -1.081078201532363892e-01
1.197614073753356934e-01 -1.449508816003799438e-01 -1.040869206190109253e-01
1.254988312721252441e-01 -1.310045421123504639e-01 -1.097897887229919434e-01
-4.964598417282104492e-01 -2.908622920513153076e-01 1.006753444671630859e-01
-4.971106946468353271e-01 -2.789732217788696289e-01 1.025723069906234741e-01
-4.872301220893859863e-01 -2.899110019207000732e-01 9.902881085872650146e-02
-4.883625805377960205e-01 -2.781931161880493164e-01 1.016324609518051147e-01
5.966691374778747559e-01 -4.008468091487884521e-01 -4.180059768259525299e-03
5.894324183464050293e-01 -3.976067602634429932e-01 4.085192456841468811e-03
6.030386090278625488e-01 -3.996410369873046875e-01 2.050892915576696396e-03
5.954397320747375488e-01 -3.964890241622924805e-01 1.009056996554136276e-02
-3.778122365474700928e-01 -2.233019620180130005e-01 1.395833343267440796e-01
-3.702813386917114258e-01 -2.139459848403930664e-01 1.369284242391586304e-01
-3.754352629184722900e-01 -2.133907377719879150e-01 1.483024805784225464e-01
-3.675482869148254395e-01 -2.040662467479705811e-01 1.469208300113677979e-01
-3.594138920307159424e-01 -1.285969167947769165e-01 -1.215903982520103455e-01
-3.585403561592102051e-01 -1.181087642908096313e-01 -1.194155812263488770e-01
-3.479135930538177490e-01 -1.262249350547790527e-01 -1.204292103648185730e-01
-3.475091159343719482e-01 -1.152167767286300659e-01 -1.184658408164978027e-01
9.895291179418563843e-03 -1.201299875974655151e-01 1.199340894818305969e-01
8.977047167718410492e-03 -1.067793741822242737e-01 1.240105926990509033e-01
2.074290812015533447e-02 -1.215434893965721130e-01 1.252761334180831909e-01
1.985275372862815857e-02 -1.079179793596267700e-01 1.289831101894378662e-01
-4.348964691162109375e-01 2.838683128356933594e-02 -7.892645150423049927e-02
-4.279622435569763184e-01 3.857552260160446167e-02 -7.989874482154846191e-02
-4.341306984424591064e-01 3.751917183399200439e-02 -7.426084578037261963e-02
-4.261066317558288574e-01 4.782844334840774536e-02 -7.579380273818969727e-02
-5.153638124465942383e-01 -1.871106326580047607e-01 1.239045616239309311e-02
-5.168057084083557129e-01 -1.746859103441238403e-01 1.559985335916280746e-02
-5.167353749275207520e-01 -1.835214644670486450e-01 2.655125223100185394e-02
-5.180691480636596680e-01 -1.701270639896392822e-01 2.887672558426856995e-02
1.913792192935943604e-01 -2.491302192211151123e-01 -8.402786403894424438e-02
1.955759078264236450e-01 -2.415248751640319824e-01 -9.090962260961532593e-02
2.034382224082946777e-01 -2.538358867168426514e-01 -8.263316005468368530e-02
2.090567648410797119e-01 -2.460174411535263062e-01 -8.940519392490386963e-02
1.276025921106338501e-02 -1.458383053541183472e-01 -5.781037360429763794e-02
2.628485672175884247e-04 -1.397068500518798828e-01 -5.369910225272178650e-02
1.547483541071414948e-02 -1.546259075403213501e-01 -4.805831983685493469e-02
2.846718765795230865e-03 -1.483445018529891968e-01 -4.391505196690559387e-02
-3.270377516746520996e-01 -1.749091297388076782e-01 -1.007206067442893982e-01
-3.239036202430725098e-01 -1.614666432142257690e-01 -1.024056598544120789e-01
-3.193268775939941406e-01 -1.743766218423843384e-01 -8.934497833251953125e-02
-3.160237967967987061e-01 -1.610773205757141113e-01 -9.129320830106735229e-02
4.029626548290252686e-01 -1.067171767354011536e-01 1.706638336181640625e-01
4.016127288341522217e-01 -9.452518075704574585e-02 1.701064407825469971e-01
4.007287621498107910e-01 -1.106917336583137512e-01 1.762727349996566772e-01
3.988802134990692139e-01 -9.843800216913223267e-02 1.757317334413528442e-01
3.913409113883972168e-01 -2.338196039199829102e-01 1.408354640007019043e-01
3.999923765659332275e-01 -2.248884886503219604e-01 1.409018784761428833e-01
3.934333026409149170e-01 -2.256140857934951782e-01 1.483799219131469727e-01
4.017159044742584229e-01 -2.169582694768905640e-01 1.484760344028472900e-01
7.101686596870422363e-01 2.760740816593170166e-01 -1.557652503252029419e-01
7.147933244705200195e-01 2.858083248138427734e-01 -1.568807959556579590e-01
7.140457630157470703e-01 2.807433605194091797e-01 -1.473800092935562134e-01
7.185059189796447754e-01 2.897972762584686279e-01 -1.484383344650268555e-01
2.940872013568878174e-01 -3.067902922630310059e-01 1.281044185161590576e-01
2.936280071735382080e-01 -2.978131175041198730e-01 1.369571387767791748e-01
3.013869524002075195e-01 -3.023531436920166016e-01 1.324700266122817993e-01
3.013335466384887695e-01 -2.928372919559478760e-01 1.415539234876632690e-01
1.574105471372604370e-01 -2.826071903109550476e-02 1.655341535806655884e-01
1.622478365898132324e-01 -2.090895362198352814e-02 1.621753573417663574e-01
1.694599688053131104e-01 -3.243686258792877197e-02 1.661903560161590576e-01
1.747740805149078369e-01 -2.500914968550205231e-02 1.630885004997253418e-01
1.114650517702102661e-01 5.287838354706764221e-02 -1.637968719005584717e-01
1.133303195238113403e-01 6.273055076599121094e-02 -1.621135324239730835e-01
1.221407353878021240e-01 5.454171076416969299e-02 -1.586005538702011108e-01
1.237286776304244995e-01 6.473009288311004639e-02 -1.568524241447448730e-01
-1.141278296709060669e-01 -7.813199609518051147e-02 -2.114563062787055969e-02
-1.244768127799034119e-01 -7.545834034681320190e-02 -1.652756519615650177e-02
-1.074080914258956909e-01 -8.458718657493591309e-02 -1.272076647728681564e-02
-1.180409044027328491e-01 -8.111993968486785889e-02 -8.376652374863624573e-03
-3.851932585239410400e-01 -2.588126659393310547e-01 6.708493083715438843e-02
-3.782884180545806885e-01 -2.489960640668869019e-01 6.611733138561248779e-02
-3.785986900329589844e-01 -2.495497018098831177e-01 7.668463885784149170e-02
-3.720060884952545166e-01 -2.393246293067932129e-01 7.580384612083435059e-02
6.199638247489929199e-01 -4.482110142707824707e-01 -8.542099595069885254e-02
6.204345822334289551e-01 -4.371706843376159668e-01 -8.296675980091094971e-02
6.156790852546691895e-01 -4.424168467521667480e-01 -7.548513263463973999e-02
6.167975664138793945e-01 -4.313048124313354492e-01 -7.274550944566726685e-02
9.183640033006668091e-02 1.846103221178054810e-01 9.394326061010360718e-02
7.996165007352828979e-02 1.870587468147277832e-01 9.766069054603576660e-02
9.844246506690979004e-02 1.770251691341400146e-01 9.894239157438278198e-02
8.662761002779006958e-02 1.794554442167282104e-01 1.025736182928085327e-01
-4.903522729873657227e-01 -3.627442717552185059e-01 4.087892174720764160e-02
-4.816154539585113525e-01 -3.535355329513549805e-01 3.788056597113609314e-02
-4.873467385768890381e-01 -3.600021302700042725e-01 5.024034902453422546e-02
-4.784243106842041016e-01 -3.505236506462097168e-01 4.749558866024017334e-02
-2.452940791845321655e-01 6.707508862018585205e-02 -1.334833204746246338e-01
-2.430408746004104614e-01 7.902736961841583252e-02 -1.428984403610229492e-01
-2.352756708860397339e-01 6.069291010499000549e-02 -1.331892311573028564e-01
-2.328311800956726074e-01 7.278406620025634766e-02 -1.426092833280563354e-01
-6.745267659425735474e-02 1.949406713247299194e-01 1.163746342062950134e-01
-6.348705291748046875e-02 2.004322856664657593e-01 1.105821803212165833e-01
-5.690788477659225464e-02 1.925797760486602783e-01 1.180796250700950623e-01
-5.269621312618255615e-02 1.980313807725906372e-01 1.120801493525505066e-01
4.139091074466705322e-01 6.289701908826828003e-02 9.075816720724105835e-02
4.256926178932189941e-01 6.525906175374984741e-02 8.731371164321899414e-02
4.259359836578369141e-01 6.479741632938385010e-02 9.383866190910339355e-02
4.365956187248229980e-01 6.817512214183807373e-02 9.132466465234756470e-02
5.824411511421203613e-01 -4.698337018489837646e-01 3.768677636981010437e-02
5.804085135459899902e-01 -4.636683464050292969e-01 4.778800904750823975e-02
5.918110013008117676e-01 -4.636310040950775146e-01 4.239360243082046509e-02
5.899960994720458984e-01 -4.573607444763183594e-01 5.195667594671249390e-02
6.136676073074340820e-01 -4.251222014427185059e-01 -6.013759970664978027e-02
6.143244504928588867e-01 -4.156897664070129395e-01 -5.625730380415916443e-02
6.118671298027038574e-01 -4.195133447647094727e-01 -5.095986276865005493e-02
6.101076006889343262e-01 -4.120305180549621582e-01 -4.552647843956947327e-02
-9.127765893936157227e-02 1.545017361640930176e-01 -1.812410354614257812e-01
-8.805768936872482300e-02 1.664431840181350708e-01 -1.813524514436721802e-01
-8.114846050739288330e-02 1.583534479141235352e-01 -1.766380965709686279e-01
-7.986840605735778809e-02 1.705626994371414185e-01 -1.767424046993255615e-01
-4.862489104270935059e-01 -1.307093501091003418e-01 1.785419136285781860e-01
-4.833505153656005859e-01 -1.224924996495246887e-01 1.747432947158813477e-01
-4.811924099922180176e-01 -1.312173157930374146e-01 1.856426447629928589e-01
-4.777894020080566406e-01 -1.228512749075889587e-01 1.818925738334655762e-01
6.123167276382446289e-01 2.214090228080749512e-01 -1.458587646484375000e-01
6.206403970718383789e-01 2.312181144952774048e-01 -1.467633694410324097e-01
6.136649250984191895e-01 2.302707284688949585e-01 -1.395582407712936401e-01
6.222356557846069336e-01 2.395680546760559082e-01 -1.414096951484680176e-01
4.927848875522613525e-01 -3.689886033535003662e-01 1.116806864738464355e-01
4.817251265048980713e-01 -3.629175424575805664e-01 1.122255921363830566e-01
5.026576519012451172e-01 -3.777434229850769043e-01 1.171241030097007751e-01
4.906028509140014648e-01 -3.710174858570098877e-01 1.172800958156585693e-01
-8.837641775608062744e-02 5.719026923179626465e-01 -1.831824332475662231e-02
-8.340586721897125244e-02 5.840451717376708984e-01 -2.116528339684009552e-02
-8.026415109634399414e-02 5.750338435173034668e-01 -1.542316377162933350e-02
-7.573796063661575317e-02 5.872859954833984375e-01 -1.830181851983070374e-02
2.397665940225124359e-02 -7.123632729053497314e-02 1.511736214160919189e-01
