28.55 14.6 9.88333 7.4625 6.05 5.12917 4.18667 
30.75 15.85 10.825 8.30625 6.775 5.775 4.78667 
35.1 17.7375 12.0167 9.1125 7.35 6.17917 5.02333 
19.2 9.9125 6.79167 5.1875 4.205 3.58333 2.95 
24.9 12.5125 8.35833 6.2875 5.035 4.2 3.36333 
6.475 3.8625 2.93333 2.45625 2.11 1.84167 1.63333 
31.55 15.95 10.7583 8.225 6.635 5.60417 4.54333 
36.525 18.5625 12.5417 9.53125 7.67 6.43333 5.2 
13.475 7.225 5.2 4.21875 3.59 3.18333 2.76333 
10.5 5.7125 4.19167 3.35625 2.82 2.45 2.10333 
27.075 14 9.51667 7.38125 6.065 5.17917 4.23 
6.25 3.8875 3.25833 2.9375 2.7 2.46667 2.23667 
5.475 3.4625 2.63333 2.175 1.91 1.74583 1.56333 
14.775 8.2 5.89167 4.73125 4 3.4875 3.05 
29.6 15.0375 10.1583 7.69375 6.185 5.18333 4.21667 
7.525 4.2625 3.225 2.6875 2.385 2.15417 1.95667 
6.6 3.575 2.58333 2.14375 1.885 1.69583 1.50667 
7.275 4.15 3.09167 2.53125 2.175 1.94167 1.68667 
13.25 6.6375 4.44167 3.3375 2.68 2.2375 1.79333 
18.525 10.0875 7.25833 5.78125 4.805 4.17917 3.56 
19.75 10.55 7.38333 5.7625 4.765 4.11667 3.48333 
8.55 4.8875 3.58333 2.90625 2.49 2.16667 1.88333 
27.775 14.1875 9.75833 7.45625 6.105 5.22083 4.30667 
25.1 13 8.925 6.84375 5.625 4.8 4 
4.7 2.7375 2.05 1.725 1.57 1.45833 1.38 
7.4 4.15 2.90833 2.3125 1.945 1.70833 1.48333 
27.125 14.125 9.725 7.55 6.205 5.25 4.36 
10.45 5.8125 4.29167 3.45 2.925 2.60417 2.29667 
20.3 10.925 7.71667 5.975 4.945 4.30417 3.74333 
0.75 0.925 0.941667 0.95625 0.96 0.970833 0.983333 
22.725 11.95 8.325 6.425 5.335 4.5875 3.88667 
15.5 8.1 5.6 4.3625 3.625 3.09583 2.55 
21.375 11.05 7.54167 5.89375 4.83 4.1375 3.44 
20.675 10.6625 7.23333 5.55625 4.51 3.8375 3.12333 
17.825 9.275 6.625 5.375 4.535 3.94583 3.38333 
21.1 10.85 7.38333 5.65625 4.645 3.93333 3.23333 
4.2 2.75 2.14167 1.825 1.61 1.42083 1.27 
31.4 16.3625 11.1167 8.59375 7.045 5.9 4.82667 
1.275 1.075 1.03333 0.9375 0.82 0.775 0.766667 
0.425 0.2375 0.258333 0.325 0.4 0.425 0.51 
23.425 11.7125 7.80833 5.85625 4.685 3.90417 3.12333 
22.825 11.95 8.46667 6.70625 5.6 4.94167 4.21667 
3.525 2.25 1.66667 1.40625 1.315 1.2375 1.21 
13.625 7.15 5.00833 3.9125 3.27 2.95417 2.69333 
10.725 5.725 4.05833 3.225 2.695 2.35 2.02333 
6.05 3.7625 2.85 2.4375 2.105 1.9125 1.72 
29.65 15.5 10.5583 8.2 6.85 5.89583 4.94 
9.8 5.3875 3.825 3.1875 2.79 2.51667 2.26333 
4.125 2.5625 1.90833 1.6 1.41 1.31667 1.32333 
21.2 11.1875 7.925 6.2 5.17 4.53333 3.86 
28.825 14.8 10.1083 7.76875 6.435 5.48333 4.5 
4.275 2.725 2.29167 1.96875 1.8 1.65 1.53667 
17.25 9.2875 6.69167 5.35 4.475 3.99167 3.45 
27.625 14.1625 9.60833 7.35625 6.01 5.12083 4.21667 
26.025 13.6125 9.33333 7.2125 5.95 5.09167 4.23667 
24.9 12.9875 9.21667 7.25625 6.115 5.33333 4.45667 
22.275 11.725 8.16667 6.3 5.155 4.34583 3.52 
30.8 15.8125 10.875 8.41875 6.905 5.83333 4.81667 
8.175 4.4875 3.38333 2.79375 2.455 2.24583 2.04 
30.1 15.875 11.0417 8.61875 7.205 6.16667 5.17667 
17.175 9.1375 6.38333 4.9625 4.115 3.55 3.02667 
8.15 4.75 3.45 2.85625 2.53 2.29167 2.02333 
3.4 2.15 1.73333 1.5375 1.405 1.3125 1.23 
18.575 9.325 6.21667 4.6625 3.735 3.11667 2.49333 
36.1 18.2875 12.2667 9.30625 7.56 6.35833 5.17667 
5.375 3.2375 2.63333 2.275 2.05 1.8625 1.68333 
7.625 4.4875 3.45 2.7875 2.435 2.19167 1.89667 
14.775 7.975 5.56667 4.24375 3.485 3 2.49333 
18.3 9.175 6.11667 4.59375 3.675 3.06667 2.45667 
30.175 15.2625 10.3833 7.95625 6.485 5.5375 4.56667 
24.975 13.075 9.14167 7.1125 5.945 5.11667 4.33 
0.6 0.775 0.875 0.8375 0.815 0.820833 0.83 
1.125 1.075 1 0.94375 0.995 1.00833 0.983333 
8.15 4.3875 3.16667 2.53125 2.095 1.825 1.55667 
7.75 4.5375 3.43333 2.825 2.51 2.33333 2.09 
0.75 0.65 0.741667 0.775 0.84 0.8375 0.883333 
37.275 18.775 12.5417 9.45625 7.62 6.3875 5.17667 
24.85 12.95 8.91667 6.84375 5.615 4.7875 3.91667 
13.65 7.05 4.84167 3.7875 3.135 2.675 2.21667 
21.175 11 7.70833 5.99375 4.97 4.24583 3.58333 
10.8 5.6625 3.88333 3 2.505 2.18333 1.83333 
21.375 11.0375 7.71667 5.975 4.935 4.20833 3.47 
27.075 13.7125 9.275 7.0625 5.69 4.79583 3.91333 
3.6 2.8125 2.48333 2.25 2.195 2.14583 2.02 
14.4 7.65 5.38333 4.2375 3.55 3.08333 2.65667 
21.6 10.9875 7.51667 5.95625 4.975 4.29167 3.59 
14.375 7.6625 5.4 4.175 3.46 2.9625 2.49 
4.925 2.9625 2.25 1.85625 1.645 1.47083 1.3 
3.625 2.25 2.04167 1.925 1.755 1.64583 1.5 
9.325 5.2125 3.8 3.1375 2.7 2.40833 2.15 
8.55 4.4875 3.175 2.4875 2.055 1.75833 1.49667 
27 14.15 9.70833 7.4875 6.16 5.3375 4.59 
23.4 12.2 8.46667 6.74375 5.585 4.7625 4.02 
0.8 0.925 0.916667 0.88125 0.895 0.8375 0.786667 
17.925 9.575 6.60833 5.0875 4.2 3.66667 3.11 
0.475 0.4625 0.633333 0.725 0.755 0.770833 0.866667 
21.875 11.1375 7.54167 5.80625 4.745 4.0875 3.4 
25.75 13.15 9.03333 7.00625 5.835 4.9875 4.12667 
14.15 7.45 5.19167 4.01875 3.335 2.89583 2.44333 
6.725 3.9125 3 2.61875 2.34 2.08333 1.81 
2.7 1.975 1.475 1.24375 1.15 1.07917 1.03333 
10.35 5.725 4.21667 3.4625 3.05 2.68333 2.33333 
0.8 0.8 0.8 0.84375 0.895 0.895833 0.94 
25.525 13.25 9.1 7.08125 5.81 4.8875 3.96 
13.15 7.15 5.15 4.0625 3.385 2.97917 2.61333 
23.65 12.0875 8.20833 6.325 5.14 4.32917 3.56333 
22.975 12.125 8.51667 6.6 5.5 4.82917 4.09333 
29.825 15.3625 10.5917 8.19375 6.72 5.76667 4.79333 
2.65 1.3375 0.966667 0.79375 0.7 0.65 0.603333 
23.9 12.4375 8.55 6.78125 5.725 4.97083 4.17333 
6.175 3.6875 2.70833 2.29375 1.98 1.78333 1.57333 
15.65 8.1375 5.55 4.25625 3.48 2.98333 2.46667 
7.15 4.125 3.06667 2.6375 2.395 2.18333 1.91 
4.325 2.4125 1.71667 1.4 1.235 1.16667 1.11333 
9.125 5.4875 4.21667 3.6125 3.215 2.95 2.59333 
25.4 13.025 9 6.9125 5.62 4.76667 4.00667 
21.8 11.2125 7.725 5.98125 4.915 4.1875 3.45 
8.35 4.6625 3.31667 2.775 2.365 2.10833 1.9 
4.5 2.9125 2.325 1.9375 1.665 1.4875 1.30333 
15.75 7.9625 5.35 4.06875 3.32 2.8 2.28667 
35.525 17.8125 11.9083 8.95625 7.17 5.98333 4.79 
18.625 9.6375 6.70833 5.2 4.275 3.65833 3.06 
31.6 16.675 11.45 8.8125 7.22 6.15417 5.1 
15.175 8 5.63333 4.5 3.805 3.29167 2.77 
9.975 5.7625 4.15833 3.29375 2.82 2.45833 2.16333 
24.35 12.375 8.39167 6.3625 5.17 4.40833 3.59667 
1.05 1.0125 1.00833 0.95 0.975 0.979167 0.956667 
30.55 15.8 11.0333 8.4125 6.875 5.80833 4.83333 
4.025 2.2375 1.63333 1.28125 1.135 1.09167 0.993333 
18.575 10.175 7.2 5.675 4.795 4.23333 3.57333 
6.05 3.5375 2.7 2.2625 2.04 1.8625 1.63 
29.2 15.3 10.7417 8.38125 6.9 5.90833 4.98667 
6.4 3.475 2.55 1.98125 1.7 1.51667 1.31 
17.25 9.025 6.23333 4.93125 4.07 3.4875 2.91667 
30.725 15.825 10.8583 8.39375 6.92 5.92083 4.94333 
26.35 13.825 9.525 7.4 6.15 5.22917 4.28667 
28.625 14.775 10.2083 7.9125 6.535 5.65833 4.8 
17.75 9.3625 6.6 5.16875 4.355 3.79167 3.31667 
0.75 1.025 1.09167 1.03125 0.985 0.958333 0.943333 
23.25 11.875 8.14167 6.2875 5.125 4.37917 3.66333 
1.275 0.825 0.716667 0.65 0.605 0.566667 0.576667 
3.425 1.9125 1.55833 1.2875 1.13 1.04167 0.946667 
27 13.55 9.04167 6.80625 5.46 4.5625 3.70333 
14.075 7.6 5.4 4.25 3.575 3.15417 2.78 
4.625 2.85 2.21667 1.85 1.74 1.62083 1.46333 
23.95 12.525 8.70833 6.75625 5.535 4.7125 3.87667 
18.95 9.475 6.31667 4.7375 3.79 3.15833 2.52667 
21.275 10.6375 7.09167 5.325 4.265 3.57083 2.86 
12.45 6.8125 4.99167 4.025 3.47 3.08333 2.71333 
7.2 3.8125 2.73333 2.1625 1.815 1.6 1.37333 
3.725 2.3625 1.81667 1.59375 1.42 1.37083 1.25333 
20.5 10.8 7.425 5.8375 4.925 4.27083 3.58667 
13.25 6.775 4.75 3.66875 3.075 2.74583 2.31667 
10.175 5.3875 3.675 2.93125 2.515 2.23333 1.97667 
4.9 2.8875 2.35833 1.98125 1.775 1.6625 1.52333 
26.85 14 9.80833 7.60625 6.3 5.47083 4.63667 
23.4 12.55 8.89167 7.125 5.99 5.15417 4.27667 
5.925 3.525 2.675 2.36875 2.125 1.97083 1.75 
25.1 12.8875 8.88333 6.88125 5.67 4.87083 4.10333 
26 13.5 9.125 7.01875 5.715 4.88333 3.98333 
32.425 16.6375 11.4583 8.86875 7.17 6.01667 4.89667 
32.35 16.6 11.4583 8.81875 7.185 6.09583 4.99333 
14.925 7.625 5.275 4.09375 3.355 2.86667 2.41333 
8.3 4.55 3.325 2.7375 2.35 2.12083 1.88 
3.6 1.95 1.39167 1.10625 0.95 0.875 0.8 
23.35 12.2625 8.675 6.89375 5.82 5.07083 4.28667 
7.1 4.4375 3.34167 2.85 2.53 2.3625 2.16333 
27.7 14 9.45833 7.125 5.775 4.89167 3.99 
28.35 14.825 10.1833 7.88125 6.585 5.7 4.78667 
31.975 16.6875 11.5333 8.9625 7.315 6.1875 5.06667 
22.85 11.625 7.9 6.1875 5.15 4.44167 3.63333 
22.8 11.9 8.41667 6.6875 5.67 4.96667 4.24 
34.1 17.125 11.4417 8.59375 6.895 5.7625 4.62333 
26.575 14.1 9.875 7.70625 6.375 5.45833 4.56333 
25.15 12.9 8.925 6.8375 5.625 4.78333 3.93667 
26.775 13.8 9.575 7.3625 6.095 5.17917 4.27333 
0.975 0.8625 0.85 0.91875 0.995 1.01667 0.986667 
29.5 15.05 10.325 7.85 6.385 5.42083 4.43333 
35.65 18.05 12.2917 9.3625 7.59 6.3875 5.18667 
4.4 2.675 2.09167 1.79375 1.62 1.5375 1.44 
35.1 18 12.2083 9.2625 7.52 6.38333 5.27667 
20.7 10.975 7.725 6.1 5.035 4.31667 3.64333 
4.275 2.5375 1.925 1.73125 1.61 1.52917 1.52 
18.9 9.775 6.81667 5.25625 4.35 3.74583 3.15333 
8.175 4.775 3.60833 2.91875 2.545 2.29167 2.04667 
23 11.725 8.11667 6.26875 5.09 4.30833 3.52667 
17.125 9.2875 6.56667 5.05625 4.18 3.59583 3.00667 
6.85 4.2875 3.325 2.85 2.585 2.40833 2.20333 
1.625 1.3 1.3 1.24375 1.15 1.11667 1.13 
29.475 15.15 10.3833 8.00625 6.525 5.52917 4.54 
9.475 5.5 4.11667 3.375 2.925 2.65 2.37 
16.425 8.875 6.35 5.06875 4.32 3.8125 3.27667 
26.95 13.775 9.325 7.1125 5.78 4.86667 3.96667 
29.775 15.4875 10.6917 8.275 6.8 5.825 4.87 
27.925 14.25 9.65833 7.4 6.025 5.12917 4.2 
16.325 8.7875 6.14167 4.8375 4.02 3.49583 2.99 
9.475 5.2625 3.91667 3.125 2.645 2.30417 2 
22.4 11.6375 8.11667 6.275 5.2 4.49583 3.84667 
34.775 17.775 12.1833 9.43125 7.725 6.62917 5.45333 
9.375 5.15 3.83333 3.1375 2.695 2.44167 2.12333 
8.05 4.225 2.98333 2.44375 2.04 1.76667 1.49 
13.35 7.1875 5.03333 4.03125 3.415 3.02083 2.66 
35.425 18.0625 12.2667 9.29375 7.5 6.30417 5.08667 
25.6 13.3375 9.34167 7.325 6.06 5.20833 4.34333 
35.675 17.9375 12.0583 9.1375 7.445 6.29167 5.15333 
36.125 18.2625 12.5083 9.61875 7.9 6.73333 5.61667 
27.025 13.6625 9.2 6.93125 5.595 4.69583 3.82 
6.2 4.0125 3.075 2.525 2.19 2.05833 1.83 
22.825 11.7625 8.025 6.2625 5.245 4.5375 3.87333 
0.925 0.7875 0.775 0.875 0.92 0.941667 0.94 
7.1 4.025 2.9 2.38125 2.01 1.77917 1.52333 
25.45 13.2125 9.09167 7.08125 5.88 5.075 4.32 
4.1 2.55 2.01667 1.8375 1.695 1.6 1.50667 
7.575 4.4 3.35 2.8125 2.43 2.16667 1.94333 
13.75 7.4125 5.25 4.1625 3.54 3.13333 2.73 
15.075 7.6875 5.35833 4.15625 3.395 3 2.55 
12.65 6.7375 4.75833 3.6875 3.055 2.66667 2.23667 
22.825 11.625 7.9 6.03125 4.9 4.1375 3.39667 
18.625 9.7125 6.8 5.28125 4.39 3.76667 3.14333 
8.575 5.075 3.73333 3.1 2.7 2.44167 2.19667 
11.025 6.1 4.375 3.51875 3 2.65833 2.29667 
4.5 2.775 2.25833 1.98125 1.83 1.6625 1.50333 
24.175 12.6375 8.725 6.76875 5.62 4.87083 4.14 
22.075 11.275 7.80833 6.05 5.04 4.32917 3.60333 
2.2 1.4625 1.15833 1.0375 0.935 0.8375 0.776667 
5.875 3.3625 2.66667 2.275 2.01 1.83333 1.59 
24.55 12.6 8.66667 6.71875 5.495 4.65 3.78667 
11.1 5.875 4.08333 3.18125 2.655 2.325 1.94 
0.975 0.8375 0.783333 0.8 0.935 1 1.03 
34.925 17.75 11.9833 9.025 7.28 6.12083 4.92667 
21.275 10.8875 7.36667 5.7125 4.645 3.9625 3.29667 
36.25 18.55 12.6333 9.71875 7.925 6.75417 5.58 
12.475 6.5375 4.58333 3.5375 2.95 2.54583 2.14667 
22.575 11.825 8.40833 6.6625 5.64 4.92917 4.19667 
25.725 13.4875 9.26667 7.11875 5.84 5.00417 4.15667 
32.725 16.9 11.4833 8.78125 7.23 6.14167 4.97667 
6.575 3.9125 2.95833 2.46875 2.15 1.975 1.82 
21.875 11.125 7.53333 5.75 4.69 4.01667 3.28333 
26.35 13.3375 9.00833 6.8625 5.615 4.75 3.87667 
27.575 14.15 9.675 7.38125 5.975 5.0375 4.15333 
28.775 14.8 10.0917 7.73125 6.27 5.26667 4.27 
9.35 5.125 3.625 2.9875 2.645 2.40417 2.12 
3.25 1.9625 1.49167 1.2875 1.14 1.0375 1.02333 
26 13.55 9.44167 7.3875 6.135 5.34583 4.47 
9.525 4.975 3.5 2.8375 2.42 2.14167 1.88333 
24.75 12.65 8.68333 6.65625 5.47 4.64167 3.85333 
5.6 3.1875 2.5 2.175 1.95 1.74583 1.55333 
11.75 6.375 4.8 3.95 3.36 3 2.65667 
19.575 10.4125 7.275 5.74375 4.785 4.125 3.43667 
23.825 12.35 8.7 6.70625 5.56 4.69583 3.84 
1.2 1.05 1.175 1.25625 1.21 1.1875 1.19333 
15.6 8.2625 5.75 4.6 3.945 3.46667 3.08667 
24.925 12.85 8.89167 6.96875 5.77 4.98333 4.25333 
8.275 4.7375 3.54167 2.875 2.5 2.2375 2 
7.675 4.475 3.30833 2.69375 2.355 2.06667 1.78333 
27.175 14.0375 9.85833 7.64375 6.29 5.34167 4.38333 
24.325 12.725 8.93333 6.9875 5.81 5 4.22667 
14.225 7.7 5.63333 4.51875 3.89 3.375 2.86667 
25.6 13.25 9.01667 7.00625 5.795 4.94167 4.10333 
22.45 11.7625 8.19167 6.3625 5.265 4.55417 3.87333 
9.1 4.9375 3.725 3 2.5 2.17917 1.85667 
0.425 0.5125 0.608333 0.59375 0.625 0.683333 0.656667 
1.8 1.65 1.5 1.525 1.46 1.5 1.45333 
6.3 3.575 2.55 2.09375 1.835 1.62917 1.41667 
8.825 5.1 3.7 3.00625 2.605 2.39167 2.16333 
22.75 11.4125 7.63333 5.73125 4.605 3.8625 3.1 
22.075 11.575 7.90833 6.075 5.04 4.40833 3.74333 
7.6 4.5125 3.43333 2.8875 2.46 2.19583 1.90667 
0.925 0.8375 0.733333 0.775 0.925 0.954167 1.00333 
6.95 3.675 2.625 2.13125 1.825 1.67083 1.47333 
8.225 4.5375 3.225 2.65625 2.195 1.92083 1.61333 
15.075 8.2125 5.76667 4.525 3.89 3.41667 2.96333 
1.075 0.9375 0.941667 0.9875 0.995 1.0125 1.01333 
12.25 6.7375 4.96667 3.925 3.355 2.92917 2.47333 
11.6 6.6 5.00833 4.225 3.66 3.26667 2.85 
5.175 2.9625 2.29167 2.0375 1.895 1.7625 1.65667 
25.925 13.575 9.33333 7.225 5.87 4.92083 3.99667 
3.125 1.925 1.54167 1.31875 1.18 1.14167 1.13667 
9.1 5.0625 3.71667 3.025 2.645 2.39583 2.15667 
30.775 15.75 10.7667 8.2875 6.84 5.8625 4.80667 
8.6 4.8625 3.61667 2.875 2.495 2.25 1.95333 
11.5 6.325 4.5 3.625 3.14 2.75417 2.36667 
12.8 6.625 4.53333 3.46875 2.865 2.46667 2.04333 
18.8 9.85 6.74167 5.1 4.16 3.55 2.91 
4.925 3.0375 2.45833 2.0875 1.845 1.70417 1.52333 
29 14.5625 9.71667 7.30625 5.855 4.89167 3.91333 
6.8 4.275 3.33333 2.90625 2.585 2.35 2.13 
18.1 9.6625 6.98333 5.51875 4.695 4.13333 3.61 
19.625 10.3625 7.4 5.78125 4.79 4.19583 3.47333 
10.225 5.575 4.01667 3.16875 2.665 2.35417 2.03333 
1.525 1.3375 1.39167 1.425 1.425 1.37083 1.36333 
26.825 13.95 9.49167 7.25 5.92 5.03333 4.12333 
18.025 9.5125 6.69167 5.2 4.28 3.65833 3.04 
11.05 5.8625 4.1 3.23125 2.75 2.40417 2.09333 
0.825 0.9375 0.983333 1.00625 0.99 0.970833 0.97 
5.225 2.7375 1.93333 1.5 1.25 1.0625 0.93 
9.975 5.3875 3.93333 3.2125 2.775 2.4875 2.13 
2.075 1.65 1.41667 1.325 1.305 1.25417 1.20667 
23.9 12.4875 8.675 6.8 5.64 4.93333 4.1 
1.3 1.225 1.25833 1.30625 1.38 1.375 1.34 
14.15 7.4875 5.35 4.1625 3.575 3.13333 2.70667 
25.425 12.775 8.54167 6.425 5.16 4.32917 3.49333 
27.65 14.45 9.86667 7.5 6.2 5.35833 4.39333 
22.45 11.6625 8.14167 6.33125 5.305 4.6125 3.84667 
23.55 12.4375 8.75833 6.825 5.76 5.00417 4.27 
29.55 15.5 10.7667 8.40625 6.985 6.05 5.11667 
21.725 11.3875 7.89167 6.175 5.235 4.53333 3.86333 
0.175 0.2 0.258333 0.33125 0.345 0.341667 0.436667 
2.025 1.3625 1.10833 1.08125 1.06 1.07917 1.05 
22.575 11.825 8.24167 6.48125 5.405 4.66667 3.90667 
17.9 9.2875 6.46667 5.0125 4.1 3.51667 2.9 
26.1 13.575 9.66667 7.59375 6.35 5.50833 4.61667 
7 4.3625 3.35 2.84375 2.52 2.40833 2.17 
10.55 5.5875 3.875 3.0625 2.565 2.25833 1.94333 
26.7 13.65 9.31667 7.0625 5.77 4.95833 4.07667 
22.525 11.575 8 6.4125 5.37 4.64583 3.94 
6.4 3.675 2.79167 2.3875 2.14 1.87083 1.63 
6.725 3.675 2.73333 2.1875 1.915 1.75 1.52 
5.3 3.3 2.6 2.19375 1.925 1.775 1.62 
31.875 16.175 10.9417 8.3875 6.89 5.8375 4.78 
30.6 15.925 11.0833 8.54375 6.99 5.95833 4.88 
17.825 9.2875 6.425 4.89375 4 3.39583 2.77 
5.025 2.9875 2.29167 2 1.835 1.64167 1.52333 
1.2 1.0125 0.975 0.975 1.03 1.02917 1.00333 
19.15 9.575 6.4 4.8125 3.855 3.2125 2.57 
1.125 1.0875 0.966667 0.96875 1.02 0.9875 1.02333 
19.275 9.925 6.775 5.2375 4.31 3.70833 3.08 
17.55 9 6.08333 4.625 3.75 3.17083 2.57333 
2.15 1.6375 1.5 1.30625 1.245 1.21667 1.18 
15.05 8.5 6.16667 4.95625 4.3 3.88333 3.36667 
4.8 2.825 2.075 1.70625 1.585 1.45 1.30667 
37.35 19.0625 12.925 9.90625 8.025 6.83333 5.58 
41.575 21.05 14.2 10.775 8.68 7.25833 5.86333 
12.125 6.9 5.30833 4.3125 3.805 3.46667 3.11333 
31.225 16.3875 11.225 8.675 7.11 6.06667 5.06 
39.8 20.2375 13.6583 10.3437 8.33 7.025 5.66667 
7.125 3.8375 2.73333 2.18125 1.8 1.59167 1.40333 
23.7 12.5 8.65 6.69375 5.58 4.80833 4.06667 
26.7 13.6125 9.3 7.11875 5.8 4.925 4.00667 
6.975 3.8125 2.675 2.14375 1.88 1.725 1.53333 
0.8 0.9375 0.9 0.9125 0.96 0.916667 0.926667 
22.375 11.725 8.125 6.36875 5.25 4.55417 3.87 
10.2 5.575 4.05 3.3375 2.905 2.60833 2.26333 
18.35 9.55 6.55833 5.1125 4.215 3.6 3.01333 
36 18.6 12.6333 9.66875 7.845 6.64583 5.46333 
19.925 10.525 7.5 5.8875 4.92 4.25417 3.56667 
23.55 12.2 8.45 6.48125 5.285 4.4875 3.66333 
10.55 5.7375 4.05833 3.23125 2.76 2.42083 2.08 
15.5 8.1125 5.65833 4.44375 3.715 3.18333 2.64 
27.125 13.95 9.65 7.40625 6.08 5.2125 4.38667 
14.325 7.4875 5.15833 3.98125 3.295 2.87917 2.39 
36.1 18.475 12.575 9.55625 7.705 6.47083 5.21667 
25.325 13.4125 9.23333 7.0625 5.7 4.75833 3.88667 
25.7 13.525 9.525 7.4125 6.225 5.35417 4.44667 
0.85 0.775 0.791667 0.81875 0.975 1.025 1.01 
32.75 16.8125 11.575 8.85625 7.145 6.025 4.91333 
23.775 12.375 8.65833 6.7625 5.635 4.9125 4.16333 
16.75 8.7625 5.96667 4.58125 3.75 3.175 2.58667 
1.15 0.9625 0.825 0.79375 0.755 0.716667 0.723333 
20.6 10.6125 7.41667 5.79375 4.79 4.0875 3.43667 
0.175 0.2125 0.391667 0.5625 0.6 0.6375 0.67 
30.975 16.4125 11.175 8.6125 7.035 5.94167 4.82333 
0.775 0.7125 0.766667 0.8125 0.835 0.9 1.00333 
22.275 11.65 8.05833 6.24375 5.175 4.42083 3.6 
24.475 12.9 8.975 7.05 5.83 5.03333 4.22333 
11.05 6 4.375 3.54375 3.02 2.66667 2.38333 
23.95 12.375 8.66667 6.75 5.555 4.7375 3.94667 
10.15 5.475 3.99167 3.175 2.75 2.4375 2.09667 
37.35 19.0625 12.9 9.725 7.8 6.55417 5.29667 
4.5 2.8375 2.25 1.925 1.705 1.59583 1.39 
15.65 8.0875 5.54167 4.24375 3.485 2.95 2.42 
15.275 7.9875 5.725 4.51875 3.81 3.32917 2.91333 
24.35 12.6 8.6 6.61875 5.415 4.575 3.73 
13.35 6.675 4.45 3.3375 2.67 2.225 1.78 
18.7 9.6875 6.675 5.1875 4.335 3.70833 3.13667 
26.4 13.9375 9.64167 7.46875 6.185 5.425 4.51333 
25.975 13.5 9.4 7.45 6.23 5.38333 4.56333 
17.7 9.3625 6.625 5.19375 4.3 3.73333 3.11667 
1 0.9875 1.01667 0.98125 0.985 0.945833 1.01333 
27.175 14.0625 9.9 7.88125 6.59 5.625 4.74 
1.2 1.15 1.13333 1.1125 1.105 1.0625 1.01 
31.2 16.05 10.9583 8.6125 7.165 6.15417 5.11333 
5.15 3.025 2.33333 2.0375 1.84 1.72083 1.58 
4.225 2.275 1.59167 1.3125 1.09 0.9625 0.886667 
31.85 16.5375 11.4333 8.81875 7.265 6.175 5.08 
20.8 10.875 7.50833 5.88125 4.84 4.22083 3.51667 
0.65 0.825 0.891667 0.8875 0.89 0.879167 0.833333 
21.425 11.05 7.70833 6.04375 4.97 4.2625 3.54333 
8.25 4.625 3.48333 2.85 2.495 2.28333 2.08 
31.5 15.8375 10.6 7.9625 6.375 5.32083 4.26333 
30.725 15.6 10.575 8.125 6.62 5.60417 4.57333 
7.65 4.525 3.49167 2.85625 2.445 2.15417 1.87333 
16.025 8.3625 5.775 4.48125 3.725 3.24167 2.73 
20.25 10.825 7.78333 6.2 5.14 4.4625 3.85667 
34.725 17.575 11.8917 9.18125 7.53 6.44167 5.31667 
6.35 3.8125 2.89167 2.41875 2.135 1.9875 1.78333 
1.8 1.7125 1.60833 1.5125 1.42 1.32083 1.22333 
22.475 11.675 8.28333 6.6625 5.675 4.95833 4.24333 
18.4 9.7 6.91667 5.44375 4.805 4.23333 3.67 
22.35 11.5625 8.00833 6.3 5.2 4.51667 3.88333 
30.175 15.5875 10.6667 8.125 6.6 5.6125 4.66667 
24.475 13.0875 9.14167 7.1125 5.91 5.10417 4.32333 
24.425 12.2375 8.16667 6.15 4.925 4.11667 3.30667 
7.7 4.2 3.1 2.56875 2.17 1.89167 1.69667 
25.5 13.6375 9.40833 7.3625 6.025 5.14167 4.33 
0.975 0.925 0.875 0.89375 0.96 1.025 1.04333 
22.85 11.9625 8.29167 6.40625 5.285 4.54167 3.78333 
1.275 1.125 1.08333 0.96875 0.935 0.945833 0.913333 
21.925 11.75 8.15 6.4 5.28 4.625 3.96 
29.15 14.95 10.2417 7.9 6.495 5.52917 4.59 
7.85 4.3875 3.19167 2.6 2.155 1.90417 1.67333 
25.525 13.4875 9.325 7.20625 5.895 4.99583 4.18 
39.425 19.9375 13.4833 10.2687 8.3 6.9875 5.68333 
35.75 18.0375 12.1333 9.225 7.495 6.35 5.23333 
24.025 12.775 8.98333 7.0375 5.87 5.0875 4.28333 
34.65 17.9 12.1583 9.29375 7.645 6.53333 5.40333 
27.525 14.3625 9.84167 7.68125 6.385 5.5375 4.70667 
7.1 4.1 3.025 2.575 2.275 2.03333 1.78667 
19.25 9.625 6.46667 4.88125 3.91 3.2625 2.61 
0.775 0.8125 0.816667 0.85625 0.915 0.9125 0.923333 
35.1 17.8875 12.1917 9.275 7.515 6.325 5.12 
6.5 3.7875 3.00833 2.55 2.19 1.95833 1.78333 
22.675 11.7875 8.24167 6.4625 5.4 4.65833 3.91 
26.575 13.525 9.20833 7.0125 5.695 4.82083 3.91667 
5.25 2.9 2.125 1.7375 1.615 1.48333 1.36333 
17.2 9.1375 6.46667 5.11875 4.2 3.62917 3.08333 
17.8 9.5375 6.55 5.01875 4.145 3.55417 3.04667 
25.475 13.3 9.14167 7.1375 5.905 5.1 4.25333 
8.025 4.7375 3.50833 2.93125 2.535 2.24583 1.98 
3.725 2.65 2.23333 1.9 1.78 1.65417 1.45333 
6.775 3.75 2.60833 2.125 1.915 1.72083 1.49333 
6.85 3.9125 3.025 2.55625 2.295 2.1 1.9 
10.95 5.8 4.025 3.1375 2.665 2.30833 1.92667 
29.825 15.375 10.725 8.3375 6.85 5.90417 4.94 
8.4 4.6625 3.45833 2.7 2.25 1.94167 1.6 
21.4 10.775 7.38333 5.65625 4.59 3.89583 3.19 
6.025 3.35 2.55833 2.13125 1.83 1.59583 1.40667 
30.55 15.8625 10.925 8.33125 6.795 5.7625 4.76 
14.45 7.7875 5.6 4.45 3.755 3.34167 2.92667 
11.325 6.275 4.64167 3.78125 3.17 2.77083 2.39667 
23.9 12.55 8.8 6.875 5.68 4.92917 4.19 
7.7 4.5 3.53333 3.0625 2.67 2.40417 2.13333 
0.85 0.8375 0.858333 0.81875 0.845 0.895833 0.906667 
10.175 5.725 4.09167 3.275 2.815 2.51667 2.21667 
20.3 10.65 7.64167 6.125 5.15 4.52083 3.89667 
9.5 5.425 3.76667 2.9875 2.52 2.25417 1.94667 
23.1 11.825 8.05 6.1875 5.065 4.2875 3.49 
1.025 1.1125 0.991667 0.98125 0.88 0.825 0.786667 
18 9.225 6.24167 4.7625 3.91 3.3375 2.72 
9.525 5.4 3.95833 3.24375 2.72 2.35417 1.98667 
4.95 2.925 2.275 1.8875 1.69 1.56667 1.44333 
6.625 3.6625 2.68333 2.175 1.89 1.72083 1.48667 
18.275 9.4375 6.575 5.16875 4.28 3.68333 3.07 
0.75 0.9 0.858333 0.875 0.86 0.854167 0.87 
29.125 15.05 10.4 8.06875 6.695 5.70417 4.72667 
19.825 10.55 7.50833 5.91875 4.875 4.2125 3.59333 
13.3 7.2875 5.2 4.1 3.465 3.04167 2.65333 
15.275 7.8375 5.31667 4.06875 3.33 2.85 2.36667 
4.1 2.325 1.68333 1.33125 1.18 1.075 1.03667 
4.8 2.925 2.14167 1.7375 1.545 1.42083 1.33 
27.25 14 9.59167 7.475 6.185 5.325 4.43667 
4.525 2.7875 2.1 1.80625 1.695 1.6 1.50667 
12.375 6.4375 4.35 3.33125 2.77 2.3625 1.97333 
27.675 14.2375 9.83333 7.61875 6.345 5.44583 4.54667 
1.3 1.4125 1.38333 1.425 1.4 1.375 1.35333 
2.425 2.075 1.975 1.925 1.795 1.8 1.79333 
1.2 1.1875 1.16667 1.0875 1.025 1.04583 1.08333 
20.625 10.95 7.68333 6.14375 5.245 4.55833 3.87667 
28.9 15.15 10.5167 8.1125 6.605 5.62083 4.62 
5.85 3.55 2.75833 2.33125 2.1 1.92083 1.74 
3.875 2.6125 2.26667 2.00625 1.785 1.65417 1.49 
7.475 4.2 3.175 2.6125 2.315 2.06667 1.83333 
2.45 1.7375 1.41667 1.26875 1.215 1.19167 1.15333 
20.1 10.3625 7.06667 5.45 4.445 3.75 3.07 
12.025 6.5 4.80833 3.90625 3.285 2.8875 2.45 
39.5 20.0625 13.5417 10.275 8.28 6.97083 5.63333 
31.525 16.0625 10.9583 8.4125 6.85 5.76667 4.71333 
29.6 15.25 10.4083 7.95625 6.515 5.52083 4.49 
10.325 5.675 4.11667 3.275 2.755 2.47917 2.29667 
30.075 15.6125 10.6333 8.14375 6.71 5.725 4.8 
27.925 14.3125 9.89167 7.775 6.415 5.44167 4.42667 
33.975 17.25 11.5333 8.7 6.985 5.85 4.74 
0.8 1.0375 1.01667 0.9125 0.89 0.866667 0.896667 
8.25 4.75 3.50833 2.8875 2.57 2.325 2.08333 
28.6 14.7375 10.0667 7.80625 6.395 5.47917 4.59 
16.325 8.625 6.06667 4.875 4.12 3.5625 3.06 
24.125 12.4 8.6 6.7375 5.68 4.9125 4.18 
24.15 12.5375 8.6 6.54375 5.335 4.51667 3.70667 
18.05 9.3375 6.375 4.8875 4 3.38333 2.77333 
3.35 2.15 1.675 1.48125 1.34 1.30833 1.21 
22.625 11.7 8 6.23125 5.175 4.45417 3.67 
1.2 1.0875 1.025 0.98125 0.915 0.920833 0.956667 
3.45 2.1375 1.71667 1.51875 1.435 1.33333 1.19333 
17.75 9.7125 6.95 5.5 4.625 4.0125 3.44 
27.75 14.3375 9.93333 7.6375 6.23 5.28333 4.3 
39.55 20.0375 13.5333 10.3125 8.335 7.02083 5.69667 
23.575 12.0875 8.35 6.45625 5.33 4.50833 3.77 
19.05 9.925 6.8 5.2625 4.34 3.73333 3.15 
24.325 12.45 8.43333 6.39375 5.17 4.375 3.59 
19.175 9.85 6.74167 5.1625 4.2 3.6125 3.02667 
1.025 0.9875 0.95 1.03125 1.005 1.00833 1.00333 
7.15 4.1125 3.16667 2.65 2.285 2.06667 1.80667 
7.6 4.1125 2.9 2.26875 1.94 1.7125 1.44667 
27.525 13.8375 9.325 7.075 5.735 4.8125 3.90333 
28.875 14.6625 10.0333 7.7 6.265 5.30417 4.34667 
4.85 2.9125 2.24167 1.83125 1.54 1.42917 1.29333 
23.925 12.5125 8.66667 6.71875 5.585 4.84583 4.09 
34.425 17.775 12.1667 9.3 7.575 6.4125 5.17667 
18.45 9.775 6.79167 5.28125 4.445 3.85833 3.2 
4.075 2.0375 1.35833 1.01875 0.815 0.679167 0.543333 
22.475 11.825 8.225 6.38125 5.21 4.4625 3.72667 
6.675 3.875 2.875 2.44375 2.195 2.01667 1.83333 
8.925 4.9875 3.75833 3.05 2.59 2.35417 2.07 
26.275 13.4375 9.15833 7.08125 5.745 4.90417 4.02 
0.625 0.75 0.9 0.9375 0.91 0.8625 0.87 
11.05 5.9125 4.21667 3.29375 2.715 2.35 1.95667 
7.375 3.8375 2.775 2.3 1.91 1.65417 1.39 
8.85 4.55 3.18333 2.5 2.055 1.75417 1.48333 
30.55 15.475 10.4833 8.025 6.635 5.74167 4.79333 
25.95 13.2375 9.15833 7.1875 5.94 5.07917 4.20333 
4.625 2.95 2.45 2.125 1.87 1.67917 1.52333 
29.025 14.525 9.69167 7.26875 5.815 4.85 3.88 
4.075 2.4875 2.03333 1.74375 1.555 1.45 1.37333 
11.725 6.5 4.68333 3.825 3.365 2.9125 2.39333 
0.175 0.1875 0.266667 0.275 0.315 0.325 0.406667 
6.7 3.725 2.80833 2.35625 2.08 1.95833 1.81667 
25.3 13.3125 9.35833 7.3125 6.005 5.15 4.28667 
28.075 14.6 9.94167 7.65625 6.255 5.275 4.29667 
7.65 4.575 3.58333 3.00625 2.645 2.36667 2.15 
24.875 12.85 8.975 6.9625 5.725 4.94167 4.14333 
15.45 8.2375 5.86667 4.61875 3.945 3.5375 3.03667 
28.425 14.725 10.2083 7.85625 6.45 5.50417 4.51667 
34.5 17.325 11.625 8.8375 7.16 6.0125 4.88 
10.85 5.925 4.25 3.4625 3 2.66667 2.29333 
14.175 7.625 5.30833 4.0875 3.345 2.84583 2.39 
26.4 13.5125 9.26667 7.10625 5.805 4.90417 4 
19.075 10 7.06667 5.53125 4.62 4.00417 3.33 
20.325 10.575 7.33333 5.80625 4.82 4.14167 3.49333 
23.65 11.925 7.99167 6.01875 4.815 4.01667 3.21667 
5.675 3.725 2.88333 2.40625 2.135 1.90833 1.72 
30.475 15.7625 11.0583 8.45 6.94 5.94167 4.94667 
24.65 12.8625 8.95833 7.0125 5.77 5.03333 4.20667 
27.175 13.6875 9.14167 6.8625 5.49 4.57917 3.67667 
6.4 3.625 2.65833 2.3625 2.15 1.96667 1.82 
4.75 2.9125 2.14167 1.74375 1.53 1.35 1.17667 
7.2 4.1875 3.075 2.5375 2.245 2.0375 1.88 
6.375 3.525 2.54167 2.13125 1.825 1.59167 1.36667 
28.15 14.8375 10.25 8.00625 6.705 5.74583 4.80333 
34.925 17.4625 11.6583 8.75 7.025 5.86667 4.7 
1 1.1375 1.23333 1.275 1.295 1.29583 1.35667 
22.075 11.325 7.75 5.9875 4.915 4.24167 3.51667 
18.175 9.65 6.63333 5.08125 4.195 3.6 3.09667 
3.875 2.0375 1.5 1.21875 1.06 0.941667 0.826667 
31.725 16.3 11.1 8.66875 7.1 6.05 5.01333 
33.325 17.15 11.6667 8.98125 7.375 6.24583 5.10667 
0.525 0.65 0.7 0.7 0.78 0.854167 0.91 
11.2 5.75 3.90833 3.03125 2.605 2.3 1.97333 
32.375 16.55 11.275 8.675 7.015 5.90833 4.83667 
5.625 3.2625 2.55833 2.23125 1.96 1.775 1.56667 
5.95 3.15 2.39167 2.05 1.87 1.7375 1.62667 
4.65 2.775 2.20833 1.85625 1.665 1.55417 1.4 
8.675 5.2875 4.16667 3.5125 3.19 2.95 2.63 
17.725 8.9 5.94167 4.46875 3.58 2.98333 2.39333 
25.625 12.8125 8.54167 6.40625 5.125 4.27083 3.41667 
4.675 2.5375 1.80833 1.475 1.25 1.16667 1.12333 
5.45 2.9 2.04167 1.65625 1.365 1.19167 1.03667 
6.3 3.5 2.75 2.325 2.115 1.94167 1.82 
29.875 15.2875 10.3417 7.93125 6.525 5.55 4.56333 
28.725 14.8 10.3417 7.99375 6.56 5.59167 4.56333 
0.5 0.675 0.8 0.9125 0.93 0.925 1 
5.675 3.5375 2.73333 2.2875 1.985 1.75833 1.60667 
23.075 11.8625 8.13333 6.35625 5.325 4.5375 3.82 
21.875 11.4625 8.00833 6.21875 5.135 4.44583 3.77 
9.9 5.3 3.70833 2.95625 2.515 2.17917 1.90333 
5.05 3.2 2.58333 2.23125 2.01 1.85833 1.67667 
26.775 13.525 9.15833 7 5.735 4.85833 3.97667 
30.175 15.5 10.5333 8.03125 6.53 5.525 4.49 
20.3 10.7 7.44167 5.875 4.925 4.24167 3.55333 
17.725 9.3375 6.59167 5.225 4.44 3.8125 3.22667 
15.025 7.9875 5.53333 4.23125 3.46 2.94167 2.39667 
6.2 3.5 2.575 2.20625 1.905 1.7 1.53333 
6.075 3.3875 2.425 2.0375 1.795 1.7 1.52 
1.275 0.8625 0.725 0.6375 0.57 0.570833 0.593333 
21.925 11 7.375 5.56875 4.465 3.73333 2.99 
1.05 1.0875 0.975 0.98125 0.92 0.904167 0.866667 
11.575 6.3 4.69167 3.725 3.1 2.65417 2.22 
6.1 3.6375 2.81667 2.46875 2.17 1.93333 1.77667 
7.375 4.025 2.83333 2.25625 1.945 1.76667 1.53667 
16.45 9.1375 6.575 5.19375 4.37 3.82917 3.25333 
1.1 0.875 0.783333 0.69375 0.655 0.6375 0.596667 
11.55 6.2375 4.36667 3.60625 3.13 2.75833 2.42 
26.975 13.6375 9.225 7.03125 5.72 4.8375 3.96667 
16.2 8.975 6.45833 5.16875 4.43 3.8375 3.21667 
10.175 5.8125 4.25 3.475 2.95 2.60833 2.30333 
8.325 4.675 3.45 2.74375 2.29 2.02917 1.74 
26.025 13.6 9.30833 7.20625 5.975 5.15417 4.28667 
17.15 8.9 6.34167 5.10625 4.29 3.7125 3.14 
17.95 9.35 6.73333 5.33125 4.575 3.94167 3.34333 
32.1 16.225 11.0583 8.49375 6.88 5.81667 4.70333 
16.85 8.9375 6.25833 4.94375 4.255 3.7625 3.17333 
25.325 13.075 8.975 7 5.74 4.94583 4.17 
22.55 11.75 8.025 6.34375 5.36 4.7125 4.02 
22.9 11.7625 8.03333 6.1375 5.005 4.225 3.50333 
17.15 9.1875 6.45833 5.025 4.145 3.54583 3.03667 
0.675 0.725 0.816667 0.81875 0.93 0.9125 0.92 
16.45 8.725 6.05 4.61875 3.815 3.27917 2.70333 
0.05 0.3375 0.416667 0.4625 0.48 0.504167 0.603333 
23.675 12.625 8.99167 7.03125 5.875 5.0625 4.34333 
1.175 1.1375 1.075 0.98125 0.9 0.908333 0.936667 
23 11.5875 7.85 5.98125 4.87 4.10833 3.35 
4.85 2.975 2.26667 1.975 1.765 1.625 1.44333 
26.85 14.25 10.05 7.8875 6.615 5.71667 4.77667 
30.775 16.0875 11.1417 8.56875 7.025 5.9875 5.07667 
7.975 4.7375 3.5 2.91875 2.58 2.3125 2.00333 
35.35 18.025 12.225 9.2875 7.525 6.33333 5.14667 
0.475 0.6 0.566667 0.51875 0.475 0.433333 0.4 
7.875 4.4125 3.33333 2.73125 2.37 2.12917 1.92 
28.25 14.725 10.275 7.95625 6.695 5.8 4.87 
9.225 5.175 3.875 3.14375 2.685 2.42083 2.22 
13.725 7.5625 5.4 4.46875 3.84 3.30833 2.84667 
17.6 9.375 6.69167 5.3375 4.505 3.92917 3.37667 
26.775 13.8375 9.38333 7.21875 5.93 5.05 4.14 
6 3.2 2.33333 1.94375 1.745 1.61667 1.4 
30.45 15.5 10.4833 7.95 6.43 5.39583 4.37667 
24.675 12.8125 8.86667 6.975 5.91 5.0875 4.22 
4.375 2.7125 2.23333 1.875 1.62 1.5375 1.34667 
23.05 11.5625 7.75833 5.8375 4.675 3.9 3.13667 
30.4 15.475 10.475 7.94375 6.43 5.39167 4.37333 
24.25 12.575 8.88333 7.1 5.96 5.175 4.44333 
16.05 8.55 6.05833 4.76875 4.105 3.60833 3.07 
16.35 8.8625 6.525 5.26875 4.52 4.00833 3.41333 
23.225 12.0625 8.175 6.1625 4.975 4.22917 3.47667 
9.575 5.525 4.03333 3.275 2.78 2.46667 2.13667 
6.675 3.65 2.83333 2.34375 2.185 1.99167 1.79667 
4.8 3.25 2.68333 2.575 2.33 2.1 1.84333 
18.2 9.7 6.83333 5.4625 4.595 4.02917 3.45 
23.175 12.2375 8.56667 6.7 5.635 4.90833 4.14333 
1.55 1.125 1.00833 0.96875 1.02 1.09167 1.12667 
25.275 13.175 9.08333 7.06875 5.83 5.03333 4.22 
13.4 6.9375 4.8 3.8 3.185 2.77917 2.41667 
27.05 13.5875 9.11667 6.84375 5.485 4.575 3.66 
31 16.0375 10.9583 8.475 7.015 6.0125 5.02667 
8.975 4.825 3.33333 2.6 2.145 1.85833 1.57667 
24.575 12.55 8.425 6.38125 5.175 4.39167 3.57 
18.05 9.6875 6.725 5.23125 4.3 3.67083 3.05667 
6.475 3.5875 2.61667 2.16875 1.89 1.7125 1.53 
36.675 18.65 12.6833 9.65625 7.85 6.62917 5.34 
0.85 0.95 1.06667 1 0.975 0.916667 0.92 
2.025 1.8 1.48333 1.39375 1.42 1.425 1.47333 
7.85 4.4375 3.225 2.68125 2.32 2.09583 1.82333 
9.25 5.0625 3.61667 2.9375 2.48 2.17917 1.84333 
18.85 10.0125 6.9 5.4 4.49 3.875 3.24 
34.825 18.025 12.2 9.325 7.675 6.54167 5.40667 
16.275 8.5625 5.9 4.5875 3.78 3.225 2.68333 
28.275 14.1875 9.46667 7.10625 5.685 4.74167 3.80333 
12.4 6.6875 4.93333 3.95625 3.325 2.85833 2.4 
0.525 0.475 0.516667 0.45625 0.435 0.420833 0.366667 
37.3 18.7125 12.5417 9.46875 7.62 6.43333 5.19667 
8.075 4.5 3.45 2.825 2.53 2.33333 2.08 
31.575 16.1875 11.1417 8.7375 7.26 6.25417 5.20333 
4.925 3.3625 2.8 2.5875 2.31 2.1875 2.10333 
3.65 2.2 1.675 1.45 1.275 1.15833 1.03 
24.1 12.1625 8.28333 6.3375 5.19 4.40833 3.61 
5.65 3.4875 2.66667 2.30625 2.1 1.94167 1.73333 
12.575 6.9 4.85833 3.825 3.185 2.7625 2.36667 
26.5 13.5375 9.275 7.1375 5.88 5.07083 4.26667 
22.4 11.625 8.06667 6.26875 5.19 4.44583 3.7 
10.05 5.7375 4.16667 3.3125 2.825 2.45 2.16667 
36.1 18.475 12.5583 9.53125 7.71 6.50417 5.29333 
21.15 10.675 7.20833 5.475 4.41 3.70833 3.03667 
38.375 19.3625 13.1 9.9 7.955 6.64167 5.34333 
20.5 10.5875 7.41667 5.75625 4.78 4.1 3.41333 
22.975 12.1125 8.475 6.5625 5.45 4.7 3.99 
40.6 20.7625 14.1833 10.8 8.695 7.3 5.92667 
1.45 1.5375 1.425 1.39375 1.475 1.53333 1.59333 
1.8 1.975 1.80833 1.8 1.745 1.7125 1.71667 
34.775 17.4375 11.65 8.7625 7.03 5.86667 4.69667 
20.425 10.2625 6.85833 5.14375 4.13 3.45 2.76667 
4.075 2.6375 2.2 1.9125 1.66 1.54167 1.46 
20.9 11.125 7.775 6.075 5.09 4.46667 3.81 
2.275 1.3 1.04167 0.89375 0.865 0.825 0.77 
25.6 13.2875 9.2 7.125 5.83 5.02917 4.18333 
1.05 0.95 0.883333 0.8375 0.905 0.945833 0.946667 
16.2 8.6625 6.21667 4.95625 4.285 3.8 3.33333 
18.25 9.625 6.74167 5.3625 4.42 3.77917 3.19667 
11.875 6.425 4.59167 3.61875 3.035 2.675 2.28 
18.9 9.9375 7.05833 5.575 4.705 4.09583 3.43333 
17.95 9.6375 6.775 5.40625 4.61 4.05833 3.46667 
27.475 13.8375 9.25 7.0125 5.67 4.7625 3.84667 
0.2 0.325 0.433333 0.48125 0.555 0.579167 0.6 
20.125 10.65 7.46667 5.86875 4.91 4.32917 3.73333 
31.55 16.4875 11.3833 8.75 7.255 6.2125 5.10667 
0.175 0.225 0.308333 0.36875 0.47 0.529167 0.563333 
7.375 4.275 3.16667 2.6125 2.325 2.10833 1.82333 
12.375 6.8 4.83333 3.89375 3.365 2.98333 2.55667 
15.025 7.7 5.325 4.11875 3.42 2.9625 2.50333 
24.65 12.9 8.94167 6.93125 5.775 4.99583 4.18667 
20.575 10.6 7.19167 5.50625 4.465 3.77083 3.08 
16.75 8.725 6.30833 4.9875 4.13 3.6 3.07 
6.875 3.7375 2.80833 2.3 1.895 1.64167 1.42667 
27 14.3 9.975 7.70625 6.43 5.4625 4.56333 
28.6 14.8875 10.25 7.9375 6.585 5.6625 4.74 
25.85 12.925 8.65 6.50625 5.21 4.34167 3.48667 
16.15 8.525 6.23333 4.88125 4.025 3.47083 2.91 
3.875 2.4125 1.78333 1.4875 1.395 1.32083 1.24667 
25.1 12.9375 8.89167 6.8125 5.56 4.68333 3.78667 
6.275 3.9 2.83333 2.2875 2.035 1.85 1.59667 
16.85 9.075 6.46667 5.18125 4.405 3.8375 3.39333 
0.875 0.975 0.991667 1 0.96 0.908333 0.926667 
7.1 4.125 3.08333 2.525 2.235 2.04583 1.78667 
11.15 6.15 4.475 3.66875 3.155 2.70833 2.34 
18.325 9.4875 6.59167 5.125 4.22 3.63333 3.05 
23.6 12.3625 8.55833 6.6375 5.475 4.7625 4.06333 
10.675 5.5875 3.85 2.95625 2.455 2.15833 1.80667 
7.3 4.0625 2.96667 2.5375 2.26 2.07917 1.84333 
30.525 15.625 10.6 8.075 6.585 5.5625 4.55667 
10.425 5.975 4.60833 3.775 3.345 3.00833 2.59 
26 13.6375 9.40833 7.2875 5.99 5.10833 4.22333 
0.5 0.4375 0.4 0.3875 0.39 0.408333 0.406667 
23.975 12.6125 8.81667 6.88125 5.745 4.9875 4.20333 
16.85 8.7 6.23333 4.8125 4.055 3.52083 3.00667 
7.775 4.475 3.19167 2.64375 2.33 2.06667 1.78667 
6.625 3.6875 2.66667 2.15625 1.885 1.69167 1.47667 
8.825 4.85 3.54167 2.925 2.54 2.25 1.96667 
5.575 3.25 2.46667 2.10625 1.925 1.78333 1.6 
9.625 5.3125 3.94167 3.3 2.755 2.37917 2.00333 
24.975 13.1 9.16667 7.1625 5.965 5.15833 4.3 
16.05 8.575 6.15 4.93125 4.255 3.77083 3.31667 
21 10.5875 7.14167 5.3875 4.355 3.7 3.03667 
1.025 1.0125 0.975 0.98125 0.985 0.983333 1.04667 
13.35 6.975 4.78333 3.74375 3.085 2.70833 2.31333 
5.65 3.25 2.51667 2.10625 1.855 1.72083 1.59 
11.225 6.025 4.29167 3.43125 2.925 2.62917 2.34 
5.975 3.2125 2.41667 1.98125 1.835 1.72083 1.54667 
9.3 5.525 4.34167 3.7 3.29 2.99583 2.66333 
0.775 1.0125 1.05833 0.975 0.965 0.9625 0.956667 
7.775 4.3375 3.06667 2.44375 2.085 1.82917 1.55333 
25.3 12.6625 8.475 6.3625 5.1 4.26667 3.42333 
17.9 9.625 6.70833 5.34375 4.455 3.8625 3.22667 
28.05 14.5375 10.0917 7.79375 6.39 5.45 4.48 
29.125 14.875 10.1333 7.73125 6.32 5.34583 4.40667 
8.525 4.8875 3.61667 2.8875 2.465 2.22083 1.98 
15.825 8.45 5.89167 4.54375 3.775 3.22917 2.66 
23.025 11.65 7.975 6.18125 5.155 4.50417 3.75333 
37.8 19.2875 13.0333 9.85 7.905 6.6 5.37667 
8.7 4.8125 3.625 2.9375 2.47 2.17917 1.90667 
17.875 9.3375 6.43333 5.025 4.17 3.52917 2.94 
4.55 2.7375 2.04167 1.625 1.47 1.375 1.29333 
0.225 0.5 0.575 0.54375 0.545 0.533333 0.52 
25.65 13.2 8.93333 6.825 5.555 4.70417 3.84333 
14.6 7.525 5.2 4.00625 3.315 2.8375 2.35333 
38.3 19.5125 13.2 10.0187 8.055 6.7625 5.44333 
21.25 10.9875 7.48333 5.71875 4.695 3.94583 3.23667 
22.975 11.5625 7.73333 5.81875 4.665 3.92083 3.14333 
16.35 8.5125 5.85833 4.55 3.89 3.375 2.87333 
1.025 1.0125 1.04167 1.075 1.125 1.175 1.23333 
4.525 2.9 2.41667 2.10625 1.865 1.68333 1.50667 
0.675 0.7875 0.833333 0.91875 0.915 0.958333 0.953333 
29.175 14.9125 10.2417 7.8625 6.445 5.44583 4.48667 
3.9 2.5375 2.34167 2.24375 2.125 2.025 1.97667 
8.35 4.325 3.05 2.41875 2.045 1.77917 1.51667 
26.675 14.225 10.05 7.89375 6.55 5.5875 4.61667 
7.825 3.9875 2.69167 2.1 1.755 1.54167 1.46 
7.025 3.825 2.725 2.33125 2.08 1.8875 1.69333 
39.675 20.3125 13.7167 10.4062 8.355 6.98333 5.59667 
6.725 3.725 2.75833 2.3375 2 1.8 1.6 
30.625 16.1125 11.125 8.63125 7.145 6.1375 5.09333 
26.3 13.5625 9.25833 7.1375 5.845 4.975 4.16667 
11.2 6 4.35833 3.49375 3.005 2.6625 2.33667 
6.525 3.675 2.85833 2.45625 2.27 2.10417 1.88667 
7.65 4.2875 3.3 2.825 2.465 2.225 1.96333 
1.15 1.0875 1.04167 1.04375 1.03 1.07917 1.01333 
6.25 3.525 2.78333 2.4125 2.2 1.9875 1.81 
10.85 5.9 4.1 3.28125 2.88 2.6125 2.31667 
17.45 9.1125 6.35 4.98125 4.155 3.5875 2.99 
13.125 6.7375 4.66667 3.775 3.185 2.79167 2.39333 
25.4 13.4 9.33333 7.24375 5.995 5.1625 4.3 
30.175 15.875 10.9167 8.5 7.095 6.12083 5.19667 
26.975 14.275 9.95833 7.74375 6.425 5.49583 4.59 
20.125 10.325 7 5.35625 4.325 3.63333 2.96333 
0.65 0.825 0.775 0.84375 0.895 0.895833 0.893333 
22.925 12.2 8.43333 6.55625 5.47 4.8 3.99 
18.775 9.65 6.525 4.94375 3.99 3.35417 2.72667 
20.7 10.65 7.24167 5.51875 4.505 3.825 3.13 
5.25 3.225 2.36667 1.9375 1.675 1.51667 1.30667 
5.625 3.35 2.575 2.20625 2.025 1.85833 1.70667 
5.65 3.2125 2.39167 1.96875 1.705 1.5125 1.35 
15.625 8.1 5.55833 4.29375 3.51 2.99167 2.44 
9.375 5.1125 3.76667 3.2375 2.83 2.54583 2.30667 
24.35 12.8875 9.01667 7.125 5.96 5.20417 4.45 
7 3.775 2.70833 2.2 1.9 1.64167 1.39667 
23.55 12.55 8.84167 6.95 5.815 4.94583 4.16667 
4.725 2.5125 1.80833 1.5 1.3 1.22917 1.1 
27.025 13.9125 9.59167 7.30625 5.885 4.97083 4.06667 
17.25 9.1625 6.34167 4.98125 4.16 3.56667 2.92667 
7.85 4.4625 3.25833 2.70625 2.445 2.24583 2.04 
25.625 13.3375 9.15833 7.05625 5.795 4.9375 4.13 
23.75 12.35 8.54167 6.58125 5.36 4.575 3.75667 
28.3 14.1875 9.575 7.3125 5.955 5.0625 4.11667 
16.4 9.0125 6.475 5.23125 4.43 3.85417 3.37 
19.35 10.2 7.175 5.7125 4.78 4.14583 3.55333 
8.925 4.925 3.56667 2.86875 2.475 2.2625 2.08333 
35.225 17.9625 12.1417 9.29375 7.56 6.35417 5.17 
23.8 12.3 8.46667 6.5625 5.38 4.61667 3.84333 
7.225 4.5375 3.65 3.075 2.755 2.57083 2.42333 
6.475 3.375 2.34167 1.85625 1.545 1.3625 1.24333 
20.275 10.4125 7.05 5.33125 4.345 3.65417 2.93333 
18.375 9.525 6.6 5.13125 4.28 3.70833 3.13667 
7.425 4.2 3.175 2.675 2.395 2.14167 1.92667 
30.475 15.55 10.5667 8.14375 6.725 5.83333 4.85667 
8.425 4.65 3.51667 2.80625 2.45 2.19583 1.88 
25.325 13.4125 9.33333 7.28125 6.02 5.17917 4.31333 
26.325 13.5625 9.33333 7.25 5.97 5.09167 4.16 
26.225 13.6 9.425 7.41875 6.075 5.22917 4.35667 
13.5 7.1625 4.99167 3.91875 3.25 2.81667 2.38333 
25.9 13.3875 9.175 7.03125 5.73 4.8375 3.95 
17.15 8.8375 6.20833 4.88125 4.105 3.54583 3.02333 
29.9 15.25 10.3667 7.91875 6.41 5.40833 4.41333 
26.85 13.6875 9.25833 7.025 5.67 4.78333 3.92333 
23.975 11.9875 7.99167 5.99375 4.805 4.025 3.23333 
1.175 1.175 1.15 1.18125 1.17 1.10833 1.06667 
4 2.2375 1.65833 1.41875 1.245 1.125 1 
10.825 5.7125 3.94167 3.1375 2.635 2.2875 1.95 
28.25 14.6125 10.0667 7.775 6.42 5.47083 4.58333 
28.425 14.7625 10.1583 7.79375 6.365 5.425 4.47 
3.275 2.175 1.78333 1.68125 1.56 1.39167 1.24667 
0.575 0.8125 0.883333 0.88125 0.875 0.9 0.846667 
7.4 4.35 3.28333 2.6625 2.305 2.05 1.80667 
1.85 1.8875 1.83333 1.8125 1.77 1.71667 1.71333 
21.25 11.1125 7.88333 6.1375 5.02 4.2875 3.62 
2.975 1.9 1.525 1.35 1.295 1.275 1.15333 
1 1.0625 1.025 1.05625 1.02 1.04167 1.1 
11.4 6.15 4.375 3.41875 2.855 2.53333 2.19667 
1.05 1.3 1.33333 1.23125 1.17 1.10833 1.08333 
7.375 4.1625 3.18333 2.68125 2.38 2.12083 1.85667 
24.55 12.55 8.50833 6.45625 5.225 4.39583 3.57667 
19.975 10.2625 6.95 5.33125 4.33 3.69167 3.03 
24.05 12.3625 8.45 6.60625 5.44 4.63333 3.80333 
0.9 0.875 0.958333 0.91875 0.95 0.995833 0.996667 
4.8 3.125 2.53333 2.15625 1.935 1.75833 1.61 
21.7 11.275 7.7 5.9625 4.885 4.16667 3.49333 
0.6 0.6875 0.816667 0.8125 0.785 0.825 0.93 
6.5 3.825 2.85833 2.45 2.165 1.94167 1.78667 
19.325 10.2875 7.24167 5.7125 4.785 4.17917 3.57 
9.725 5.25 3.78333 3.0875 2.65 2.34167 2.03 
27.95 14.525 10.0167 7.8 6.4 5.49583 4.68 
4.575 2.5125 1.80833 1.4875 1.335 1.2625 1.15 
6.075 4.0625 3.23333 2.8875 2.585 2.37083 2.14 
18.875 10 7.025 5.59375 4.685 4.00833 3.36333 
26.4 13.4625 9.18333 7.0625 5.86 5.02917 4.23 
8.25 4.4875 3.25 2.63125 2.325 2.07083 1.78333 
15.275 8.5125 5.90833 4.66875 3.86 3.30833 2.71333 
37.05 18.7625 12.8083 9.8 7.985 6.74167 5.52 
7.875 4.6625 3.44167 2.86875 2.53 2.325 2.11 
15.2 7.7875 5.34167 4.11875 3.435 2.97917 2.49333 
29.575 15.5125 10.6083 8.2 6.76 5.80417 4.86 
16.875 8.7875 5.99167 4.60625 3.79 3.25417 2.68667 
22.375 11.275 7.55 5.7125 4.61 3.8625 3.1 
4.725 2.6625 1.925 1.5875 1.395 1.25417 1.10667 
27.7 14.425 10.1417 7.8375 6.44 5.49583 4.55333 
9.15 4.9125 3.4 2.73125 2.295 1.975 1.71333 
5.475 3.325 2.63333 2.30625 2.06 1.89583 1.71667 
16.8 8.7125 6.06667 4.7375 3.89 3.32083 2.79 
10.925 5.9 4.23333 3.375 2.865 2.55 2.20667 
3.45 2.075 1.74167 1.59375 1.435 1.35833 1.32667 
8.875 5.0375 3.71667 2.975 2.63 2.36667 2.12 
29.7 15.2125 10.4833 8.08125 6.705 5.7125 4.68333 
17.375 8.825 6 4.5875 3.79 3.2625 2.73667 
30.175 15.5875 10.7083 8.2125 6.805 5.81667 4.81 
22.8 11.6625 7.95 6.08125 4.925 4.13333 3.41333 
19.4 10.575 7.43333 5.91875 4.935 4.27083 3.58 
14.1 7.3375 5.03333 3.85625 3.24 2.86667 2.48333 
9.725 5.25 3.70833 2.9 2.42 2.17917 1.94667 
1.125 1.175 1.25 1.24375 1.225 1.2 1.19 
23.175 12.2125 8.55833 6.7 5.51 4.80833 4.09333 
2.85 2.0125 1.71667 1.51875 1.44 1.36667 1.31333 
9.625 5.325 3.94167 3.31875 2.925 2.69167 2.37 
15.1 7.8625 5.525 4.5625 3.86 3.3875 2.95667 
22.225 11.125 7.425 5.56875 4.46 3.71667 2.97333 
22.225 11.2625 7.55 5.725 4.65 3.9625 3.25667 
36.275 18.225 12.3 9.35625 7.6 6.38333 5.13333 
6.825 3.925 2.89167 2.43125 2.1 1.88333 1.76 
4.925 2.8625 2.35 2.03125 1.74 1.5625 1.41 
0.75 0.75 0.758333 0.85 0.91 0.920833 0.903333 
11.425 6.15 4.38333 3.5125 3 2.6625 2.32667 
19.1 10.2625 7.26667 5.79375 4.925 4.34583 3.74667 
4.7 2.75 2.16667 1.80625 1.595 1.44583 1.28333 
6.1 3.55 2.68333 2.2125 2.035 1.85 1.66333 
0.55 0.4875 0.45 0.4125 0.395 0.383333 0.376667 
0.85 0.825 0.741667 0.65625 0.62 0.654167 0.68 
16.875 8.7125 5.975 4.59375 3.775 3.225 2.74333 
24.475 12.875 8.85 6.85625 5.635 4.82083 3.98667 
17.5 9.3125 6.5 5.1 4.24 3.6375 3.03667 
12.5 6.575 4.56667 3.60625 3.04 2.65833 2.30333 
1 1.0375 1.05 1.0125 1.095 1.1125 1.02667 
1.95 1.4125 1.26667 1.175 1.12 1.06667 1.05 
6.125 3.6625 2.8 2.4 2.145 1.97083 1.77333 
2.25 1.6375 1.4 1.2375 1.19 1.18333 1.16333 
24.6 12.325 8.23333 6.19375 4.96 4.14583 3.33 
27.475 13.9 9.39167 7.15 5.765 4.86667 3.96667 
25.5 13.225 9.18333 7.01875 5.77 4.92083 4.11 
24.375 12.5625 8.45833 6.44375 5.275 4.45833 3.61 
15.1 7.8375 5.65833 4.45 3.72 3.27917 2.84667 
29.025 14.875 10.175 7.81875 6.475 5.50833 4.52 
4.55 2.8 2.21667 1.8375 1.64 1.51667 1.36667 
9.275 5.15 3.70833 2.98125 2.58 2.3 1.98667 
20.225 10.825 7.56667 5.95 4.95 4.325 3.64667 
18.475 9.8625 6.925 5.4125 4.505 3.92083 3.30333 
5.675 3.4 2.60833 2.16875 1.9 1.7375 1.58667 
18.025 9.325 6.525 4.98125 4.14 3.56667 2.93333 
16.65 8.825 6.09167 4.73125 3.87 3.2625 2.65667 
25.65 13.0375 8.80833 6.68125 5.38 4.5125 3.68 
25.3 13.275 9.2 7.175 5.945 5.08333 4.26667 
27.95 14.3 9.85833 7.5375 6.145 5.21667 4.28667 
24.125 12.65 8.95833 6.99375 5.83 5.0875 4.36667 
17.55 9.1 6.31667 4.90625 4.095 3.5 2.89333 
15.375 8.1875 5.975 4.78125 4.02 3.50833 3.03 
29.175 15.1 10.4417 8.15 6.72 5.7625 4.75 
28.1 14.1125 9.41667 7.08125 5.685 4.77083 3.86333 
11.2 6.1375 4.375 3.4375 2.87 2.5 2.06667 
1.275 1.1875 1.125 1.05 0.99 0.975 0.906667 
1.3 1.35 1.44167 1.43125 1.355 1.2875 1.21667 
6.425 3.9375 2.89167 2.375 2.095 1.90417 1.63333 
16.8 8.8125 6.21667 5.00625 4.215 3.69167 3.15333 
0.875 0.8625 0.916667 0.875 0.935 0.966667 1.06333 
1.15 1.1375 1.10833 1.1 1.145 1.07917 0.993333 
5.425 3.1875 2.35833 1.94375 1.705 1.56667 1.39667 
3.125 2.1875 1.83333 1.68125 1.5 1.4125 1.29 
22.725 11.9625 8.34167 6.58125 5.545 4.75417 3.96 
15.25 8.2125 5.83333 4.6125 3.93 3.4625 2.97 
10.7 5.5125 3.85833 3.06875 2.645 2.33333 1.95 
3.95 2.5875 2.25 2.06875 1.875 1.74583 1.59667 
1.175 1.1 1 0.9875 0.985 0.9625 0.936667 
9.8 5.2875 3.68333 2.84375 2.36 2.04167 1.74 
25.25 13.2375 9.225 7.23125 5.935 5.15 4.35333 
28.15 14.2375 9.64167 7.3625 5.97 5.0625 4.12667 
0.75 0.5875 0.733333 0.8375 0.905 0.925 0.99 
17.25 9.125 6.3 4.86875 4.02 3.42917 2.82667 
7.95 4.625 3.525 3.0125 2.575 2.25417 1.98333 
7.1 4 2.975 2.48125 2.23 2.0125 1.81 
6.1 3.8875 3.2 2.74375 2.515 2.34167 2.2 
6.5 3.5 2.51667 2.025 1.725 1.53333 1.3 
7.3 4.1 3.05833 2.5 2.19 1.91667 1.70667 
23.25 11.9 8.05 6.1 4.93 4.1625 3.40333 
38.525 19.85 13.4583 10.25 8.305 6.99167 5.66333 
0.8 0.85 0.958333 0.925 0.925 0.904167 0.973333 
10.65 5.9125 4.20833 3.40625 2.975 2.65833 2.26333 
6.05 3.2125 2.275 1.8125 1.535 1.3125 1.08667 
0.65 0.725 0.791667 0.8875 0.955 0.958333 0.96 
7.275 4.2 3 2.4875 2.16 1.96667 1.70333 
6.925 3.8 2.65 2.09375 1.745 1.5375 1.35 
29.525 15.025 10.1417 7.68125 6.225 5.21667 4.24 
15.675 8.625 6.25 5.10625 4.36 3.85417 3.27333 
17.4 9.0625 6.325 4.85625 3.975 3.40833 2.83667 
28.975 15.0125 10.3833 8 6.595 5.65 4.70667 
27.625 14.0375 9.59167 7.35 6.02 5.0875 4.15333 
30.925 16.175 11.1167 8.59375 7.035 6.04583 5 
26.1 13.425 9.19167 7.0875 5.89 5.00417 4.17 
6.575 3.6875 2.85833 2.4125 2.1 1.875 1.64 
18.5 9.8875 7.04167 5.51875 4.64 4.07917 3.44667 
14.725 7.8375 5.48333 4.28125 3.555 3.075 2.57333 
23.4 12.075 8.28333 6.4 5.325 4.53333 3.70667 
2.85 1.975 1.775 1.7 1.6 1.52083 1.5 
5.85 3.0125 2.10833 1.6375 1.385 1.24167 1.15 
9.075 5.4125 4.275 3.65625 3.25 2.90417 2.59 
4.15 2.525 2.03333 1.6875 1.48 1.35833 1.24667 
31.225 15.8625 10.65 8.06875 6.51 5.46667 4.44333 
12.05 6.55 4.825 3.95 3.32 2.92917 2.51667 
5.35 3.35 2.74167 2.3 1.985 1.79583 1.65 
15.4 8.225 5.80833 4.6125 3.84 3.30417 2.75 
6.125 3.5375 2.61667 2.0875 1.84 1.68333 1.47667 
18.125 9.575 6.69167 5.1625 4.3 3.71667 3.14333 
17.775 9.6625 6.88333 5.5 4.63 4.10417 3.52333 
18.025 9.375 6.50833 5.04375 4.13 3.53333 2.90333 
15.35 8.2125 5.84167 4.63125 3.93 3.44167 2.98667 
28.075 14.5 10.0333 7.6875 6.265 5.29167 4.3 
21.125 11.025 7.60833 5.875 4.84 4.15417 3.47 
6.55 4.0375 3.075 2.55 2.32 2.22917 2 
7.4 4.2625 3.275 2.6625 2.305 2.04583 1.77333 
7.1 4.075 3.10833 2.6375 2.385 2.12917 1.84333 
1.225 0.9875 1.06667 1.075 1.04 0.991667 1.00333 
16.725 8.8125 6.16667 4.79375 3.895 3.27083 2.67667 
6.875 3.9375 2.86667 2.45 2.205 2 1.78667 
32.4 16.7625 11.4583 8.81875 7.215 6.175 5.17 
5.65 3.35 2.625 2.16875 1.945 1.76667 1.65667 
0.475 0.7375 0.825 0.8125 0.86 0.920833 0.986667 
13.725 7.4625 5.45 4.26875 3.605 3.15417 2.68667 
1.575 1.0875 1.06667 1.04375 0.985 0.9125 0.876667 
27.4 14.2125 9.75833 7.5125 6.14 5.25 4.31333 
11.925 6.4125 4.50833 3.53125 2.955 2.575 2.23 
3.925 2.4125 1.8 1.53125 1.31 1.14167 1.02 
16.325 8.5875 6.08333 4.80625 3.94 3.38333 2.79333 
11.975 6.575 4.74167 3.81875 3.185 2.77083 2.39 
3.525 2.175 1.64167 1.4 1.3 1.17083 1.06333 
6.725 3.7625 2.9 2.3875 2.115 1.9875 1.70333 
28.25 14.45 9.91667 7.6625 6.3 5.375 4.39 
23.025 11.8875 8.25833 6.4625 5.42 4.75 4.01 
11.75 6.5 4.625 3.7125 3.255 2.85417 2.50333 
12.15 6.825 4.9 3.85 3.245 2.82917 2.42333 
4.15 2.25 1.6 1.33125 1.095 0.966667 0.896667 
1.05 0.8625 0.775 0.71875 0.7 0.683333 0.61 
0.825 1.125 1.05 1.03125 1.01 0.958333 0.94 
3.85 2.3125 1.94167 1.75625 1.59 1.47083 1.36 
9.55 5.45 4.23333 3.68125 3.245 2.90833 2.55333 
31.325 16.0875 10.925 8.30625 6.715 5.67083 4.59667 
31.325 15.8125 10.7917 8.30625 6.745 5.70417 4.60333 
28.975 14.85 10.0833 7.66875 6.25 5.28333 4.33 
28.625 14.5625 9.925 7.54375 6.165 5.27083 4.33333 
14.875 7.9125 5.675 4.525 3.87 3.40417 2.95 
5.775 3.6125 2.81667 2.40625 2.165 1.95 1.78667 
13.225 7.025 4.9 3.81875 3.16 2.7375 2.37333 
30.55 15.75 10.7167 8.21875 6.775 5.74167 4.76 
