0.512677 0.52292 -0.303068 0.00378929
0.508848 0.508832 -0.26689 0.00284596
0.527474 0.524866 -0.281274 0.00410897
0.568038 0.0984093 0.176477 0.000103848
0.561317 0.124423 0.182608 0.000339521
0.589997 0.102993 0.168024 0.00330521
0.584052 0.128398 0.173661 0.00325807
0.481197 0.659861 -0.320498 0.00272827
0.47704 0.680145 -0.310504 0.00271206
0.502877 0.670514 -0.316411 0.00486925
0.496097 0.690428 -0.305689 0.0104201
-0.253104 -0.527185 -0.299763 0.00134567
-0.260476 -0.498968 -0.294675 0.0026048
-0.231636 -0.52355 -0.304643 0.00130878
-0.234255 -0.494425 -0.299124 0.0011286
0.221868 -0.666939 0.134826 0.00294941
0.226738 -0.646243 0.139282 0.00513986
0.230863 -0.650998 0.142851 1.7016e-05
0.241517 -0.633627 0.144497 0.00154478
1.00273 0.0591922 0.0396771 0.00040706
0.997557 0.0809872 0.0446933 0.00278229
1.02388 0.0637298 0.0440527 0.00339568
1.01897 0.0849667 0.0477813 0.00243677
0.936745 -0.220692 0.0247801 0.00580561
0.93306 -0.205027 0.0321947 0.00201105
0.945493 -0.210331 0.0287654 0.0014322
0.946355 -0.195744 0.0337643 0.00132998
0.505002 -0.0374648 -0.439125 0.00375718
0.505606 -0.0115526 -0.431223 1.44401e-05
0.528759 -0.0324509 -0.440481 3.01245e-06
0.528742 -0.00706212 -0.433713 0.00258833
0.406981 0.391551 -0.0853646 0.000206143
0.426119 0.402341 -0.0909673 0.00138989
0.424834 0.393809 -0.0634053 0.00100084
0.441285 0.403914 -0.0694502 0.00162712
-0.226326 -0.110515 0.334868 0.00416891
-0.215245 -0.0916637 0.326462 0.00203929
-0.206123 -0.114276 0.341601 0.00190725
-0.195689 -0.0953349 0.334191 0.00310559
0.0316088 0.116002 0.187454 0.00760884
0.0509816 0.129256 0.179637 0.00784115
0.0535257 0.117746 0.200844 0.00230421
0.0727488 0.131034 0.191075 0.00213683
0.280885 -0.358958 0.161769 0.000917214
0.278288 -0.333027 0.167589 0.0018801
0.298658 -0.352759 0.156607 0.000615137
0.296252 -0.327746 0.162054 0.000178262
-0.471619 -0.0546418 -0.0872457 0.0123208
-0.452 -0.0384015 -0.0886663 0.00804147
-0.456371 -0.0422446 -0.071395 0.00486476
-0.435885 -0.0274556 -0.0734472 0.00238018
0.632807 -0.191182 0.086352 0.00293386
0.620741 -0.175324 0.0966854 0.00156979
0.651156 -0.185357 0.0838937 0.00167921
0.643457 -0.167793 0.0931108 0.00256542
1.02145 -0.0206598 -0.0999509 0.00326048
1.01397 0.00752355 -0.0922083 0.00363247
1.03085 -0.0226504 -0.0781816 0.00075278
1.0236 0.00438228 -0.0703801 0.00724275
0.912681 -0.0202474 -0.535689 0.0011511
0.906145 0.00100909 -0.53126 0.000531368
0.93258 -0.0120371 -0.533868 0.00651615
0.925666 0.00966473 -0.529081 0.00607863
0.337663 0.22 0.236734 0.000546848
0.335692 0.236671 0.242325 0.000233735
0.352032 0.226777 0.236812 0.000479227
0.349262 0.243445 0.243047 0.00321544
-0.192223 -0.568364 -0.321914 0.00131064
-0.194157 -0.54476 -0.315489 0.000750084
-0.168823 -0.559595 -0.326189 0.00100733
-0.171052 -0.536024 -0.319635 0.00110906
-0.0717161 0.0657395 0.161684 0.0064961
-0.055763 0.0802587 0.159738 0.0108876
-0.0532317 0.0681896 0.181452 0.00501199
-0.0353814 0.0813538 0.17942 0.00735062
0.140936 0.308747 -0.186685 0.0145457
0.15696 0.325736 -0.186811 0.00763037
0.150875 0.313183 -0.165257 0.0099485
0.166776 0.330495 -0.165039 0.00261351
0.113181 0.545506 0.152214 0.0104318
0.107531 0.555127 0.160795 0.00632535
0.131575 0.542811 0.163908 0.00224729
0.118215 0.552566 0.178116 0.00610448
-0.188487 0.0813802 -0.127925 0.000272701
-0.163486 0.0927709 -0.133669 0.000437768
-0.173146 0.0872238 -0.112679 0.00197529
-0.148972 0.0984208 -0.117473 0.000999403
0.690194 -0.14026 0.0896041 0.00128084
0.688867 -0.1215 0.0966093 0.002226
0.704757 -0.13043 0.0862823 0.00239491
0.70458 -0.111219 0.0933033 0.00133987
0.440602 -0.383706 -0.422073 0.00507383
0.453821 -0.372767 -0.434794 0.00519157
0.4567 -0.379946 -0.408665 0.00595822
0.469918 -0.370327 -0.419756 0.00677844
0.238957 0.429269 0.272617 0.00475344
0.226568 0.456374 0.282453 0.00287069
0.246785 0.435296 0.295425 0.00184829
0.234396 0.462402 0.30526 0.00373103
-0.730643 0.134955 -0.064211 0.0035935
-0.729485 0.154355 -0.0644449 0.00727465
-0.720113 0.129008 -0.0416062 0.000746156
-0.728732 0.147664 -0.0345327 0.000429542
0.376299 0.329837 -0.0252699 0.00782676
0.399027 0.342558 -0.0305519 0.006693
0.393897 0.333229 -0.00851589 0.00678596
0.411666 0.345697 -0.00967974 0.00879331
0.885841 0.284178 0.0267996 0.00872182
0.86797 0.304777 0.0330954 0.0132707
0.884476 0.279929 0.0403475 0.0137017
0.868115 0.300402 0.0492989 0.00895828
0.984617 0.0420261 -0.19648 0.0104347
0.978689 0.0622862 -0.187903 0.0130872
0.9911 0.0396532 -0.175533 0.0118812
0.983684 0.0654979 -0.165946 0.0102075
0.87232 -0.174703 -0.405773 0.00620147
0.887427 -0.163351 -0.408552 0.00472002
0.89051 -0.173079 -0.387216 0.00384538
0.905018 -0.160007 -0.389955 0.0053287
0.0223325 -0.329193 -0.358515 0.000279641
0.019418 -0.296693 -0.352354 7.50207e-05
0.0479884 -0.326925 -0.366098 0.00159391
0.0458206 -0.294594 -0.359132 0.00040977
0.184505 -0.616292 -0.121861 0.00661317
0.204953 -0.603985 -0.128969 0.00750341
0.200715 -0.608646 -0.106606 0.00378411
0.22234 -0.596128 -0.113828 0.00507166
-0.661479 0.197145 0.00880566 0.0091906
-0.639633 0.210723 -0.00431931 0.00719394
-0.637596 0.200372 0.0246938 0.00486524
-0.612654 0.214774 0.0107416 0.00191701
-0.0594881 -0.797314 -0.0190727 0.00242431
-0.0375827 -0.786791 -0.0266391 0.00562171
-0.0408837 -0.792799 -0.00140781 0.00274965
-0.0197783 -0.783197 -0.00739401 0.00595246
-0.692077 0.105916 0.127324 0.0117109
-0.679573 0.121109 0.126228 0.00678985
-0.687791 0.111171 0.146844 0.00806452
-0.668156 0.125331 0.141312 0.0148159
-0.0707524 -0.410046 0.23459 5.28161e-05
-0.0704104 -0.388501 0.239816 0.00173403
-0.0526765 -0.399887 0.233388 0.0016735
-0.0519545 -0.378402 0.238975 0.00382618
0.683803 0.000851302 0.112762 0.00229557
0.678572 0.0177207 0.11592 0.00313978
0.703293 0.00457435 0.107186 0.00342354
0.697324 0.0211035 0.111008 0.0037609
-0.127496 -0.712672 0.206441 0.00229342
-0.1357 -0.696311 0.217046 0.00334037
-0.109061 -0.703156 0.210069 0.00424327
-0.117625 -0.686738 0.221895 0.00430858
-0.223869 -0.106482 0.353297 0.00510244
-0.213322 -0.0870285 0.345578 0.000144826
-0.204203 -0.10532 0.35522 0.000854856
-0.194762 -0.0859235 0.347984 0.00588436
0.629872 -0.304573 -0.385144 0.00133274
0.648414 -0.291517 -0.397768 0.0005595
0.641516 -0.304194 -0.368567 0.000462367
0.660241 -0.29119 -0.380894 0.000364889
1.06593 -0.161543 0.0193469 0.000655385
1.08136 -0.151757 0.0119814 0.00548295
1.07794 -0.154747 0.0297615 0.0115322
1.09325 -0.144885 0.0220224 0.00632431
-0.612848 -0.0183472 0.10201 0.00396333
-0.626523 0.0044928 0.109657 0.00504208
-0.613834 -0.0172 0.123097 0.00710109
-0.627321 0.00486983 0.130932 0.0084363
0.897121 -0.134415 -0.445702 0.00583342
0.911419 -0.118707 -0.455174 0.00787061
0.91709 -0.129086 -0.432997 0.0043003
0.931663 -0.114224 -0.441127 0.00804854
0.44652 0.748847 -0.268669 0.0146037
0.448459 0.772068 -0.257329 0.00682951
0.464488 0.769923 -0.261134 0.00621307
0.466125 0.793119 -0.250254 0.00105132
-0.12412 -0.867581 0.190153 0.0066098
-0.133171 -0.850236 0.198267 0.00503107
-0.100134 -0.856072 0.187705 0.00296691
-0.109047 -0.839129 0.196248 0.00042361
-0.203206 -0.761128 -0.0852249 0.007712
-0.214256 -0.739007 -0.0803442 0.00654498
-0.19402 -0.763004 -0.0601974 0.00427166
-0.203529 -0.741653 -0.054776 0.00225848
0.244753 -0.016365 0.0810095 0.00426759
0.232665 0.00146093 0.0928889 0.00712073
0.251616 -0.0206652 0.111359 0.00476159
0.238655 -0.00375538 0.120875 0.00849908
0.161254 0.440423 -0.26032 0.00992036
0.149854 0.463531 -0.253202 0.010489
0.188476 0.448913 -0.267684 0.00835189
0.176833 0.470471 -0.261783 0.00784279
0.441444 0.552206 -0.288678 0.00488073
0.451463 0.575444 -0.287709 0.00505552
0.461792 0.563371 -0.283117 0.00372272
0.473728 0.584596 -0.285009 0.00158795
0.625146 0.475701 -0.0223802 0.0143034
0.63905 0.490948 -0.0339916 0.0108049
0.6415 0.474056 -0.000487849 0.0130378
0.654009 0.489641 -0.0135462 0.0136611
-0.534405 -0.159346 -0.164502 0.00280046
-0.550656 -0.139492 -0.15686 0.00761966
-0.512334 -0.162111 -0.167455 0.00581007
-0.52536 -0.141673 -0.160868 0.00579061
0.759694 0.221745 -0.468308 0.00893649
0.758254 0.246203 -0.458236 0.00339374
0.779614 0.226315 -0.461464 0.00180115
0.778217 0.248968 -0.450593 0.00839442
-0.486359 -0.336289 -0.211827 0.0120768
-0.48158 -0.308678 -0.210277 0.00518817
-0.46681 -0.32343 -0.210587 0.000397576
-0.461653 -0.295753 -0.209062 0.00111775
-0.164306 0.0176901 0.268085 0.00340617
-0.15608 0.0344209 0.261438 0.00525654
-0.146733 0.0160127 0.28405 0.00893427
-0.143963 0.0343082 0.276952 0.00196949
0.236373 -0.405236 0.175638 0.00489198
0.233962 -0.380362 0.182655 0.00257587
0.253096 -0.398851 0.172693 0.00458723
0.250502 -0.372943 0.179191 0.00297195
0.488367 0.815916 -0.269963 0.0111216
0.482692 0.837537 -0.251516 0.00289784
0.499364 0.831083 -0.242238 0.00214536
0.494292 0.851926 -0.225914 0.00618458
-0.396811 0.129685 -0.170801 0.00645282
-0.392244 0.160339 -0.173625 0.000173421
-0.368475 0.1385 -0.174324 0.00867999
-0.3641 0.166358 -0.178074 0.00189512
0.495611 -0.468098 -0.0532134 0.00194581
0.508544 -0.457275 -0.0609695 0.00702596
0.508477 -0.463398 -0.036864 0.00604222
0.521476 -0.452521 -0.043614 0.00458866
0.7901 0.344203 -0.188014 0.00272649
0.77894 0.369734 -0.18974 0.000981793
0.798804 0.340712 -0.162858 0.000533531
0.787214 0.36806 -0.166731 0.00402519
-0.374799 -0.0938604 -0.0151202 0.000619291
-0.355175 -0.0788821 -0.0207331 0.00275798
-0.361762 -0.0912754 -0.00267437 8.23868e-05
-0.340642 -0.0758911 -0.00767102 0.00186168
0.586223 0.362075 0.196296 9.67559e-05
0.592893 0.383009 0.191744 0.0055148
0.604379 0.358241 0.203921 0.00451344
0.611044 0.37947 0.198546 0.00367702
0.48855 0.15908 -0.402223 0.00257436
0.493116 0.191615 -0.397279 0.00170537
0.515231 0.169262 -0.4039 0.000804298
0.519852 0.202097 -0.398788 0.00180135
0.761665 -0.350141 0.0442553 0.00266727
0.764971 -0.328094 0.0415711 0.000149709
0.779816 -0.346064 0.0447788 0.00366773
0.782863 -0.323536 0.041596 0.00356389
0.761525 0.394704 0.154203 0.00383937
0.753403 0.414542 0.159591 0.00376725
0.780974 0.393196 0.157322 0.00409242
0.772564 0.413212 0.162519 0.0039387
-0.105115 -0.371211 0.250125 0.000441635
-0.108234 -0.349273 0.256975 0.00287431
-0.0866764 -0.361432 0.249688 0.00304785
-0.0881076 -0.339928 0.256777 0.00154542
0.302736 0.0462832 -0.367674 0.0022065
0.295539 0.0770211 -0.359405 0.00364796
0.334573 0.0531601 -0.373059 0.00380642
0.327352 0.0832083 -0.364163 0.00594795
0.50804 -0.377992 -0.346581 0.00559279
0.524608 -0.369159 -0.348141 0.00497702
0.52869 -0.372856 -0.330029 0.00455947
0.544852 -0.363094 -0.33136 0.00497742
0.0344685 0.107034 -0.272041 0.00143053
0.0263658 0.126962 -0.268651 0.00322561
0.0567459 0.106653 -0.278773 0.00235341
0.0498331 0.126605 -0.275957 0.00440969
-0.319262 -0.536995 -0.00229486 0.0039428
-0.329086 -0.517981 0.0121749 0.00462135
-0.314888 -0.53933 0.0227724 0.00483441
-0.324707 -0.520431 0.0375661 0.00561072
-0.0929618 0.539582 0.0540637 0.00720855
-0.0523539 0.54802 0.0368351 0.00891859
-0.0719937 0.549663 0.0706751 0.0102332
-0.0298575 0.558216 0.0541156 0.00633664
-0.19023 0.0527368 0.182021 0.0150523
-0.186103 0.0654424 0.192559 0.00653027
-0.173441 0.056407 0.195338 0.000728393
-0.176278 0.068479 0.209955 0.00099078
0.631962 0.511529 -0.206387 0.00322753
0.640509 0.530371 -0.210952 0.00760627
0.637493 0.517219 -0.182534 0.00510235
0.644352 0.535921 -0.186574 0.0140287
0.310395 0.75843 0.000345994 0.00858635
0.344174 0.774173 -0.00844927 0.0131937
0.333125 0.763886 0.0213679 0.00917687
0.364877 0.778664 0.013849 0.013335
0.591684 -0.370791 0.0875108 0.00738949
0.599894 -0.350207 0.0905058 0.00566189
0.607993 -0.369711 0.0877304 0.00334483
0.614948 -0.349269 0.0902468 0.00236165
0.200031 -0.463388 0.164929 0.000109447
0.197367 -0.446369 0.16892 0.000669434
0.218413 -0.457323 0.160235 0.000804851
0.215631 -0.438016 0.16557 0.000662526
0.513007 0.874971 -0.0164016 0.00517411
0.510615 0.887576 -0.0094012 0.00378735
0.522283 0.878252 0.00185548 0.00518791
0.51982 0.891243 0.00799126 0.0070466
0.806759 -0.163901 0.0682852 0.00473786
0.807715 -0.145399 0.0750485 0.000863173
0.830165 -0.155132 0.0653448 0.00315543
0.830678 -0.136361 0.070518 0.000952844
0.263356 0.3633 0.273412 0.00821515
0.249112 0.390482 0.279249 0.00910518
0.27394 0.362314 0.29475 0.0118803
0.259742 0.389658 0.301099 0.0102875
0.278722 0.35504 -0.198825 0.000408472
0.294645 0.370828 -0.214056 0.00103975
0.29159 0.361781 -0.186693 0.000315319
0.30866 0.377125 -0.198472 0.00175042
0.000713577 -0.803313 0.0994381 0.00531388
0.0225782 -0.790085 0.0951601 0.00536086
0.0184539 -0.795344 0.116903 0.00235984
0.0411668 -0.781762 0.111475 0.002795
-0.536031 -0.132174 -0.109496 0.0116739
-0.548826 -0.128191 -0.0908904 0.000331262
-0.521027 -0.130829 -0.093498 0.0134367
-0.533823 -0.126866 -0.0737905 0.000897123
0.155236 0.320506 -0.186328 0.0111383
0.170668 0.336077 -0.187448 0.00540235
0.167828 0.323541 -0.167421 0.00960471
0.18368 0.340106 -0.169769 0.00353439
-0.0452191 -0.815205 0.118548 0.00711416
-0.025076 -0.804658 0.111351 0.00857804
-0.0329834 -0.80844 0.12897 0.00441573
-0.0104606 -0.796791 0.122497 0.00666666
0.0639135 -0.764032 0.0870385 0.00457244
0.0860154 -0.747495 0.0754309 0.00379245
0.0767176 -0.756973 0.105 3.23884e-05
0.0995014 -0.741418 0.0930415 0.000426295
0.273875 0.124301 0.258082 0.00211194
0.270417 0.144037 0.256989 0.00280582
0.293985 0.122685 0.255246 0.00457635
0.286363 0.143619 0.256373 0.000579604
0.149579 0.688154 -0.251141 0.0219993
0.174533 0.709779 -0.253641 0.0215849
0.167503 0.700137 -0.224194 0.00635693
0.191784 0.721928 -0.226027 0.00721978
0.884318 0.0553189 0.0817833 0.00637541
0.882039 0.074993 0.0881865 0.00381862
0.903189 0.0640854 0.0760053 0.00663698
0.900727 0.083174 0.082493 0.00593873
-0.634774 0.0227711 0.214193 0.00875984
-0.649051 0.0420027 0.214459 0.00634552
-0.6239 0.0145518 0.235063 0.0109831
-0.638571 0.0339946 0.233239 0.00862707
-0.237988 0.222992 -0.188554 0.0141172
-0.242928 0.246412 -0.182185 0.015415
-0.210622 0.239634 -0.195979 0.0111713
-0.215941 0.26415 -0.188135 0.0136208
0.927737 -0.256386 0.00998003 0.000551766
0.921604 -0.241585 0.019793 0.00416582
0.939579 -0.245279 0.0168248 0.00352285
0.935645 -0.230005 0.0255728 0.00389002
0.133981 -0.112119 0.252229 0.00158557
0.118287 -0.0952615 0.257559 0.00291419
0.15811 -0.115341 0.244646 0.00243336
0.144413 -0.0972013 0.250726 0.00275059
-0.484621 0.22875 0.260702 0.0179044
-0.460392 0.246506 0.258808 0.0181503
-0.465061 0.233872 0.277461 0.0174187
-0.442769 0.25075 0.274341 0.0187914
-0.0793256 0.458474 0.203908 0.00964569
-0.0568081 0.478998 0.197654 0.014976
-0.0562387 0.461864 0.235441 0.00981535
-0.0339258 0.481328 0.227176 0.0138299
0.245247 -0.088143 -0.0570498 0.0179245
0.227938 -0.0582982 -0.0485004 0.0171886
0.24748 -0.0870644 -0.0277995 0.016374
0.228925 -0.0554912 -0.0219658 0.0158279
0.452785 0.472898 -0.289269 0.00451334
0.470986 0.49075 -0.293413 0.00109735
0.464323 0.477064 -0.274018 0.00246214
0.481888 0.49515 -0.278394 0.00085683
0.233392 0.412878 0.186251 0.00600796
0.222706 0.436126 0.197319 0.00480417
0.237073 0.417385 0.213228 0.00427441
0.226123 0.441334 0.223357 0.00281098
0.327514 -0.537488 -0.195605 0.00564059
0.348978 -0.525786 -0.204892 0.00320937
0.347692 -0.531629 -0.18174 0.00475432
0.368748 -0.519975 -0.191943 0.0022385
0.112486 0.128029 0.14437 0.00269442
0.122317 0.146187 0.134667 0.011042
0.125464 0.119492 0.159774 0.00665416
0.13314 0.138773 0.1506 0.00378226
0.649341 -0.281406 -0.434329 0.000617668
0.667657 -0.267314 -0.446864 0.000385548
0.669369 -0.277493 -0.417878 0.00242449
0.685593 -0.265472 -0.429067 0.00263258
0.563095 0.518 -0.218736 0.000381864
0.583662 0.532355 -0.222405 0.000678309
0.585242 0.52771 -0.201104 7.7764e-05
0.605267 0.542765 -0.203796 0.00283955
-0.336632 -0.0583927 -0.0365584 0.00746929
-0.319658 -0.0438099 -0.0404176 0.0109522
-0.32406 -0.0530144 -0.0157848 0.0114739
-0.304023 -0.0389466 -0.0190239 0.0132539
0.630139 0.569289 -0.291082 0.0057612
0.625877 0.588725 -0.282564 0.00780616
0.638713 0.569835 -0.266793 0.00309674
0.635131 0.589598 -0.260377 0.00252421
0.193602 -0.214697 -0.379026 0.00455089
0.185143 -0.19755 -0.372171 0.00641221
0.209807 -0.214712 -0.374011 0.00675628
0.20076 -0.197789 -0.366649 0.0045196
0.0400674 -0.776778 0.0769847 0.00596111
0.0629859 -0.760979 0.0671931 0.00619814
0.0581745 -0.767354 0.0909837 0.00371365
0.0802701 -0.751113 0.0800351 0.00301374
0.907397 -0.169499 -0.35838 0.00637296
0.923417 -0.154389 -0.363367 0.00234977
0.920708 -0.16521 -0.338975 0.00404695
0.939828 -0.149385 -0.348027 0.00183289
0.286339 -0.596818 -0.00770842 0.00838544
0.306418 -0.588267 -0.0143466 0.00578709
0.30044 -0.592035 0.00929933 0.00655621
0.31884 -0.583182 0.00190993 0.00846195
0.74124 0.439809 -0.312665 0.00629573
0.733592 0.461297 -0.302174 0.00332264
0.752871 0.44007 -0.2874 0.000276784
0.744662 0.461825 -0.277111 0.00293602
-0.298486 0.367376 0.170394 0.0135292
-0.284089 0.386989 0.167989 0.00421197
-0.280491 0.371083 0.193149 0.0129588
-0.265029 0.391727 0.189766 0.00351202
0.295468 -0.163749 0.10477 0.000133706
0.279029 -0.141467 0.108258 0.00301092
0.310771 -0.169032 0.1153 0.0090288
0.294484 -0.147181 0.119417 0.0057088
-0.049339 -0.793618 0.171378 0.00344407
-0.0318746 -0.7792 0.16802 0.00230431
-0.0368808 -0.789145 0.180435 0.0067492
-0.0178946 -0.773832 0.176799 0.00557962
0.685221 0.620052 -0.00382132 0.00533795
0.672822 0.640072 0.00255202 0.0065887
0.687947 0.620992 0.0178139 0.00549854
0.675548 0.641249 0.0237907 0.00657471
0.934201 0.174262 0.0593151 0.000253783
0.92032 0.193351 0.0648205 0.00311879
0.939748 0.180984 0.066488 0.0062257
0.928877 0.20009 0.0716574 0.00643934
0.135363 0.231739 -0.127932 0.0105812
0.155295 0.253426 -0.127988 0.0110846
0.140761 0.244786 -0.102806 0.00523063
0.159288 0.26327 -0.101914 0.000678998
0.496831 -0.330436 -0.475252 0.00453345
0.500746 -0.309362 -0.475445 0.00207971
0.515674 -0.327305 -0.472153 0.00844393
0.520446 -0.306695 -0.472757 0.00907611
0.736491 0.527967 0.176507 0.00730988
0.730766 0.544568 0.176376 0.00351408
0.758977 0.520395 0.188106 0.00269153
0.746124 0.540871 0.19189 2.54229e-05
0.165693 0.194692 0.142943 0.000602095
0.179042 0.212304 0.140242 0.00863392
0.1881 0.200379 0.157502 0.00128973
0.199829 0.218164 0.154805 0.00764373
-0.708079 0.131522 0.141382 0.00902089
-0.699982 0.14533 0.142884 0.000546798
-0.701474 0.135274 0.165617 0.0100285
-0.682711 0.148954 0.160829 0.0135312
-0.113243 -0.12972 0.306135 0.00733988
-0.108763 -0.111627 0.302843 0.00251599
-0.0926077 -0.131902 0.301755 0.00671591
-0.091606 -0.113789 0.300653 0.00495794
0.247596 -0.51059 -0.367034 0.00883171
0.261906 -0.498835 -0.374417 0.00740426
0.261261 -0.506456 -0.356281 0.00894355
0.275834 -0.493866 -0.364698 0.00719361
1.08252 -0.159407 -0.125791 0.0072635
1.09188 -0.138419 -0.131121 0.00481675
1.09041 -0.155428 -0.106083 0.00254087
1.10151 -0.136469 -0.11233 0.00677766
0.343359 -0.372429 -0.44116 0.00596196
0.348583 -0.350499 -0.442233 0.00285614
0.364721 -0.36676 -0.443899 0.00434432
0.371207 -0.344949 -0.446045 0.00390557
-0.183639 -0.632312 -0.335809 0.00271127
-0.181806 -0.61048 -0.33231 0.00225631
-0.161688 -0.6255 -0.340422 0.00278667
-0.160198 -0.605145 -0.336331 0.00162337
0.463354 -0.127506 0.145578 0.00244933
0.465137 -0.103251 0.1497 0.00311697
0.485315 -0.11842 0.141553 0.00259003
0.487083 -0.0940457 0.145237 0.00281673
0.36884 0.588414 -0.266457 0.00696215
0.372343 0.619476 -0.261549 0.00616225
0.393418 0.596581 -0.268587 0.00422437
0.399349 0.625652 -0.265048 0.00383531
0.744233 -0.254092 -0.333852 0.00400153
0.761148 -0.240501 -0.343597 0.00517071
0.756467 -0.25186 -0.317811 0.00429043
0.773768 -0.240145 -0.324914 0.00436289
0.611111 0.434231 0.160019 0.000823611
0.625913 0.449231 0.145016 0.00283106
0.62493 0.439388 0.17061 0.00146637
0.639307 0.45399 0.155105 0.00320577
-0.327505 -0.0272272 0.102683 0.00771859
-0.306263 -0.0109354 0.0968366 0.00527865
-0.311685 -0.0209989 0.122447 0.00476101
-0.289932 -0.0047032 0.115569 0.00281822
0.59904 -0.403365 -0.0743123 0.00681985
0.609989 -0.38988 -0.0857962 0.00340821
0.610644 -0.397007 -0.0563415 0.00224909
0.622988 -0.383573 -0.0672775 0.000610601
-0.112481 -0.739255 -0.272265 0.00692422
-0.0935759 -0.725801 -0.282562 0.00691146
-0.089896 -0.727228 -0.262862 0.00894539
-0.0712466 -0.712316 -0.27408 0.00783812
-0.699349 0.0711963 -0.0995601 0.00452208
-0.708548 0.0916033 -0.084625 0.00402401
-0.702238 0.0708768 -0.0750495 0.00713902
-0.711358 0.0915087 -0.0605591 0.00133497
0.430756 -0.421082 -0.369723 0.000882977
0.448543 -0.414243 -0.374057 0.00446403
0.442425 -0.420253 -0.350718 0.000765689
0.460006 -0.413157 -0.354246 0.00382709
-0.22263 0.129055 0.0576644 0.012686
-0.225592 0.153899 0.0621396 0.00320115
-0.209442 0.133745 0.0873954 0.00315024
-0.21311 0.158323 0.0886999 0.00603238
0.479074 -0.230984 0.129703 0.00077586
0.472502 -0.210182 0.1381 0.00246461
0.495308 -0.22121 0.128306 0.000371341
0.487993 -0.200178 0.136524 0.0032221
-0.335529 0.193666 -0.175491 0.00719252
-0.339627 0.221031 -0.175298 0.00218019
-0.310062 0.196827 -0.175748 0.00363731
-0.316017 0.224468 -0.175867 0.00689859
0.231844 -0.118923 0.208616 0.00303357
0.224576 -0.0990248 0.216278 0.000529875
0.247445 -0.107599 0.209057 0.000519709
0.240161 -0.0889314 0.216566 0.00202228
0.61386 0.767693 0.151176 0.0122444
0.610456 0.79115 0.160372 0.00448488
0.61847 0.771414 0.177409 0.0100183
0.616214 0.795488 0.186784 0.000993326
0.568749 -0.198126 -0.475922 0.00126179
0.565579 -0.17176 -0.468796 0.0032673
0.592135 -0.192956 -0.482283 0.000116592
0.591326 -0.167616 -0.476349 0.00171692
0.695185 -0.177705 0.0896655 0.00573794
0.695778 -0.157776 0.0964389 0.00594354
0.712856 -0.168951 0.0889086 0.00725193
0.714076 -0.148905 0.0956189 0.00359974
0.768857 0.278469 0.131262 0.0014816
0.754852 0.296986 0.139017 0.00263398
0.795401 0.275842 0.128247 0.00222624
0.779923 0.294323 0.134767 0.00261123
0.205854 -0.0589374 -0.33626 0.00195014
0.195915 -0.0329322 -0.329814 0.00192133
0.224478 -0.0536965 -0.335624 0.00892389
0.215637 -0.0272194 -0.32834 0.00967251
0.587962 -0.339339 -0.317426 0.00861325
0.604888 -0.327755 -0.323071 0.00883475
0.604676 -0.333885 -0.297789 0.00749003
0.622766 -0.322715 -0.305733 0.00846061
0.719908 -0.370414 0.0440376 0.000349342
0.723036 -0.347703 0.0437047 0.00234611
0.734016 -0.366139 0.0412981 0.000166718
0.736616 -0.343488 0.0401761 0.00165307
-0.219908 0.176246 0.248238 0.0124504
-0.224828 0.193775 0.255037 0.00866286
-0.206237 0.174515 0.270932 0.00480272
-0.211686 0.189914 0.276582 0.0023896
0.183879 -0.495313 -0.409926 0.0045125
0.195554 -0.482908 -0.413648 0.00711192
0.192609 -0.49528 -0.39616 0.0108007
0.205116 -0.483414 -0.399891 0.00847926
0.352805 -0.165075 -0.41505 0.00151039
0.34449 -0.141642 -0.406079 0.00446868
0.37376 -0.163502 -0.420266 0.00141481
0.366486 -0.140507 -0.411616 0.0043895
0.60801 0.568747 -0.348154 0.0104705
0.598371 0.594618 -0.337079 0.0160411
0.618896 0.572953 -0.33355 0.00824675
0.611393 0.596134 -0.322427 0.0109163
-0.430137 -0.316535 0.106958 0.00122937
-0.442971 -0.290521 0.110463 0.000585479
-0.425434 -0.319393 0.13118 0.00199061
-0.440804 -0.292571 0.133978 0.0018264
0.154595 -0.672322 -0.0632816 0.00549334
0.176574 -0.660665 -0.0644653 0.00485003
0.174926 -0.664886 -0.0444361 0.00566696
0.196102 -0.654071 -0.0422838 0.00580103
0.306164 0.752094 -0.056944 0.0127656
0.340657 0.769581 -0.0709727 0.00796989
0.327265 0.759994 -0.0377883 0.0145288
0.363412 0.776064 -0.0479681 0.00874285
0.40592 0.410937 -0.215513 0.0143198
0.424164 0.42169 -0.222243 0.0132336
0.420327 0.413244 -0.198869 0.0138159
0.440201 0.423054 -0.205285 0.0112522
-0.180431 -0.735468 0.202494 0.0129649
-0.191521 -0.719442 0.213254 0.00842765
-0.164679 -0.727144 0.20469 0.00269627
-0.17494 -0.711276 0.214825 0.000641312
0.085153 0.135595 -0.290136 0.00266836
0.0782537 0.156811 -0.284872 0.00257107
0.105532 0.140834 -0.292075 0.00813332
0.099052 0.163603 -0.285249 0.0069005
-0.239781 -0.676769 0.23621 0.0123163
-0.238284 -0.655287 0.248411 0.00364079
-0.223452 -0.666582 0.247008 0.00301373
-0.221513 -0.645519 0.259382 0.00324087
-0.561979 0.155476 0.419723 0.00705798
-0.544962 0.17343 0.404124 0.00372863
-0.550118 0.157708 0.439876 0.00554767
-0.530148 0.175489 0.427439 0.00293246
0.392509 -0.511797 0.119723 0.00380244
0.390449 -0.490789 0.115684 0.00386619
0.41132 -0.515198 0.119364 0.000988499
0.40938 -0.494144 0.115369 0.00653643
-0.0527907 -0.722799 -0.201732 0.00687299
-0.0330914 -0.71049 -0.207344 0.00703236
-0.0308197 -0.715248 -0.185516 0.0065599
-0.0120778 -0.702778 -0.192748 0.00655012
-0.0688591 -0.847595 0.158865 0.00465388
-0.059197 -0.831979 0.158537 0.00464163
-0.0557731 -0.838958 0.163727 0.00423834
-0.039469 -0.824126 0.159783 0.00244372
-0.106589 0.0645621 0.185625 0.0115333
-0.0914447 0.0750018 0.180253 0.0110967
-0.0916375 0.0648322 0.205987 0.0130702
-0.0735075 0.0732284 0.200851 0.0156948
0.491862 0.39402 0.19118 0.00920626
0.491664 0.415191 0.182166 0.00653582
0.511303 0.391664 0.201633 0.0175837
0.511007 0.412275 0.193795 0.00197078
0.683022 0.290652 0.16307 0.00127938
0.673477 0.313528 0.172695 0.00464831
0.709333 0.29726 0.160317 0.00408514
0.698621 0.321023 0.170841 0.00736664
-0.131097 0.0847341 -0.0356458 6.46017e-05
-0.109334 0.0986562 -0.0413632 0.000157357
-0.114445 0.0897276 -0.0147331 0.00175148
-0.0922139 0.105173 -0.0220108 0.00264929
-0.449448 0.219383 0.343196 0.0146245
-0.433625 0.23406 0.335813 0.0178246
-0.431266 0.218764 0.363543 0.0108269
-0.416325 0.233299 0.355505 0.0141499
0.142306 -0.174057 0.227288 0.0013274
0.130581 -0.153624 0.234646 0.00236506
0.164348 -0.16638 0.221367 0.000111547
0.151769 -0.146656 0.229572 0.00163702
-0.07022 0.165712 -0.0971013 0.0147501
-0.050133 0.178673 -0.0973195 0.0131621
-0.0551687 0.173964 -0.0734882 0.00873873
-0.0324506 0.188524 -0.0770256 0.00786461
0.254899 0.489856 -0.258234 0.011937
0.245231 0.508547 -0.255001 0.0140764
0.279454 0.494093 -0.267038 0.0149924
0.271394 0.513779 -0.261893 0.0150588
0.597818 0.567547 -0.360552 0.00154517
0.588049 0.594042 -0.349458 0.00583625
0.610879 0.569856 -0.346635 0.0104783
0.601873 0.5948 -0.335549 0.0149555
0.370485 -0.341142 -0.149405 0.00859463
0.353415 -0.315726 -0.148535 0.00686315
0.376344 -0.343375 -0.119218 0.0083192
0.361447 -0.314372 -0.121793 0.0107282
0.0454647 0.325515 -0.225741 0.00702285
0.0549694 0.351137 -0.226289 0.00914171
0.0665672 0.343601 -0.217465 0.00330447
0.0747127 0.367664 -0.218027 0.00107806
-0.0923539 -0.807739 0.00660129 0.00738735
-0.0706997 -0.798192 0.000360992 0.0069993
-0.0730591 -0.800811 0.0211225 0.00678852
-0.052232 -0.791686 0.0160972 0.00793415
0.533733 0.297054 -0.394794 0.00551613
0.532279 0.325652 -0.383716 0.000351191
0.553842 0.304607 -0.398843 0.00561714
0.553418 0.33484 -0.387882 0.000139989
0.0645841 0.555091 -0.0825156 0.0148217
0.0751534 0.577823 -0.0831842 0.00580266
0.0739394 0.55942 -0.0617852 0.00749933
0.0861238 0.582059 -0.0648919 0.0110387
-0.472659 -0.267389 0.044867 0.00395606
-0.483007 -0.244557 0.0502589 0.00189972
-0.468844 -0.267229 0.0679856 0.00378862
-0.478391 -0.246531 0.0736315 0.00216967
0.412868 -0.497791 0.10135 0.00328481
0.409751 -0.476194 0.0985536 0.00229977
0.432282 -0.495847 0.100866 0.000715299
0.428815 -0.472399 0.100976 0.00362149
0.098398 0.204171 -0.0758599 0.0130889
0.0833746 0.228433 -0.0725195 0.0125916
0.107126 0.20024 -0.0543884 0.0150107
0.0928264 0.222113 -0.0512008 0.00826975
0.892499 -0.224466 0.0249421 0.000665452
0.886219 -0.208873 0.0328815 0.00300581
0.908916 -0.220137 0.0248578 0.00261705
0.903468 -0.20424 0.0335333 0.00715053
0.150427 0.557946 0.345291 0.00152793
0.1727 0.571593 0.3376 0.00551836
0.167356 0.569523 0.357795 0.0128205
0.189798 0.583004 0.350074 0.00886851
0.0979307 -0.338482 -0.358525 0.000410745
0.0942471 -0.307614 -0.350615 0.00153004
0.126723 -0.330842 -0.36646 0.00211492
0.123011 -0.301012 -0.358265 0.000249739
0.831004 -0.220434 -0.330379 0.00586495
0.848744 -0.205953 -0.341891 0.00585383
0.847006 -0.216158 -0.31297 0.00632726
0.86393 -0.201732 -0.322762 0.00446559
0.598034 0.186455 0.16548 0.00129559
0.59482 0.208172 0.173638 0.00239913
0.61687 0.196912 0.162317 0.0013062
0.614861 0.220308 0.171079 0.00300463
0.989801 -0.160343 -0.186515 0.00678986
1.01351 -0.145543 -0.189659 0.00750504
1.01379 -0.150531 -0.175356 0.00679317
1.03612 -0.135772 -0.178861 0.00802562
-0.432367 -0.283775 0.247188 0.00565353
-0.449325 -0.267388 0.250399 0.012195
-0.423057 -0.290093 0.26033 0.00273965
-0.436939 -0.274155 0.264552 0.00703018
-0.27127 -0.281467 0.324305 0.0060359
-0.276218 -0.262474 0.328671 0.00597993
-0.253429 -0.273542 0.319697 0.00728576
-0.257425 -0.254063 0.325343 0.00584488
0.370659 -0.315869 0.131212 0.00518299
0.366479 -0.299822 0.134811 0.00522087
0.394454 -0.310568 0.124613 0.00647611
0.390111 -0.295835 0.128913 0.00568178
-0.613044 -0.0481025 0.0833749 0.00913022
-0.627634 -0.0240453 0.0903755 0.00797962
-0.612797 -0.0470795 0.102781 0.0072072
-0.627103 -0.0250731 0.110838 0.00511294
-0.329689 0.314984 0.161962 0.00223961
-0.318902 0.336326 0.159118 0.00181503
-0.317479 0.318644 0.187146 0.00238263
-0.304446 0.339108 0.18439 0.00807011
-0.530781 -0.210332 0.164617 0.0131891
-0.513331 -0.19666 0.159007 0.00847785
-0.505069 -0.219995 0.176984 0.00208369
-0.496564 -0.204943 0.174169 0.0152763
0.060945 0.205807 -0.236186 0.00149158
0.0659293 0.225213 -0.234731 0.0101318
0.0663952 0.214609 -0.217229 0.00538565
0.0779173 0.233501 -0.218551 0.01506
0.967742 0.111702 0.0575028 0.0025371
0.962498 0.131656 0.0595813 0.000267165
0.98489 0.118331 0.0633273 0.00622863
0.98002 0.139602 0.0652909 0.00365562
-0.206017 0.0824836 -0.143012 0.00551755
-0.182093 0.0936732 -0.149393 0.00224904
-0.18875 0.0837152 -0.129979 0.00185097
-0.165646 0.0949505 -0.135488 0.000775482
0.241853 0.105125 -0.326155 0.00207864
0.244093 0.133939 -0.317732 0.00212018
0.274234 0.11535 -0.333834 0.00305471
0.271823 0.146281 -0.325399 0.000309158
0.450136 -0.555445 0.0876324 0.00155552
0.458807 -0.537454 0.0801472 0.00205642
0.469183 -0.547579 0.0919021 0.000753781
0.47571 -0.528842 0.0874393 0.00356773
0.019871 0.241671 -0.184413 0.0145139
0.0345781 0.261943 -0.188275 0.00515361
0.0316619 0.253513 -0.165718 0.00519603
0.0474667 0.273432 -0.168365 0.00366389
-0.443324 -0.0686729 0.0418499 0.00448
-0.41954 -0.0539748 0.0337286 0.00515326
-0.422436 -0.0612454 0.0548112 0.00459682
-0.398957 -0.0463692 0.04792 0.00466384
-0.105081 0.0825774 -0.145437 0.00848212
-0.101015 0.101797 -0.129588 0.00995839
-0.088701 0.0916035 -0.125581 0.00338984
-0.0848534 0.11031 -0.108733 0.0149721
-0.220549 -0.0345849 0.297605 0.0140366
-0.206133 -0.0197403 0.28441 0.0115205
-0.198021 -0.0334446 0.30858 0.0186009
-0.184606 -0.0193814 0.296369 0.0181827
-0.404191 -0.0401475 -0.15015 0.00534835
-0.39094 -0.0198226 -0.159987 0.000484023
-0.383492 -0.0427271 -0.14612 0.0146279
-0.370429 -0.0215441 -0.15665 0.00693924
0.239236 -0.026726 0.213785 0.00266139
0.236822 -0.00593551 0.219032 0.00141488
0.251149 -0.0130258 0.213851 0.00177506
0.248386 0.00799661 0.218806 0.00092979
0.948656 0.0433078 -0.337049 0.000293202
0.939557 0.0629405 -0.324927 0.000281094
0.952398 0.0432093 -0.315531 0.000100919
0.944048 0.0625052 -0.303303 0.000924456
0.318056 0.342632 -0.156694 0.0122761
0.342195 0.358985 -0.161395 0.013712
0.331563 0.355494 -0.138 0.0091043
0.35706 0.372738 -0.140434 0.00696678
0.155956 0.704079 -0.161182 0.0153706
0.182745 0.727841 -0.163475 0.0168849
0.176023 0.722545 -0.137766 0.0116958
0.201505 0.746817 -0.139746 0.00347725
0.321505 -0.445042 -0.421312 0.0014759
0.329535 -0.430609 -0.437069 0.00468504
0.333678 -0.449343 -0.410544 0.00804079
0.341507 -0.434173 -0.42716 0.00305673
0.244082 -0.550049 -0.298859 0.00531953
0.259574 -0.539332 -0.30421 0.00480393
0.260668 -0.546318 -0.278304 0.00463397
0.276548 -0.535333 -0.285135 0.00444927
-0.705735 0.186406 0.033888 0.0122893
-0.690023 0.201098 0.0235099 0.00978815
-0.684334 0.185846 0.0562344 0.0170244
-0.664297 0.199207 0.0431302 0.0183581
-0.205367 -0.500004 0.262399 0.000400352
-0.208127 -0.475602 0.268424 0.000951693
-0.183204 -0.489333 0.260608 0.00168558
-0.185749 -0.46292 0.267364 0.00348244
-0.493769 -0.3259 -0.117575 0.0018302
-0.503763 -0.302129 -0.119234 0.00196679
-0.485472 -0.334658 -0.0937563 0.00247639
-0.497521 -0.311106 -0.0956671 0.000503619
0.204353 0.349337 -0.175112 0.00555621
0.215489 0.371182 -0.180128 0.0053733
0.21816 0.352828 -0.163317 0.00168753
0.230442 0.37435 -0.168772 0.00399749
-0.0090717 -0.15732 -0.302882 0.00113837
-0.0203795 -0.130093 -0.297268 0.00270775
0.0151273 -0.159688 -0.307436 0.000800016
0.00497013 -0.133112 -0.301141 0.000263941
-0.252795 0.0518843 -0.20489 0.011704
-0.256776 0.0795176 -0.202949 0.011341
-0.234592 0.0540671 -0.196158 0.0146683
-0.238718 0.0808756 -0.195704 0.00593883
-0.669831 0.126799 0.190995 0.000132449
-0.653044 0.142551 0.184051 0.00364294
-0.65932 0.123048 0.211479 0.00298158
-0.647672 0.139692 0.205731 0.00424514
-0.3566 -0.475056 -0.294412 0.00950557
-0.377903 -0.45235 -0.283284 0.00755617
-0.335122 -0.482742 -0.282966 0.0078957
-0.356707 -0.460174 -0.271537 0.00999891
0.776467 -0.231238 -0.356969 0.00248952
0.792904 -0.215982 -0.369832 0.00449877
0.792547 -0.227635 -0.339967 0.0023971
0.808812 -0.213488 -0.352188 0.00371004
0.258562 -0.220944 -0.375403 0.00482352
0.247481 -0.201696 -0.366009 0.00438244
0.276866 -0.216599 -0.368222 0.0155209
0.265695 -0.197124 -0.357713 0.0182912
0.368373 0.482278 -0.310195 0.00666629
0.360342 0.507592 -0.300561 0.0100421
0.392262 0.496133 -0.307949 0.0125533
0.391766 0.521023 -0.301643 0.0146556
0.296482 0.240278 0.245644 0.00457857
0.29864 0.260716 0.251706 0.00923437
0.315509 0.245178 0.250355 0.0010826
0.317765 0.266142 0.256256 0.00102011
-0.431567 0.391518 -0.131096 0.004171
-0.437608 0.408482 -0.125095 0.0110226
-0.408402 0.395804 -0.11464 0.0109355
-0.414183 0.412839 -0.109495 0.00750623
0.306867 -0.563203 0.115626 0.00213894
0.311071 -0.539464 0.114768 0.00128771
0.327011 -0.556806 0.113877 0.00330904
0.330789 -0.532461 0.113375 0.0011414
0.126499 0.144649 0.195975 0.00734826
0.134903 0.167753 0.187541 0.00345206
0.145109 0.147412 0.214519 0.00893729
0.153336 0.169063 0.207016 0.000951362
-0.335191 0.280169 0.308358 0.00412756
-0.313434 0.297427 0.302449 0.00713148
-0.312884 0.291465 0.329294 0.00866285
-0.290264 0.30882 0.320379 0.00626832
-0.169463 0.0982039 -0.0260555 0.00770961
-0.147058 0.111859 -0.0320058 0.0080716
-0.153057 0.0969342 -0.0036785 0.0107151
-0.129786 0.110829 -0.010972 0.0116198
1.0218 -0.0212511 -0.0742317 0.00677894
1.01454 0.00578156 -0.0664303 0.00028897
1.03228 -0.0210997 -0.0560803 0.000268003
1.02626 0.00494947 -0.0499108 0.00699754
0.447775 -0.426589 0.0997887 0.000609483
0.447664 -0.407871 0.104948 0.000337561
0.463358 -0.414553 0.0989468 0.000534762
0.463745 -0.395232 0.103817 0.00126253
0.379789 -0.25982 -0.423613 0.00564077
0.370266 -0.242412 -0.415169 0.00255951
0.401127 -0.254385 -0.430475 0.00780856
0.392645 -0.237651 -0.422065 0.00440169
0.124562 0.225571 0.0315966 0.0175384
0.127917 0.247111 0.0261265 0.00650975
0.141721 0.231388 0.051887 0.0196576
0.145609 0.253154 0.0447261 0.00487704
0.749918 -0.251645 -0.369005 0.00552723
0.767134 -0.236955 -0.380213 0.00393851
0.763921 -0.250383 -0.350249 0.00619151
0.781178 -0.236296 -0.360937 0.00500023
0.291983 0.319504 0.231045 0.00970895
0.285225 0.346232 0.232791 0.00212387
0.309383 0.320424 0.242388 0.00400768
0.304561 0.347478 0.242301 0.0136563
0.220461 -0.151471 -0.361358 0.00171892
0.21228 -0.131956 -0.354799 0.0004351
0.244766 -0.149146 -0.363222 0.00210244
0.234761 -0.128242 -0.357321 0.00209517
-0.219416 0.486026 -0.0963623 0.0177038
-0.206549 0.50593 -0.100214 0.00779759
-0.208231 0.492904 -0.0730673 0.0111401
-0.192851 0.513431 -0.0769604 0.00188474
0.877342 0.282667 0.00292417 0.0134556
0.861649 0.303468 0.00779606 0.0106871
0.877872 0.278519 0.0161995 0.0106684
0.860936 0.299212 0.0214007 0.0060609
-0.0473586 0.483314 0.247159 0.0124995
-0.0254906 0.501817 0.238553 0.00917894
-0.024877 0.492174 0.274149 0.00856835
-0.00450111 0.511348 0.26316 0.00459277
0.34361 0.775934 -0.0658568 0.0132861
0.379012 0.792319 -0.0791891 0.00731058
0.362478 0.787373 -0.04442 0.0196693
0.397181 0.802667 -0.055433 0.0136851
0.0495306 0.560606 0.18968 0.006694
0.0723758 0.568928 0.174532 0.0141259
0.0654394 0.563439 0.205149 0.00774997
0.0816373 0.572547 0.193564 0.010516
0.43348 0.367579 -0.337825 0.0064565
0.431611 0.392264 -0.330769 0.00394122
0.454457 0.375776 -0.333814 0.00127247
0.455036 0.399505 -0.328472 0.00289327
-0.206084 -0.566958 -0.318193 0.00136326
-0.208118 -0.542971 -0.31193 0.000458683
-0.182406 -0.558749 -0.322417 0.000857758
-0.184361 -0.535174 -0.315888 0.00130181
-0.344927 -0.465887 -0.281488 0.0043242
-0.365864 -0.444119 -0.27143 0.00548314
-0.325183 -0.471024 -0.271952 0.00100303
-0.34483 -0.448396 -0.26224 9.10985e-06
0.906268 -0.262195 0.0227442 0.000858865
0.898557 -0.246753 0.0321004 0.00417158
0.918183 -0.253341 0.0240737 0.00144333
0.91146 -0.238222 0.0337769 0.000709149
0.267623 -0.0242619 -0.35273 0.00137878
0.25787 0.00174785 -0.345969 0.00128286
0.293398 -0.0242593 -0.360966 0.00294166
0.282408 0.00154265 -0.353155 0.00211237
0.245911 0.254084 0.0804805 0.000445112
0.266282 0.268636 0.0750693 0.000800527
0.26045 0.253001 0.101469 0.00188722
0.275793 0.271709 0.0971962 0.00301849
-0.760638 0.152756 0.0212443 0.000186324
-0.773652 0.177791 0.0257282 0.0097487
-0.755479 0.146127 0.0494807 0.00265037
-0.768118 0.171624 0.0526033 0.00901117
-0.389491 0.0685731 -0.150998 0.00278814
-0.381494 0.0961287 -0.15729 0.0110708
-0.36166 0.0714898 -0.153028 0.00164797
-0.354013 0.0980841 -0.159295 0.00654978
0.186526 0.0428856 -0.0506446 0.00571499
0.175896 0.0650186 -0.0402805 0.00493311
0.194678 0.0383976 -0.028399 0.00409964
0.18449 0.0612278 -0.0162813 0.00282797
-0.301696 0.340306 -0.133979 0.00658925
-0.30867 0.35933 -0.126259 0.00382379
-0.286091 0.345997 -0.130322 0.000133355
-0.294828 0.365991 -0.121095 0.00349471
0.441691 0.746266 0.263543 0.012903
0.462418 0.771228 0.257687 0.00287525
0.460163 0.759062 0.28382 0.00548036
0.481256 0.783683 0.278177 0.00414176
0.245091 0.651172 0.138723 0.00548163
0.264182 0.672065 0.125966 0.0110624
0.258216 0.657997 0.160621 0.010743
0.281039 0.677694 0.150213 0.0141719
0.469426 -0.171906 -0.428309 0.00161902
0.465964 -0.147238 -0.420283 0.00143581
0.490344 -0.162963 -0.43481 0.0040825
0.487118 -0.138102 -0.426897 0.00110688
0.375204 -0.417713 0.119466 0.000288467
0.373871 -0.395786 0.125289 0.00217672
0.385806 -0.406864 0.119205 0.000977108
0.383821 -0.386605 0.125755 0.00365651
0.2269 -0.0100593 -0.00305715 0.00476257
0.217456 0.013211 0.0112855 0.00293809
0.229686 -0.00683484 0.0217956 0.00415124
0.219632 0.0157891 0.035748 0.00312187
0.763989 0.398383 0.147321 0.0027081
0.756078 0.418037 0.15401 0.00125495
0.782516 0.396608 0.149676 0.00337162
0.774559 0.416001 0.155461 0.00275595
-0.197016 -0.0198151 -0.235303 0.0036035
-0.210056 -0.00278131 -0.224183 0.00123418
-0.176613 -0.0119077 -0.239095 0.00344098
-0.189133 0.0049716 -0.228457 0.00108681
-0.0471713 -0.0340478 -0.294401 0.0011621
-0.0479448 -0.00912805 -0.291286 0.00218677
-0.0235939 -0.0335819 -0.299345 0.000183468
-0.0235081 -0.00823341 -0.296611 0.00142806
-0.328792 -0.152837 -0.219075 1.0836e-05
-0.333644 -0.129028 -0.210452 0.0034069
-0.307687 -0.143374 -0.224385 0.00136747
-0.312333 -0.119593 -0.215251 0.00259451
0.33541 0.352065 -0.09837 0.00370168
0.357969 0.368879 -0.0991554 0.000141554
0.347182 0.357007 -0.0799042 0.000282191
0.369968 0.373207 -0.0814192 0.000261134
0.967545 -0.21658 -0.0484225 0.00465821
0.986176 -0.206587 -0.048126 0.00453865
0.981295 -0.204528 -0.0346482 0.00596589
0.999559 -0.194413 -0.0344754 0.0058428
0.743848 -0.256038 -0.289698 0.00417306
0.760726 -0.246397 -0.293143 0.00472894
0.761581 -0.251684 -0.271242 0.00402746
0.779246 -0.241459 -0.273995 0.00427858
-0.00458781 0.131112 0.0601325 0.00481055
0.0177144 0.142039 0.0491895 0.000910444
0.0131145 0.134839 0.083765 0.00575721
0.0353107 0.146501 0.0730724 0.00259336
-0.556714 -0.113392 0.194246 0.00873742
-0.570791 -0.0966308 0.205558 0.00372938
-0.551779 -0.114439 0.217577 0.00921481
-0.565209 -0.0969742 0.228834 0.00512163
0.61616 -0.144655 -0.463395 0.00339339
0.615934 -0.119617 -0.457265 0.00141661
0.631991 -0.138784 -0.469391 0.00615041
0.633803 -0.113185 -0.463296 0.00379262
0.0499539 -0.1831 -0.322882 0.00185841
0.0473004 -0.157447 -0.313628 0.00241952
0.0741671 -0.172998 -0.327756 0.00213318
0.0743979 -0.146954 -0.317457 0.00379301
0.574246 0.824992 0.105507 0.0087428
0.565019 0.844648 0.108668 0.00863773
0.582163 0.827066 0.123966 0.0053363
0.574248 0.84633 0.129387 0.00276519
-0.166563 -0.817235 0.05441 0.00347507
-0.172735 -0.793505 0.0512882 0.0107024
-0.155644 -0.823849 0.0797369 0.00594241
-0.164049 -0.798328 0.0763942 0.0122102
-0.479977 0.187643 -0.130973 0.0153045
-0.477346 0.210047 -0.122737 0.0189524
-0.455135 0.201094 -0.136299 0.0142378
-0.453444 0.223725 -0.128893 0.0182757
-0.298412 0.0344673 -0.179901 0.00111894
-0.291532 0.0558656 -0.186895 0.0115492
-0.275696 0.0324223 -0.169809 0.00861007
-0.270836 0.0540373 -0.175448 0.00328913
0.418659 0.406411 0.0220746 0.00774335
0.420831 0.418969 0.0310045 0.00416781
0.442009 0.414658 0.0325398 0.00894663
0.448365 0.42762 0.0376692 0.000391745
0.0236218 0.052407 0.312576 0.004408
0.0210148 0.0776022 0.311437 0.00790598
0.0555642 0.0543992 0.307346 0.00609729
0.0526917 0.0770898 0.306245 0.000919611
-0.674566 0.121712 0.325778 0.00724914
-0.675456 0.142624 0.329692 0.0104023
-0.673892 0.125609 0.350562 0.000569149
-0.673139 0.148445 0.352826 0.0201544
-0.296077 0.276465 0.414143 0.00200649
-0.276124 0.293073 0.402297 0.00721782
-0.27676 0.283424 0.432248 0.0189969
-0.25752 0.300707 0.419532 0.0088953
-0.0250866 -0.0400713 0.302781 0.00324175
-0.0305007 -0.0180186 0.301386 0.00597613
-0.00702409 -0.0412422 0.300795 0.000533157
-0.0133855 -0.0180157 0.30179 0.00469899
0.333204 -0.403924 -0.433434 0.00439321
0.3402 -0.383864 -0.43958 0.00360333
0.353291 -0.396681 -0.431755 0.00103089
0.361199 -0.376053 -0.440347 0.000384564
0.00793654 0.065535 -0.283349 0.00767903
-2.73017e-05 0.086443 -0.278227 0.00742602
0.0320391 0.0672439 -0.291233 0.00578087
0.0255211 0.0877582 -0.287027 0.00506625
0.284344 -0.591097 -0.0509313 0.0043335
0.303748 -0.58226 -0.0552276 0.00170367
0.298641 -0.591191 -0.0280729 0.00342798
0.317219 -0.58241 -0.0332869 0.000901292
0.892957 0.0816742 0.0690093 0.00247018
0.889944 0.100543 0.075899 0.00229781
0.913554 0.0902891 0.0652692 0.00262158
0.909075 0.108401 0.071611 0.00291443
0.0519626 -0.795797 0.154953 0.00184075
0.0702149 -0.782327 0.148031 0.000950916
0.061534 -0.782082 0.175056 0.00237187
0.0792727 -0.769034 0.167678 0.00715479
-0.587393 0.244849 -0.0719071 0.00261461
-0.587312 0.261477 -0.0615252 0.0113042
-0.558635 0.260429 -0.0701728 0.00371217
-0.56863 0.279584 -0.0588151 0.0186546
0.436255 -0.405594 0.119611 0.00580879
0.435353 -0.38663 0.125495 0.00694207
0.451059 -0.390752 0.119244 0.00681524
0.45139 -0.370278 0.125435 0.00557094
-0.1432 0.154189 -0.181836 0.0121624
-0.149501 0.179426 -0.176516 0.0135184
-0.116289 0.164458 -0.179769 0.0154488
-0.122179 0.187582 -0.173552 0.00847867
0.0383405 0.563208 0.12393 0.0160376
0.0688345 0.570471 0.112935 0.012487
0.0669743 0.572993 0.13973 0.0170356
0.0883103 0.579778 0.131069 0.0159379
0.276587 0.322561 -0.323133 0.00389005
0.26811 0.346056 -0.31618 0.00291244
0.295206 0.332617 -0.313453 0.00840226
0.286358 0.356923 -0.306853 0.00882774
0.152648 0.377722 -0.188103 0.0155569
0.151398 0.39835 -0.187259 0.00626107
0.169654 0.385857 -0.179832 0.00190884
0.171813 0.408088 -0.180065 0.0107583
-0.229935 -0.42014 0.280782 0.00106284
-0.235941 -0.395016 0.290791 0.00319763
-0.212178 -0.415444 0.277411 0.000653319
-0.218966 -0.390179 0.287475 0.00344562
-0.0153342 -0.568044 -0.379409 0.00706858
-0.0263485 -0.539925 -0.373657 0.00556698
0.0109971 -0.566989 -0.382082 0.00927866
0.00239246 -0.535873 -0.377671 0.00815247
0.648746 0.201582 0.15442 0.00176306
0.647888 0.226514 0.163116 0.00253153
0.670544 0.210703 0.152943 0.0007721
0.668519 0.235355 0.162318 0.00547316
-0.512326 -0.231993 0.0544972 0.00655656
-0.521973 -0.215553 0.0607293 0.00584821
-0.507201 -0.236542 0.0772926 0.00549143
-0.516365 -0.219366 0.083384 0.00558558
-0.16915 -0.307571 0.283084 0.00119454
-0.172124 -0.281088 0.293361 0.00385804
-0.151481 -0.294504 0.284422 0.00241844
-0.152943 -0.268147 0.294943 0.00716463
-0.299281 -0.561395 0.174255 0.00412831
-0.301257 -0.541548 0.189 0.0105111
-0.29432 -0.559588 0.196248 0.00626034
-0.298078 -0.539615 0.208978 0.0114672
0.150817 -0.297466 0.200678 0.0031549
0.143242 -0.280599 0.211263 0.00253614
0.173882 -0.295412 0.194811 0.00342902
0.164788 -0.280448 0.205567 0.00234497
0.276667 0.6054 0.297666 0.00750621
0.290718 0.63466 0.281503 0.00664428
0.29769 0.615781 0.323736 0.00541825
0.313292 0.644501 0.308143 0.0104047
0.047692 -0.707076 -0.106472 0.00194477
0.0686137 -0.69513 -0.11856 0.000740842
0.0638977 -0.703218 -0.089577 0.00198232
0.0864214 -0.691006 -0.101019 0.00105883
0.272626 -0.0590514 0.185842 0.01627
0.270181 -0.0404157 0.19099 0.00988179
0.287065 -0.0502745 0.188196 0.000145671
0.284167 -0.0320255 0.193307 0.00595792
0.589092 0.0881464 -0.416484 0.000786317
0.586497 0.114718 -0.409354 0.00133195
0.619991 0.0982546 -0.42114 0.000785661
0.61523 0.125102 -0.412831 0.00345972
0.996307 0.0445712 0.0406232 0.00140686
0.991225 0.0660834 0.0456112 0.00117346
1.01703 0.0466975 0.0438149 0.00565783
1.01135 0.0684432 0.0489733 0.00661908
0.27924 -0.276683 -0.398944 0.00218192
0.271957 -0.256442 -0.390737 0.000780454
0.29964 -0.26823 -0.399178 0.000618514
0.293026 -0.248287 -0.390171 0.00332721
-0.368337 -0.479287 -0.101743 0.0027903
-0.378778 -0.458413 -0.0929674 0.00227041
-0.364499 -0.475231 -0.0777688 0.00074191
-0.374334 -0.454537 -0.0669893 7.23129e-05
-0.250356 -0.0998339 0.279134 0.0126529
-0.238242 -0.0853861 0.26862 0.0141782
-0.232915 -0.103545 0.296025 0.0056984
-0.220435 -0.088861 0.284099 0.00930166
-0.603196 0.145091 0.26847 0.00412072
-0.586788 0.162396 0.261579 0.00940243
-0.593159 0.145115 0.297093 0.00676642
-0.576463 0.162991 0.290621 0.0125044
0.194821 -0.572578 -0.240652 0.00462593
0.209854 -0.562477 -0.244521 0.0040411
0.211686 -0.569696 -0.218433 0.00436554
0.227817 -0.558968 -0.223866 0.00415927
-0.181588 -0.0597346 0.278688 0.0145439
-0.170289 -0.044449 0.26664 0.0115887
-0.160882 -0.0607013 0.285512 0.00583148
-0.150437 -0.0451595 0.274033 0.0112226
-0.383557 0.291529 -0.135181 0.0148838
-0.389667 0.312905 -0.133353 0.0094825
-0.36521 0.287213 -0.125823 0.00274852
-0.371445 0.30984 -0.123904 0.00317563
0.774299 -0.392236 0.0534318 0.0147657
0.777721 -0.368564 0.0507183 0.000976904
0.791606 -0.384771 0.0566677 0.0175942
0.795227 -0.361357 0.0538024 0.000281468
0.853915 -0.124882 -0.534862 0.00355804
0.856176 -0.104747 -0.543364 0.00710997
0.867297 -0.123555 -0.524764 0.0037809
0.873228 -0.103985 -0.536573 0.00345595
0.682964 0.324334 -0.40628 0.00417629
0.672507 0.350443 -0.399279 0.00403803
0.708548 0.329821 -0.411871 0.00409426
0.698344 0.355258 -0.404317 0.00326215
0.718505 -0.314777 -0.1995 0.00123918
0.734735 -0.302556 -0.204617 0.000267499
0.731387 -0.308656 -0.180349 0.00283719
0.748993 -0.29646 -0.185518 0.00366968
0.572438 0.801249 0.0723415 0.00616065
0.562471 0.818988 0.0737572 0.00649773
0.580378 0.798285 0.0883787 0.0092171
0.570791 0.816769 0.0902843 0.0101895
-0.533246 -0.165243 0.017594 0.00861744
-0.538319 -0.159656 0.0356854 0.000362605
-0.527831 -0.15597 0.0349187 0.00113966
-0.521466 -0.149231 0.0480113 0.00450149
0.818396 0.373562 0.134371 0.00204131
0.814395 0.390465 0.139868 0.00337664
0.837133 0.378208 0.134633 0.00155797
0.832175 0.394795 0.139456 0.000698314
0.523891 0.542272 -0.269517 0.0158269
0.543759 0.557936 -0.283702 0.015404
0.544509 0.548345 -0.250699 0.0154738
0.56089 0.564065 -0.257434 0.0114832
0.147962 0.0756439 0.269937 0.00529156
