-5.007589999999999542e-01 -6.518300000000000483e-02 -2.477979999999999905e-01
9.300789999999999891e-01 5.861000000000000237e-02 -2.779300000000000173e-02
-6.064190000000000413e-01 -3.835210000000000008e-01 5.142599999999999949e-02
1.557099999999999873e-01 1.073680000000000051e-01 -1.578469999999999873e-01
-4.172170000000000045e-01 -2.969109999999999805e-01 -1.992170000000000052e-01
-5.765240000000000364e-01 -3.858880000000000088e-01 1.078370000000000023e-01
-1.249009999999999981e-01 -1.849729999999999985e-01 2.982759999999999856e-01
2.582600000000000173e-02 -2.629879999999999995e-01 -2.322740000000000082e-01
-6.860669999999999824e-01 1.949639999999999984e-01 -6.457499999999999352e-02
1.318900000000000072e-01 7.984900000000000331e-02 2.488999999999999893e-02
7.539600000000000468e-02 -2.982130000000000059e-01 2.322029999999999927e-01
-5.776259999999999728e-01 3.101490000000000080e-01 1.955790000000000028e-01
-2.153670000000000029e-01 -2.967499999999999999e-02 2.793979999999999797e-01
3.573660000000000170e-01 2.867499999999999910e-02 -3.565600000000000019e-02
-1.845819999999999961e-01 -6.856800000000000395e-02 2.904900000000000260e-01
-4.673479999999999857e-01 -1.863740000000000119e-01 -2.601530000000000231e-01
4.410499999999999837e-02 -2.487779999999999991e-01 2.619449999999999834e-01
-6.858530000000000459e-01 2.833979999999999833e-01 1.858849999999999947e-01
-7.891600000000000004e-02 -4.691239999999999855e-01 -8.003799999999999804e-02
-2.953040000000000109e-01 -8.283000000000000432e-03 2.660139999999999727e-01
9.582599999999999452e-02 3.727579999999999782e-01 2.101560000000000095e-01
-6.214039999999999564e-01 -9.668400000000000605e-02 -2.138069999999999971e-01
-6.691629999999999523e-01 1.117810000000000054e-01 -8.398300000000000209e-02
6.808300000000000463e-02 3.232519999999999838e-01 1.047399999999999998e-01
1.565380000000000105e-01 -4.141520000000000201e-01 9.879100000000000381e-02
-5.541099999999999914e-01 6.522699999999999332e-02 2.162669999999999870e-01
-3.997370000000000090e-01 -3.278889999999999860e-01 -1.814320000000000099e-01
-1.911909999999999998e-01 -4.915780000000000149e-01 4.500300000000000133e-02
3.585130000000000261e-01 -2.580410000000000204e-01 1.768099999999999949e-01
-1.537449999999999928e-01 -3.300359999999999960e-01 -2.376900000000000124e-01
-1.973540000000000016e-01 -3.047369999999999801e-01 2.695119999999999738e-01
-6.223699999999999788e-01 -1.394029999999999991e-01 2.242169999999999996e-01
-1.825890000000000013e-01 -4.585819999999999896e-01 -1.066290000000000016e-01
-5.728910000000000391e-01 -2.670890000000000208e-01 -1.911239999999999883e-01
8.770850000000000035e-01 3.833000000000000296e-02 -4.669399999999999940e-02
2.721779999999999755e-01 -3.928800000000000070e-01 1.080509999999999943e-01
7.616119999999999557e-01 1.304319999999999924e-01 -5.598700000000000204e-02
-7.344509999999999650e-01 -1.513279999999999903e-01 -7.367000000000000284e-03
-3.734560000000000102e-01 -4.923830000000000151e-01 4.919599999999999668e-02
8.878600000000000381e-02 -4.315700000000000092e-01 1.115669999999999995e-01
1.627260000000000095e-01 3.546200000000000047e-02 -1.686870000000000036e-01
-4.680719999999999881e-01 3.840000000000000097e-03 2.352720000000000089e-01
-1.423999999999999919e-03 1.112159999999999954e-01 -5.843000000000000277e-02
-1.799709999999999921e-01 -1.873839999999999950e-01 3.006309999999999816e-01
-5.709910000000000263e-01 3.075120000000000076e-01 8.603600000000000136e-02
-3.908099999999999768e-02 -4.409939999999999971e-01 -1.290439999999999920e-01
-6.074669999999999792e-01 8.573400000000000465e-02 7.293399999999999883e-02
5.224499999999999700e-01 -2.116959999999999953e-01 1.391950000000000132e-01
5.735050000000000425e-01 -2.052170000000000105e-01 -8.886800000000000255e-02
6.758739999999999748e-01 -2.839510000000000089e-01 1.009420000000000039e-01
-3.168489999999999918e-01 -4.866309999999999802e-01 6.199000000000000343e-02
1.520279999999999965e-01 2.644989999999999841e-01 -1.290070000000000106e-01
7.797910000000000119e-01 -8.906400000000000428e-02 -5.195600000000000218e-02
6.442689999999999806e-01 -2.584009999999999918e-01 -1.256249999999999867e-01
6.064200000000000146e-02 1.293000000000000095e-03 -1.122120000000000062e-01
1.493879999999999930e-01 -3.447850000000000081e-01 1.856619999999999937e-01
-2.137650000000000106e-01 -1.116309999999999941e-01 2.989959999999999840e-01
1.588130000000000097e-01 2.566570000000000240e-01 -1.879000000000000115e-02
8.863500000000000545e-02 6.612400000000000222e-02 -7.021600000000000064e-02
2.574319999999999942e-01 7.593700000000000450e-02 -3.385400000000000215e-02
2.868530000000000246e-01 -2.935300000000000131e-01 1.976930000000000076e-01
3.561500000000000221e-01 -6.395900000000000196e-02 1.501520000000000077e-01
-7.921400000000000663e-02 -4.205209999999999781e-01 -1.666990000000000138e-01
-2.971380000000000132e-01 -2.749440000000000217e-01 -2.303939999999999877e-01
5.336170000000000080e-01 3.515999999999999681e-02 6.984300000000000230e-02
-1.850060000000000038e-01 1.122969999999999940e-01 1.041740000000000027e-01
4.435649999999999871e-01 -2.566120000000000068e-01 1.317000000000000115e-01
-4.283870000000000178e-01 -3.645010000000000194e-01 1.625540000000000040e-01
3.288340000000000152e-01 6.607999999999999985e-02 -4.615000000000000178e-03
8.761800000000000144e-02 4.000739999999999852e-01 2.112650000000000083e-01
-4.752739999999999743e-01 -3.939329999999999776e-01 -1.335619999999999863e-01
7.509590000000000432e-01 2.064340000000000064e-01 1.222020000000000051e-01
-2.070780000000000121e-01 1.161070000000000019e-01 -9.671599999999999642e-02
9.434029999999999916e-01 1.658380000000000132e-01 9.769300000000000206e-02
8.267799999999999594e-01 2.469810000000000061e-01 -3.497000000000000108e-03
-5.801269999999999483e-01 3.150700000000000167e-01 1.298700000000000132e-01
8.081199999999999495e-02 2.338290000000000091e-01 1.842189999999999939e-01
8.557639999999999691e-01 -3.280500000000000083e-02 1.041870000000000018e-01
1.687009999999999899e-01 -4.357929999999999859e-01 1.005999999999999950e-03
-6.247089999999999588e-01 2.067970000000000086e-01 7.337699999999999778e-02
-4.498320000000000096e-01 -4.817940000000000000e-01 5.759899999999999742e-02
-3.818320000000000047e-01 -4.939199999999999841e-02 -2.286219999999999919e-01
-2.899689999999999768e-01 -6.973100000000000132e-02 -2.669719999999999871e-01
-5.706980000000000386e-01 6.482100000000000362e-02 2.146889999999999910e-01
5.995099999999999735e-02 4.391079999999999983e-01 -6.190500000000000169e-02
6.439550000000000551e-01 -2.884439999999999782e-01 -1.223029999999999951e-01
5.426699999999999857e-01 -1.316970000000000085e-01 -9.310499999999999332e-02
7.721160000000000245e-01 -2.348300000000000040e-02 1.340810000000000057e-01
-1.491969999999999963e-01 -1.040559999999999957e-01 2.971179999999999932e-01
8.963100000000000511e-01 2.238680000000000114e-01 6.736200000000000521e-02
4.631939999999999946e-01 1.463099999999999991e-02 5.675100000000000283e-02
4.612649999999999806e-01 -2.003000000000000006e-03 9.879400000000000681e-02
1.543140000000000067e-01 1.290030000000000066e-01 -2.194199999999999970e-02
3.413370000000000015e-01 -3.682360000000000078e-01 -8.282399999999999485e-02
1.226860000000000034e-01 3.564899999999999736e-01 -1.278219999999999912e-01
1.378610000000000113e-01 1.497110000000000107e-01 -1.462579999999999991e-01
1.757160000000000111e-01 3.039850000000000052e-01 1.071899999999999936e-01
5.808300000000000268e-02 -3.659529999999999728e-01 1.961680000000000090e-01
-5.619729999999999448e-01 -1.347190000000000054e-01 2.536450000000000093e-01
-2.792020000000000057e-01 -4.180889999999999884e-01 -1.371249999999999969e-01
-1.138829999999999981e-01 -3.324110000000000120e-01 -2.393669999999999964e-01
8.388590000000000213e-01 1.889079999999999926e-01 -4.784700000000000064e-02
-6.592500000000000027e-01 -2.321199999999999930e-01 -1.388560000000000072e-01
6.834139999999999660e-01 -2.685489999999999822e-01 -5.819499999999999673e-02
-5.064899999999999958e-01 -4.537140000000000062e-01 -7.568199999999999927e-02
1.339909999999999990e-01 -6.171100000000000196e-02 -1.488960000000000006e-01
5.927700000000000330e-02 1.023329999999999934e-01 5.078400000000000275e-02
-3.600099999999999828e-02 -3.088980000000000059e-01 2.591840000000000255e-01
-5.037490000000000023e-01 -4.511919999999999820e-01 -8.129300000000000415e-02
-4.003669999999999729e-01 -4.783540000000000014e-01 7.119899999999999840e-02
-2.927770000000000095e-01 -1.356839999999999991e-01 -2.767950000000000133e-01
8.355439999999999534e-01 2.512940000000000174e-01 1.499600000000000065e-02
2.531590000000000229e-01 -1.909689999999999999e-01 -1.881009999999999904e-01
7.761899999999999356e-02 -2.531800000000000023e-02 1.571839999999999904e-01
-4.059369999999999923e-01 -9.197700000000000320e-02 -2.326459999999999917e-01
-6.703679999999999639e-01 -3.311499999999999999e-01 1.023699999999999957e-02
-7.972500000000000420e-02 -2.927009999999999890e-01 -2.515749999999999931e-01
7.947929999999999717e-01 2.405220000000000136e-01 5.388300000000000034e-02
-2.296179999999999888e-01 -4.942549999999999999e-01 4.192499999999999699e-02
6.774569999999999759e-01 -2.992170000000000107e-01 3.353000000000000078e-03
9.468910000000000382e-01 6.245099999999999957e-02 1.609599999999999920e-02
8.501170000000000115e-01 1.640659999999999896e-01 1.485940000000000039e-01
3.944449999999999901e-01 2.648400000000000060e-02 -1.245399999999999979e-02
-3.296229999999999993e-01 2.831399999999999889e-02 2.348510000000000042e-01
-4.939490000000000269e-01 9.918499999999999539e-02 -1.694920000000000038e-01
-2.002680000000000016e-01 -2.938879999999999826e-01 2.738849999999999896e-01
1.559830000000000105e-01 3.498370000000000091e-01 9.493000000000000049e-02
-4.234680000000000111e-01 -3.170100000000000001e-02 -1.502139999999999864e-01
-3.976589999999999847e-01 -6.498999999999999569e-03 -1.596289999999999931e-01
2.206660000000000010e-01 -4.319430000000000214e-01 -2.965000000000000187e-03
-1.639950000000000019e-01 -4.399719999999999742e-01 -1.353469999999999951e-01
1.844909999999999883e-01 -1.834840000000000082e-01 -1.923729999999999885e-01
-3.628170000000000006e-01 -4.356280000000000152e-01 -1.153570000000000012e-01
-6.818330000000000224e-01 -4.530100000000000099e-02 1.314879999999999938e-01
-3.563580000000000081e-01 5.654800000000000104e-02 -1.183339999999999947e-01
-1.860020000000000007e-01 -4.894169999999999909e-01 -4.183200000000000113e-02
7.441079999999999917e-01 1.313410000000000133e-01 1.394660000000000066e-01
8.952100000000000335e-02 2.247439999999999993e-01 1.908179999999999876e-01
-5.558189999999999520e-01 -4.518799999999999900e-02 2.568250000000000255e-01
4.218410000000000215e-01 -6.915899999999999825e-02 1.438879999999999881e-01
-5.084500000000000131e-02 -2.444679999999999909e-01 -2.570219999999999727e-01
7.208689999999999820e-01 1.969259999999999899e-01 -1.233000000000000068e-02
-6.851899999999999658e-01 -2.938699999999999993e-02 1.529820000000000069e-01
-6.351480000000000459e-01 2.980209999999999804e-01 7.379099999999999548e-02
-5.915820000000000523e-01 2.719070000000000098e-01 -1.688639999999999863e-01
7.724000000000000310e-02 2.429230000000000000e-01 -8.244999999999999551e-02
-4.753609999999999780e-01 -2.412800000000000014e-02 -3.173700000000000132e-02
-5.861600000000000144e-01 -3.874020000000000241e-01 9.409299999999999609e-02
1.754100000000000104e-01 -1.780200000000000116e-01 -2.001489999999999936e-01
-6.494969999999999910e-01 3.021760000000000002e-01 9.284900000000000098e-02
-2.030200000000000060e-02 -4.755559999999999787e-01 1.700199999999999975e-02
3.705930000000000057e-01 -2.389429999999999887e-01 -1.326390000000000069e-01
7.918560000000000043e-01 -1.548559999999999937e-01 -4.362400000000000305e-02
7.175599999999999756e-01 -2.440789999999999904e-01 1.202470000000000067e-01
-4.095960000000000156e-01 -4.733530000000000237e-01 -8.043599999999999361e-02
7.416350000000000442e-01 1.997329999999999939e-01 1.117910000000000015e-01
1.749350000000000072e-01 2.234220000000000095e-01 9.222700000000000342e-02
-6.315490000000000270e-01 -6.949099999999999722e-02 2.259619999999999962e-01
6.915160000000000196e-01 -2.867410000000000236e-01 7.053000000000000241e-03
5.808429999999999982e-01 -1.370900000000000070e-02 -7.139299999999999813e-02
-4.381229999999999847e-01 -8.250000000000000389e-03 -4.909299999999999775e-02
4.861500000000000266e-01 -3.791499999999999732e-02 -7.483299999999999674e-02
-6.625490000000000546e-01 -2.986030000000000073e-01 -1.585500000000000104e-02
-5.589410000000000212e-01 2.452600000000000058e-01 1.871559999999999890e-01
-3.408450000000000091e-01 -5.068470000000000475e-01 7.309999999999999658e-03
1.283219999999999916e-01 -3.966160000000000241e-01 -1.082380000000000009e-01
9.846299999999999497e-02 3.131510000000000127e-01 -1.224399999999999933e-01
4.572220000000000173e-01 -1.114539999999999975e-01 1.505950000000000066e-01
1.162519999999999942e-01 -2.131999999999999867e-02 -1.325439999999999952e-01
8.320189999999999531e-01 2.530970000000000164e-01 4.273699999999999721e-02
-2.900030000000000108e-01 -9.135799999999999477e-02 -2.724920000000000120e-01
9.811000000000000276e-03 -8.680799999999999628e-02 -2.368730000000000002e-01
9.254719999999999613e-01 1.977569999999999883e-01 1.882800000000000099e-02
6.365830000000000100e-01 -3.232430000000000025e-01 3.466999999999999943e-02
9.312420000000000142e-01 1.302810000000000079e-01 1.355320000000000136e-01
-4.584670000000000134e-01 5.265800000000000342e-02 1.691519999999999968e-01
2.627510000000000123e-01 8.421700000000000019e-02 -1.281809999999999894e-01
-2.064979999999999871e-01 -2.171400000000000066e-02 -2.503790000000000182e-01
-1.332879999999999898e-01 -3.838170000000000193e-01 -2.022819999999999896e-01
3.358329999999999926e-01 -9.819899999999999463e-02 -1.300580000000000069e-01
2.107719999999999871e-01 2.658010000000000095e-01 -4.060500000000000220e-02
6.841049999999999631e-01 1.918009999999999993e-01 2.892199999999999979e-02
3.599299999999999722e-02 1.031699999999999978e-01 -4.648900000000000254e-02
2.768579999999999930e-01 6.461000000000000076e-02 7.502300000000000635e-02
-2.118410000000000015e-01 -1.839030000000000109e-01 -2.785839999999999983e-01
7.431140000000000523e-01 7.939000000000000223e-02 1.442970000000000086e-01
1.037840000000000013e-01 2.645959999999999979e-01 9.150600000000000400e-02
-6.689709999999999823e-01 -2.093220000000000081e-01 5.218799999999999828e-02
-6.327850000000000419e-01 3.057810000000000250e-01 9.447200000000000042e-02
3.143489999999999895e-01 -3.215759999999999730e-01 -1.321519999999999917e-01
8.349710000000000187e-01 -2.819699999999999984e-02 1.194459999999999966e-01
-4.356410000000000005e-01 -1.165199999999999916e-02 -7.341999999999999915e-02
-5.639640000000000208e-01 2.021640000000000104e-01 1.045259999999999939e-01
-6.303600000000000314e-01 2.911000000000000046e-02 -6.107300000000000229e-02
6.887400000000000466e-02 -2.737829999999999986e-01 2.477830000000000032e-01
-2.985860000000000181e-01 -4.915100000000000025e-02 2.834400000000000253e-01
-2.373419999999999974e-01 -2.740000000000000213e-01 -2.460859999999999992e-01
4.605330000000000257e-01 -2.841509999999999869e-01 1.177610000000000046e-01
2.497550000000000048e-01 1.589349999999999929e-01 -1.096250000000000002e-01
1.843770000000000131e-01 2.362980000000000080e-01 -2.087400000000000019e-02
8.426249999999999574e-01 7.731999999999999984e-02 1.529310000000000114e-01
-5.433789999999999454e-01 2.421429999999999971e-01 1.162060000000000037e-01
-4.728470000000000173e-01 1.243409999999999932e-01 -1.231450000000000045e-01
-4.029820000000000069e-01 -1.736330000000000096e-01 -2.641910000000000092e-01
-1.802420000000000133e-01 -1.933529999999999971e-01 3.008460000000000023e-01
2.163339999999999985e-01 1.316890000000000005e-01 -2.487199999999999828e-02
1.895459999999999923e-01 1.301859999999999962e-01 -1.527669999999999861e-01
-6.634579999999999922e-01 3.007529999999999926e-01 1.137890000000000013e-01
7.564899999999999403e-02 2.580589999999999828e-01 -9.460699999999999665e-02
-4.522419999999999773e-01 8.599000000000000740e-03 1.095539999999999986e-01
7.980500000000000371e-01 -1.875390000000000112e-01 9.992800000000000293e-02
9.597320000000000295e-01 9.085200000000000220e-02 1.498099999999999953e-02
7.825790000000000246e-01 1.920149999999999912e-01 -4.820399999999999685e-02
1.200279999999999958e-01 -4.096299999999999941e-02 2.012009999999999910e-01
8.791710000000000358e-01 -2.880599999999999827e-02 5.217700000000000116e-02
2.386220000000000008e-01 2.004199999999999871e-01 1.510229999999999906e-01
8.803400000000000114e-02 2.149639999999999884e-01 -1.069579999999999975e-01
-2.741899999999999893e-01 -2.658960000000000212e-01 2.681470000000000242e-01
1.517519999999999980e-01 3.911890000000000089e-01 9.120399999999999341e-02
2.052920000000000023e-01 2.262450000000000017e-01 1.039019999999999944e-01
5.775409999999999711e-01 -7.173100000000000309e-02 -8.358500000000000651e-02
2.108829999999999871e-01 2.699380000000000113e-01 -4.250600000000000211e-02
1.692950000000000010e-01 5.340899999999999814e-02 7.753799999999999581e-02
1.686890000000000056e-01 6.748300000000000132e-02 -1.651410000000000100e-01
-7.905000000000000568e-03 -4.055199999999999777e-02 2.446369999999999933e-01
1.581780000000000130e-01 2.802220000000000266e-01 -1.250300000000000022e-01
-6.867689999999999628e-01 1.683600000000000096e-01 -8.826699999999999824e-02
6.253999999999999837e-02 -1.937419999999999976e-01 2.679670000000000107e-01
6.150360000000000271e-01 9.899499999999999966e-02 1.150299999999999934e-02
5.967710000000000514e-01 2.976699999999999832e-02 1.236949999999999994e-01
-5.705780000000000296e-01 2.636300000000000102e-02 7.036799999999999999e-02
-6.790249999999999897e-01 1.410100000000000069e-02 1.479890000000000094e-01
2.690949999999999731e-01 -4.188350000000000128e-01 -2.954800000000000135e-02
2.415470000000000117e-01 -1.152659999999999935e-01 2.172789999999999999e-01
-1.280310000000000059e-01 1.273360000000000047e-01 3.747099999999999737e-02
-3.648529999999999829e-01 4.005600000000000133e-02 5.744900000000000007e-02
-4.751000000000000015e-03 -2.636399999999999855e-02 2.309130000000000071e-01
7.640799999999999814e-01 9.598900000000000488e-02 1.486389999999999934e-01
-6.421890000000000098e-01 -6.221700000000000147e-02 2.185400000000000120e-01
-6.834139999999999660e-01 -5.995600000000000235e-02 1.402960000000000040e-01
6.785440000000000360e-01 1.440249999999999864e-01 9.722200000000000286e-02
6.748969999999999692e-01 1.650919999999999888e-01 -2.759999999999999867e-04
1.194159999999999944e-01 8.002900000000000291e-02 6.453200000000000602e-02
3.269369999999999776e-01 -1.690800000000000081e-01 1.920999999999999930e-01
4.551569999999999783e-01 -3.609200000000000186e-01 4.581299999999999956e-02
2.785710000000000131e-01 -2.598179999999999934e-01 -1.761959999999999915e-01
-6.707180000000000364e-01 -1.631519999999999915e-01 -1.396910000000000096e-01
-7.100429999999999797e-01 2.406850000000000100e-01 -1.001670000000000060e-01
-6.358890000000000375e-01 -2.374469999999999914e-01 -1.676829999999999987e-01
1.667589999999999906e-01 3.685700000000000087e-02 2.246579999999999966e-01
-3.859079999999999733e-01 -3.122780000000000000e-01 2.067829999999999946e-01
5.435069999999999624e-01 -9.021500000000000352e-02 1.509300000000000086e-01
2.832810000000000050e-01 -3.105919999999999792e-01 -1.501290000000000124e-01
-6.733299999999999841e-01 -1.695979999999999988e-01 -7.343900000000000428e-02
-2.108059999999999934e-01 1.091059999999999947e-01 6.047099999999999698e-02
9.308619999999999672e-01 3.187399999999999956e-02 2.706700000000000078e-02
5.145000000000000268e-03 -7.649000000000000243e-02 -2.334060000000000024e-01
-3.563200000000000256e-01 -4.432200000000000029e-01 1.115349999999999953e-01
2.190650000000000097e-01 2.027000000000000156e-03 2.220340000000000091e-01
-6.773540000000000116e-01 1.220780000000000060e-01 1.469300000000000050e-01
-1.621680000000000066e-01 -4.364520000000000066e-01 -1.407710000000000072e-01
-6.240899999999999920e-02 1.939499999999999905e-02 -1.987710000000000032e-01
5.085749999999999993e-01 -3.049350000000000116e-01 -5.750399999999999956e-02
2.149010000000000087e-01 2.819679999999999964e-01 -9.117999999999999716e-02
6.429300000000000292e-02 2.805840000000000001e-01 1.685210000000000041e-01
1.498230000000000117e-01 2.175829999999999986e-01 -1.339770000000000127e-01
3.902000000000000086e-03 1.133200000000000006e-02 -1.666159999999999863e-01
2.665020000000000167e-01 -5.318300000000000111e-02 -1.601229999999999876e-01
-6.776330000000000409e-01 -1.621569999999999956e-01 -9.183299999999999796e-02
6.561200000000000365e-02 -4.290550000000000197e-01 -1.055050000000000016e-01
8.133200000000000152e-02 4.392260000000000053e-01 -1.881999999999999992e-02
-7.064690000000000136e-01 2.953720000000000234e-01 -1.111540000000000028e-01
-1.485480000000000134e-01 -4.623149999999999760e-01 1.209540000000000060e-01
4.542769999999999864e-01 -1.894990000000000008e-01 -9.701100000000000001e-02
6.888710000000000111e-01 7.855800000000000283e-02 -4.760799999999999754e-02
-4.242330000000000267e-01 -2.981639999999999846e-01 2.130009999999999959e-01
-5.051970000000000072e-01 -3.731929999999999970e-01 -1.417740000000000111e-01
-6.340839999999999810e-01 -3.482399999999999940e-01 -6.879300000000000692e-02
6.092800000000000438e-01 -1.437090000000000034e-01 1.475879999999999970e-01
2.334340000000000026e-01 -1.617679999999999951e-01 2.253920000000000090e-01
-1.612449999999999994e-01 1.200250000000000067e-01 6.342799999999999827e-02
-4.931110000000000215e-01 1.273900000000000032e-01 1.131299999999999945e-01
-3.752469999999999972e-01 2.357100000000000167e-02 2.375800000000000134e-02
-3.071760000000000046e-01 -1.715389999999999970e-01 -2.712030000000000274e-01
-4.423699999999999855e-01 2.332499999999999851e-02 -1.625350000000000128e-01
2.215330000000000077e-01 -4.166569999999999996e-01 -4.722200000000000009e-02
9.028300000000000214e-02 -1.382400000000000018e-01 2.429250000000000020e-01
-3.704990000000000228e-01 4.592999999999999861e-02 -1.062400000000000011e-01
1.514199999999999990e-01 -4.092680000000000207e-01 1.097840000000000066e-01
-4.932559999999999722e-01 1.008939999999999976e-01 1.878170000000000117e-01
2.654909999999999770e-01 5.429400000000000198e-02 5.609700000000000103e-02
-4.101199999999999984e-02 -1.977329999999999921e-01 2.863069999999999782e-01
6.716330000000000355e-01 1.692859999999999920e-01 1.248600000000000057e-02
-4.733570000000000277e-01 -3.871740000000000181e-01 -1.379039999999999988e-01
1.714930000000000065e-01 4.585560000000000191e-01 -3.955199999999999688e-02
6.708000000000000421e-03 -7.094599999999999518e-02 -2.303310000000000080e-01
-1.415079999999999949e-01 -4.825820000000000110e-01 -5.502400000000000346e-02
-2.982139999999999791e-01 1.967999999999999958e-02 -2.271489999999999898e-01
-5.192639999999999478e-01 8.665599999999999692e-02 8.129500000000000615e-02
-5.451500000000000096e-02 -1.933219999999999938e-01 -2.634630000000000027e-01
-6.623550000000000271e-01 -2.131349999999999911e-01 -2.803599999999999842e-02
7.092209999999999903e-01 -1.635300000000000087e-01 -7.264700000000000324e-02
7.458989999999999787e-01 -9.628299999999999359e-02 -6.284099999999999409e-02
6.084019999999999984e-01 -9.191100000000000658e-02 -8.250300000000000689e-02
-6.610669999999999602e-01 -1.471830000000000083e-01 1.032300000000000058e-02
6.311430000000000096e-01 -8.643399999999999694e-02 -7.968500000000000583e-02
2.006719999999999893e-01 1.862340000000000106e-01 -2.217399999999999927e-02
1.402519999999999878e-01 -4.203770000000000007e-01 9.562800000000000467e-02
8.657690000000000108e-01 1.468009999999999871e-01 1.499830000000000052e-01
6.288859999999999451e-01 -2.596310000000000007e-01 1.711469999999999936e-01
7.621179999999999621e-01 2.309859999999999969e-01 3.377399999999999847e-02
-4.067180000000000240e-01 -1.414680000000000104e-01 2.793399999999999772e-01
-5.628980000000000095e-01 3.279630000000000045e-01 -1.002249999999999946e-01
7.771689999999999987e-01 2.330029999999999879e-01 1.122110000000000052e-01
-9.213799999999999768e-02 1.294790000000000108e-01 -1.348199999999999919e-02
-4.411300000000000221e-01 -3.050599999999999840e-02 -2.077700000000000102e-01
-7.518099999999999783e-02 -5.883599999999999941e-02 -2.476240000000000108e-01
1.941970000000000085e-01 1.679730000000000112e-01 -1.416499999999999981e-01
-6.675919999999999632e-01 5.970600000000000213e-02 -1.055019999999999986e-01
2.091320000000000123e-01 1.144680000000000003e-01 -1.513089999999999991e-01
1.891349999999999976e-01 -8.419999999999999750e-04 2.255919999999999870e-01
-3.203650000000000109e-01 8.030199999999999838e-02 -1.312959999999999960e-01
-6.717429999999999790e-01 -1.252759999999999985e-01 1.685119999999999951e-01
-3.676039999999999863e-01 4.852000000000000410e-03 2.346050000000000080e-01
-5.997109999999999941e-01 2.602249999999999841e-01 -1.685659999999999936e-01
2.772169999999999912e-01 -1.063790000000000013e-01 2.054290000000000005e-01
-4.351289999999999880e-01 -3.664109999999999867e-01 -1.536949999999999983e-01
-1.916360000000000008e-01 -7.304199999999999582e-02 2.921659999999999813e-01
8.531999999999999307e-02 1.952329999999999899e-01 -3.772799999999999765e-02
-5.199909999999999810e-01 6.192199999999999788e-02 7.800300000000000289e-02
-1.168150000000000022e-01 1.178769999999999957e-01 1.086389999999999995e-01
1.645459999999999978e-01 3.225729999999999986e-01 -1.936699999999999880e-02
-1.231600000000000056e-01 -5.457599999999999951e-02 2.816060000000000230e-01
-6.716349999999999820e-01 -1.683719999999999939e-01 5.993799999999999822e-02
-2.418899999999999870e-02 -3.923360000000000181e-01 -1.824310000000000098e-01
-3.120669999999999833e-01 -4.150510000000000033e-01 -1.351350000000000051e-01
2.034940000000000082e-01 2.142219999999999958e-01 1.007330000000000031e-01
1.666330000000000033e-01 2.932509999999999839e-01 -1.901100000000000012e-02
-5.841859999999999831e-01 -3.262399999999999745e-01 1.550370000000000081e-01
-4.670279999999999987e-01 3.533000000000000029e-02 1.021190000000000014e-01
9.309479999999999977e-01 3.182999999999999718e-02 6.212899999999999673e-02
1.714209999999999900e-01 3.985299999999999954e-02 -1.686719999999999886e-01
-4.221599999999999658e-02 -3.686760000000000037e-01 -2.057549999999999935e-01
8.967460000000000431e-01 -2.128999999999999816e-03 9.128600000000000603e-02
1.335790000000000033e-01 7.406200000000000283e-02 6.846800000000000108e-02
5.575080000000000036e-01 -3.377299999999999747e-01 2.375299999999999981e-02
2.443410000000000026e-01 6.078399999999999775e-02 -1.347800000000000040e-02
9.839799999999999935e-02 -4.465779999999999750e-01 -3.518400000000000000e-02
-5.214699999999999891e-01 -4.545060000000000211e-01 -3.878700000000000203e-02
-7.213939999999999797e-01 2.641780000000000239e-01 1.215500000000000053e-01
2.344229999999999925e-01 -2.465469999999999884e-01 -1.879530000000000090e-01
7.584020000000000206e-01 -1.218589999999999951e-01 -5.613499999999999740e-02
1.037089999999999956e-01 -9.515700000000000547e-02 2.042700000000000071e-01
1.353179999999999938e-01 1.557510000000000006e-01 2.095299999999999940e-01
1.858910000000000007e-01 3.664709999999999912e-01 1.840160000000000129e-01
6.870999999999999330e-02 4.179999999999999827e-01 -1.179329999999999962e-01
1.334259999999999891e-01 7.627499999999999558e-02 -1.563170000000000115e-01
-5.576100000000000501e-01 -5.024599999999999900e-02 2.565970000000000195e-01
-4.410149999999999904e-01 2.741700000000000040e-02 -1.463379999999999959e-01
1.542139999999999900e-01 4.495890000000000164e-01 1.416769999999999974e-01
-6.712580000000000213e-01 -1.196119999999999961e-01 7.725500000000000422e-02
-4.002290000000000014e-01 -2.816359999999999975e-01 2.256539999999999935e-01
-4.861400000000000166e-01 -1.703909999999999869e-01 -2.574670000000000014e-01
3.902370000000000005e-01 -2.996779999999999999e-01 1.438510000000000066e-01
-2.139780000000000015e-01 -1.902399999999999924e-02 2.742680000000000118e-01
-8.769999999999999584e-04 7.370000000000000249e-04 -1.832199999999999940e-01
-4.027300000000000324e-02 -3.342510000000000203e-01 -2.252889999999999893e-01
7.958899999999999308e-02 1.211030000000000023e-01 -9.209299999999999431e-02
6.063049999999999828e-01 -2.787029999999999785e-01 1.188000000000000028e-01
6.861350000000000504e-01 1.871599999999999930e-01 7.842100000000000459e-02
1.437440000000000107e-01 -3.056429999999999980e-01 -1.800829999999999931e-01
2.788820000000000188e-01 7.874499999999999555e-02 1.509939999999999893e-01
1.631239999999999912e-01 -2.998879999999999879e-01 2.189470000000000027e-01
2.063830000000000109e-01 -4.326829999999999843e-01 -3.870000000000000176e-03
-4.673849999999999949e-01 4.551899999999999696e-02 2.078830000000000122e-01
4.194010000000000238e-01 1.316100000000000082e-02 6.179699999999999777e-02
-4.705650000000000110e-01 9.328599999999999393e-02 1.552759999999999974e-01
-5.502120000000000344e-01 1.024579999999999935e-01 7.658199999999999730e-02
4.471450000000000147e-01 8.906000000000000721e-03 -2.082699999999999829e-02
8.592509999999999870e-01 1.767009999999999970e-01 1.417039999999999966e-01
8.861800000000000233e-02 2.787350000000000105e-01 1.976330000000000031e-01
7.471200000000000063e-02 2.193599999999999994e-01 1.555429999999999868e-01
-3.107100000000000140e-02 -2.281519999999999937e-01 -2.543059999999999765e-01
3.808259999999999978e-01 -1.582510000000000028e-01 1.648050000000000070e-01
7.008400000000000185e-01 2.000180000000000013e-01 8.278900000000000148e-02
5.382209999999999495e-01 4.402500000000000163e-02 4.708199999999999885e-02
-3.214879999999999960e-01 2.968399999999999858e-02 -2.147650000000000114e-01
1.468180000000000041e-01 -2.479899999999999882e-01 2.400670000000000026e-01
5.517739999999999867e-01 3.647899999999999754e-02 -1.629500000000000046e-02
6.352609999999999646e-01 1.055890000000000023e-01 8.926699999999999913e-02
-2.722550000000000248e-01 -4.591830000000000078e-01 -9.958500000000000685e-02
-1.789169999999999927e-01 -4.433010000000000006e-01 1.485599999999999976e-01
-2.526000000000000034e-03 4.289400000000000157e-02 -1.386809999999999987e-01
2.688630000000000186e-01 9.408700000000000396e-02 -1.166890000000000011e-01
3.545659999999999923e-01 -2.914849999999999941e-01 -1.317859999999999865e-01
1.363260000000000027e-01 -1.718840000000000090e-01 2.571039999999999992e-01
4.885639999999999983e-01 4.024999999999999932e-03 9.754799999999999582e-02
-4.950629999999999753e-01 1.302500000000000012e-02 -2.263670000000000126e-01
-3.775319999999999787e-01 -5.074849999999999639e-01 6.290000000000000018e-04
-5.928689999999999793e-01 -2.766509999999999803e-01 -1.775249999999999884e-01
1.900330000000000075e-01 1.733240000000000058e-01 8.985200000000000131e-02
-6.140550000000000175e-01 -3.121399999999999730e-01 -1.370069999999999899e-01
8.486000000000000487e-02 1.937679999999999958e-01 -7.555499999999999716e-02
6.785600000000000520e-01 1.104190000000000033e-01 -2.146400000000000044e-02
-2.630800000000000152e-02 -4.376959999999999740e-01 1.553289999999999949e-01
-6.712019999999999653e-01 3.761199999999999960e-02 1.171110000000000068e-01
-2.070470000000000088e-01 -4.966530000000000111e-01 -1.607300000000000048e-02
-5.958099999999999508e-01 1.237710000000000060e-01 7.333499999999999741e-02
-7.061960000000000459e-01 2.288570000000000049e-01 -8.431500000000000106e-02
-1.342000000000000137e-01 -4.433199999999999918e-01 1.574540000000000106e-01
8.528559999999999475e-01 1.246020000000000044e-01 1.540620000000000045e-01
5.987879999999999869e-01 -2.086040000000000116e-01 1.434660000000000102e-01
2.930800000000000072e-02 1.435099999999999917e-02 1.617659999999999931e-01
2.216440000000000077e-01 1.641499999999999904e-01 -1.323010000000000019e-01
-5.548429999999999751e-01 -3.158580000000000276e-01 -1.671400000000000108e-01
3.610869999999999913e-01 -1.684640000000000026e-01 1.745809999999999862e-01
6.223330000000000251e-01 -6.877000000000000300e-03 1.356259999999999966e-01
6.054699999999999666e-02 -1.352319999999999911e-01 2.455179999999999862e-01
-3.924639999999999795e-01 -3.479869999999999908e-01 1.806089999999999918e-01
-9.529999999999999626e-04 -2.873999999999999819e-03 2.078949999999999965e-01
3.002509999999999901e-01 -5.494999999999999885e-03 1.681850000000000012e-01
1.791129999999999944e-01 -2.486520000000000119e-01 -1.917049999999999865e-01
3.368860000000000188e-01 -1.832870000000000055e-01 1.890560000000000018e-01
7.532200000000000006e-01 1.905779999999999974e-01 -4.253200000000000036e-02
-5.819349999999999801e-01 3.065149999999999819e-01 -3.051299999999999846e-02
-1.111999999999999933e-01 -3.721599999999999908e-02 -2.461440000000000017e-01
4.511680000000000135e-01 -1.074100000000000055e-01 1.500170000000000115e-01
4.735000000000000320e-02 -1.380270000000000108e-01 -2.375099999999999989e-01
-6.779190000000000493e-01 2.060700000000000032e-02 1.334039999999999948e-01
7.973980000000000512e-01 -1.320240000000000025e-01 2.433000000000000093e-02
9.778599999999999792e-02 8.901199999999999390e-02 -4.759399999999999742e-02
1.140540000000000026e-01 4.061230000000000118e-01 2.175499999999999934e-01
-6.810869999999999980e-01 -1.889500000000000068e-01 1.268730000000000135e-01
8.170309999999999517e-01 1.940830000000000055e-01 -4.756900000000000017e-02
-7.104070000000000107e-01 2.623099999999999876e-01 -1.158399999999999985e-01
-3.445399999999999852e-02 -1.595109999999999861e-01 2.860460000000000225e-01
-6.529080000000000439e-01 8.751200000000000645e-02 -1.438790000000000069e-01
3.221769999999999912e-01 -2.746499999999999983e-02 -8.472799999999999776e-02
7.873400000000000398e-01 -1.804479999999999973e-01 1.941000000000000017e-03
-6.595060000000000366e-01 1.116169999999999940e-01 8.167499999999999760e-02
-3.983050000000000201e-01 -2.179800000000000140e-02 2.072199999999999875e-01
-2.544150000000000023e-01 -8.987000000000000197e-03 -2.442799999999999971e-01
-4.936139999999999972e-01 -9.735299999999999510e-02 2.658499999999999752e-01
-5.784899999999999765e-02 -1.277939999999999909e-01 2.887859999999999872e-01
-3.205979999999999941e-01 -2.385849999999999915e-01 -2.453510000000000135e-01
2.202079999999999871e-01 -8.045900000000000274e-02 -1.742759999999999865e-01
4.299529999999999741e-01 -3.730689999999999840e-01 7.799999999999999859e-04
-6.521369999999999667e-01 -2.567740000000000022e-01 1.502290000000000014e-01
-5.844400000000000289e-02 -4.802839999999999887e-01 -1.388799999999999930e-02
5.503890000000000171e-01 -2.911800000000000152e-02 1.413310000000000122e-01
8.191399999999999793e-01 -8.218200000000000505e-02 6.585499999999999687e-02
-1.917049999999999865e-01 -4.962190000000000212e-01 1.346699999999999980e-02
-5.386900000000000022e-01 -4.106040000000000245e-01 -1.092219999999999996e-01
2.496039999999999925e-01 1.908360000000000056e-01 -6.959899999999999420e-02
-5.040100000000000136e-02 1.179069999999999979e-01 -7.275199999999999723e-02
-2.755250000000000199e-01 9.251600000000000101e-02 -3.031199999999999867e-02
-3.826209999999999889e-01 -2.784179999999999988e-01 -2.115019999999999956e-01
6.961239999999999650e-01 1.819350000000000134e-01 -8.451999999999999444e-03
3.500280000000000058e-01 5.403199999999999670e-02 7.348599999999999577e-02
1.924250000000000127e-01 4.374979999999999980e-01 -1.159789999999999988e-01
-7.448100000000000553e-02 -6.100900000000000073e-02 -2.483750000000000124e-01
4.976610000000000200e-01 -1.102400000000000081e-02 -6.024899999999999700e-02
-6.177259999999999973e-01 5.297600000000000225e-02 -1.832409999999999872e-01
-6.607929999999999637e-01 1.030269999999999936e-01 8.525800000000000045e-02
5.800419999999999465e-01 -1.772620000000000029e-01 -9.051800000000000124e-02
-1.064660000000000051e-01 -1.907760000000000011e-01 -2.726080000000000170e-01
3.948909999999999920e-01 -1.267099999999999997e-02 1.152679999999999955e-01
-1.052629999999999955e-01 -2.406300000000000106e-02 -2.395859999999999934e-01
-3.011190000000000255e-01 8.352400000000000102e-02 -4.013599999999999807e-02
7.579939999999999456e-01 -3.683000000000000163e-02 1.335820000000000063e-01
9.826999999999999624e-02 -1.671759999999999913e-01 2.625919999999999921e-01
2.152050000000000074e-01 -3.718589999999999951e-01 -1.139850000000000030e-01
-7.079330000000000345e-01 2.159669999999999923e-01 1.166330000000000006e-01
-7.054500000000000215e-01 2.894300000000000206e-01 -1.219579999999999970e-01
-1.614999999999999899e-03 1.132279999999999953e-01 9.002000000000000279e-02
7.140260000000000495e-01 1.466500000000000026e-01 -2.960000000000000131e-02
8.419889999999999874e-01 8.787399999999999378e-02 1.548779999999999879e-01
2.525240000000000262e-01 1.742630000000000012e-01 -5.740599999999999870e-02
2.551289999999999947e-01 1.735839999999999883e-01 -6.647100000000000231e-02
-1.879329999999999889e-01 -7.163500000000000423e-02 -2.673690000000000233e-01
-6.370310000000000139e-01 -8.908499999999999752e-02 2.131800000000000014e-02
-5.059700000000000308e-01 9.742499999999999771e-02 1.941869999999999985e-01
1.892079999999999873e-01 3.930879999999999930e-01 1.932790000000000064e-01
-2.801560000000000161e-01 -1.275300000000000045e-01 2.986019999999999786e-01
6.238280000000000491e-01 -1.184660000000000019e-01 -8.429599999999999593e-02
4.737020000000000119e-01 -1.933719999999999883e-01 -9.344700000000000228e-02
-6.452240000000000197e-01 -6.601400000000000323e-02 2.156200000000000061e-01
6.523790000000000422e-01 6.487300000000000011e-02 1.205220000000000041e-01
4.914400000000000018e-02 3.434619999999999895e-01 1.687470000000000081e-01
1.459100000000000119e-01 4.385169999999999901e-01 -3.526000000000000054e-03
1.058459999999999956e-01 1.877129999999999910e-01 -1.250169999999999892e-01
8.492410000000000236e-01 2.040829999999999866e-01 -3.694100000000000161e-02
1.113200000000000023e-01 1.389140000000000097e-01 -3.067800000000000041e-02
-1.128350000000000047e-01 -6.591999999999999769e-03 -2.307069999999999954e-01
-5.372299999999999853e-01 2.814519999999999800e-01 1.064610000000000001e-01
-4.839160000000000128e-01 -3.568020000000000080e-01 -1.542590000000000072e-01
1.353830000000000033e-01 6.444700000000000428e-02 -2.643900000000000070e-02
-5.076690000000000369e-01 -4.207350000000000256e-01 -1.135739999999999944e-01
-6.286929999999999463e-01 -2.334779999999999911e-01 -1.776079999999999881e-01
-5.483639999999999626e-01 3.550899999999999890e-02 -2.151460000000000039e-01
1.427650000000000030e-01 4.447619999999999907e-01 1.880610000000000059e-01
-3.324819999999999998e-01 -2.741819999999999813e-01 -2.224119999999999986e-01
1.290769999999999973e-01 1.989710000000000090e-01 -1.352220000000000089e-01
2.520970000000000155e-01 1.805410000000000070e-01 -8.467500000000000027e-02
-2.750440000000000107e-01 9.702099999999999613e-02 -1.401600000000000068e-01
-6.149940000000000406e-01 -3.714599999999999846e-02 -2.137290000000000023e-01
2.308270000000000044e-01 1.143590000000000023e-01 2.005639999999999923e-01
4.382170000000000232e-01 -2.742419999999999858e-01 1.280060000000000087e-01
6.009999999999999787e-01 -9.252100000000000601e-02 1.459580000000000044e-01
-6.617049999999999876e-01 -1.243130000000000068e-01 -1.795100000000000168e-02
-2.263270000000000004e-01 -4.973350000000000271e-01 2.669300000000000145e-02
2.292980000000000018e-01 -4.332110000000000127e-01 1.212300000000000010e-02
-4.176730000000000165e-01 -4.215499999999999803e-02 1.773160000000000014e-01
-4.499600000000000127e-02 2.387999999999999932e-03 -2.038699999999999957e-01
-4.310129999999999795e-01 -4.332960000000000145e-01 1.102100000000000024e-01
6.082419999999999494e-01 -2.445819999999999939e-01 1.354990000000000083e-01
-5.977040000000000131e-01 7.427400000000000668e-02 7.327000000000000179e-02
9.955999999999999572e-02 8.996500000000000330e-02 -9.353000000000000203e-03
1.061290000000000011e-01 4.453329999999999789e-01 -1.691000000000000142e-02
5.863749999999999796e-01 -2.429999999999999977e-04 -6.579300000000000426e-02
9.021879999999999900e-01 6.532599999999999518e-02 -4.617099999999999677e-02
7.147130000000000427e-01 1.515110000000000068e-01 1.187509999999999954e-01
4.863569999999999838e-01 -3.482379999999999920e-01 5.881999999999999729e-02
7.082659999999999512e-01 2.042249999999999899e-01 -6.049999999999999606e-04
9.155199999999999450e-02 2.466599999999999904e-01 -1.184589999999999949e-01
-3.040550000000000197e-01 -5.060919999999999863e-01 -1.198399999999999986e-02
-6.573959999999999804e-01 -1.100119999999999987e-01 -2.153300000000000006e-02
3.798670000000000102e-01 -3.974639999999999840e-01 4.321099999999999941e-02
-7.186799999999999855e-01 2.807220000000000271e-01 1.377579999999999916e-01
5.371629999999999461e-01 -3.427729999999999944e-01 1.085900000000000060e-02
3.561010000000000009e-01 -2.514580000000000148e-01 1.790380000000000027e-01
4.257099999999999773e-02 9.808799999999999464e-02 -4.790599999999999720e-02
4.522269999999999901e-01 -2.932210000000000094e-01 -7.456100000000000227e-02
1.968330000000000080e-01 1.310669999999999891e-01 2.108349999999999946e-01
-2.495259999999999978e-01 -4.153870000000000062e-01 -1.463319999999999899e-01
8.130800000000000527e-02 -2.050639999999999963e-01 2.654949999999999810e-01
-6.287449999999999983e-01 -2.828379999999999783e-01 -1.468490000000000073e-01
1.407200000000000117e-01 4.558209999999999762e-01 -7.209799999999999542e-02
-2.773939999999999739e-01 -2.987179999999999835e-01 2.453480000000000105e-01
-1.518039999999999945e-01 -6.390899999999999359e-02 2.872140000000000248e-01
-6.113589999999999858e-01 7.835999999999999910e-02 7.295899999999999608e-02
-7.216169999999999529e-01 -1.890610000000000068e-01 1.038799999999999966e-02
-2.104159999999999919e-01 -4.654889999999999861e-01 -9.428599999999999481e-02
-6.460380000000000011e-01 7.041300000000000336e-02 7.876400000000000068e-02
1.057779999999999970e-01 2.213330000000000020e-01 1.992299999999999904e-01
-5.501970000000000471e-01 1.160149999999999931e-01 -1.666469999999999896e-01
5.934799999999999798e-02 4.111499999999999877e-02 -7.233799999999999952e-02
9.543580000000000396e-01 8.349700000000000177e-02 2.398300000000000085e-02
-6.810789999999999900e-01 -1.993320000000000092e-01 1.246720000000000050e-01
8.868199999999999694e-02 -3.655590000000000228e-01 -1.580640000000000100e-01
-4.242380000000000040e-01 -4.850570000000000159e-01 -6.136099999999999888e-02
5.914099999999999913e-02 3.043830000000000147e-01 1.603829999999999978e-01
1.474169999999999925e-01 4.358319999999999972e-01 -1.305840000000000056e-01
1.085659999999999958e-01 2.775850000000000262e-01 2.007019999999999915e-01
7.409329999999999528e-01 2.278810000000000002e-01 6.089100000000000068e-02
-3.993200000000000222e-02 -1.444809999999999983e-01 2.865159999999999929e-01
2.012569999999999915e-01 1.003180000000000044e-01 -2.280499999999999888e-02
2.853720000000000145e-01 -2.139580000000000093e-01 -1.795209999999999861e-01
-5.879800000000000304e-02 -2.325399999999999967e-01 -2.606060000000000043e-01
9.231829999999999758e-01 1.737199999999999855e-02 5.379099999999999854e-02
-1.379479999999999873e-01 -4.901019999999999821e-01 -1.785300000000000081e-02
3.708739999999999815e-01 -2.743030000000000190e-01 1.644879999999999953e-01
-1.253829999999999945e-01 -2.866650000000000031e-01 2.818869999999999987e-01
1.175469999999999987e-01 8.536399999999999544e-02 3.616199999999999970e-02
-6.722709999999999519e-01 9.088599999999999457e-02 1.155709999999999932e-01
2.116540000000000088e-01 3.022270000000000234e-01 -7.725700000000000622e-02
4.623300000000000326e-02 4.298960000000000004e-01 -8.564399999999999791e-02
1.693310000000000093e-01 -3.806680000000000064e-01 -1.085419999999999996e-01
5.724510000000000431e-01 -2.084670000000000134e-01 -8.829199999999999549e-02
2.124050000000000105e-01 -4.064769999999999772e-01 9.755400000000000182e-02
-4.389290000000000136e-01 -3.043300000000000172e-02 1.931599999999999984e-01
6.637549999999999839e-01 -1.188600000000000073e-02 -6.673999999999999377e-02
-1.610920000000000130e-01 -3.665910000000000002e-01 2.363830000000000098e-01
1.953300000000000036e-01 1.657450000000000034e-01 -1.419850000000000001e-01
-4.551359999999999850e-01 3.336200000000000276e-02 -1.934980000000000033e-01
5.090209999999999457e-01 -2.692559999999999953e-01 -7.249700000000000588e-02
-3.848909999999999831e-01 2.600099999999999981e-02 1.424819999999999975e-01
-5.502930000000000321e-01 3.121200000000000016e-02 -4.566800000000000026e-02
-6.698199999999999710e-01 1.089959999999999957e-01 -1.062830000000000025e-01
8.086400000000000254e-01 7.701800000000000312e-02 1.537330000000000085e-01
-4.596020000000000105e-01 -2.225500000000000048e-02 7.029900000000000038e-02
1.732589999999999963e-01 4.428949999999999831e-01 -1.228360000000000007e-01
-6.972610000000000197e-01 2.012670000000000015e-01 -8.537200000000000344e-02
3.025700000000000056e-01 -3.799399999999999999e-02 -1.328370000000000106e-01
3.254569999999999963e-01 -4.700599999999999917e-02 -9.657000000000000306e-02
-4.852449999999999819e-01 -4.463599999999999790e-01 9.219299999999999717e-02
3.222160000000000024e-01 -4.096750000000000114e-01 -2.779999999999999832e-02
3.510360000000000147e-01 -3.866089999999999804e-01 -5.605299999999999866e-02
-1.379980000000000095e-01 1.236860000000000043e-01 6.487700000000000411e-02
6.938600000000000323e-02 -2.020550000000000124e-01 2.670739999999999781e-01
-6.823839999999999906e-01 -7.943999999999999673e-02 1.388969999999999927e-01
-6.629690000000000305e-01 -1.470100000000000053e-02 -8.871900000000000619e-02
-5.696560000000000512e-01 -2.552300000000000124e-01 2.153239999999999876e-01
-6.298890000000000322e-01 9.941800000000000637e-02 1.860829999999999984e-01
-6.745689999999999742e-01 1.617159999999999986e-01 -6.221000000000000141e-02
2.234430000000000027e-01 2.446830000000000116e-01 1.539929999999999910e-01
-2.350800000000000112e-01 9.860800000000000121e-02 1.717079999999999995e-01
-6.644710000000000338e-01 -2.284130000000000049e-01 -5.588100000000000012e-02
-2.320799999999999946e-02 -4.591370000000000173e-01 -8.234600000000000253e-02
8.883599999999999830e-02 2.742370000000000085e-01 -1.184430000000000066e-01
-6.609420000000000295e-01 -2.264079999999999981e-01 1.450899999999999933e-02
8.127099999999999602e-02 -4.408429999999999849e-01 -6.699900000000000300e-02
2.856850000000000223e-01 -3.508609999999999784e-01 1.554899999999999893e-01
-6.415769999999999529e-01 2.317730000000000068e-01 -3.409899999999999737e-02
-6.118099999999999650e-01 1.097319999999999962e-01 1.901809999999999889e-01
-6.166880000000000139e-01 -2.758260000000000156e-01 -1.625790000000000013e-01
6.699099999999999500e-02 2.580549999999999788e-01 1.348419999999999896e-01
-3.773329999999999740e-01 3.135500000000000093e-02 -1.443540000000000101e-01
7.703849999999999865e-01 -8.278699999999999948e-02 -5.352200000000000013e-02
-2.977569999999999939e-01 -1.468140000000000001e-01 -2.758990000000000054e-01
8.228509999999999991e-01 -7.714799999999999436e-02 6.691900000000000626e-02
1.359970000000000068e-01 4.548690000000000233e-01 -8.791499999999999315e-02
1.405369999999999953e-01 -3.032090000000000063e-01 2.210330000000000072e-01
3.464309999999999889e-01 -1.059459999999999985e-01 1.702410000000000034e-01
-6.282520000000000326e-01 1.018160000000000037e-01 -1.591329999999999967e-01
-1.812819999999999987e-01 -1.283040000000000014e-01 -2.735090000000000021e-01
-3.812369999999999925e-01 -2.139210000000000000e-01 2.714300000000000046e-01
4.214899999999999897e-02 3.674870000000000081e-01 1.387440000000000062e-01
2.951679999999999859e-01 -1.081889999999999935e-01 -1.542930000000000135e-01
-3.791829999999999923e-01 2.260099999999999956e-02 -1.663689999999999891e-01
-5.137930000000000552e-01 1.125609999999999944e-01 8.880399999999999405e-02
-3.878299999999999803e-02 -2.135299999999999976e-01 2.855949999999999878e-01
1.194019999999999943e-01 -2.149119999999999919e-01 -2.218630000000000047e-01
-3.765859999999999763e-01 -1.044709999999999944e-01 2.775679999999999814e-01
1.884210000000000051e-01 4.477149999999999741e-01 1.119409999999999988e-01
-6.471399999999999375e-02 1.315459999999999963e-01 3.781799999999999745e-02
4.806070000000000064e-01 -2.932719999999999771e-01 1.107930000000000026e-01
