-0.556652 0.297287 0.0832063 0.00459778
-0.555989 0.308251 0.0898007 0.00296041
-0.549405 0.301297 0.0966982 0.000521486
-0.548704 0.311731 0.103213 0.000373611
0.241188 0.218087 -0.0948787 0.00454714
0.237734 0.226178 -0.0918817 0.00309134
0.238934 0.219004 -0.0839556 0.000169792
0.235421 0.227128 -0.0808532 0.00144303
0.479056 -0.0738254 0.14653 0.000973101
0.479914 -0.0567017 0.143337 0.00146082
0.496156 -0.0738773 0.145111 0.00160376
0.496084 -0.0554528 0.142448 0.00107366
-0.558032 -0.418072 -0.0449849 0.00476493
-0.57579 -0.410212 -0.0396485 0.000162204
-0.551813 -0.426561 -0.0353851 0.0042571
-0.56869 -0.41862 -0.0306544 0.0001386
-0.202095 0.109053 -0.13924 0.00129987
-0.20846 0.113705 -0.126813 3.67869e-05
-0.191888 0.116236 -0.127776 0.00227555
-0.196518 0.119829 -0.116176 0.00152559
-0.574201 -0.0395948 0.0498951 0.00146528
-0.577645 -0.0325026 0.0618266 0.00743747
-0.560817 -0.0339024 0.0550039 0.000256076
-0.565078 -0.0266503 0.0667309 0.00897541
-0.676867 0.296291 0.120982 0.00213412
-0.663036 0.299729 0.120311 0.00107793
-0.665654 0.300249 0.132084 0.000185532
-0.651371 0.303659 0.131125 0.000775226
-0.0697789 -0.0233294 0.258344 0.00155179
-0.0637376 -0.0127411 0.246418 0.00127559
-0.0610618 -0.0397699 0.262938 0.000346606
-0.0550192 -0.0291607 0.250723 0.00330797
0.602862 -0.329856 0.0340533 0.0013703
0.597883 -0.325974 0.0483705 0.00144342
0.615446 -0.323874 0.04153 0.00184962
0.612689 -0.320167 0.053996 0.00171922
-0.203131 0.0744557 -0.180972 0.000361101
-0.208475 0.0831088 -0.170445 0.000966741
-0.18775 0.0805912 -0.175817 0.00223664
-0.193538 0.0883322 -0.165407 0.00142179
0.642103 -0.0440416 -0.0724284 0.000661525
0.642333 -0.0288703 -0.0692841 0.00140783
0.660233 -0.0387052 -0.0717403 0.000580109
0.660062 -0.0228004 -0.0681207 0.000545947
-0.0402762 0.120916 0.0777761 0.00126105
-0.0595902 0.1188 0.0869508 0.00407376
-0.0250926 0.117811 0.0902722 0.00105173
-0.0447677 0.115866 0.0991213 0.000236751
0.0690843 -0.11592 0.226656 0.00335219
0.0700855 -0.103353 0.218782 0.00227683
0.0821475 -0.123059 0.226684 0.00217549
0.0832636 -0.11076 0.219966 0.000123929
0.146534 -0.115854 -0.190829 0.00296829
0.139588 -0.105365 -0.185282 0.000442874
0.16017 -0.113393 -0.188867 0.00429022
0.154376 -0.101958 -0.183324 0.00404378
0.257401 0.130173 -0.114062 0.000128778
0.255806 0.143435 -0.11137 0.00128186
0.26216 0.130562 -0.103806 0.000491725
0.259137 0.142976 -0.101597 0.000331133
-0.000557448 -0.450627 -0.105646 0.00382982
0.00807141 -0.441019 -0.115377 0.00154643
0.0125912 -0.449588 -0.0957644 0.00136469
0.0206814 -0.439231 -0.10737 0.00183986
-0.504161 -0.381604 0.137305 0.000233253
-0.513458 -0.36934 0.144983 0.000545794
-0.484505 -0.380163 0.140799 0.00136521
-0.495366 -0.367516 0.148133 0.000830453
0.698849 -0.250131 0.127298 0.000156402
0.707527 -0.237721 0.128782 0.000258253
0.709844 -0.24189 0.126813 0.000129227
0.720218 -0.229789 0.128081 0.00166384
0.726756 -0.183642 0.128174 0.00196188
0.725611 -0.169129 0.129582 0.00168803
0.735409 -0.177824 0.128321 0.00148849
0.735775 -0.163873 0.129401 0.000593324
-0.291897 -0.234824 0.280069 0.00267351
-0.299081 -0.219173 0.285076 0.00219519
-0.274372 -0.234976 0.280344 0.00200693
-0.279576 -0.219569 0.285587 0.00220902
-0.283969 -0.124475 -0.276806 0.000259151
-0.284739 -0.108902 -0.275885 0.000575707
-0.265497 -0.121186 -0.275248 0.00173245
-0.26692 -0.105647 -0.274253 0.000204467
-0.0480749 -0.175548 -0.259557 0.0015592
-0.0471919 -0.154445 -0.261624 0.00187741
-0.0319062 -0.179171 -0.256305 0.00196644
-0.0310417 -0.157761 -0.258413 0.00152422
-0.189276 0.00724537 -0.230399 0.00300007
-0.1942 0.0197182 -0.223792 0.00261948
-0.171565 0.0124696 -0.229393 0.000523057
-0.177324 0.0249939 -0.222102 0.000530567
-0.171022 -0.481062 0.0748065 0.000723235
-0.179189 -0.477632 0.089212 0.00171888
-0.157651 -0.477823 0.0785832 0.00107675
-0.166995 -0.473815 0.0941607 0.000290896
-0.696493 0.292811 -0.12484 0.0026922
-0.684648 0.303519 -0.123325 0.000120593
-0.694416 0.300506 -0.113103 0.000477866
-0.682736 0.310909 -0.112494 0.00536753
0.213845 0.0885174 0.210312 0.00252226
0.212285 0.103642 0.209448 0.00129791
0.222684 0.0810033 0.211187 0.000473319
0.219216 0.0957151 0.211576 0.00199812
0.0614644 -0.119975 -0.215736 0.000663337
0.0584207 -0.10608 -0.211745 0.000401839
0.0755594 -0.114974 -0.208937 0.0045444
0.0725211 -0.101197 -0.204583 0.00469121
-0.68049 0.154243 0.0981357 0.000799231
-0.689217 0.166959 0.105197 0.0011042
-0.68821 0.155712 0.109943 0.000332177
-0.695877 0.167233 0.116591 0.00254773
0.126772 -0.10884 -0.18308 0.0028029
0.119229 -0.099727 -0.17723 0.000125911
0.141071 -0.1081 -0.182437 0.00355428
0.133525 -0.0989765 -0.177392 0.00117793
0.815016 0.148038 -0.0615176 0.00150609
0.815331 0.162669 -0.0571595 0.00108481
0.831234 0.15044 -0.0578686 0.00076034
0.832095 0.164938 -0.0545551 0.000585022
-0.161612 -0.480087 -0.0713977 0.00348746
-0.149875 -0.474968 -0.0814143 0.00334097
-0.150158 -0.476193 -0.0606155 0.00468853
-0.136408 -0.472039 -0.0713282 0.00286486
0.860618 -0.0474442 0.0191558 0.00354051
0.87132 -0.0309093 0.0132145 0.00135334
0.866529 -0.0414227 0.0342013 0.00136753
0.877648 -0.025129 0.0286851 0.00365219
0.581375 0.0678204 0.0762737 0.000742639
0.5849 0.0790319 0.0688276 0.00357308
0.588477 0.0672687 0.0866842 0.000280544
0.591352 0.0787674 0.0788756 0.002756
-0.430972 -0.139101 0.259266 0.00360256
-0.428436 -0.124591 0.253666 0.00507747
-0.414084 -0.140225 0.262917 0.000369789
-0.413131 -0.125518 0.25775 0.00223233
-0.705899 0.240564 -0.0752658 0.000849335
-0.705841 0.252937 -0.0741519 0.00330501
-0.702644 0.240236 -0.0643448 0.0025927
-0.702095 0.252035 -0.0635423 0.000219321
0.431221 -0.114062 -0.0989735 0.00181246
0.429543 -0.0967226 -0.0966732 0.000729438
0.45024 -0.116835 -0.0996915 0.00240799
0.447788 -0.100281 -0.0969416 0.00124721
-0.377603 -0.464181 0.0870152 0.00239553
-0.387581 -0.454798 0.0976283 7.54638e-05
-0.361041 -0.462495 0.0886151 0.00367388
-0.371302 -0.452697 0.0994922 0.0014378
0.0573322 -0.0991305 0.228552 4.75952e-05
0.059377 -0.0878259 0.218677 0.000441925
0.0700489 -0.107305 0.227865 0.00216721
0.0715819 -0.0959087 0.219873 0.00287189
0.613395 0.0626643 -0.0398034 0.00240684
0.611653 0.0727889 -0.0311459 0.000750694
0.616668 0.071807 -0.0299878 0.00175689
0.619182 0.0822989 -0.0248831 0.000316699
-0.526464 -0.100496 0.266892 0.00181741
-0.52413 -0.0822761 0.265205 0.000733225
-0.507934 -0.0945254 0.266227 0.000228253
-0.504766 -0.0762703 0.264753 0.000296022
-0.637697 0.0572692 0.0770691 0.00088596
-0.636244 0.0696825 0.0763818 0.000374574
-0.625552 0.0601661 0.0745375 0.00118522
-0.623955 0.0735288 0.0740505 0.000315016
-0.12755 0.11727 0.0952009 0.00360225
-0.135613 0.118603 0.101835 0.000771345
-0.115077 0.11946 0.105842 0.000719479
-0.125169 0.120528 0.112889 0.00388774
0.10261 -0.380224 -0.13815 0.00117087
0.110455 -0.3669 -0.145281 0.000228791
0.121507 -0.377018 -0.127521 0.00301799
0.129173 -0.364096 -0.135136 0.00325397
0.224882 0.0915453 -0.150113 0.00121451
0.228681 0.107718 -0.144284 0.000593348
0.239661 0.0982742 -0.14286 0.000605528
0.242619 0.113761 -0.137808 0.00141473
0.210748 0.405884 -0.0482291 0.000910787
0.209058 0.419237 -0.0481839 0.00332744
0.20954 0.408179 -0.0319053 0.00567503
0.208479 0.420997 -0.0327931 0.00211301
-0.210941 0.102464 0.130954 0.00420314
-0.197428 0.107767 0.124416 0.00149713
-0.197209 0.106713 0.142132 0.00176214
-0.183577 0.112082 0.135371 0.000978849
-0.541822 0.191766 0.139311 0.00182809
-0.541502 0.208049 0.138874 0.000128992
-0.544852 0.193635 0.151268 0.00030883
-0.544106 0.20983 0.150791 0.0025329
0.100942 0.0983515 -0.0443474 0.000896333
0.0974223 0.107514 -0.0383938 0.00417456
0.107559 0.100387 -0.037116 0.001831
0.1034 0.110196 -0.0323333 0.00607347
0.262513 -0.188251 0.220588 0.000796267
0.264175 -0.172697 0.219032 0.000159508
0.276149 -0.187376 0.219069 0.00227042
0.279985 -0.170527 0.216663 0.00329202
0.160708 0.368689 -0.0115462 0.000500162
0.158539 0.382521 -0.00954326 0.00103081
0.174931 0.366663 -0.0133976 0.00389119
0.172318 0.380983 -0.012011 0.00108067
-0.444874 0.0138479 0.17535 0.00292995
-0.450459 0.023992 0.182149 0.00161764
-0.450277 0.0129783 0.187206 1.69019e-05
-0.4562 0.0227128 0.194587 0.000468163
-0.279747 -0.115829 0.299575 0.00188437
-0.276021 -0.105389 0.298138 0.00118309
-0.262655 -0.115961 0.300401 0.00225964
-0.259673 -0.10468 0.298706 0.00138672
-0.460058 0.00283583 0.090141 0.00231067
-0.461874 0.0115411 0.0986567 0.00216108
-0.452643 0.00522666 0.101718 0.0015272
-0.454336 0.0145343 0.10994 0.000163464
0.70432 -0.189712 -0.0757674 0.00116549
0.706501 -0.176351 -0.0772321 0.00246162
0.719891 -0.189904 -0.0703723 0.00206584
0.721727 -0.175998 -0.0708738 0.000782034
0.183634 0.0579877 0.0158745 0.00227509
0.175137 0.0634344 0.0222968 0.000542854
0.191215 0.0586276 0.017595 0.00137175
0.181397 0.0632377 0.0258461 0.00320875
-0.0828487 -0.127714 0.29351 0.00107945
-0.0865309 -0.108023 0.292756 0.000942874
-0.0652565 -0.122982 0.287858 0.00189337
-0.0688617 -0.103296 0.287191 0.00115099
0.181753 -0.00125694 -0.172546 0.000526769
0.181914 0.00995529 -0.17174 0.000689797
0.19417 0.00267916 -0.174245 0.00263501
0.195013 0.0142602 -0.173398 0.00273023
-0.463936 0.0646658 -0.179604 0.00126655
-0.468233 0.0787807 -0.177371 0.00226525
-0.457831 0.0637444 -0.167539 0.000581934
-0.461882 0.0776854 -0.165534 0.000116448
0.467701 -0.137469 0.1512 0.000155384
0.468514 -0.121024 0.150446 8.16294e-05
0.487646 -0.135519 0.150829 0.000830269
0.487788 -0.119077 0.149739 0.000628908
-0.554681 -0.434582 -0.00936374 0.000984931
-0.56928 -0.426179 -0.00385961 0.00230264
-0.546049 -0.439362 0.00308716 0.00263161
-0.559121 -0.431146 0.00886181 0.00034585
0.835397 0.223419 -0.032926 0.00318793
0.830688 0.231672 -0.0258646 0.000229328
0.848636 0.226172 -0.0269089 0.00202333
0.843276 0.234368 -0.0206026 0.00204359
0.212405 -0.218862 -0.195424 0.00224208
0.21675 -0.205205 -0.194632 0.000244108
0.230254 -0.218148 -0.192361 0.000724671
0.234473 -0.204286 -0.191403 0.0014481
-0.648912 0.200525 -0.0370412 0.00224666
-0.650307 0.216054 -0.0360605 0.00183498
-0.634547 0.204389 -0.0375959 0.000982542
-0.63518 0.220025 -0.0353812 8.47865e-05
-0.632246 -0.0629371 0.0540853 0.000905698
-0.627829 -0.0491201 0.0593763 0.000591815
-0.620997 -0.0539349 0.0544385 0.00215718
-0.617361 -0.0407609 0.0610644 0.00271182
0.28753 0.0269767 -0.12208 0.00168148
0.286305 0.0408659 -0.120005 1.28203e-05
0.299903 0.0325501 -0.107741 0.00163752
0.297708 0.0454717 -0.106338 0.00275496
-0.359281 0.0482895 -0.0789268 0.00575022
-0.349186 0.0592368 -0.0814041 0.00185186
-0.3547 0.0563295 -0.066394 0.000797439
-0.342185 0.0674559 -0.0690265 0.00222576
0.945078 0.0921316 0.0862526 0.0131186
0.942261 0.106065 0.0944838 0.00527572
0.939009 0.0969386 0.103595 0.00297881
0.936144 0.110956 0.111642 0.00955974
0.390849 0.00865292 0.0961765 0.00107798
0.39628 0.0125277 0.0862449 0.00244392
0.401318 0.00257503 0.104493 0.00361883
0.40919 0.00644102 0.0927924 0.000988872
-0.657856 -0.267976 -0.0535757 0.00310321
-0.660487 -0.252358 -0.0508473 0.00142518
-0.660285 -0.267411 -0.0416294 0.000679579
-0.663068 -0.2509 -0.037277 0.0026299
-0.678313 -0.0219714 -0.137859 0.00105514
-0.675995 -0.00671987 -0.138166 0.00128098
-0.679667 -0.0212004 -0.123021 0.00159316
-0.677791 -0.00583482 -0.123395 0.000891694
0.108289 -0.0826685 -0.163893 0.000376398
0.102075 -0.0735341 -0.157195 0.00304643
0.119281 -0.0814484 -0.164468 0.00291162
0.113558 -0.072388 -0.158298 0.00227238
-0.676381 -0.0377755 0.179412 0.000308861
-0.675114 -0.0204053 0.179417 0.000113339
-0.671801 -0.0358092 0.194414 0.00522836
-0.670521 -0.0192215 0.195212 0.00594495
-0.0829103 0.115713 -0.102655 0.00397429
-0.0895793 0.12242 -0.090591 0.0022449
-0.0714658 0.118848 -0.0920062 0.00303513
-0.0787622 0.125354 -0.0793864 0.00431808
-0.484257 0.0741601 0.201499 0.000944596
-0.495099 0.0838957 0.202384 0.0020859
-0.481334 0.0615333 0.207621 0.00204281
-0.490656 0.0712235 0.211258 0.00374145
0.224744 -0.136319 0.222434 0.000648426
0.226322 -0.120726 0.220264 0.000361588
0.239721 -0.133523 0.21991 3.38201e-05
0.241332 -0.118083 0.217844 0.000509213
0.826184 -0.0472877 -0.0355647 0.000345991
0.827922 -0.0286674 -0.0384402 0.00163679
0.844638 -0.0468972 -0.0279874 0.00423655
0.848975 -0.0288354 -0.0315692 0.00189141
-0.651064 -0.293704 -0.0752974 0.0013729
-0.653891 -0.279582 -0.0737113 0.00352789
-0.655616 -0.294019 -0.0625934 0.000615645
-0.657927 -0.279064 -0.0616258 0.00117406
-0.000624782 0.0685353 0.150416 0.0023764
-0.0146593 0.0738431 0.153573 0.00259436
0.00572004 0.0544489 0.155399 0.00282382
-0.00774767 0.0600871 0.158216 0.000749504
0.794714 -0.128918 0.0293978 0.00121391
0.797197 -0.115683 0.0303336 0.0020992
0.793033 -0.12226 0.0445262 0.00308872
0.796027 -0.108584 0.0449637 0.0012649
0.231628 0.155342 -0.0304294 0.000540133
0.230839 0.167209 -0.0306263 0.000373842
0.240043 0.156778 -0.0307791 0.00374005
0.238298 0.16785 -0.0300569 0.00502116
0.207063 0.278995 -0.110538 0.00383121
0.203334 0.294065 -0.109018 0.00466128
0.212127 0.278577 -0.100065 0.000484085
0.208914 0.293187 -0.0986359 0.000512284
0.190884 0.241414 -0.122463 0.00236123
0.188628 0.256976 -0.122548 0.000454719
0.202545 0.241057 -0.117391 0.00192185
0.200385 0.256569 -0.117627 0.000574706
0.317489 -0.422334 0.0131551 0.000224049
0.329345 -0.4203 0.0159042 0.000145879
0.328731 -0.417838 0.0250678 0.000664065
0.338608 -0.414861 0.0289211 0.00131469
0.817706 0.209966 0.136726 0.00163778
0.822705 0.219525 0.124378 0.00495874
0.835815 0.205868 0.13741 0.00324971
0.838772 0.21591 0.127887 0.000705774
-0.488101 -0.00880565 0.0650311 0.00766974
-0.491955 -0.00375143 0.0751814 0.000880727
-0.479113 -0.0058108 0.0761895 0.000284201
-0.482369 -0.00162597 0.0867484 0.00896603
-0.588096 -0.344326 -0.135537 0.00136052
-0.603664 -0.336466 -0.129582 0.00160446
-0.587938 -0.355308 -0.124163 0.00112179
-0.603915 -0.347412 -0.118085 0.00129987
0.0779485 -0.328129 0.213405 0.000393714
0.0789376 -0.315841 0.223358 0.00179886
0.0889825 -0.32028 0.214849 0.000808668
0.0894726 -0.308417 0.224717 0.00104898
-0.597123 -0.0741909 0.246631 0.00354801
-0.592598 -0.0551755 0.247628 0.00311603
-0.580263 -0.069647 0.250177 0.000303177
-0.574478 -0.0499184 0.249309 0.00279383
0.0810897 0.433493 -0.117798 0.0014629
0.0838917 0.440872 -0.111264 0.000906919
0.089617 0.442516 -0.111381 0.000666697
0.0950798 0.449084 -0.10635 0.00325296
0.0905652 -0.00197208 0.159089 0.00372459
0.0898958 0.0130496 0.155835 0.000889536
0.102915 -0.010479 0.162574 0.00606373
0.101685 0.00426523 0.159618 0.00851811
0.374708 0.0161823 -0.046801 0.00404699
0.363312 0.0234885 -0.0405442 0.00102586
0.38539 0.0142738 -0.039436 0.000150014
0.373067 0.0207019 -0.0326011 0.00306236
0.468528 -0.171437 0.149403 0.000304177
0.464947 -0.158964 0.151378 0.00103471
0.486986 -0.169492 0.14879 0.00157628
0.483037 -0.156963 0.150455 0.00216133
-0.560951 -0.298936 0.188587 0.00180688
-0.573575 -0.285788 0.193837 0.00245181
-0.544112 -0.298687 0.192312 0.000178043
-0.556257 -0.285588 0.199444 0.000625574
0.683046 0.0924978 0.117378 0.000597467
0.687293 0.106073 0.11559 0.00318812
0.696481 0.0903167 0.123892 0.00346388
0.700624 0.103883 0.122098 0.000468556
0.245448 -0.220342 0.226145 0.00198918
0.243396 -0.206128 0.228971 0.00107492
0.259722 -0.215045 0.224428 0.000580942
0.258333 -0.199858 0.227416 0.00394399
-0.477062 0.063806 -0.196178 0.0043291
-0.481126 0.077347 -0.193799 0.0089218
-0.470211 0.0624089 -0.185 0.00297906
-0.474508 0.0765238 -0.182767 0.00186324
-0.656632 0.269022 0.0684052 0.00484551
-0.656221 0.280022 0.0738037 0.000571991
-0.643644 0.274577 0.0700639 0.000126614
-0.643323 0.284023 0.0774275 0.00665831
-0.0157703 -0.312622 0.254428 0.00208168
-0.0179196 -0.299034 0.262108 0.00321406
0.00398252 -0.305223 0.251898 0.00235409
0.00199997 -0.291467 0.259916 0.00286878
-0.237529 -0.261931 -0.253664 0.00134446
-0.225378 -0.248254 -0.262538 0.000100134
-0.217126 -0.266094 -0.256095 0.000991614
-0.205952 -0.252316 -0.264601 0.000425407
0.0829707 0.347065 -0.120418 0.000873773
0.0856017 0.36416 -0.120413 0.000629571
0.100275 0.352025 -0.122924 0.00200321
0.101705 0.368 -0.122627 0.00386755
-0.418007 -0.503946 -0.00292419 0.000408714
-0.429866 -0.503271 0.00725121 0.00261029
-0.407518 -0.504362 0.00517924 0.000394076
-0.417165 -0.502854 0.0157636 0.00151495
0.0668422 0.0468784 0.113962 0.00253305
0.071118 0.0576348 0.105887 0.000544547
0.0768441 0.0345595 0.114679 0.00131649
0.0812142 0.0455799 0.105997 0.000238912
-0.492828 -0.235629 0.256702 0.00524622
-0.495696 -0.21873 0.26288 0.00150919
-0.476761 -0.229589 0.256775 0.00048148
-0.479289 -0.21255 0.26268 0.00352846
-0.508382 -0.028496 -0.240744 0.000238493
-0.509608 -0.012294 -0.23855 0.00212274
-0.49164 -0.0264249 -0.241141 0.00197958
-0.494257 -0.0111164 -0.238507 0.00325394
-0.676549 -0.153324 -0.0970689 0.001359
-0.67724 -0.137411 -0.0970052 0.0014054
-0.675867 -0.15258 -0.084573 0.00118407
-0.676292 -0.137169 -0.086368 0.000605396
-0.641456 -0.0286408 0.213984 0.000509424
-0.637344 -0.014441 0.214321 0.000476343
-0.626182 -0.0287441 0.227723 0.00250983
-0.621036 -0.014948 0.227418 0.00139681
0.0341739 0.0439564 0.131458 0.000350498
0.0365324 0.0535171 0.12352 7.4652e-05
0.043749 0.0313197 0.131304 0.000509734
0.046169 0.0409274 0.123383 0.000150172
0.098075 0.0117591 -0.131971 0.00860269
0.0905575 0.0210813 -0.126316 0.0120702
0.11261 0.0141219 -0.124612 0.00763995
0.107557 0.0244911 -0.118532 0.0068663
-0.440587 0.0152757 -0.163241 0.000612619
-0.442436 0.0303114 -0.160016 0.00150936
-0.440148 0.0177884 -0.151428 0.0017057
-0.442136 0.0329946 -0.147951 0.000448661
0.134338 -0.353736 0.178488 0.000331346
0.133558 -0.343196 0.187845 0.000526976
0.147535 -0.349229 0.178346 0.00159155
0.145543 -0.339204 0.188051 0.00177666
0.484352 -0.283437 -0.0654691 0.00374065
0.489325 -0.270691 -0.0724537 0.00116541
0.501088 -0.2884 -0.0656897 0.000892691
0.50599 -0.27549 -0.0729501 0.00224248
0.529844 -0.0218976 0.134551 1.3969e-05
0.534478 -0.010512 0.128529 0.000894019
0.54437 -0.0203804 0.138267 0.00111671
0.548828 -0.0085452 0.132318 0.000472095
0.177985 0.332922 0.1776 0.00281868
0.17716 0.348358 0.183819 0.00231526
0.179133 0.340305 0.183429 0.00114015
0.177756 0.355377 0.189696 0.000104797
-0.346669 -0.499134 -0.0448459 0.00203783
-0.331887 -0.495445 -0.0532963 0.00338357
-0.331571 -0.497721 -0.0379619 0.00222622
-0.31834 -0.495085 -0.0445415 0.00114354
0.0402535 -0.228443 -0.236504 0.000705259
0.0444989 -0.206104 -0.238981 0.00198694
0.060954 -0.226774 -0.235197 0.00233942
0.0656784 -0.205479 -0.237769 0.00157393
0.804251 0.117821 -0.0637106 0.000415182
0.803851 0.134774 -0.0615426 0.000125195
0.820776 0.119637 -0.0641222 0.000297318
0.821289 0.136495 -0.0621141 0.000346647
-0.595867 -0.359076 0.118336 0.00113343
-0.602832 -0.348167 0.124304 3.55836e-05
-0.584942 -0.357004 0.128636 0.00048795
-0.591043 -0.345957 0.135079 0.000390396
-0.626737 -0.113771 0.2267 0.000293665
-0.625303 -0.0971837 0.230209 0.0006479
-0.614112 -0.106483 0.23768 0.0032454
-0.612289 -0.0893545 0.240985 0.00435997
-0.547314 0.00516254 -0.231946 0.00327684
-0.548597 0.01776 -0.223073 0.00142804
-0.531339 0.0141713 -0.230315 0.00187769
-0.533187 0.0269606 -0.221334 0.000114969
-0.325706 -0.404623 -0.138948 0.00116937
-0.323128 -0.396106 -0.147066 0.000329429
-0.31049 -0.408975 -0.136778 0.00236228
-0.305503 -0.400663 -0.144878 0.001155
-0.539358 0.179924 -0.129319 0.000917106
-0.535255 0.188622 -0.128068 0.00448711
-0.531732 0.178177 -0.121284 0.00643584
-0.527641 0.186828 -0.120005 0.00243404
0.0499671 0.357542 -0.0713854 0.000368648
0.0453745 0.369498 -0.066432 0.00114838
0.0578113 0.350943 -0.0586363 0.00462731
0.053118 0.362905 -0.0539105 0.00110323
0.794913 0.174253 -0.0549532 0.00163459
0.79436 0.187792 -0.0473703 0.00217339
0.802572 0.179094 -0.0526553 0.000791814
0.802002 0.192335 -0.0452222 0.00294943
0.630504 -0.237172 -0.113031 0.00714223
0.635634 -0.222236 -0.117509 0.0137352
0.652672 -0.24068 -0.11422 0.000255803
0.658486 -0.225002 -0.120262 0.0089607
0.216604 0.259963 0.149165 0.000574747
0.211369 0.272287 0.147705 0.00084001
0.219978 0.258067 0.160451 0.00244908
0.215112 0.270048 0.159516 0.00131001
0.0932595 0.314112 0.0873522 0.00529759
0.0866154 0.331393 0.0907377 0.00301788
0.0930972 0.314978 0.0931109 0.000322632
0.0864531 0.332259 0.0964964 0.00213704
-0.446782 0.0437373 -0.138729 0.00109709
-0.44933 0.0575715 -0.135893 0.000229373
-0.444231 0.0494078 -0.124787 0.00417118
-0.450301 0.0608144 -0.121142 0.00126497
0.0990772 0.336397 0.208175 0.00319762
0.0969798 0.347206 0.208414 0.00165689
0.112624 0.338889 0.208377 0.000387357
0.110226 0.350676 0.209268 0.000689639
-0.665162 -0.212987 -0.0420448 0.0010138
-0.666261 -0.19857 -0.0459494 0.000311482
-0.66437 -0.213318 -0.0297571 0.00180375
-0.66523 -0.198818 -0.0341752 0.000715114
0.309896 -0.0237783 0.162847 0.000488
0.305242 -0.0125659 0.163616 0.000363941
0.304709 -0.0296413 0.169539 0.0012971
0.299693 -0.0181961 0.171478 0.00136578
-0.105274 -0.299423 0.276408 0.000269501
-0.107034 -0.284536 0.28235 0.00160915
-0.0894248 -0.295121 0.273932 0.00112403
-0.0905783 -0.281073 0.279506 7.03522e-05
0.146573 -0.330381 -0.16663 0.00358118
0.162115 -0.315528 -0.172956 0.000992737
0.167273 -0.333628 -0.160277 0.00212396
0.183006 -0.318829 -0.166797 0.000707251
0.255986 0.0514809 0.194437 0.00179045
0.24704 0.0661187 0.197908 0.00230743
0.254749 0.0391371 0.201954 0.000618035
0.245699 0.0536974 0.205789 0.000963807
-0.330135 -0.0466498 0.280604 0.000949448
-0.32057 -0.0344964 0.275558 4.40874e-05
-0.316246 -0.04562 0.28406 0.00279222
-0.306311 -0.0335273 0.278974 0.0023672
-0.407229 -0.104818 -0.239071 0.00201312
-0.415005 -0.0984547 -0.229965 0.00094344
-0.397192 -0.0971547 -0.239617 0.00527527
-0.404176 -0.0904901 -0.230746 0.00118062
-0.0533687 -0.29425 0.2664 0.0014204
-0.0543788 -0.281115 0.272766 0.00012592
-0.0349597 -0.287847 0.263975 0.0020058
-0.0368826 -0.274614 0.270991 7.02574e-05
0.524677 -0.237742 -0.0815879 0.000383517
0.530569 -0.227312 -0.0836016 0.000434546
0.540162 -0.236118 -0.0817272 0.000782928
0.546267 -0.225698 -0.0837153 0.000985331
0.546262 -0.20326 -0.0899061 0.00138131
0.550135 -0.192882 -0.0908439 0.000480556
0.562706 -0.20046 -0.090396 0.000985157
0.565659 -0.189457 -0.0912122 0.000879848
-0.605733 -0.359721 -0.0957425 0.00176642
-0.619221 -0.351009 -0.0914249 0.000814207
-0.60994 -0.368066 -0.0839698 0.0010929
-0.621834 -0.358737 -0.0796979 0.00188221
0.191111 0.152821 -0.146494 0.000101003
0.193051 0.167066 -0.141362 0.000746508
0.205232 0.158752 -0.142065 0.000980026
0.207018 0.172806 -0.137291 0.000368207
-0.464394 0.016085 -0.0644652 0.000985563
-0.472238 0.0244524 -0.0610178 8.88416e-05
-0.464005 0.00796104 -0.0538038 0.00550342
-0.469257 0.0161231 -0.0521159 0.00630036
-0.533104 -0.45201 0.0110663 0.000463206
-0.546466 -0.44361 0.0163956 0.00218218
-0.522617 -0.454633 0.0236002 0.00217268
-0.536185 -0.445517 0.02773 0.0010698
-0.242268 0.102035 -0.0395693 0.00205634
-0.225334 0.10935 -0.0469277 0.000111191
-0.227867 0.106636 -0.0257193 0.000901069
-0.210548 0.113498 -0.0335145 0.000707361
0.763837 -0.184577 0.131766 0.000853239
0.770388 -0.174351 0.131506 0.00275291
0.75967 -0.176528 0.141993 0.00608224
0.765984 -0.16648 0.141668 0.00388916
0.532485 -0.311725 -0.0458551 0.00203992
0.54082 -0.300666 -0.0562191 4.92454e-05
0.55156 -0.312126 -0.0437588 0.000765549
0.559838 -0.301607 -0.0547149 0.00165945
0.441802 -0.373366 0.0145946 0.000800279
0.456033 -0.365516 0.00835554 0.000597315
0.450982 -0.368015 0.026062 0.000528574
0.467637 -0.361476 0.0204133 0.000970416
0.19589 0.440817 0.174335 0.00944115
0.199495 0.451831 0.167503 0.00201939
0.198775 0.44018 0.186883 0.000903341
0.203203 0.451144 0.17815 0.00329161
0.231741 0.15277 -0.127689 0.00228584
0.232603 0.166572 -0.124889 0.00052038
0.243036 0.157811 -0.121609 0.00200238
0.243344 0.171399 -0.119276 0.00430738
0.102742 0.419073 0.000716896 0.00308392
0.109222 0.427503 -0.0108492 0.00952011
0.118256 0.413975 0.00503491 0.0072035
0.124994 0.423066 -0.00521398 0.00400497
0.90924 0.110382 0.147286 0.000385462
0.905022 0.124911 0.146609 0.00130201
0.913986 0.106143 0.148829 0.00365991
0.909769 0.120673 0.148153 0.00124511
0.625111 -0.141046 -0.0850847 0.00111627
0.623813 -0.128354 -0.0852959 0.000208979
0.643366 -0.144831 -0.0832755 0.000439896
0.642644 -0.131286 -0.0831921 0.000458916
0.242605 -0.183885 0.225781 0.000455093
0.244622 -0.167891 0.22307 0.000960644
0.257215 -0.180924 0.223569 0.00103544
0.259656 -0.165051 0.221012 0.00107483
0.0571852 0.0524626 -0.0748239 0.00683823
0.0530885 0.0629171 -0.0666239 0.0043556
0.0650707 0.0537059 -0.06657 0.00443265
0.061579 0.0635863 -0.0586043 0.00207697
-0.216526 -0.495452 -0.0343049 0.00169679
-0.203874 -0.490862 -0.0429812 0.000580091
-0.205936 -0.494091 -0.0259614 0.000397387
-0.191242 -0.490025 -0.0339795 0.00145634
0.936002 0.0365647 0.080596 0.00344713
0.940474 0.0496567 0.0841142 0.000345663
0.932721 0.0436707 0.0934497 0.000489532
0.936011 0.0579812 0.0976109 0.00503561
0.0842561 0.308715 -0.0232055 0.000718297
0.0798217 0.324071 -0.0215459 0.00120208
0.0973047 0.307091 -0.0181165 0.00138005
0.0927081 0.322331 -0.0165057 0.000234393
0.208047 0.164313 0.0945547 0.00146261
0.212262 0.176499 0.0944379 0.00160618
0.220145 0.169197 0.0984025 0.000718871
0.224616 0.181162 0.0987435 0.00415377
-0.517532 -0.161446 -0.243295 0.00550298
-0.518561 -0.14304 -0.244232 0.000408501
-0.500971 -0.157485 -0.248943 0.000679305
-0.501422 -0.140265 -0.249062 0.00351575
0.0912198 0.381255 -0.0102441 0.00140441
0.0927179 0.396658 -0.0107299 0.00457795
0.101596 0.38117 -0.00443332 0.00254392
0.104004 0.395459 -0.00638804 0.0012143
0.253985 -0.378469 -0.093646 0.00274689
0.260969 -0.36659 -0.104854 0.00198636
0.270437 -0.383328 -0.0857573 0.000624549
0.276677 -0.371634 -0.0973312 0.000127186
-0.580427 0.0493855 0.0745699 9.24915e-05
-0.57969 0.064047 0.0744567 0.000557167
-0.568246 0.0499657 0.0755124 0.00163116
-0.567471 0.0648552 0.0755507 0.00156386
-0.201148 0.00989306 -0.230305 0.00277065
-0.206263 0.0219933 -0.223367 0.00268387
-0.182351 0.0147705 -0.228868 0.000250652
-0.187757 0.0269846 -0.221897 0.000213555
-0.235065 -0.476783 -0.0770761 0.000906277
-0.229344 -0.469577 -0.0879959 0.000779131
-0.222744 -0.479134 -0.0711549 0.000559378
-0.216306 -0.472251 -0.0817655 0.000732943
-0.430269 -0.47932 0.0698469 0.00227936
-0.436932 -0.471348 0.0798308 0.00222385
-0.411919 -0.477023 0.0735677 0.000775735
-0.419536 -0.46892 0.0832545 0.0015174
0.148474 -0.111314 0.215587 0.00177099
0.151652 -0.0955978 0.212316 0.000310567
0.16246 -0.108806 0.215 0.000286489
0.164045 -0.0908522 0.212468 0.0040996
0.854921 0.186084 -0.0433313 0.00184371
0.85336 0.197218 -0.0377425 0.00182145
0.869329 0.190231 -0.0397095 0.000942636
0.868289 0.201821 -0.0348435 0.00152102
-0.425479 -0.183284 -0.261563 0.00136425
-0.422285 -0.163742 -0.262565 0.00300773
-0.410316 -0.179875 -0.261121 0.000708281
-0.406736 -0.160766 -0.262493 0.00567323
-0.205561 -0.489322 -0.0552669 0.00254808
-0.195057 -0.483647 -0.0650627 0.00252846
-0.196389 -0.487115 -0.0490961 0.000777027
-0.184024 -0.482024 -0.0583208 0.00174464
-0.31482 -0.348895 -0.180943 0.00172373
-0.3106 -0.339056 -0.188216 0.00119244
-0.297346 -0.353157 -0.179636 0.000636216
-0.291788 -0.342067 -0.188225 0.00108868
-0.488205 -0.392369 0.135058 0.00147295
-0.498742 -0.38039 0.141756 0.00181768
-0.46884 -0.391789 0.136737 0.000118891
-0.479881 -0.379656 0.142779 0.000789102
0.149782 -0.435521 -0.0348945 0.00180477
0.162978 -0.429267 -0.0452115 0.00277454
0.161716 -0.43113 -0.026318 0.00294246
0.175743 -0.426753 -0.0364878 0.00011601
0.00339315 -0.46198 -0.0671126 0.00129034
0.0101685 -0.452929 -0.0787431 0.00192036
0.0136225 -0.462988 -0.057493 0.000591093
0.0211163 -0.453789 -0.0697387 0.00265426
0.189406 0.0533445 0.0680622 0.00295535
0.181035 0.0642887 0.0779267 0.000450417
0.198819 0.0531426 0.0716066 0.00325283
0.191473 0.0657958 0.0830831 0.00402905
-0.0021323 -0.0425083 -0.223063 0.00299876
-0.00948777 -0.0302895 -0.218641 0.00323308
0.00884488 -0.0429398 -0.216333 0.00187246
0.00117901 -0.0305305 -0.212637 0.001776
0.0577109 0.378774 -0.117385 0.0100703
0.0561562 0.389251 -0.109112 0.00288449
0.0679876 0.385216 -0.114353 0.000997808
0.0663653 0.395828 -0.106335 0.00600229
0.888309 0.10039 0.154075 0.000897605
0.8856 0.114462 0.154376 0.00156164
0.902768 0.102422 0.152029 0.0023811
0.899279 0.116876 0.151779 0.00110203
0.0919951 0.00957279 0.173426 0.00322451
0.088616 0.0253947 0.17084 0.002427
0.104508 0.0048432 0.179795 0.00590447
0.101172 0.0208758 0.177204 0.00691465
0.103584 -0.00651877 -0.0979596 0.00199508
0.0948464 0.0022894 -0.0931017 0.00448099
0.117035 -0.00958077 -0.0933994 0.0148442
0.107988 -0.000847891 -0.088202 0.0063775
-0.379613 -0.104654 -0.267216 0.00542349
-0.381935 -0.0918953 -0.26031 0.000360439
-0.369913 -0.0983575 -0.268404 0.00273641
-0.372384 -0.0854069 -0.26167 0.0033359
0.0584496 0.326848 -0.104664 0.00956813
0.0628733 0.344596 -0.104826 0.00353391
0.0696796 0.332928 -0.104757 0.000709989
0.0739434 0.350349 -0.10501 0.00638907
-0.220312 0.0447462 -0.209928 0.000417075
-0.225336 0.055176 -0.199648 0.0007448
-0.203593 0.0519957 -0.206024 0.00213344
-0.208506 0.0622583 -0.195834 0.00154634
0.959266 0.104438 0.0170344 0.00240094
0.962726 0.116092 0.0159165 0.00133633
0.962423 0.109463 0.0279497 0.00250576
0.964027 0.120691 0.0280405 0.00235671
0.572754 -0.2927 -0.055557 0.00165653
0.582036 -0.282286 -0.0654336 0.000464028
0.588897 -0.294159 -0.0518055 0.0011756
0.597432 -0.28429 -0.0630534 0.00200125
0.901881 0.0361791 -0.0305109 0.00322951
0.909169 0.0475312 -0.0368861 0.000582819
0.911053 0.0357679 -0.0236101 0.00184038
0.918135 0.0472786 -0.0298256 0.00036288
0.200685 0.142006 0.0907048 0.00111084
0.204241 0.154504 0.0900571 0.00116119
0.213076 0.147309 0.0947235 0.00221447
0.217076 0.159632 0.0946451 0.000572297
0.0705769 0.0448436 -0.0711582 0.00557473
0.0682647 0.0544565 -0.0644111 0.00448063
0.0793661 0.0481273 -0.0612572 0.00333933
0.0772496 0.0566485 -0.0563861 0.00281237
0.668723 0.160264 0.0817032 0.000231188
0.674622 0.172413 0.0783103 0.000602665
0.678428 0.164029 0.0929907 0.000643266
0.683236 0.175803 0.090283 0.000267106
0.782571 0.234186 0.11923 0.000493242
0.790281 0.241727 0.107455 0.000243899
0.794675 0.229882 0.126201 0.00180196
0.801776 0.238252 0.112598 0.000629616
-0.251369 -0.501281 0.0122683 7.04684e-05
-0.254786 -0.498712 0.0263213 0.000193349
-0.23698 -0.499091 0.0221511 0.000276169
-0.240893 -0.495908 0.0374547 0.000103277
-0.541814 0.195168 0.135798 0.000225946
-0.541325 0.211267 0.135266 0.000771355
-0.544678 0.197077 0.147803 0.00243077
-0.544015 0.213224 0.147028 0.00258695
0.500631 -0.309367 -0.0507685 0.0033645
0.507293 -0.297717 -0.0595691 0.00304573
0.516629 -0.315011 -0.0504204 0.00171865
0.523982 -0.303525 -0.0599042 0.00274816
0.586011 -0.0513677 -0.0769406 0.00173005
0.58727 -0.035114 -0.0721276 0.00325301
0.603603 -0.0471543 -0.0764268 0.000921074
0.604964 -0.0312794 -0.0724535 0.000159589
-0.63533 0.0748942 -0.0505784 0.000850015
-0.638852 0.0878629 -0.0507874 0.00107974
-0.620045 0.0757468 -0.0471877 0.001165
-0.623484 0.0888921 -0.0470385 0.00104362
-0.528686 0.269094 -0.0986924 0.00299057
-0.52991 0.281872 -0.0963618 0.0061236
-0.525293 0.27018 -0.0872884 0.00278116
-0.526435 0.282549 -0.0870377 0.000697113
-0.603817 -0.0239899 -0.0396395 0.00167583
-0.597655 -0.00931127 -0.0438648 0.00103247
-0.586708 -0.0244739 -0.035113 0.00150684
-0.58035 -0.0105647 -0.0400467 0.000305824
0.720797 0.206369 -0.0122868 0.00213928
0.719796 0.21302 -0.00254479 0.00128604
0.726663 0.216658 -0.00177594 0.000466943
0.727522 0.222304 0.00630472 0.00243945
-0.132702 0.0626536 0.208484 0.00033309
-0.1236 0.0748066 0.192991 0.000316417
-0.116751 0.0579642 0.210241 0.001933
-0.10772 0.0698277 0.195113 0.00119895
0.146236 0.129983 -0.151645 2.56812e-05
0.145192 0.144674 -0.147768 0.00103573
0.162339 0.132742 -0.154423 0.00152359
0.161847 0.147028 -0.150538 0.00105564
0.432631 -0.19762 0.148356 0.00030961
0.431794 -0.184066 0.150493 0.000326577
0.449234 -0.19642 0.145863 0.000863571
0.446827 -0.183476 0.147997 0.00100035
-0.664027 -0.130318 0.0451446 0.00258046
-0.659129 -0.116837 0.0464005 0.00391201
-0.665817 -0.121987 0.0605978 0.00149222
-0.662309 -0.108051 0.0624753 0.000609439
0.0948404 0.44406 -0.0672115 0.00256623
0.111759 0.450667 -0.0751967 0.000525259
0.103707 0.448393 -0.0617986 3.43382e-05
0.117683 0.453359 -0.0703974 0.00207885
0.156899 -0.227289 0.235308 0.00214278
0.155199 -0.213357 0.240311 0.00201566
0.170718 -0.222949 0.233174 0.00328748
0.168505 -0.209346 0.236296 0.00235487
0.911569 0.0526472 0.126093 0.00179757
0.911909 0.0677539 0.132193 0.00262148
0.912835 0.0610961 0.134191 0.00206299
0.912849 0.0759203 0.139492 0.000752069
0.746833 0.126958 0.141449 0.000325983
0.745277 0.142354 0.138347 0.000256578
0.759701 0.126555 0.146983 0.00144073
0.757497 0.142013 0.143666 0.00037807
0.939318 0.0534691 0.0452683 0.00114148
0.944954 0.0649366 0.0468109 0.000811344
0.940983 0.059313 0.0584482 0.00205375
0.946794 0.0711728 0.0598647 0.000126069
0.444132 -0.00624831 -0.0517924 0.00306732
0.442172 0.00311636 -0.040244 0.00252131
0.458369 -0.00077317 -0.046956 0.00200844
0.455696 0.00845021 -0.0351932 0.00533704
-0.397042 -0.027487 0.216945 0.000107518
-0.392379 -0.0131852 0.208343 0.00129661
-0.396769 -0.0287322 0.226826 0.00262815
-0.392186 -0.0142741 0.21825 0.00114773
-0.508106 -0.454652 0.0765665 0.00251914
-0.516859 -0.444025 0.0830099 0.000379
-0.492878 -0.455478 0.0846884 0.00165389
-0.500962 -0.444621 0.091681 0.000680588
-0.633498 0.106002 0.185495 0.00103938
-0.632246 0.122914 0.184889 0.000370618
-0.618696 0.11034 0.190342 0.00217277
-0.61686 0.127564 0.189655 0.00183555
-0.325126 -0.0108787 0.265031 0.00063064
-0.319885 -0.00096603 0.259896 0.000823416
-0.312267 -0.0113652 0.268823 0.00274145
-0.306019 -0.00155435 0.263419 0.00137907
0.480444 -0.291044 -0.0633705 0.0033931
0.485696 -0.278019 -0.0705401 0.000823328
0.496825 -0.297793 -0.0629701 0.000942214
0.502322 -0.284874 -0.0708403 0.00307801
0.314283 -0.0307452 0.156556 0.00203438
0.310189 -0.0208433 0.155753 0.000939007
0.313863 -0.0393979 0.158853 0.00129259
0.311503 -0.0291551 0.15653 0.000431278
-0.091742 -0.228123 -0.266371 0.000467739
-0.0880344 -0.214281 -0.266257 0.00114375
-0.0718958 -0.228494 -0.263904 0.000692736
-0.0682325 -0.213915 -0.263936 0.000153535
0.213635 0.0685715 -0.0251409 0.00566318
0.208666 0.0782024 -0.0228918 0.000741845
0.228248 0.0673728 -0.0235082 0.00198428
0.22312 0.0770686 -0.0223672 0.00209409
-0.653247 -0.269021 -0.103961 0.00190185
-0.661592 -0.255836 -0.100497 0.0010251
-0.660324 -0.267984 -0.092846 0.00229789
-0.66562 -0.254833 -0.0905906 0.00262308
0.121806 -0.441385 0.0604824 0.000814097
0.117281 -0.438594 0.075778 0.00136306
0.137924 -0.434686 0.0729602 0.00202236
0.129244 -0.428836 0.0887118 0.000290421
-0.199226 -0.291866 0.2773 0.00196056
-0.200407 -0.277211 0.283353 0.001499
-0.184528 -0.286988 0.280374 0.000488745
-0.186404 -0.272782 0.285495 0.0014403
-0.582303 -0.0566999 -0.00492944 0.00228165
-0.572759 -0.0464038 -0.0144239 0.00517404
-0.565921 -0.0557614 -0.000228312 0.000639996
-0.553636 -0.0471782 -0.0107024 0.00181309
-0.0916603 -0.458806 -0.10919 0.00146524
-0.0816995 -0.450227 -0.119818 0.0010855
-0.0796613 -0.460607 -0.103735 0.0018475
-0.0698175 -0.452528 -0.112617 0.00108909
-0.672556 0.0901935 0.114075 0.000695432
-0.672077 0.104575 0.113071 0.001921
-0.672938 0.08853 0.119355 0.000630891
-0.672459 0.102912 0.118351 0.00236198
0.0324158 0.0585636 0.123709 6.55079e-05
0.0359063 0.0677915 0.115092 0.000451589
0.0409156 0.0445342 0.123437 0.00129648
0.0451016 0.0544201 0.114594 0.00165361
-0.342454 -0.260134 0.25803 0.00320784
-0.351944 -0.245282 0.264202 0.00300392
-0.323001 -0.258162 0.260932 0.00208409
-0.332377 -0.243163 0.266969 0.00167734
-0.587543 0.0509254 -0.200154 0.00199823
-0.585952 0.0629192 -0.193814 0.00159517
-0.569593 0.0531927 -0.201185 7.57489e-05
-0.57013 0.0653963 -0.193027 0.00113284
-0.326362 -0.121561 -0.27519 0.000489035
-0.327324 -0.106613 -0.274142 0.000570469
-0.311584 -0.116244 -0.274402 0.00137801
-0.312893 -0.100751 -0.273762 0.000663741
0.409632 -0.301291 -0.0926838 0.00028224
0.412032 -0.285355 -0.0990794 0.000714608
0.422992 -0.300536 -0.0851693 0.000984957
0.425243 -0.284351 -0.0917372 0.000604562
0.168255 -0.414248 -0.067462 0.00115462
0.183044 -0.403796 -0.0771079 0.00061017
0.18486 -0.414565 -0.057138 0.000673958
0.201718 -0.40487 -0.0672621 0.00167866
0.0376445 -0.444943 -0.102938 0.00368148
0.0461344 -0.431737 -0.114449 0.00128422
0.053401 -0.441217 -0.0949217 0.000927465
0.0619343 -0.4289 -0.106031 0.000975496
0.243544 -0.403166 -0.0642151 9.85625e-05
0.255327 -0.393896 -0.0769957 0.000320165
0.260815 -0.407188 -0.0537797 0.000221925
0.272757 -0.398129 -0.0679602 0.0016968
0.629544 0.118695 0.0462609 0.000643992
0.639728 0.130956 0.0408095 0.00168192
0.635839 0.122178 0.058016 0.000590541
0.64547 0.134249 0.0528604 0.00306704
0.843233 0.0160963 0.134334 0.000388618
0.842856 0.0282449 0.140411 0.000692944
0.860766 0.020121 0.130482 0.00189678
0.860037 0.0320106 0.13701 0.000376439
0.780309 0.11036 -0.0618383 0.000794842
0.779725 0.127598 -0.0585598 0.00156175
0.792749 0.112884 -0.0629048 0.000183493
0.792651 0.130312 -0.0607436 0.000372861
-0.62395 -0.37319 -0.0410985 0.00067057
-0.632239 -0.363168 -0.0349296 0.00388799
-0.625848 -0.377162 -0.0299188 0.00234806
-0.634556 -0.367509 -0.0228897 0.00254423
0.146414 0.0916348 0.0821305 0.00413627
0.132404 0.0963321 0.0854766 0.00317204
0.15678 0.085199 0.0856283 0.000803215
0.141215 0.0888805 0.0908883 0.00374286
-0.384313 -0.485339 -0.0612947 0.00187591
-0.379396 -0.48048 -0.0743761 0.00121914
-0.367021 -0.488125 -0.0578799 0.00100907
-0.363555 -0.483445 -0.0684259 0.000413556
0.252307 0.0937014 0.184148 0.00309393
0.245673 0.106777 0.189126 0.00103826
0.246159 0.0852991 0.19514 0.000879306
0.240476 0.0987105 0.198728 0.000856393
-0.634039 -0.219037 0.192916 0.000400277
-0.639727 -0.203559 0.194724 0.00225511
-0.620746 -0.221269 0.202491 0.00204499
-0.625643 -0.207069 0.205055 0.000558816
0.312092 -0.423163 -0.00271549 0.00321915
0.32472 -0.421022 -0.00196216 0.00306787
0.321834 -0.419265 0.00982397 0.00211426
0.335779 -0.417277 0.0102248 0.00181192
0.507977 0.0155092 0.0789901 0.0026681
0.513463 0.0235589 0.07298 0.000218902
0.517159 0.0165906 0.0895412 0.000495171
0.521616 0.0246073 0.0830906 0.00267304
0.78789 -0.176174 0.12103 0.00374458
0.793005 -0.165622 0.120834 0.00133036
0.779595 -0.167707 0.131916 0.00204173
0.784392 -0.157375 0.132155 0.00436932
-0.642088 0.308068 -0.056466 0.00220221
-0.626332 0.314292 -0.0693686 6.40167e-05
-0.629166 0.309294 -0.0427031 0.0013368
-0.61532 0.316198 -0.0570548 0.0009942
0.0959291 -0.368217 0.178288 0.000403668
0.0977566 -0.356941 0.187826 0.000645351
0.107537 -0.360522 0.179757 6.63885e-05
0.108813 -0.349158 0.189123 0.000231744
-0.191444 0.0928031 0.184468 0.000203559
-0.181577 0.101236 0.170734 0.00179045
-0.179191 0.0862432 0.191022 0.000208111
-0.170294 0.0969856 0.174546 0.00240369
-0.410211 -0.288811 0.223211 0.00248469
-0.410197 -0.279209 0.231654 0.0039311
-0.393081 -0.280794 0.22658 0.000536147
-0.393519 -0.270742 0.234298 0.00016509
0.127758 -0.0895736 0.199005 0.00128971
0.127288 -0.0758319 0.198162 0.00257423
0.141172 -0.0901644 0.203539 0.00244491
0.140234 -0.0759236 0.202893 0.00603594
-0.656839 0.101622 -0.0545386 0.00282353
-0.659408 0.11432 -0.0547577 0.00248986
-0.643284 0.10032 -0.0519205 0.002475
-0.645939 0.113467 -0.0518549 0.00331601
0.266132 -0.380284 -0.0895651 0.00108654
0.272372 -0.368591 -0.101139 0.00058918
0.283365 -0.383668 -0.0805703 0.00109097
0.29004 -0.372044 -0.0918369 0.000972583
-0.674051 0.0150223 -0.135942 0.00024473
-0.669468 0.0321802 -0.136162 0.000575646
-0.673817 0.0198374 -0.123451 0.000682059
-0.669711 0.0372649 -0.123797 0.00136766
0.0959056 0.302003 -0.0175996 2.66494e-05
0.0913574 0.317268 -0.0160471 0.00104845
0.109683 0.300842 -0.0146943 0.00064284
0.104983 0.315985 -0.0130334 0.00190311
0.857816 -0.0116182 -0.0313558 0.00144427
0.864699 0.0045764 -0.0335875 0.00311664
0.87721 -0.00907672 -0.0245897 0.00205834
0.884393 0.00620108 -0.0274228 0.000326223
-0.668005 0.0584222 0.104103 0.0020389
-0.667192 0.0717776 0.103572 0.000443734
-0.666734 0.0590974 0.10868 0.000696458
-0.665785 0.0727765 0.108408 0.00220168
-0.542469 0.311834 0.135965 0.00373942
-0.543864 0.316562 0.142534 0.000366664
-0.539076 0.313924 0.149727 0.00194015
-0.537847 0.319113 0.15064 0.00334329
-0.539624 0.126998 0.188533 0.000742338
-0.542837 0.14122 0.182305 0.000829533
-0.529536 0.11617 0.191476 0.00099762
-0.534327 0.129868 0.185121 0.000356416
0.0245053 0.0754349 -0.0773241 0.000371464
0.0163105 0.0822726 -0.0704363 0.00500307
0.0355684 0.0730964 -0.0681823 0.000796765
0.0276897 0.0800879 -0.0607351 0.00492853
0.540625 0.0143072 -0.0445416 0.00116546
0.534091 0.0223704 -0.0315588 0.00114958
0.547877 0.0231423 -0.034305 0.000505792
0.54074 0.0300584 -0.0208297 0.00127647
-0.0897918 0.0481909 -0.183956 0.00170916
-0.0952109 0.0580983 -0.175112 0.00183073
-0.0737718 0.0463344 -0.178577 0.000209914
-0.0803174 0.0554379 -0.171239 0.000511232
0.164529 0.393845 0.0949031 0.000227344
0.167144 0.407452 0.0970768 0.00227276
0.177699 0.395801 0.101193 0.00129636
0.180264 0.409215 0.10314 0.00244908
-0.523286 0.00230369 0.0723258 0.00188009
-0.525412 0.015639 0.0757236 0.00293886
-0.507583 0.00366357 0.0738221 0.000940702
-0.51024 0.0149166 0.078578 0.00342688
0.0152372 -0.238045 0.272182 0.00152923
0.0136532 -0.222549 0.276983 0.00140025
0.0305139 -0.23501 0.270361 0.00152759
0.0291253 -0.218589 0.275024 0.00179276
0.176649 0.24177 0.0960289 0.00189828
0.175845 0.254282 0.0974719 0.0013573
0.188981 0.244979 0.0997472 0.00196212
0.187192 0.25763 0.101246 0.00230693
-0.4447 -0.0299177 0.211383 7.14459e-05
-0.447757 -0.0182227 0.214293 0.00136242
-0.452115 -0.0327855 0.22157 0.00259576
-0.456228 -0.0198125 0.226186 0.000513907
-0.607881 0.307086 0.15753 0.00224218
-0.591683 0.311528 0.150434 0.00154397
-0.595276 0.311751 0.168275 0.000951034
-0.581087 0.315429 0.162782 0.00142001
-0.44188 -0.447734 -0.0969326 0.00280734
-0.435539 -0.439251 -0.106222 0.00063633
-0.427297 -0.450861 -0.0942626 0.00407878
-0.422421 -0.443519 -0.104191 0.000631061
-0.239772 -0.0409168 -0.257679 0.000137251
-0.236354 -0.0236447 -0.24942 0.00193928
-0.218373 -0.0355949 -0.257965 0.00244191
-0.218212 -0.0201597 -0.251761 0.00165954
-0.142338 -0.0745314 -0.265075 0.000407162
-0.145397 -0.0627286 -0.262426 0.0017564
-0.128142 -0.0756132 -0.262754 0.000733133
-0.130685 -0.0638289 -0.260572 0.00109603
0.583274 -0.0237859 -0.0728588 0.00115772
0.585691 -0.00765357 -0.066237 0.00242311
0.599045 -0.0161593 -0.0730534 0.00269526
0.60132 0.000216008 -0.0668335 0.00123152
-0.052584 0.111293 0.114038 0.00151924
-0.0673031 0.11014 0.120803 0.00326123
-0.0388475 0.110536 0.125651 0.0036999
-0.0521482 0.109778 0.130604 0.00204856
-0.462222 -0.0175985 -0.0397959 0.000860625
-0.450665 -0.0114237 -0.0474529 0.00259565
-0.455641 -0.0219596 -0.0301515 0.00251615
-0.443 -0.0154782 -0.0376139 0.00485174
-0.570928 0.202201 -0.0615211 0.00490797
-0.572517 0.217009 -0.0591502 0.00532518
-0.560069 0.206177 -0.0596113 0.00459527
-0.560759 0.21935 -0.0583949 0.00120525
-0.133722 -0.323279 -0.245355 0.000930884
-0.1266 -0.309324 -0.249843 0.000331725
-0.114951 -0.320212 -0.244797 5.99337e-05
-0.108258 -0.30778 -0.249287 7.72998e-05
0.168483 0.193491 0.0899397 0.00104103
0.169619 0.205274 0.0902422 0.000211119
0.181651 0.19482 0.0923199 0.00175719
0.182997 0.207126 0.0926201 0.000783398
0.268998 -0.325948 0.183406 0.000843913
0.266638 -0.313889 0.19438 0.00229432
0.286177 -0.31918 0.181412 0.000978358
0.283865 -0.306977 0.192095 0.000761706
0.839908 0.120202 -0.062605 0.00165338
0.841509 0.136708 -0.0609967 2.31372e-05
0.857191 0.124643 -0.0620454 0.000560605
0.859407 0.140059 -0.0598757 0.0010429
-0.397534 -0.00395558 -0.156096 0.000755293
-0.389812 0.00746991 -0.158911 0.000378717
-0.39768 0.0024475 -0.138259 0.000811125
-0.389515 0.0140073 -0.142083 0.000727483
0.160313 -0.317949 0.209507 0.00105847
0.158183 -0.308316 0.217304 0.00100875
0.172623 -0.312721 0.20976 0.00300022
0.170273 -0.303055 0.217668 0.00365205
0.173553 0.321963 -0.0280347 0.00269543
0.174649 0.336321 -0.0299422 0.0058555
0.176325 0.318045 -0.0259472 0.00105744
0.177627 0.332697 -0.0279592 0.00213034
0.714206 0.0949731 -0.0521376 0.00199383
0.713045 0.112062 -0.0441156 0.000312237
0.729914 0.105093 -0.0544519 0.000955654
0.728698 0.1215 -0.0464966 0.000843074
0.222573 -0.346753 0.173557 3.22867e-05
0.220294 -0.333963 0.185468 0.00283255
0.240505 -0.341566 0.174523 0.000394252
0.238625 -0.328743 0.185857 0.000490903
0.253833 0.0643042 -0.0233939 0.00405027
0.243936 0.0687309 -0.0187129 0.00330697
0.264826 0.0634144 -0.021875 0.00606127
0.254351 0.0671854 -0.0169488 0.00134524
0.0810197 0.0464674 0.171662 0.00517419
0.078812 0.0593676 0.167674 0.00346314
0.0965834 0.0372371 0.174801 0.00676845
0.0925143 0.05168 0.17159 0.00687773
0.213669 0.141497 -0.0240362 0.000337106
0.212914 0.153924 -0.0244532 0.000293449
0.225517 0.143076 -0.0269599 0.000454145
0.224338 0.155136 -0.0268782 8.00395e-06
-0.203161 0.115755 -0.077881 0.000411252
-0.18576 0.11748 -0.0794581 0.00161269
-0.190224 0.119943 -0.0637794 0.00203008
-0.173718 0.121549 -0.0643841 0.000888023
-0.493885 0.153756 -0.0943081 0.00348749
-0.500454 0.164599 -0.089824 0.00064889
-0.494953 0.151389 -0.0858998 0.00223291
-0.50163 0.162292 -0.081689 0.000732419
-0.460424 0.0660961 0.134056 0.002533
-0.465246 0.076449 0.139155 0.000130182
-0.460782 0.0632487 0.146375 0.000351137
-0.465786 0.0741429 0.151591 0.00249613
0.104976 -0.267765 -0.209074 0.00112491
0.114165 -0.252054 -0.212143 0.000827049
0.124834 -0.269097 -0.204526 0.00106617
0.133674 -0.252855 -0.207413 0.00114394
-0.383012 -0.447801 0.104514 0.00027958
-0.393045 -0.437787 0.115457 0.00310834
-0.365538 -0.444827 0.106062 0.00218545
-0.376178 -0.435134 0.117187 0.00123863
-0.242865 -0.368438 -0.187006 0.000166016
-0.234754 -0.352922 -0.200991 0.000604179
-0.223716 -0.374095 -0.18776 0.000240926
-0.215648 -0.358976 -0.20173 0.000270824
-0.296662 0.088265 -0.122666 0.00219099
-0.288152 0.0949734 -0.119371 0.000551728
-0.288752 0.0968036 -0.110331 0.00195666
-0.278114 0.103491 -0.106485 0.00382837
-0.660794 0.252197 0.0724146 0.00229626
-0.659706 0.264581 0.0757962 0.00138008
-0.6455 0.254531 0.0713617 0.000226191
-0.644385 0.266927 0.0743659 0.00395329
-0.350201 -0.511445 -0.0202613 0.00595813
-0.353222 -0.509502 -0.00533065 0.000559323
-0.339929 -0.508261 -0.0114137 0.000521789
-0.341928 -0.505528 0.00428945 0.00181693
-0.523701 0.0901144 0.204163 0.00155624
-0.529747 0.102537 0.198671 0.00253223
-0.517717 0.0747195 0.210207 0.000239491
-0.522776 0.0863527 0.205859 0.00129202
0.246165 -0.388294 -0.0869272 1.96028e-05
0.25427 -0.37643 -0.0983218 0.00123468
0.26365 -0.394294 -0.0786774 0.00278412
0.270038 -0.382402 -0.0903853 0.00172502
0.418504 -0.313119 -0.0822579 0.000551639
0.420493 -0.296951 -0.0890388 5.74924e-05
0.431645 -0.312719 -0.0745436 0.00142139
0.434227 -0.297086 -0.0806289 0.000457425
-0.133613 -0.0824412 -0.266132 0.00108402
-0.136124 -0.0705 -0.263982 0.00140882
-0.118527 -0.0820176 -0.264125 0.000419942
-0.120723 -0.0698017 -0.261691 0.00103704
-0.0848056 0.118895 -0.0916116 0.000213777
-0.0922615 0.125071 -0.0788507 0.00398646
-0.0743241 0.121931 -0.0810838 0.00123694
-0.0826241 0.12854 -0.0677728 0.00525372
0.213491 -0.280006 -0.177669 0.00230963
0.223479 -0.267976 -0.182153 6.87199e-05
0.231328 -0.279276 -0.175979 0.000578704
0.24072 -0.267647 -0.180137 0.000894152
-0.298063 -0.498244 -0.0362933 0.000129682
-0.283745 -0.495887 -0.044801 0.000954341
-0.282913 -0.497947 -0.0288775 0.00160975
-0.272449 -0.497152 -0.0342193 0.000182733
-0.47341 -0.0888557 0.260295 0.00136331
