2.599719166755676270e-01 2.440135627985000610e-01 7.466893196105957031e-01
2.760406136512756348e-01 2.388791143894195557e-01 7.482198476791381836e-01
2.660185992717742920e-01 2.399290353059768677e-01 7.509053349494934082e-01
2.774641215801239014e-01 1.822999119758605957e-01 6.921734213829040527e-01
2.763224840164184570e-01 1.837918907403945923e-01 6.971157789230346680e-01
2.826213240623474121e-01 1.845441311597824097e-01 6.952190995216369629e-01
2.814977765083312988e-01 1.864174008369445801e-01 7.001556158065795898e-01
2.077684551477432251e-01 2.823744714260101318e-01 6.054137274622917175e-02
2.014425098896026611e-01 2.833794951438903809e-01 6.258565187454223633e-02
2.138341963291168213e-01 2.807861268520355225e-01 6.469818949699401855e-02
2.072661519050598145e-01 2.816771268844604492e-01 6.663077324628829956e-02
2.321150004863739014e-01 1.420447677373886108e-01 9.784984588623046875e-02
2.393154054880142212e-01 1.444767266511917114e-01 9.575386345386505127e-02
2.373287975788116455e-01 1.448693126440048218e-01 1.032128259539604187e-01
2.432806342840194702e-01 1.481765210628509521e-01 1.013708934187889099e-01
1.110899224877357483e-01 2.333100438117980957e-01 3.068274259567260742e-01
1.124143078923225403e-01 2.394301146268844604e-01 3.065309822559356689e-01
1.113657951354980469e-01 2.354742735624313354e-01 3.118836581707000732e-01
1.134779900312423706e-01 2.414567619562149048e-01 3.117661476135253906e-01
2.131283730268478394e-01 2.042241543531417847e-01 9.193351268768310547e-01
2.135005444288253784e-01 2.085738778114318848e-01 9.173966646194458008e-01
2.152322977781295776e-01 2.047359198331832886e-01 9.244841933250427246e-01
2.150935530662536621e-01 2.087557613849639893e-01 9.216184020042419434e-01
2.425488978624343872e-01 2.407217919826507568e-01 7.847859859466552734e-01
2.470627278089523315e-01 2.434677183628082275e-01 7.807148098945617676e-01
2.483405023813247681e-01 2.418156713247299194e-01 7.873640060424804688e-01
2.530325353145599365e-01 2.445834130048751831e-01 7.830142974853515625e-01
3.193567693233489990e-01 1.552487909793853760e-01 7.843925356864929199e-01
3.217490017414093018e-01 1.600238978862762451e-01 7.836149334907531738e-01
3.190080523490905762e-01 1.587558835744857788e-01 7.891300320625305176e-01
3.214380443096160889e-01 1.634158492088317871e-01 7.885146737098693848e-01
3.275834321975708008e-01 2.450764775276184082e-01 5.706057548522949219e-01
3.246093094348907471e-01 2.479444742202758789e-01 5.718100070953369141e-01
3.297212123870849609e-01 2.438337504863739014e-01 5.750471353530883789e-01
3.269206881523132324e-01 2.469273209571838379e-01 5.762096643447875977e-01
2.505658268928527832e-01 2.554670274257659912e-01 4.605229571461677551e-02
2.470837831497192383e-01 2.596457004547119141e-01 4.849094152450561523e-02
2.519333064556121826e-01 2.546603083610534668e-01 5.199979990720748901e-02
2.481965571641921997e-01 2.587620913982391357e-01 5.445117503404617310e-02
1.718809604644775391e-01 2.920233011245727539e-01 5.274710804224014282e-02
1.633277982473373413e-01 2.924180924892425537e-01 5.600634217262268066e-02
1.775507926940917969e-01 2.916169166564941406e-01 5.853981152176856995e-02
1.690310984849929810e-01 2.920869290828704834e-01 6.166816502809524536e-02
2.765097320079803467e-01 1.962080895900726318e-01 2.567261457443237305e-01
2.799656689167022705e-01 2.029370963573455811e-01 2.564809620380401611e-01
2.788130640983581543e-01 2.004418522119522095e-01 2.613970339298248291e-01
2.823475003242492676e-01 2.077984362840652466e-01 2.608271837234497070e-01
2.620902061462402344e-01 9.680119901895523071e-02 7.281416654586791992e-01
2.574431300163269043e-01 1.030151546001434326e-01 7.265492081642150879e-01
2.661275863647460938e-01 9.621360898017883301e-02 7.309634089469909668e-01
2.619982361793518066e-01 1.015674844384193420e-01 7.307773232460021973e-01
1.206354573369026184e-01 1.335910111665725708e-01 4.993308484554290771e-01
1.144361570477485657e-01 1.338868141174316406e-01 5.009991526603698730e-01
1.248493567109107971e-01 1.322856545448303223e-01 5.024090409278869629e-01
1.179715096950531006e-01 1.321156620979309082e-01 5.044986009597778320e-01
1.665845215320587158e-01 1.751406341791152954e-01 6.085983514785766602e-01
1.608794033527374268e-01 1.771567910909652710e-01 6.177814006805419922e-01
1.719515770673751831e-01 1.796108633279800415e-01 6.139268875122070312e-01
1.662744134664535522e-01 1.816777288913726807e-01 6.232874393463134766e-01
1.132517829537391663e-01 2.705132663249969482e-01 6.194582954049110413e-02
1.180778667330741882e-01 2.769043445587158203e-01 6.274212896823883057e-02
1.181788817048072815e-01 2.758170366287231445e-01 6.869762390851974487e-02
1.230418682098388672e-01 2.821652889251708984e-01 6.941900402307510376e-02
2.111037969589233398e-01 2.160046845674514771e-01 8.789511322975158691e-01
2.111134082078933716e-01 2.213641405105590820e-01 8.793077468872070312e-01
2.111379355192184448e-01 2.173403650522232056e-01 8.836006522178649902e-01
2.107945233583450317e-01 2.226067781448364258e-01 8.836681246757507324e-01
1.028083115816116333e-01 1.839019656181335449e-01 6.416997313499450684e-02
1.013762801885604858e-01 1.882715672254562378e-01 6.599327921867370605e-02
1.038643196225166321e-01 1.836403012275695801e-01 6.889977306127548218e-02
1.023680716753005981e-01 1.880808323621749878e-01 7.063613831996917725e-02
2.376745194196701050e-01 1.599247008562088013e-01 4.069470167160034180e-01
2.434642016887664795e-01 1.630184948444366455e-01 4.055619537830352783e-01
2.423524856567382812e-01 1.598885804414749146e-01 4.120905697345733643e-01
2.472523897886276245e-01 1.633213311433792114e-01 4.105470478534698486e-01
2.642346620559692383e-01 2.613874971866607666e-01 3.292586207389831543e-01
2.587058246135711670e-01 2.655484080314636230e-01 3.319992721080780029e-01
2.703413069248199463e-01 2.595670819282531738e-01 3.341036438941955566e-01
2.647020816802978516e-01 2.638145089149475098e-01 3.367881178855895996e-01
2.111365646123886108e-01 2.802218496799468994e-01 4.154723882675170898e-01
2.044500857591629028e-01 2.793614864349365234e-01 4.210887253284454346e-01
2.163858562707901001e-01 2.793500125408172607e-01 4.212024211883544922e-01
2.103799581527709961e-01 2.788744866847991943e-01 4.261105358600616455e-01
4.383557289838790894e-02 1.574417054653167725e-01 7.872989177703857422e-01
4.210738465189933777e-02 1.621024757623672485e-01 7.903864979743957520e-01
4.937824234366416931e-02 1.601506173610687256e-01 7.888119816780090332e-01
4.800651967525482178e-02 1.647969931364059448e-01 7.914167642593383789e-01
2.055043429136276245e-01 1.953807026147842407e-01 6.755765080451965332e-01
1.990109384059906006e-01 1.943585425615310669e-01 6.805372834205627441e-01
2.117854356765747070e-01 1.955735832452774048e-01 6.816253066062927246e-01
2.052007466554641724e-01 1.947735249996185303e-01 6.863008737564086914e-01
8.181185275316238403e-02 1.564096957445144653e-01 5.136627554893493652e-01
7.841198146343231201e-02 1.630848646163940430e-01 5.161413550376892090e-01
7.726304978132247925e-02 1.584033221006393433e-01 5.197132825851440430e-01
7.383391261100769043e-02 1.649743318557739258e-01 5.220713019371032715e-01
2.836865186691284180e-01 2.344255894422531128e-01 3.002859354019165039e-01
2.833956182003021240e-01 2.414347231388092041e-01 2.994953989982604980e-01
2.830421328544616699e-01 2.374889999628067017e-01 3.091506958007812500e-01
2.832158207893371582e-01 2.451124340295791626e-01 3.077212572097778320e-01
1.277087181806564331e-01 2.553015649318695068e-01 6.550896763801574707e-01
1.316051483154296875e-01 2.598060667514801025e-01 6.521275639533996582e-01
1.303225755691528320e-01 2.566336691379547119e-01 6.605179905891418457e-01
1.341589242219924927e-01 2.608146667480468750e-01 6.576721072196960449e-01
2.169754803180694580e-01 1.931623369455337524e-01 6.957326531410217285e-01
2.101218402385711670e-01 1.929152905941009521e-01 7.002831697463989258e-01
2.227826565504074097e-01 1.924620270729064941e-01 7.008973956108093262e-01
2.160093635320663452e-01 1.923978775739669800e-01 7.050002813339233398e-01
1.345209777355194092e-01 2.615432143211364746e-01 4.267334640026092529e-01
1.413275450468063354e-01 2.656421661376953125e-01 4.250673949718475342e-01
1.399946212768554688e-01 2.637175619602203369e-01 4.330769777297973633e-01
1.470461040735244751e-01 2.679222226142883301e-01 4.312004446983337402e-01
3.324279487133026123e-01 2.129302471876144409e-01 5.511600971221923828e-01
3.321950733661651611e-01 2.187662869691848755e-01 5.516276955604553223e-01
3.331930041313171387e-01 2.147873491048812866e-01 5.574519634246826172e-01
3.334971964359283447e-01 2.196673154830932617e-01 5.582426190376281738e-01
9.478644281625747681e-02 2.226330935955047607e-01 5.385299324989318848e-01
9.906156361103057861e-02 2.276495695114135742e-01 5.374260544776916504e-01
9.482320398092269897e-02 2.266171872615814209e-01 5.435885787010192871e-01
9.913159906864166260e-02 2.318152040243148804e-01 5.421451330184936523e-01
2.810059785842895508e-01 1.597487628459930420e-01 7.454707026481628418e-01
2.815710008144378662e-01 1.653582751750946045e-01 7.438006401062011719e-01
2.846776247024536133e-01 1.586951315402984619e-01 7.494069933891296387e-01
2.854662537574768066e-01 1.643193662166595459e-01 7.477821111679077148e-01
2.012995779514312744e-01 2.841851115226745605e-01 1.528149098157882690e-01
1.959084570407867432e-01 2.847822010517120361e-01 1.566685140132904053e-01
2.073379456996917725e-01 2.831169068813323975e-01 1.574803441762924194e-01
2.019056528806686401e-01 2.839648723602294922e-01 1.612077355384826660e-01
2.799087762832641602e-01 2.152263075113296509e-01 9.977161139249801636e-02
2.794776558876037598e-01 2.202095389366149902e-01 1.010564342141151428e-01
2.796870172023773193e-01 2.152383625507354736e-01 1.049680784344673157e-01
2.793140709400177002e-01 2.205010205507278442e-01 1.065035536885261536e-01
1.261120140552520752e-01 1.341255903244018555e-01 4.951038062572479248e-01
1.186170354485511780e-01 1.337045580148696899e-01 4.967065155506134033e-01
1.308431625366210938e-01 1.319722086191177368e-01 4.983244836330413818e-01
1.234217435121536255e-01 1.315973550081253052e-01 5.004267692565917969e-01
3.145843446254730225e-01 1.737581193447113037e-01 7.521113753318786621e-01
3.154612481594085693e-01 1.796827912330627441e-01 7.500606179237365723e-01
3.172631561756134033e-01 1.743615269660949707e-01 7.564046978950500488e-01
3.184159100055694580e-01 1.802687197923660278e-01 7.545138001441955566e-01
2.072206288576126099e-01 2.237549573183059692e-01 8.912945985794067383e-01
2.051597088575363159e-01 2.288634777069091797e-01 8.905881047248840332e-01
2.077671885490417480e-01 2.232142388820648193e-01 8.958583474159240723e-01
2.050122618675231934e-01 2.281674444675445557e-01 8.950596451759338379e-01
1.376721560955047607e-01 2.756630480289459229e-01 2.785338461399078369e-01
1.430184096097946167e-01 2.789418399333953857e-01 2.765745818614959717e-01
1.413089334964752197e-01 2.778365015983581543e-01 2.834571301937103271e-01
1.473204940557479858e-01 2.809085249900817871e-01 2.814044058322906494e-01
3.149434328079223633e-01 2.370570898056030273e-01 7.109047770500183105e-01
3.153642416000366211e-01 2.426376491785049438e-01 7.125346660614013672e-01
3.171178698539733887e-01 2.378623783588409424e-01 7.168706655502319336e-01
3.173202574253082275e-01 2.429339289665222168e-01 7.183206081390380859e-01
9.626213461160659790e-02 1.917157024145126343e-01 4.851188957691192627e-01
9.818450361490249634e-02 1.973118782043457031e-01 4.852877855300903320e-01
9.442496299743652344e-02 1.945189088582992554e-01 4.916534721851348877e-01
9.714612364768981934e-02 2.004774808883666992e-01 4.914518296718597412e-01
2.894325852394104004e-01 2.568505704402923584e-01 5.437521338462829590e-01
2.816826701164245605e-01 2.605342268943786621e-01 5.434058308601379395e-01
2.969270050525665283e-01 2.555375099182128906e-01 5.482887625694274902e-01
2.895144224166870117e-01 2.593597471714019775e-01 5.479574799537658691e-01
1.347371488809585571e-01 1.420439630746841431e-01 5.726973414421081543e-01
1.305963099002838135e-01 1.440934687852859497e-01 5.800798535346984863e-01
1.419834643602371216e-01 1.460083872079849243e-01 5.778878927230834961e-01
1.376993954181671143e-01 1.482313126325607300e-01 5.852560997009277344e-01
3.146313726902008057e-01 1.041291281580924988e-01 6.744866967201232910e-01
3.174133002758026123e-01 1.095877885818481445e-01 6.752657294273376465e-01
3.187581002712249756e-01 1.041821464896202087e-01 6.785243153572082520e-01
3.208107650279998779e-01 1.098205894231796265e-01 6.796168684959411621e-01
1.750562041997909546e-01 1.569639295339584351e-01 4.132793545722961426e-01
1.665547341108322144e-01 1.570345312356948853e-01 4.163323938846588135e-01
1.777401566505432129e-01 1.544713973999023438e-01 4.194039106369018555e-01
1.737425774335861206e-01 1.547035872936248779e-01 4.199421405792236328e-01
2.813286483287811279e-01 1.938047111034393311e-01 3.602062463760375977e-01
2.863273024559020996e-01 2.020628601312637329e-01 3.599506020545959473e-01
2.821946740150451660e-01 1.953559219837188721e-01 3.682175278663635254e-01
2.869310677051544189e-01 2.037812024354934692e-01 3.680707514286041260e-01
3.941809758543968201e-02 1.939430534839630127e-01 5.824429988861083984e-01
4.359320178627967834e-02 2.002428025007247925e-01 5.816386342048645020e-01
3.871691599488258362e-02 1.983253210783004761e-01 5.882452726364135742e-01
4.293131083250045776e-02 2.046108841896057129e-01 5.875997543334960938e-01
2.806214094161987305e-01 1.920074671506881714e-01 1.121520474553108215e-01
2.820105552673339844e-01 1.982527971267700195e-01 1.127297878265380859e-01
2.800876200199127197e-01 1.924832463264465332e-01 1.189916282892227173e-01
2.814495563507080078e-01 1.989525705575942993e-01 1.195106431841850281e-01
1.660522371530532837e-01 1.340404748916625977e-01 2.634096145629882812e-02
1.698401123285293579e-01 1.408490538597106934e-01 2.494281344115734100e-02
1.743629127740859985e-01 1.351261287927627563e-01 2.568163350224494934e-02
1.776091307401657104e-01 1.420165449380874634e-01 2.440142631530761719e-02
1.536501348018646240e-01 2.405264675617218018e-01 8.339058756828308105e-01
1.558519303798675537e-01 2.460535913705825806e-01 8.333271145820617676e-01
1.555621176958084106e-01 2.416591942310333252e-01 8.391425013542175293e-01
1.577476114034652710e-01 2.472362220287322998e-01 8.385062217712402344e-01
1.591983139514923096e-01 2.019672989845275879e-01 7.339383363723754883e-01
1.546486765146255493e-01 2.049299180507659912e-01 7.367554306983947754e-01
1.645739674568176270e-01 2.010429501533508301e-01 7.371142506599426270e-01
1.596102863550186157e-01 2.040058374404907227e-01 7.402903437614440918e-01
2.745340168476104736e-01 1.834969371557235718e-01 3.992142677307128906e-01
2.783300876617431641e-01 1.893373131752014160e-01 3.983319401741027832e-01
2.762377262115478516e-01 1.839238852262496948e-01 4.053640961647033691e-01
2.797924876213073730e-01 1.896739602088928223e-01 4.045958518981933594e-01
1.450440138578414917e-01 2.845887541770935059e-01 1.156663671135902405e-01
1.525783240795135498e-01 2.869594693183898926e-01 1.150160804390907288e-01
1.513609737157821655e-01 2.867906391620635986e-01 1.212866380810737610e-01
1.587718278169631958e-01 2.889442741870880127e-01 1.206374093890190125e-01
1.844628751277923584e-01 1.359376162290573120e-01 5.108550190925598145e-01
1.909853368997573853e-01 1.370450556278228760e-01 5.103158950805664062e-01
1.883723288774490356e-01 1.390386670827865601e-01 5.180793404579162598e-01
1.957634389400482178e-01 1.407083421945571899e-01 5.168260931968688965e-01
7.553929090499877930e-02 1.612755060195922852e-01 6.675049662590026855e-01
8.095695078372955322e-02 1.642825007438659668e-01 6.645355820655822754e-01
7.734706997871398926e-02 1.630747318267822266e-01 6.733543872833251953e-01
8.242178708314895630e-02 1.666453033685684204e-01 6.705804467201232910e-01
1.241634935140609741e-01 1.888999491930007935e-01 2.740718722343444824e-01
1.202261075377464294e-01 1.942735463380813599e-01 2.762806117534637451e-01
1.269599944353103638e-01 1.870704442262649536e-01 2.794583439826965332e-01
1.226653903722763062e-01 1.924085766077041626e-01 2.818952798843383789e-01
1.250135600566864014e-01 1.809327304363250732e-01 2.197994589805603027e-01
1.214808449149131775e-01 1.858835369348526001e-01 2.213194966316223145e-01
1.280265003442764282e-01 1.795463413000106812e-01 2.258963137865066528e-01
1.245641112327575684e-01 1.845295429229736328e-01 2.274458259344100952e-01
1.992507427930831909e-01 2.537723183631896973e-01 8.259102702140808105e-01
1.937484592199325562e-01 2.558040320873260498e-01 8.274124860763549805e-01
2.037425786256790161e-01 2.515855729579925537e-01 8.302919268608093262e-01
1.980616152286529541e-01 2.535754442214965820e-01 8.318335413932800293e-01
9.010265022516250610e-02 1.866926997900009155e-01 7.170457839965820312e-01
8.875737339258193970e-02 1.910186558961868286e-01 7.180042266845703125e-01
9.171250462532043457e-02 1.858857572078704834e-01 7.215694785118103027e-01
9.006528556346893311e-02 1.898808628320693970e-01 7.223878502845764160e-01
1.532839536666870117e-01 2.792807817459106445e-01 3.814353644847869873e-01
1.594609022140502930e-01 2.823664844036102295e-01 3.780646622180938721e-01
1.573858708143234253e-01 2.807697057723999023e-01 3.869129419326782227e-01
1.640287935733795166e-01 2.832707166671752930e-01 3.836779892444610596e-01
1.311201751232147217e-01 2.280375957489013672e-01 2.522919513285160065e-02
1.319980174303054810e-01 2.341860681772232056e-01 2.524344995617866516e-02
1.371316611766815186e-01 2.288834899663925171e-01 2.479392476379871368e-02
1.380665600299835205e-01 2.351321578025817871e-01 2.474675700068473816e-02
1.166853234171867371e-01 1.968654692173004150e-01 2.700315713882446289e-01
1.137446090579032898e-01 2.023264765739440918e-01 2.720227539539337158e-01
1.191711127758026123e-01 1.953104287385940552e-01 2.753411829471588135e-01
1.153126135468482971e-01 2.009691745042800903e-01 2.781119644641876221e-01
2.170954346656799316e-01 2.097083926200866699e-01 7.554105520248413086e-01
2.152940630912780762e-01 2.146109789609909058e-01 7.571586370468139648e-01
2.180462032556533813e-01 2.087382823228836060e-01 7.611137032508850098e-01
2.165036350488662720e-01 2.139102816581726074e-01 7.627717852592468262e-01
2.204990535974502563e-01 2.782686352729797363e-01 2.394098192453384399e-01
2.144190371036529541e-01 2.794216275215148926e-01 2.417898029088973999e-01
2.258059084415435791e-01 2.767946720123291016e-01 2.436497509479522705e-01
2.197997272014617920e-01 2.778636813163757324e-01 2.463464736938476562e-01
1.287110000848770142e-01 2.502109110355377197e-01 5.411840081214904785e-01
1.333800107240676880e-01 2.540624439716339111e-01 5.402365922927856445e-01
1.325667053461074829e-01 2.533908188343048096e-01 5.465769767761230469e-01
1.373217105865478516e-01 2.573473453521728516e-01 5.455521345138549805e-01
4.851214960217475891e-02 1.569521725177764893e-01 6.241043806076049805e-01
4.321560263633728027e-02 1.603116393089294434e-01 6.275963187217712402e-01
5.249748378992080688e-02 1.566615253686904907e-01 6.280367374420166016e-01
4.724543914198875427e-02 1.598101556301116943e-01 6.317276358604431152e-01
1.993267238140106201e-01 2.833206057548522949e-01 3.855834305286407471e-01
1.927154660224914551e-01 2.819715142250061035e-01 3.940455317497253418e-01
2.051603198051452637e-01 2.831667959690093994e-01 3.928296864032745361e-01
1.986574381589889526e-01 2.817573547363281250e-01 4.003740847110748291e-01
2.109371423721313477e-01 1.495040804147720337e-01 1.934063285589218140e-01
2.064948230981826782e-01 1.494450569152832031e-01 1.996161043643951416e-01
2.172305583953857422e-01 1.501498818397521973e-01 1.976877152919769287e-01
2.124686539173126221e-01 1.500353217124938965e-01 2.041563838720321655e-01
2.714976668357849121e-01 1.072353720664978027e-01 7.526038885116577148e-01
2.688727974891662598e-01 1.108759790658950806e-01 7.568547725677490234e-01
2.758709788322448730e-01 1.085949987173080444e-01 7.551525235176086426e-01
2.733512520790100098e-01 1.122044250369071960e-01 7.595074772834777832e-01
1.363011002540588379e-01 1.481460630893707275e-01 4.618659615516662598e-01
1.263830959796905518e-01 1.478963643312454224e-01 4.638908803462982178e-01
1.415913999080657959e-01 1.454374790191650391e-01 4.660481810569763184e-01
1.313213557004928589e-01 1.449456512928009033e-01 4.676839709281921387e-01
2.426916956901550293e-01 1.453294754028320312e-01 9.590664505958557129e-02
2.486364841461181641e-01 1.491009294986724854e-01 9.383947402238845825e-02
2.464140206575393677e-01 1.488430351018905640e-01 1.011996418237686157e-01
2.516771256923675537e-01 1.528165787458419800e-01 9.928615391254425049e-02
2.590219080448150635e-01 2.518963515758514404e-01 1.025478541851043701e-01
2.543281614780426025e-01 2.567354142665863037e-01 1.036146357655525208e-01
2.619543671607971191e-01 2.498428523540496826e-01 1.080202013254165649e-01
2.577985227108001709e-01 2.546361982822418213e-01 1.091124936938285828e-01
1.245449408888816833e-01 2.753056883811950684e-01 1.019766777753829956e-01
1.288815140724182129e-01 2.797770500183105469e-01 9.956172853708267212e-02
1.278442591428756714e-01 2.778530716896057129e-01 1.074516773223876953e-01
1.324499845504760742e-01 2.817452549934387207e-01 1.052674278616905212e-01
1.022742539644241333e-01 2.203943878412246704e-01 6.335625648498535156e-01
1.048008129000663757e-01 2.242494523525238037e-01 6.320062279701232910e-01
1.050754040479660034e-01 2.207734435796737671e-01 6.372475028038024902e-01
1.073026880621910095e-01 2.252780944108963013e-01 6.363900303840637207e-01
2.997908890247344971e-01 2.291805148124694824e-01 7.700477242469787598e-01
2.907662391662597656e-01 2.302557975053787231e-01 7.727726101875305176e-01
3.038364350795745850e-01 2.259626835584640503e-01 7.747344374656677246e-01
2.954617440700531006e-01 2.273597866296768188e-01 7.772471904754638672e-01
2.914116680622100830e-01 2.740284502506256104e-01 6.706743836402893066e-01
2.847425043582916260e-01 2.752554118633270264e-01 6.715948581695556641e-01
2.973021864891052246e-01 2.713239789009094238e-01 6.744340062141418457e-01
2.908182144165039062e-01 2.727854847908020020e-01 6.751629114151000977e-01
2.351553291082382202e-01 2.718822956085205078e-01 1.934490203857421875e-01
2.287007272243499756e-01 2.738427519798278809e-01 1.975066512823104858e-01
2.399136424064636230e-01 2.702751755714416504e-01 1.968702822923660278e-01
2.335427254438400269e-01 2.721858322620391846e-01 2.000417113304138184e-01
3.221262395381927490e-01 1.252605915069580078e-01 6.415762305259704590e-01
3.221012651920318604e-01 1.309477239847183228e-01 6.411213874816894531e-01
3.266436457633972168e-01 1.248408779501914978e-01 6.444782614707946777e-01
3.268822431564331055e-01 1.305164992809295654e-01 6.440475583076477051e-01
2.087066322565078735e-01 1.605061143636703491e-01 5.472114086151123047e-01
2.112483978271484375e-01 1.622897535562515259e-01 5.491896867752075195e-01
2.146431952714920044e-01 1.645550876855850220e-01 5.499084591865539551e-01
2.150197625160217285e-01 1.662130355834960938e-01 5.535261631011962891e-01
2.944250106811523438e-01 1.647933721542358398e-01 4.858263432979583740e-01
2.987591624259948730e-01 1.700075417757034302e-01 4.847690761089324951e-01
2.971165776252746582e-01 1.659704744815826416e-01 4.921739995479583740e-01
3.013547062873840332e-01 1.710708886384963989e-01 4.911325275897979736e-01
2.556384801864624023e-01 1.210777610540390015e-01 6.993542909622192383e-01
2.537453174591064453e-01 1.245812773704528809e-01 7.050589919090270996e-01
2.604079842567443848e-01 1.247572749853134155e-01 7.030622959136962891e-01
2.573646008968353271e-01 1.280025392770767212e-01 7.092305421829223633e-01
2.462766021490097046e-01 2.690509557723999023e-01 3.003810048103332520e-01
2.397123277187347412e-01 2.723443806171417236e-01 3.025528788566589355e-01
2.523554861545562744e-01 2.676822543144226074e-01 3.054861128330230713e-01
2.457534968852996826e-01 2.711535096168518066e-01 3.072657287120819092e-01
1.907100081443786621e-01 2.589751183986663818e-01 8.250976204872131348e-01
1.873787492513656616e-01 2.604651451110839844e-01 8.256632089614868164e-01
1.962317973375320435e-01 2.560011744499206543e-01 8.293304443359375000e-01
1.910665780305862427e-01 2.579447329044342041e-01 8.307977914810180664e-01
3.264882266521453857e-01 2.402915805578231812e-01 5.572115778923034668e-01
3.230873644351959229e-01 2.434497326612472534e-01 5.586125850677490234e-01
3.286886513233184814e-01 2.392589300870895386e-01 5.612716674804687500e-01
3.257525563240051270e-01 2.425398677587509155e-01 5.624585747718811035e-01
3.101344704627990723e-01 2.224085628986358643e-01 7.870736718177795410e-01
3.015852868556976318e-01 2.243358790874481201e-01 7.897345423698425293e-01
3.130073547363281250e-01 2.180958688259124756e-01 7.919064760208129883e-01
3.044854402542114258e-01 2.201101630926132202e-01 7.945004701614379883e-01
2.659837007522583008e-01 2.747972309589385986e-01 6.236207485198974609e-01
2.579373419284820557e-01 2.757685780525207520e-01 6.267717480659484863e-01
2.721200883388519287e-01 2.738863527774810791e-01 6.288252472877502441e-01
2.646075785160064697e-01 2.748429179191589355e-01 6.321818232536315918e-01
2.393622845411300659e-01 1.775028258562088013e-01 2.466703020036220551e-02
2.410406619310379028e-01 1.867135316133499146e-01 2.572182565927505493e-02
2.456244081258773804e-01 1.792787015438079834e-01 2.567464485764503479e-02
2.478218823671340942e-01 1.885314732789993286e-01 2.673801034688949585e-02
1.637768894433975220e-01 2.291544824838638306e-01 8.784356117248535156e-01
1.662064641714096069e-01 2.337553352117538452e-01 8.772392868995666504e-01
1.665411740541458130e-01 2.296867370605468750e-01 8.834554553031921387e-01
1.690574884414672852e-01 2.347821295261383057e-01 8.824572563171386719e-01
8.314209431409835815e-02 2.317602485418319702e-01 5.871992111206054688e-01
8.894488960504531860e-02 2.352436631917953491e-01 5.845817327499389648e-01
8.639822900295257568e-02 2.340648174285888672e-01 5.939521193504333496e-01
9.207665175199508667e-02 2.375866919755935669e-01 5.914775133132934570e-01
2.047454565763473511e-01 2.845026850700378418e-01 3.975538536906242371e-02
1.977863460779190063e-01 2.872575819492340088e-01 4.212751239538192749e-02
2.095895260572433472e-01 2.843964099884033203e-01 4.300277307629585266e-02
2.025559693574905396e-01 2.871351838111877441e-01 4.516187682747840881e-02
2.056273818016052246e-01 2.746933400630950928e-01 4.946672618389129639e-01
2.015751004219055176e-01 2.744210064411163330e-01 5.001126527786254883e-01
2.112774699926376343e-01 2.760891020298004150e-01 4.999549984931945801e-01
2.054765373468399048e-01 2.759146690368652344e-01 5.058106780052185059e-01
2.452723234891891479e-01 2.635389566421508789e-01 7.375144958496093750e-01
2.475490123033523560e-01 2.661965787410736084e-01 7.294981479644775391e-01
2.502540647983551025e-01 2.601183354854583740e-01 7.402424216270446777e-01
2.517219185829162598e-01 2.624468207359313965e-01 7.327744960784912109e-01
3.874264657497406006e-02 1.543988436460494995e-01 7.549970149993896484e-01
3.751197829842567444e-02 1.599697321653366089e-01 7.554200291633605957e-01
4.141338914632797241e-02 1.543764173984527588e-01 7.608652114868164062e-01
4.027856886386871338e-02 1.596755236387252808e-01 7.613607048988342285e-01
9.152826666831970215e-02 1.392125040292739868e-01 5.569559335708618164e-01
8.482774347066879272e-02 1.409309506416320801e-01 5.609627962112426758e-01
9.910316765308380127e-02 1.388148963451385498e-01 5.603391528129577637e-01
9.216312319040298462e-02 1.400582790374755859e-01 5.652263164520263672e-01
1.688706874847412109e-01 1.698465049266815186e-01 2.536567859351634979e-02
1.682203561067581177e-01 1.789437979459762573e-01 2.570510655641555786e-02
1.782248020172119141e-01 1.734538078308105469e-01 2.573160827159881592e-02
1.776479929685592651e-01 1.819234341382980347e-01 2.585576288402080536e-02
2.256822586059570312e-01 2.758087217807769775e-01 2.072415947914123535e-01
2.188580930233001709e-01 2.766966819763183594e-01 2.101387083530426025e-01
2.298863083124160767e-01 2.744746506214141846e-01 2.114298939704895020e-01
2.230743020772933960e-01 2.755593061447143555e-01 2.140450179576873779e-01
2.686972916126251221e-01 1.459185034036636353e-01 7.580902576446533203e-01
2.701364457607269287e-01 1.533847749233245850e-01 7.582889795303344727e-01
2.707433104515075684e-01 1.484937965869903564e-01 7.634968757629394531e-01
2.721416950225830078e-01 1.556408405303955078e-01 7.640312910079956055e-01
2.358178496360778809e-01 1.914537996053695679e-01 7.523425221443176270e-01
2.334769219160079956e-01 1.928352713584899902e-01 7.577028870582580566e-01
2.404049038887023926e-01 1.914854347705841064e-01 7.561371326446533203e-01
2.372343242168426514e-01 1.931032687425613403e-01 7.608262300491333008e-01
1.912295967340469360e-01 1.575077325105667114e-01 3.835968077182769775e-01
1.989344209432601929e-01 1.573973745107650757e-01 3.828373253345489502e-01
1.959651410579681396e-01 1.582163274288177490e-01 3.901402354240417480e-01
2.049447447061538696e-01 1.583501994609832764e-01 3.890251815319061279e-01
1.826250106096267700e-01 1.597322821617126465e-01 2.489317394793033600e-02
1.827202886343002319e-01 1.667921245098114014e-01 2.458980120718479156e-02
1.906648874282836914e-01 1.594726443290710449e-01 2.441911958158016205e-02
1.906971782445907593e-01 1.662610471248626709e-01 2.411440946161746979e-02
2.221276164054870605e-01 2.809406518936157227e-01 6.361878514289855957e-01
2.179052978754043579e-01 2.805328369140625000e-01 6.422955393791198730e-01
2.267516851425170898e-01 2.816355526447296143e-01 6.414098143577575684e-01
2.219417244195938110e-01 2.813641428947448730e-01 6.475006937980651855e-01
2.625972330570220947e-01 2.500729858875274658e-01 1.222886815667152405e-01
2.582640051841735840e-01 2.539480030536651611e-01 1.239706426858901978e-01
2.658894360065460205e-01 2.480499744415283203e-01 1.272970885038375854e-01
2.617531418800354004e-01 2.518753409385681152e-01 1.292500346899032593e-01
2.249804884195327759e-01 1.942858397960662842e-01 8.040561079978942871e-01
2.241467833518981934e-01 1.991973221302032471e-01 8.037637472152709961e-01
2.264405339956283569e-01 1.915463656187057495e-01 8.087019324302673340e-01
2.256545722484588623e-01 1.964546442031860352e-01 8.087221980094909668e-01
2.407689094543457031e-01 1.183040291070938110e-01 8.472566604614257812e-01
2.426969110965728760e-01 1.256668418645858765e-01 8.466317653656005859e-01
2.417851239442825317e-01 1.174937039613723755e-01 8.514440655708312988e-01
2.431463599205017090e-01 1.249440610408782959e-01 8.511945009231567383e-01
2.478921562433242798e-01 1.669357120990753174e-01 3.334556221961975098e-01
2.525747418403625488e-01 1.712787449359893799e-01 3.304508626461029053e-01
2.513130903244018555e-01 1.704243868589401245e-01 3.390875458717346191e-01
2.560819387435913086e-01 1.749307662248611450e-01 3.359830081462860107e-01
1.023470312356948853e-01 1.818287223577499390e-01 5.497802421450614929e-02
1.009174808859825134e-01 1.862239539623260498e-01 5.690412968397140503e-02
1.034867689013481140e-01 1.815457642078399658e-01 5.967902764678001404e-02
1.020161285996437073e-01 1.859959810972213745e-01 6.157430633902549744e-02
2.768949568271636963e-01 1.846863925457000732e-01 3.897563517093658447e-01
2.809381484985351562e-01 1.910952180624008179e-01 3.888249695301055908e-01
2.775111198425292969e-01 1.855618208646774292e-01 3.963784277439117432e-01
2.813456952571868896e-01 1.919053047895431519e-01 3.957017064094543457e-01
2.974547632038593292e-02 1.795152276754379272e-01 6.677155494689941406e-01
2.695590443909168243e-02 1.858488619327545166e-01 6.691163778305053711e-01
2.921726740896701813e-02 1.792470961809158325e-01 6.743499040603637695e-01
2.720204181969165802e-02 1.855317354202270508e-01 6.755499243736267090e-01
2.707777917385101318e-01 1.158309429883956909e-01 7.614694833755493164e-01
2.685012519359588623e-01 1.193865761160850525e-01 7.646102309226989746e-01
2.749393880367279053e-01 1.159653961658477783e-01 7.631719708442687988e-01
2.725696861743927002e-01 1.195880472660064697e-01 7.662459015846252441e-01
2.752724587917327881e-01 2.033514678478240967e-01 2.041318081319332123e-02
2.749052643775939941e-01 2.097197771072387695e-01 2.118781581521034241e-02
2.781244814395904541e-01 2.035636454820632935e-01 2.569123543798923492e-02
2.778244018554687500e-01 2.097865194082260132e-01 2.660234645009040833e-02
2.816438078880310059e-01 2.090133875608444214e-01 1.814545392990112305e-01
2.819521427154541016e-01 2.141778022050857544e-01 1.822503209114074707e-01
2.813166379928588867e-01 2.111097425222396851e-01 1.889487951993942261e-01
2.814301848411560059e-01 2.161038219928741455e-01 1.899523586034774780e-01
2.727897763252258301e-01 2.649869024753570557e-01 3.877567350864410400e-01
2.685930728912353516e-01 2.691012620925903320e-01 3.929903209209442139e-01
2.725540995597839355e-01 2.645554244518280029e-01 3.943094313144683838e-01
2.684690952301025391e-01 2.689235806465148926e-01 3.997564613819122314e-01
1.328080445528030396e-01 2.528614103794097900e-01 4.882533252239227295e-01
1.400493532419204712e-01 2.579777538776397705e-01 4.867557883262634277e-01
1.371324509382247925e-01 2.560219764709472656e-01 4.947364330291748047e-01
1.443935036659240723e-01 2.608875930309295654e-01 4.931733012199401855e-01
2.420590817928314209e-01 1.624416261911392212e-01 4.025295972824096680e-01
2.475564628839492798e-01 1.653152257204055786e-01 4.012942612171173096e-01
2.456567734479904175e-01 1.624947637319564819e-01 4.077991545200347900e-01
2.508104741573333740e-01 1.658292114734649658e-01 4.062657356262207031e-01
1.403541117906570435e-01 2.592166364192962646e-01 4.577938616275787354e-01
1.463454961776733398e-01 2.633207142353057861e-01 4.562274217605590820e-01
1.452727168798446655e-01 2.613201737403869629e-01 4.637731611728668213e-01
1.521936058998107910e-01 2.653008401393890381e-01 4.626267850399017334e-01
2.989248037338256836e-01 2.617990374565124512e-01 6.067330837249755859e-01
2.949019074440002441e-01 2.646354138851165771e-01 6.141941547393798828e-01
3.039662837982177734e-01 2.622631788253784180e-01 6.119858026504516602e-01
2.998839020729064941e-01 2.650724649429321289e-01 6.187911033630371094e-01
3.425535261631011963e-01 2.372731715440750122e-01 5.964345335960388184e-01
3.394155502319335938e-01 2.415618300437927246e-01 5.973129272460937500e-01
3.449851870536804199e-01 2.359537184238433838e-01 6.009183526039123535e-01
3.419145047664642334e-01 2.402151972055435181e-01 6.018307805061340332e-01
1.153549924492835999e-01 2.517523467540740967e-01 2.144939452409744263e-01
1.182881519198417664e-01 2.571452558040618896e-01 2.145472019910812378e-01
1.165255978703498840e-01 2.541984617710113525e-01 2.211855053901672363e-01
1.193038672208786011e-01 2.593815028667449951e-01 2.213061004877090454e-01
1.505618691444396973e-01 2.270963191986083984e-01 8.400869965553283691e-01
1.507645398378372192e-01 2.329995930194854736e-01 8.398684859275817871e-01
1.520579606294631958e-01 2.277784943580627441e-01 8.458296656608581543e-01
1.531598716974258423e-01 2.339476197957992554e-01 8.453367948532104492e-01
2.064045518636703491e-01 2.825747728347778320e-01 3.735307753086090088e-01
1.993580609560012817e-01 2.814362645149230957e-01 3.825585246086120605e-01
2.125237584114074707e-01 2.833741307258605957e-01 3.803658187389373779e-01
2.052797079086303711e-01 2.825247645378112793e-01 3.889496624469757080e-01
8.486425131559371948e-02 1.754120439291000366e-01 7.043186426162719727e-01
8.594246208667755127e-02 1.813348680734634399e-01 7.041616439819335938e-01
8.814807236194610596e-02 1.756121665239334106e-01 7.095672488212585449e-01
8.883728832006454468e-02 1.815535873174667358e-01 7.099429965019226074e-01
5.784969776868820190e-02 1.536161005496978760e-01 5.845044851303100586e-01
5.358218774199485779e-02 1.568377763032913208e-01 5.868936777114868164e-01
6.078143790364265442e-02 1.522338390350341797e-01 5.883895158767700195e-01
5.653770640492439270e-02 1.553586423397064209e-01 5.908147692680358887e-01
2.317379713058471680e-01 2.737594842910766602e-01 1.496893763542175293e-01
2.263003140687942505e-01 2.761060595512390137e-01 1.536098569631576538e-01
2.362155318260192871e-01 2.716998755931854248e-01 1.547399610280990601e-01
2.305853366851806641e-01 2.743518948554992676e-01 1.588362902402877808e-01
1.850135773420333862e-01 1.928606033325195312e-01 7.067677974700927734e-01
1.788665801286697388e-01 1.937863528728485107e-01 7.114083170890808105e-01
1.926172375679016113e-01 1.920829862356185913e-01 7.116015553474426270e-01
1.861785501241683960e-01 1.932929158210754395e-01 7.156918644905090332e-01
3.082102835178375244e-01 2.019167840480804443e-01 6.882445812225341797e-01
3.081167340278625488e-01 2.063736021518707275e-01 6.877392530441284180e-01
3.095043599605560303e-01 1.998045593500137329e-01 6.898240447044372559e-01
3.094407916069030762e-01 2.042796909809112549e-01 6.892873048782348633e-01
1.243114620447158813e-01 1.832049489021301270e-01 2.385719418525695801e-01
1.213028505444526672e-01 1.888566315174102783e-01 2.406084984540939331e-01
1.267043352127075195e-01 1.828122437000274658e-01 2.440239489078521729e-01
1.236690804362297058e-01 1.885157823562622070e-01 2.460700273513793945e-01
2.518119812011718750e-01 2.727712988853454590e-01 5.868327021598815918e-01
2.436122596263885498e-01 2.737049758434295654e-01 5.911666154861450195e-01
2.590786814689636230e-01 2.723911106586456299e-01 5.927215218544006348e-01
2.502002418041229248e-01 2.734157443046569824e-01 5.963516831398010254e-01
2.059209942817687988e-01 2.773826420307159424e-01 4.388472735881805420e-01
2.000181674957275391e-01 2.759934663772583008e-01 4.450124800205230713e-01
2.107932418584823608e-01 2.774943113327026367e-01 4.442966878414154053e-01
2.051085531711578369e-01 2.761828601360321045e-01 4.504740238189697266e-01
1.256866455078125000e-01 2.489796727895736694e-01 4.437841176986694336e-01
1.299965381622314453e-01 2.553528249263763428e-01 4.429633319377899170e-01
1.274389475584030151e-01 2.511884272098541260e-01 4.522950053215026855e-01
1.318859308958053589e-01 2.565977871417999268e-01 4.510805010795593262e-01
2.605795264244079590e-01 2.561440765857696533e-01 1.926275640726089478e-01
2.541781365871429443e-01 2.620970606803894043e-01 1.929148137569427490e-01
2.657611370086669922e-01 2.540001571178436279e-01 1.971346139907836914e-01
2.595315873622894287e-01 2.597996294498443604e-01 1.974144876003265381e-01
1.460818350315093994e-01 1.489982008934020996e-01 1.017607077956199646e-01
1.424487382173538208e-01 1.518284529447555542e-01 1.038088351488113403e-01
1.500782966613769531e-01 1.487033963203430176e-01 1.043865084648132324e-01
1.464870125055313110e-01 1.514235585927963257e-01 1.074783727526664734e-01
1.246688589453697205e-01 2.649393379688262939e-01 2.304031252861022949e-01
1.287149488925933838e-01 2.698359489440917969e-01 2.298386842012405396e-01
1.263623684644699097e-01 2.671950757503509521e-01 2.362227290868759155e-01
1.307213157415390015e-01 2.718286514282226562e-01 2.354384660720825195e-01
1.633321940898895264e-01 2.718884348869323730e-01 7.357969880104064941e-01
1.693135648965835571e-01 2.737833261489868164e-01 7.320281267166137695e-01
1.674290746450424194e-01 2.724244594573974609e-01 7.390868663787841797e-01
1.728983372449874878e-01 2.741442322731018066e-01 7.358174324035644531e-01
1.522442698478698730e-01 2.799946069717407227e-01 3.462584316730499268e-01
1.571833193302154541e-01 2.823097407817840576e-01 3.436522185802459717e-01
1.586278975009918213e-01 2.818429470062255859e-01 3.493927419185638428e-01
1.599665880203247070e-01 2.829263508319854736e-01 3.508551120758056641e-01
2.220045775175094604e-01 2.154992669820785522e-01 7.886855602264404297e-01
2.236613482236862183e-01 2.212810963392257690e-01 7.871471047401428223e-01
2.248441576957702637e-01 2.177897989749908447e-01 7.931699752807617188e-01
2.263691127300262451e-01 2.232846319675445557e-01 7.915686368942260742e-01
2.145697027444839478e-01 1.415553241968154907e-01 4.738688468933105469e-01
2.224214673042297363e-01 1.429809778928756714e-01 4.712108373641967773e-01
2.201947271823883057e-01 1.424636095762252808e-01 4.791526496410369873e-01
2.277304083108901978e-01 1.435304284095764160e-01 4.773887097835540771e-01
2.819750607013702393e-01 2.044656276702880859e-01 1.207698807120323181e-01
2.824406027793884277e-01 2.108493745326995850e-01 1.220363080501556396e-01
2.814034521579742432e-01 2.057052254676818848e-01 1.274078190326690674e-01
2.818092405796051025e-01 2.121808081865310669e-01 1.287365257740020752e-01
2.345785051584243774e-01 1.684571206569671631e-01 8.334544897079467773e-01
2.337037622928619385e-01 1.738148331642150879e-01 8.334080576896667480e-01
2.369187027215957642e-01 1.656279563903808594e-01 8.368138074874877930e-01
2.362467199563980103e-01 1.713906526565551758e-01 8.371160626411437988e-01
2.740438580513000488e-01 2.309000939130783081e-01 1.029144823551177979e-01
2.721087932586669922e-01 2.362255305051803589e-01 1.053260415792465210e-01
2.745254635810852051e-01 2.319175004959106445e-01 1.095985621213912964e-01
2.729030251502990723e-01 2.375449687242507935e-01 1.119382232427597046e-01
3.055988550186157227e-01 1.848178952932357788e-01 4.810551404953002930e-01
3.083157837390899658e-01 1.912502199411392212e-01 4.794936776161193848e-01
3.075249493122100830e-01 1.858993023633956909e-01 4.874198436737060547e-01
3.102467954158782959e-01 1.924529820680618286e-01 4.855743348598480225e-01
2.394979000091552734e-01 1.625678986310958862e-01 8.167302012443542480e-01
2.376475036144256592e-01 1.669291108846664429e-01 8.163456916809082031e-01
2.401319742202758789e-01 1.594149619340896606e-01 8.197144865989685059e-01
2.376305162906646729e-01 1.639026552438735962e-01 8.203551769256591797e-01
1.250408142805099487e-01 1.718284636735916138e-01 4.345008730888366699e-01
1.198101341724395752e-01 1.750919222831726074e-01 4.373466670513153076e-01
1.244744211435317993e-01 1.690286099910736084e-01 4.412232637405395508e-01
1.184393912553787231e-01 1.718808561563491821e-01 4.441149830818176270e-01
5.948188528418540955e-02 2.266820073127746582e-01 6.207505464553833008e-01
6.557537615299224854e-02 2.286210656166076660e-01 6.186447739601135254e-01
6.284373253583908081e-02 2.275260686874389648e-01 6.251117587089538574e-01
6.817406415939331055e-02 2.289001047611236572e-01 6.227862834930419922e-01
1.329586952924728394e-01 1.807942688465118408e-01 3.759006261825561523e-01
1.271274089813232422e-01 1.842468231916427612e-01 3.778052926063537598e-01
1.365872770547866821e-01 1.791565716266632080e-01 3.806395232677459717e-01
1.309298723936080933e-01 1.825202703475952148e-01 3.826409876346588135e-01
1.751782447099685669e-01 1.632650643587112427e-01 3.269989788532257080e-01
1.700851172208786011e-01 1.643692702054977417e-01 3.292898535728454590e-01
1.800093948841094971e-01 1.617829352617263794e-01 3.303264081478118896e-01
1.749289333820343018e-01 1.627621352672576904e-01 3.327681720256805420e-01
2.936408519744873047e-01 2.251520901918411255e-01 7.749687433242797852e-01
2.856214642524719238e-01 2.263421565294265747e-01 7.772746086120605469e-01
2.976118624210357666e-01 2.225843518972396851e-01 7.799521088600158691e-01
2.897946238517761230e-01 2.238308489322662354e-01 7.825161218643188477e-01
1.363090872764587402e-01 1.516895592212677002e-01 8.722922950983047485e-02
1.314415037631988525e-01 1.548275500535964966e-01 8.739691227674484253e-02
1.397022306919097900e-01 1.509779840707778931e-01 9.095848351716995239e-02
1.349320262670516968e-01 1.540648043155670166e-01 9.107089787721633911e-02
4.900881648063659668e-02 1.569310426712036133e-01 6.000567078590393066e-01
4.526777192950248718e-02 1.604273766279220581e-01 6.016677021980285645e-01
5.203543230891227722e-02 1.557052433490753174e-01 6.038044691085815430e-01
4.766988754272460938e-02 1.588945239782333374e-01 6.060916781425476074e-01
2.056642621755599976e-01 2.487490922212600708e-01 2.447400055825710297e-02
2.050693333148956299e-01 2.551215887069702148e-01 2.508410625159740448e-02
2.123090326786041260e-01 2.492563277482986450e-01 2.521455101668834686e-02
2.120577096939086914e-01 2.554460763931274414e-01 2.614829502999782562e-02
2.152885198593139648e-01 2.744878828525543213e-01 4.830124378204345703e-01
2.093883603811264038e-01 2.742599546909332275e-01 4.889150261878967285e-01
2.207368016242980957e-01 2.754299044609069824e-01 4.883525967597961426e-01
2.140023112297058105e-01 2.754281163215637207e-01 4.935483336448669434e-01
2.815282940864562988e-01 2.140820622444152832e-01 1.320704668760299683e-01
2.813388109207153320e-01 2.201275229454040527e-01 1.334823668003082275e-01
2.811069488525390625e-01 2.169671356678009033e-01 1.390544325113296509e-01
2.805634438991546631e-01 2.228704839944839478e-01 1.403654217720031738e-01
3.166480362415313721e-01 2.416704893112182617e-01 5.337873101234436035e-01
3.128111362457275391e-01 2.458927631378173828e-01 5.347537398338317871e-01
3.188665807247161865e-01 2.415180802345275879e-01 5.388358831405639648e-01
3.150638937950134277e-01 2.456722557544708252e-01 5.397247672080993652e-01
2.810917794704437256e-01 2.403462976217269897e-01 2.570824325084686279e-01
2.783229947090148926e-01 2.453461140394210815e-01 2.571983337402343750e-01
2.831103503704071045e-01 2.387401014566421509e-01 2.625341117382049561e-01
2.802647948265075684e-01 2.436097115278244019e-01 2.627404928207397461e-01
1.463459581136703491e-01 1.770029515027999878e-01 3.190178573131561279e-01
1.409771144390106201e-01 1.802927851676940918e-01 3.207494318485260010e-01
1.520940363407135010e-01 1.745413690805435181e-01 3.238928318023681641e-01
1.467811018228530884e-01 1.774672269821166992e-01 3.254628479480743408e-01
3.513447940349578857e-01 1.925414055585861206e-01 6.533966064453125000e-01
3.513269424438476562e-01 1.978930234909057617e-01 6.542441248893737793e-01
3.494644463062286377e-01 1.912798732519149780e-01 6.597374081611633301e-01
3.489181697368621826e-01 1.963417828083038330e-01 6.604769229888916016e-01
5.444432795047760010e-02 1.545391380786895752e-01 6.233122944831848145e-01
4.919612407684326172e-02 1.576162427663803101e-01 6.270396113395690918e-01
5.896920710802078247e-02 1.545389145612716675e-01 6.266356110572814941e-01
5.394041165709495544e-02 1.575183123350143433e-01 6.303253769874572754e-01
2.044761031866073608e-01 1.558230966329574585e-01 4.067913293838500977e-01
2.129742801189422607e-01 1.570423841476440430e-01 4.054364860057830811e-01
2.115131169557571411e-01 1.571630090475082397e-01 4.129745662212371826e-01
2.197483628988265991e-01 1.585375815629959106e-01 4.115049540996551514e-01
1.650256216526031494e-01 1.483916342258453369e-01 2.540467306971549988e-02
1.693186759948730469e-01 1.557428985834121704e-01 2.449859678745269775e-02
1.731402277946472168e-01 1.509369462728500366e-01 2.481449209153652191e-02
1.761900633573532104e-01 1.583087891340255737e-01 2.402781322598457336e-02
1.813216209411621094e-01 2.845007777214050293e-01 3.237271308898925781e-01
1.765801757574081421e-01 2.835322320461273193e-01 3.297891020774841309e-01
1.853907555341720581e-01 2.855601012706756592e-01 3.293102681636810303e-01
1.812928318977355957e-01 2.849223613739013672e-01 3.346928954124450684e-01
1.136028692126274109e-01 1.906306296586990356e-01 1.797719299793243408e-01
1.111623421311378479e-01 1.971712112426757812e-01 1.822211742401123047e-01
1.148181706666946411e-01 1.911003291606903076e-01 1.866300553083419800e-01
1.122540831565856934e-01 1.976365745067596436e-01 1.894453763961791992e-01
2.124538272619247437e-01 1.814541667699813843e-01 9.176211953163146973e-01
2.148686498403549194e-01 1.861479431390762329e-01 9.146638512611389160e-01
2.149935066699981689e-01 1.819079667329788208e-01 9.222882986068725586e-01
2.173261493444442749e-01 1.864057779312133789e-01 9.196680784225463867e-01
1.120074093341827393e-01 2.065668851137161255e-01 3.122226297855377197e-01
1.104293391108512878e-01 2.108862102031707764e-01 3.137492239475250244e-01
1.121437922120094299e-01 2.058842927217483521e-01 3.168808519840240479e-01
1.109287515282630920e-01 2.097269594669342041e-01 3.184083998203277588e-01
2.276890724897384644e-01 2.783250808715820312e-01 3.163337409496307373e-01
