4.113677442073822021e-01 -1.320500671863555908e-01 -8.713951706886291504e-02
4.250158965587615967e-01 -1.415601223707199097e-01 -8.872044831514358521e-02
4.194865822792053223e-01 -1.296915858983993530e-01 -8.489134907722473145e-02
-1.431918889284133911e-01 1.395356506109237671e-01 1.518574170768260956e-02
-1.427868902683258057e-01 1.588779985904693604e-01 1.032324042171239853e-02
-1.304749548435211182e-01 1.462071985006332397e-01 2.192215621471405029e-02
-1.307301223278045654e-01 1.657464355230331421e-01 1.728213764727115631e-02
-4.153240621089935303e-01 1.302401274442672729e-01 -4.155826196074485779e-02
-4.139990806579589844e-01 1.474828273057937622e-01 -4.460115730762481689e-02
-4.016135931015014648e-01 1.301552802324295044e-01 -2.971043065190315247e-02
-3.976367712020874023e-01 1.458598226308822632e-01 -3.456329181790351868e-02
-3.544150888919830322e-01 1.336590647697448730e-01 3.111859783530235291e-02
-3.438639640808105469e-01 1.471647918224334717e-01 2.602667920291423798e-02
-3.474499583244323730e-01 1.413906663656234741e-01 4.607135802507400513e-02
-3.364514410495758057e-01 1.546076983213424683e-01 4.135964438319206238e-02
1.286524385213851929e-01 1.652685552835464478e-01 4.528633505105972290e-02
1.198537796735763550e-01 1.851440370082855225e-01 5.054397135972976685e-02
1.369502693414688110e-01 1.710616946220397949e-01 5.644167587161064148e-02
1.274384409189224243e-01 1.915848851203918457e-01 6.214899569749832153e-02
-5.120830535888671875e-01 3.627777099609375000e-01 7.336220145225524902e-02
-5.280358791351318359e-01 3.823549151420593262e-01 8.042793720960617065e-02
-4.932044148445129395e-01 3.556875288486480713e-01 8.037429302930831909e-02
-5.093467235565185547e-01 3.748702704906463623e-01 8.792851865291595459e-02
-1.333366781473159790e-01 -3.090703189373016357e-01 1.525865942239761353e-01
-1.384321004152297974e-01 -2.929917275905609131e-01 1.654303818941116333e-01
-1.122926324605941772e-01 -3.002014756202697754e-01 1.579893082380294800e-01
-1.193370297551155090e-01 -2.837005853652954102e-01 1.713639497756958008e-01
-5.108306929469108582e-02 1.606816351413726807e-01 -1.596236675977706909e-01
-5.136257410049438477e-02 1.821074336767196655e-01 -1.562571823596954346e-01
-3.210342302918434143e-02 1.643985807895660400e-01 -1.592007279396057129e-01
-3.261335194110870361e-02 1.852663457393646240e-01 -1.560803800821304321e-01
8.127510547637939453e-01 -2.734968364238739014e-01 -1.028814241290092468e-01
7.997387647628784180e-01 -2.683521807193756104e-01 -9.179133176803588867e-02
8.289370536804199219e-01 -2.738200128078460693e-01 -9.283199906349182129e-02
8.159112334251403809e-01 -2.696435153484344482e-01 -8.192584663629531860e-02
2.414070218801498413e-01 -2.238316684961318970e-01 4.012482240796089172e-02
2.316293120384216309e-01 -2.126953154802322388e-01 4.383913800120353699e-02
2.514782845973968506e-01 -2.262379974126815796e-01 5.559937283396720886e-02
2.422854155302047729e-01 -2.160865217447280884e-01 6.038265302777290344e-02
-4.368129074573516846e-01 -2.942785024642944336e-01 2.082126215100288391e-02
-4.441165924072265625e-01 -2.746012210845947266e-01 2.161006629467010498e-02
-4.249942004680633545e-01 -2.875431180000305176e-01 2.963928692042827606e-02
-4.349015951156616211e-01 -2.678146362304687500e-01 3.034050948917865753e-02
-2.709199190139770508e-01 -2.549629472196102142e-02 -1.366741210222244263e-02
-2.601428925991058350e-01 -1.135438121855258942e-02 -2.422931976616382599e-02
-2.684701681137084961e-01 -2.497517317533493042e-02 -5.033239722251892090e-04
-2.580638527870178223e-01 -1.161087490618228912e-02 -9.891720488667488098e-03
-5.540643334388732910e-01 -3.616890907287597656e-01 1.478168070316314697e-01
-5.617179274559020996e-01 -3.410639762878417969e-01 1.631340235471725464e-01
-5.396993160247802734e-01 -3.518851995468139648e-01 1.627104878425598145e-01
-5.465353131294250488e-01 -3.309491574764251709e-01 1.779227852821350098e-01
8.224612474441528320e-01 -2.603572905063629150e-01 -1.755194179713726044e-02
8.115112781524658203e-01 -2.545990645885467529e-01 -1.106040272861719131e-02
8.334645032882690430e-01 -2.649103105068206787e-01 -2.179294126108288765e-03
8.231807947158813477e-01 -2.585598826408386230e-01 3.837162395939230919e-03
-4.045456945896148682e-01 -2.184599637985229492e-01 2.540106773376464844e-01
-3.993604779243469238e-01 -1.956821829080581665e-01 2.472415119409561157e-01
-3.800279200077056885e-01 -2.182410359382629395e-01 2.534951269626617432e-01
-3.751549422740936279e-01 -1.957363784313201904e-01 2.448940426111221313e-01
3.502537906169891357e-01 -2.106144279241561890e-01 -6.389733403921127319e-02
3.289270102977752686e-01 -2.076047211885452271e-01 -5.864687263965606689e-02
3.571947515010833740e-01 -2.146101891994476318e-01 -5.381916835904121399e-02
3.373794257640838623e-01 -2.119735777378082275e-01 -4.730520397424697876e-02
-5.648503899574279785e-01 -1.180428266525268555e-01 1.452276110649108887e-01
-5.619398951530456543e-01 -1.008539497852325439e-01 1.335598379373550415e-01
-5.504127144813537598e-01 -1.201282143592834473e-01 1.575280725955963135e-01
-5.471401214599609375e-01 -1.033718660473823547e-01 1.471536755561828613e-01
-3.133347928524017334e-01 -3.013227283954620361e-01 1.058489084243774414e-01
-3.227186203002929688e-01 -2.884738445281982422e-01 1.139299944043159485e-01
-2.988539636135101318e-01 -3.042154312133789062e-01 1.097262278199195862e-01
-3.089024424552917480e-01 -2.905374765396118164e-01 1.201695874333381653e-01
3.060051240026950836e-02 -2.393717318773269653e-02 1.337122470140457153e-01
2.404789254069328308e-02 -3.952227532863616943e-03 1.398846805095672607e-01
4.476433247327804565e-02 -1.708288863301277161e-02 1.393081694841384888e-01
3.803170844912528992e-02 3.630318678915500641e-03 1.456599235534667969e-01
2.663787901401519775e-01 -2.096876353025436401e-01 -7.811439037322998047e-02
2.452068328857421875e-01 -2.033016085624694824e-01 -7.059154659509658813e-02
2.823981940746307373e-01 -2.237152606248855591e-01 -6.515295058488845825e-02
2.605368494987487793e-01 -2.191361635923385620e-01 -5.730235204100608826e-02
9.487607479095458984e-01 -2.357386648654937744e-01 1.550053209066390991e-01
9.485169053077697754e-01 -2.172240912914276123e-01 1.539126038551330566e-01
9.663946032524108887e-01 -2.418188005685806274e-01 1.614505052566528320e-01
9.651430845260620117e-01 -2.239315658807754517e-01 1.630999743938446045e-01
5.794488787651062012e-01 -2.769232168793678284e-02 -2.786271460354328156e-02
5.612042546272277832e-01 -2.152016386389732361e-02 -2.586342208087444305e-02
5.900792479515075684e-01 -3.723623231053352356e-02 -2.236191928386688232e-02
5.702515244483947754e-01 -3.208569809794425964e-02 -1.876704953610897064e-02
9.025925993919372559e-01 -2.791509330272674561e-01 2.193413376808166504e-01
8.918448686599731445e-01 -2.681688964366912842e-01 2.308147102594375610e-01
9.161079525947570801e-01 -2.761999368667602539e-01 2.218952476978302002e-01
9.064392447471618652e-01 -2.641674876213073730e-01 2.328852862119674683e-01
2.119783498346805573e-02 3.810706734657287598e-01 1.628237590193748474e-02
4.007179290056228638e-02 3.839977681636810303e-01 1.323975343257188797e-02
5.087571218609809875e-02 3.807836771011352539e-01 2.696830406785011292e-02
6.562171876430511475e-02 3.845638930797576904e-01 2.270950190722942352e-02
6.298770904541015625e-01 -2.386494576930999756e-01 -3.201151266694068909e-02
6.202416419982910156e-01 -2.376337945461273193e-01 -2.135431766510009766e-02
6.410825252532958984e-01 -2.408271878957748413e-01 -2.483700960874557495e-02
6.312287449836730957e-01 -2.397411614656448364e-01 -1.376206148415803909e-02
4.619933962821960449e-01 1.734306067228317261e-01 -1.224156916141510010e-01
4.550554752349853516e-01 1.949717998504638672e-01 -1.224661767482757568e-01
4.812152981758117676e-01 1.744635701179504395e-01 -1.278935372829437256e-01
4.765847325325012207e-01 1.956511139869689941e-01 -1.289437562227249146e-01
4.364007115364074707e-01 -5.089252255856990814e-03 6.904356181621551514e-02
4.367352128028869629e-01 1.276075001806020737e-02 6.720206141471862793e-02
4.496804475784301758e-01 -2.783698961138725281e-03 7.442060112953186035e-02
4.495916664600372314e-01 1.484146993607282639e-02 7.208289206027984619e-02
-5.699572563171386719e-01 3.396805822849273682e-01 7.385434210300445557e-02
-5.803622007369995117e-01 3.510902822017669678e-01 8.514816313982009888e-02
-5.512249469757080078e-01 3.360477089881896973e-01 7.973958551883697510e-02
-5.621787905693054199e-01 3.492600619792938232e-01 8.971013128757476807e-02
1.199577674269676208e-01 3.391336500644683838e-01 1.092416793107986450e-01
1.315063983201980591e-01 3.505999445915222168e-01 8.829321712255477905e-02
1.413398534059524536e-01 3.342422842979431152e-01 1.169357895851135254e-01
1.509975641965866089e-01 3.462295234203338623e-01 9.723823517560958862e-02
-2.409160435199737549e-01 -3.447127342224121094e-01 -2.678963840007781982e-01
-2.306604087352752686e-01 -3.273319900035858154e-01 -2.802057266235351562e-01
-2.162349373102188110e-01 -3.622254729270935059e-01 -2.525864541530609131e-01
-2.055660337209701538e-01 -3.453461229801177979e-01 -2.653138637542724609e-01
4.597117751836776733e-02 1.598655879497528076e-01 1.238905787467956543e-01
4.040066897869110107e-02 1.735975295305252075e-01 1.302210390567779541e-01
5.933230370283126831e-02 1.659127920866012573e-01 1.193447932600975037e-01
5.387216061353683472e-02 1.787793487310409546e-01 1.268297284841537476e-01
5.557901859283447266e-01 1.462956797331571579e-02 1.746868193149566650e-01
5.480222105979919434e-01 3.527443856000900269e-02 1.772306114435195923e-01
5.750781297683715820e-01 3.626966848969459534e-03 1.837276816368103027e-01
5.653743147850036621e-01 2.466139197349548340e-02 1.869606673717498779e-01
-8.065739274024963379e-01 -1.019488573074340820e-01 2.246658783406019211e-03
-8.225928544998168945e-01 -8.153839409351348877e-02 1.029547117650508881e-02
-7.900106906890869141e-01 -1.152784973382949829e-01 6.699945777654647827e-03
-8.079346418380737305e-01 -9.412928670644760132e-02 1.679627224802970886e-02
8.471227884292602539e-01 -8.139200508594512939e-05 -4.862435907125473022e-02
8.517921566963195801e-01 2.349004708230495453e-02 -4.867064580321311951e-02
8.638597130775451660e-01 1.090700738131999969e-02 -4.048443958163261414e-02
8.686218857765197754e-01 3.521076589822769165e-02 -4.070176929235458374e-02
7.968713045120239258e-01 -1.466305255889892578e-01 -7.957559078931808472e-02
7.817664146423339844e-01 -1.286789327859878540e-01 -6.427854299545288086e-02
8.144760727882385254e-01 -1.313493996858596802e-01 -6.574759632349014282e-02
7.990593910217285156e-01 -1.134015992283821106e-01 -4.931654408574104309e-02
-2.457416504621505737e-01 -9.726815670728683472e-02 -1.721922755241394043e-01
-2.458558827638626099e-01 -8.316332101821899414e-02 -1.738526672124862671e-01
-2.279689162969589233e-01 -9.348277747631072998e-02 -1.792254447937011719e-01
-2.282681018114089966e-01 -7.757049798965454102e-02 -1.802630871534347534e-01
-2.233849465847015381e-01 1.462602466344833374e-01 -1.437573879957199097e-01
-2.258139252662658691e-01 1.673013865947723389e-01 -1.403466016054153442e-01
-2.097809612751007080e-01 1.530992090702056885e-01 -1.372161060571670532e-01
-2.132472842931747437e-01 1.745874732732772827e-01 -1.329792290925979614e-01
-3.315219283103942871e-01 2.993689663708209991e-02 -1.041877195239067078e-01
-3.193535506725311279e-01 4.586990177631378174e-02 -1.135014742612838745e-01
-3.234702348709106445e-01 3.115797415375709534e-02 -8.802826702594757080e-02
-3.111215531826019287e-01 4.631366580724716187e-02 -9.809733182191848755e-02
2.543508410453796387e-01 2.823635935783386230e-01 -2.704203315079212189e-02
2.607362568378448486e-01 2.979607582092285156e-01 -2.556027099490165710e-02
2.711253762245178223e-01 2.874836623668670654e-01 -9.464426897466182709e-03
2.779974937438964844e-01 3.025107383728027344e-01 -6.924653891474008560e-03
1.301157325506210327e-01 -3.441735729575157166e-02 1.285162717103958130e-01
1.233081668615341187e-01 -1.086396910250186920e-02 1.290132850408554077e-01
1.509885042905807495e-01 -2.850082516670227051e-02 1.279463618993759155e-01
1.416481882333755493e-01 -3.366958349943161011e-03 1.284506618976593018e-01
-5.174462795257568359e-01 -1.513677984476089478e-01 -8.748829364776611328e-02
-5.134508609771728516e-01 -1.341779530048370361e-01 -8.469647169113159180e-02
-5.030410885810852051e-01 -1.427669376134872437e-01 -8.085564523935317993e-02
-4.996315538883209229e-01 -1.245522350072860718e-01 -7.586389034986495972e-02
1.452854834496974945e-03 2.124493718147277832e-01 1.216181293129920959e-01
1.203482970595359802e-03 2.331697195768356323e-01 1.164774522185325623e-01
2.198239602148532867e-02 2.126991897821426392e-01 1.194719448685646057e-01
2.218606136739253998e-02 2.335385978221893311e-01 1.140746995806694031e-01
4.731321930885314941e-01 -1.180780120193958282e-02 -5.980349332094192505e-02
4.711954891681671143e-01 2.904677763581275940e-03 -5.822988972067832947e-02
4.882975816726684570e-01 -8.966850116848945618e-03 -5.149019137024879456e-02
4.918213188648223877e-01 6.401770282536745071e-03 -5.293334648013114929e-02
3.337883651256561279e-01 1.001622229814529419e-01 2.604574523866176605e-02
3.334712386131286621e-01 1.292710602283477783e-01 2.908827736973762512e-02
3.308251798152923584e-01 1.011195853352546692e-01 4.791909456253051758e-02
3.304876387119293213e-01 1.301057040691375732e-01 5.056651681661605835e-02
-3.945509791374206543e-01 -3.124851584434509277e-01 6.763487309217453003e-02
-3.969595730304718018e-01 -3.021612763404846191e-01 7.815150171518325806e-02
-3.813257515430450439e-01 -3.127282261848449707e-01 7.939708232879638672e-02
-3.836099803447723389e-01 -3.016418516635894775e-01 8.955429494380950928e-02
-3.209075331687927246e-01 -2.339045517146587372e-02 -3.787110373377799988e-02
-3.105618357658386230e-01 -1.019318215548992157e-02 -4.869550466537475586e-02
-3.063862919807434082e-01 -2.331095747649669647e-02 -2.644963562488555908e-02
-2.989016473293304443e-01 -1.051610801368951797e-02 -3.740487992763519287e-02
5.564099550247192383e-01 3.764449954032897949e-01 8.073633909225463867e-02
5.613941550254821777e-01 3.840847313404083252e-01 8.564589917659759521e-02
5.776478052139282227e-01 3.790273070335388184e-01 8.516341447830200195e-02
5.804001092910766602e-01 3.879792094230651855e-01 9.164752811193466187e-02
5.814974308013916016e-01 4.273531734943389893e-01 -5.469565279781818390e-03
5.955600738525390625e-01 4.376611709594726562e-01 -1.660112664103507996e-02
6.069422364234924316e-01 4.237236678600311279e-01 3.260266967117786407e-04
6.138185262680053711e-01 4.354797899723052979e-01 -5.992997903376817703e-03
5.950574278831481934e-01 9.121730923652648926e-02 1.197586953639984131e-01
6.061981916427612305e-01 1.050962358713150024e-01 1.142652258276939392e-01
6.028417944908142090e-01 9.025465697050094604e-02 1.354306936264038086e-01
6.131864190101623535e-01 1.055309325456619263e-01 1.278243511915206909e-01
-8.578535318374633789e-01 2.747274637222290039e-01 -2.871929109096527100e-02
-8.500472903251647949e-01 2.969510555267333984e-01 -3.168641775846481323e-02
-8.411191701889038086e-01 2.833560407161712646e-01 -2.303924970328807831e-02
-8.336154818534851074e-01 3.043882846832275391e-01 -2.651074528694152832e-02
-2.406122982501983643e-01 -1.843524128198623657e-01 3.234341368079185486e-02
-2.402482777833938599e-01 -1.715700328350067139e-01 3.666792064905166626e-02
-2.430949509143829346e-01 -1.795987337827682495e-01 4.576798155903816223e-02
-2.433217763900756836e-01 -1.666422188282012939e-01 5.022776499390602112e-02
-2.796896696090698242e-01 -6.220019981265068054e-02 -5.825713649392127991e-02
-2.856810688972473145e-01 -5.030651763081550598e-02 -5.721159651875495911e-02
-2.695381939411163330e-01 -6.443563848733901978e-02 -5.017249286174774170e-02
-2.759515345096588135e-01 -5.333618074655532837e-02 -4.940229281783103943e-02
-6.791331768035888672e-01 6.642344594001770020e-02 1.544285286217927933e-02
-6.767995953559875488e-01 8.431590348482131958e-02 6.495911628007888794e-03
-6.689643859863281250e-01 6.113294884562492371e-02 2.326726168394088745e-02
-6.667945384979248047e-01 7.960708439350128174e-02 1.466248743236064911e-02
-2.854883968830108643e-01 3.472654521465301514e-01 -1.685858517885208130e-02
-2.709940373897552490e-01 3.611327409744262695e-01 -2.582893893122673035e-02
-2.678331732749938965e-01 3.478368520736694336e-01 -4.599388688802719116e-03
-2.519281506538391113e-01 3.609618246555328369e-01 -1.750981248915195465e-02
5.075941085815429688e-01 4.742007702589035034e-03 -7.689551915973424911e-03
5.052183270454406738e-01 2.335049025714397430e-02 -9.964360855519771576e-03
5.148058533668518066e-01 1.055358164012432098e-02 5.303356330841779709e-03
5.100176334381103516e-01 2.618086338043212891e-02 4.242502618581056595e-03
7.284687757492065430e-01 -3.890444338321685791e-01 5.916048586368560791e-02
7.285044789314270020e-01 -3.756532371044158936e-01 7.502858340740203857e-02
7.526491880416870117e-01 -3.761929273605346680e-01 6.306583434343338013e-02
7.504278421401977539e-01 -3.626193404197692871e-01 7.863530516624450684e-02
2.233773320913314819e-01 8.773566037416458130e-02 -1.088587939739227295e-01
2.248777598142623901e-01 1.063839718699455261e-01 -1.102979034185409546e-01
2.358588576316833496e-01 9.243802726268768311e-02 -1.111557856202125549e-01
2.370237857103347778e-01 1.112995222210884094e-01 -1.120194569230079651e-01
-3.926215171813964844e-01 2.434997111558914185e-01 -1.843966729938983917e-02
-3.954483568668365479e-01 2.667543590068817139e-01 -1.418708637356758118e-02
-3.737869858741760254e-01 2.437500059604644775e-01 -1.162613555788993835e-02
-3.765732049942016602e-01 2.676991522312164307e-01 -8.482172153890132904e-03
4.378652870655059814e-01 -2.279016971588134766e-01 -9.006510674953460693e-02
4.465461075305938721e-01 -2.170730978250503540e-01 -9.928567707538604736e-02
4.427683949470520020e-01 -2.327561825513839722e-01 -8.133962750434875488e-02
4.501529335975646973e-01 -2.211987823247909546e-01 -9.029830992221832275e-02
1.950369179248809814e-01 -5.664702504873275757e-02 1.263355165719985962e-01
1.812437027692794800e-01 -3.932052478194236755e-02 1.322381347417831421e-01
2.090704292058944702e-01 -4.696536809206008911e-02 1.243158131837844849e-01
1.996641755104064941e-01 -3.146433085203170776e-02 1.302248686552047729e-01
4.373519122600555420e-01 9.698009490966796875e-02 1.138301119208335876e-01
4.329376816749572754e-01 1.079124212265014648e-01 1.191269978880882263e-01
4.496392011642456055e-01 1.019608825445175171e-01 1.163596510887145996e-01
4.462072849273681641e-01 1.138520762324333191e-01 1.215554475784301758e-01
-5.581641197204589844e-01 -2.315817028284072876e-01 2.088510990142822266e-01
-5.574078559875488281e-01 -2.149644792079925537e-01 2.070419341325759888e-01
-5.400769710540771484e-01 -2.342713624238967896e-01 2.114256918430328369e-01
-5.398222804069519043e-01 -2.174059152603149414e-01 2.110134810209274292e-01
-1.160172373056411743e-01 5.687945708632469177e-02 -1.297607719898223877e-01
-1.198932677507400513e-01 7.383070141077041626e-02 -1.237207129597663879e-01
-1.104119792580604553e-01 6.245467811822891235e-02 -1.181621253490447998e-01
-1.139721646904945374e-01 7.920309901237487793e-02 -1.123229190707206726e-01
4.322718381881713867e-01 1.003755554556846619e-01 1.238848939538002014e-01
4.287329316139221191e-01 1.116124317049980164e-01 1.291703134775161743e-01
4.455161094665527344e-01 1.047484949231147766e-01 1.265881657600402832e-01
4.422849118709564209e-01 1.165725290775299072e-01 1.318129152059555054e-01
3.138953447341918945e-01 2.733094990253448486e-01 -6.686557829380035400e-02
3.016106784343719482e-01 2.855685651302337646e-01 -5.205376073718070984e-02
3.219604790210723877e-01 2.810643315315246582e-01 -5.252828821539878845e-02
3.126694262027740479e-01 2.935115993022918701e-01 -3.954847902059555054e-02
-5.138729810714721680e-01 -3.274273574352264404e-01 -1.768386177718639374e-02
-5.194290280342102051e-01 -3.099525570869445801e-01 -1.208151690661907196e-02
-5.030561089515686035e-01 -3.265202641487121582e-01 -1.035613194108009338e-02
-5.076540708541870117e-01 -3.094336390495300293e-01 -5.872273817658424377e-03
-2.446707338094711304e-01 -1.124245524406433105e-01 5.630178377032279968e-02
-2.465161383152008057e-01 -9.860946238040924072e-02 5.937051028013229370e-02
-2.428533434867858887e-01 -1.125914901494979858e-01 7.058726251125335693e-02
-2.452811896800994873e-01 -9.795305132865905762e-02 7.306614518165588379e-02
6.438403129577636719e-01 -4.232286289334297180e-02 -4.422137513756752014e-02
6.259057521820068359e-01 -3.742347285151481628e-02 -3.670167550444602966e-02
6.558253169059753418e-01 -5.046229436993598938e-02 -3.629060834646224976e-02
6.421971321105957031e-01 -4.612703248858451843e-02 -2.423395588994026184e-02
-8.979246020317077637e-02 -3.606864809989929199e-01 -8.398719877004623413e-02
-7.273332029581069946e-02 -3.493217527866363525e-01 -9.914406388998031616e-02
-6.387081742286682129e-02 -3.571961820125579834e-01 -8.144492655992507935e-02
-4.764871299266815186e-02 -3.450310528278350830e-01 -9.411951899528503418e-02
3.738985657691955566e-01 1.489430665969848633e-03 -4.299145191907882690e-02
3.794150650501251221e-01 2.656278572976589203e-02 -4.568629711866378784e-02
3.642651140689849854e-01 1.008987799286842346e-02 -2.921586297452449799e-02
3.701771497726440430e-01 3.644233942031860352e-02 -3.222471475601196289e-02
8.772410154342651367e-01 2.274415493011474609e-01 6.610782444477081299e-02
8.605575561523437500e-01 2.559749186038970947e-01 7.417619973421096802e-02
8.877443671226501465e-01 2.246177345514297485e-01 7.070147991180419922e-02
8.713182210922241211e-01 2.527284324169158936e-01 7.869625091552734375e-02
-3.722943663597106934e-01 -4.212713837623596191e-01 6.991212069988250732e-02
-3.745372891426086426e-01 -4.038529694080352783e-01 7.219736278057098389e-02
-3.627427816390991211e-01 -4.280735552310943604e-01 8.204278349876403809e-02
-3.664069175720214844e-01 -4.105246961116790771e-01 8.369299024343490601e-02
-6.322287321090698242e-01 8.617742359638214111e-02 9.869583696126937866e-02
-6.420402526855468750e-01 1.006598770618438721e-01 1.040760949254035950e-01
-6.284002065658569336e-01 8.288082480430603027e-02 1.112590432167053223e-01
-6.364918351173400879e-01 9.696968644857406616e-02 1.165631264448165894e-01
-1.795260906219482422e-01 1.062598545104265213e-02 -4.607070982456207275e-02
-1.883708834648132324e-01 2.231363579630851746e-02 -4.556728526949882507e-02
-1.806083023548126221e-01 7.010374683886766434e-03 -3.371239081025123596e-02
-1.885075569152832031e-01 1.889508217573165894e-02 -3.290445357561111450e-02
-8.493510484695434570e-01 3.582060337066650391e-01 3.375343233346939087e-02
-8.316957950592041016e-01 3.819409012794494629e-01 2.383793145418167114e-02
-8.325108885765075684e-01 3.687778413295745850e-01 4.923205077648162842e-02
-8.150534629821777344e-01 3.914120495319366455e-01 3.828911110758781433e-02
3.595137223601341248e-02 1.960064619779586792e-01 1.533754765987396240e-01
3.373594582080841064e-02 2.151261270046234131e-01 1.552631556987762451e-01
5.381866917014122009e-02 2.029331922531127930e-01 1.435625553131103516e-01
4.764930903911590576e-02 2.192766070365905762e-01 1.480491161346435547e-01
-3.971878290176391602e-01 2.441089600324630737e-01 -2.060079015791416168e-02
-4.000146687030792236e-01 2.673636078834533691e-01 -1.634820923209190369e-02
-3.782694041728973389e-01 2.441724687814712524e-01 -1.347961928695440292e-02
-3.808655738830566406e-01 2.679922282695770264e-01 -9.966488927602767944e-03
5.246177315711975098e-01 4.488864913582801819e-02 -1.022133082151412964e-01
5.332981944084167480e-01 5.843530967831611633e-02 -1.062433049082756042e-01
5.429110527038574219e-01 4.337007179856300354e-02 -8.741543442010879517e-02
5.531716942787170410e-01 5.703820660710334778e-02 -9.249025583267211914e-02
-6.334463953971862793e-01 -1.340288817882537842e-01 -3.520216047763824463e-02
-6.265812516212463379e-01 -1.191523224115371704e-01 -4.314000904560089111e-02
-6.137529611587524414e-01 -1.350849270820617676e-01 -3.233126550912857056e-02
-6.072535514831542969e-01 -1.200656145811080933e-01 -4.138275980949401855e-02
-2.485321313142776489e-01 1.024750471115112305e-01 1.854534596204757690e-01
-2.425798475742340088e-01 1.235893070697784424e-01 1.840884983539581299e-01
-2.340450882911682129e-01 1.070811673998832703e-01 1.990092396736145020e-01
-2.279129624366760254e-01 1.254573613405227661e-01 1.957513689994812012e-01
7.169841527938842773e-01 -1.311493515968322754e-01 -5.263098701834678650e-02
6.937180161476135254e-01 -1.139078587293624878e-01 -3.438811376690864563e-02
7.468854784965515137e-01 -1.234097778797149658e-01 -4.286271706223487854e-02
7.241935133934020996e-01 -1.059943065047264099e-01 -2.499579638242721558e-02
-1.918185502290725708e-01 2.626275271177291870e-02 -1.297736540436744690e-02
-1.953584551811218262e-01 3.833246976137161255e-02 -1.246550399810075760e-02
-1.939441859722137451e-01 2.577351219952106476e-02 -5.892408080399036407e-04
-1.960119903087615967e-01 3.869035094976425171e-02 -2.665404463186860085e-04
-1.116064414381980896e-01 -2.526625096797943115e-01 1.676424741744995117e-01
-1.239090487360954285e-01 -2.346025854349136353e-01 1.801111400127410889e-01
-9.628296643495559692e-02 -2.492566108703613281e-01 1.681932657957077026e-01
-1.087383851408958435e-01 -2.312613874673843384e-01 1.810492724180221558e-01
4.659802019596099854e-01 2.089532166719436646e-01 1.537696421146392822e-01
4.480521976947784424e-01 2.227504551410675049e-01 1.565782725811004639e-01
4.827332496643066406e-01 2.008672356605529785e-01 1.591998189687728882e-01
4.644316434860229492e-01 2.160150706768035889e-01 1.649268418550491333e-01
-1.930480599403381348e-01 -2.015853971242904663e-01 -6.988135725259780884e-02
-2.085563689470291138e-01 -1.956588029861450195e-01 -6.367193162441253662e-02
-1.884873658418655396e-01 -2.048187553882598877e-01 -5.931061878800392151e-02
-2.013771831989288330e-01 -1.961718797683715820e-01 -5.068001523613929749e-02
-1.113587990403175354e-01 -2.479268461465835571e-01 1.675186455249786377e-01
-1.237304210662841797e-01 -2.300120741128921509e-01 1.802825331687927246e-01
-9.625101089477539062e-02 -2.450984865427017212e-01 1.681270748376846313e-01
-1.081786304712295532e-01 -2.268115133047103882e-01 1.811811625957489014e-01
6.026430130004882812e-01 5.587222799658775330e-02 1.507790833711624146e-01
6.094825267791748047e-01 7.195362448692321777e-02 1.464787721633911133e-01
6.154482960700988770e-01 5.768777802586555481e-02 1.563501954078674316e-01
6.144501566886901855e-01 7.497151941061019897e-02 1.531352847814559937e-01
-5.225868523120880127e-02 8.488360047340393066e-02 1.147802770137786865e-01
-5.859604850411415100e-02 1.019853949546813965e-01 1.194288209080696106e-01
-3.567542508244514465e-02 8.570790290832519531e-02 1.167262047529220581e-01
-4.212308675050735474e-02 1.026215329766273499e-01 1.197196468710899353e-01
3.671530485153198242e-01 -2.161836028099060059e-01 -1.076748147606849670e-01
3.476940393447875977e-01 -2.122181802988052368e-01 -1.066763773560523987e-01
3.819480240345001221e-01 -2.240633219480514526e-01 -1.029826998710632324e-01
3.620896041393280029e-01 -2.192212492227554321e-01 -1.015823706984519958e-01
-1.921742558479309082e-01 -3.332988023757934570e-01 -1.102344170212745667e-01
-1.841100007295608521e-01 -3.208412230014801025e-01 -1.378529518842697144e-01
-1.711728274822235107e-01 -3.412992060184478760e-01 -1.088067442178726196e-01
-1.631191670894622803e-01 -3.284593224525451660e-01 -1.370658129453659058e-01
-4.615249335765838623e-01 -3.979696631431579590e-01 1.781204640865325928e-01
-4.668754339218139648e-01 -3.770205676555633545e-01 1.918476521968841553e-01
-4.423838555812835693e-01 -3.912375271320343018e-01 1.895481497049331665e-01
-4.476429820060729980e-01 -3.692428767681121826e-01 2.026563435792922974e-01
-2.228555381298065186e-01 -1.550094485282897949e-01 1.797335222363471985e-02
-2.257960736751556396e-01 -1.416518241167068481e-01 2.699543908238410950e-02
-2.253345251083374023e-01 -1.501176506280899048e-01 3.298794478178024292e-02
-2.286349087953567505e-01 -1.364166438579559326e-01 4.136996716260910034e-02
5.800004005432128906e-01 -4.185363650321960449e-01 6.996457464993000031e-03
5.615905523300170898e-01 -4.073601663112640381e-01 3.464596718549728394e-02
5.966002345085144043e-01 -4.138309955596923828e-01 1.604914292693138123e-02
5.808923244476318359e-01 -4.037202000617980957e-01 4.246355220675468445e-02
-5.692129135131835938e-01 4.172888100147247314e-01 -1.726854220032691956e-02
-5.867082476615905762e-01 4.325769543647766113e-01 -6.609201431274414062e-03
-5.434204936027526855e-01 4.112814366817474365e-01 -6.751202046871185303e-03
-5.625221729278564453e-01 4.273329973220825195e-01 4.786227829754352570e-03
-2.429817318916320801e-01 -3.463097810745239258e-01 -2.507694065570831299e-01
-2.325976043939590454e-01 -3.293295502662658691e-01 -2.631134390830993652e-01
-2.207031846046447754e-01 -3.628467023372650146e-01 -2.369522303342819214e-01
-2.095730751752853394e-01 -3.452327847480773926e-01 -2.503268420696258545e-01
-3.485362827777862549e-01 -2.115479409694671631e-01 2.552572190761566162e-01
-3.435289263725280762e-01 -1.910993903875350952e-01 2.470034211874008179e-01
-3.223272264003753662e-01 -2.073173373937606812e-01 2.517271041870117188e-01
-3.168508112430572510e-01 -1.874673366546630859e-01 2.435207217931747437e-01
-7.962216138839721680e-01 7.149479538202285767e-02 8.672495372593402863e-03
-7.994052171707153320e-01 9.148167818784713745e-02 1.021609827876091003e-02
-7.887514233589172363e-01 7.004335522651672363e-02 2.002743817865848541e-02
-7.925751805305480957e-01 9.071387350559234619e-02 2.123831585049629211e-02
-1.169898658990859985e-01 -8.880811929702758789e-02 -1.960582435131072998e-01
-1.217556670308113098e-01 -7.145656645298004150e-02 -1.976647824048995972e-01
-9.825354814529418945e-02 -8.601854741573333740e-02 -1.914213001728057861e-01
-1.021071150898933411e-01 -6.618370860815048218e-02 -1.924705058336257935e-01
5.822035670280456543e-01 4.161119833588600159e-02 -2.295236289501190186e-01
5.791489481925964355e-01 6.469584256410598755e-02 -2.292461991310119629e-01
6.019292473793029785e-01 4.215580970048904419e-02 -2.355917096138000488e-01
6.000216007232666016e-01 6.492507457733154297e-02 -2.362256646156311035e-01
-2.780483067035675049e-01 -1.537646651268005371e-01 1.704263091087341309e-01
-2.739993631839752197e-01 -1.401802897453308105e-01 1.691602021455764771e-01
-2.654844522476196289e-01 -1.488097459077835083e-01 1.771314442157745361e-01
-2.605013847351074219e-01 -1.357247680425643921e-01 1.740321815013885498e-01
5.124912858009338379e-01 -2.206031978130340576e-01 -1.726085692644119263e-01
5.209990143775939941e-01 -2.115386277437210083e-01 -1.757553815841674805e-01
5.236142277717590332e-01 -2.186799645423889160e-01 -1.633778959512710571e-01
5.315910577774047852e-01 -2.096048891544342041e-01 -1.668749153614044189e-01
4.147802889347076416e-01 -2.354396581649780273e-01 9.902572631835937500e-02
4.044265151023864746e-01 -2.201052904129028320e-01 1.110193878412246704e-01
4.298234283924102783e-01 -2.342483997344970703e-01 1.063161939382553101e-01
4.199785292148590088e-01 -2.168591022491455078e-01 1.186473146080970764e-01
-7.770726680755615234e-01 -8.705733716487884521e-02 6.208047270774841309e-02
-7.876284122467041016e-01 -6.359896063804626465e-02 6.923140585422515869e-02
-7.607320547103881836e-01 -9.380231797695159912e-02 6.455022096633911133e-02
-7.712197899818420410e-01 -7.041697204113006592e-02 7.180612534284591675e-02
-1.127555519342422485e-01 9.047728031873703003e-02 1.252568513154983521e-01
-1.179433912038803101e-01 1.097543314099311829e-01 1.299934536218643188e-01
-9.232565015554428101e-02 9.663309901952743530e-02 1.254837512969970703e-01
-9.778404235839843750e-02 1.156983375549316406e-01 1.308162957429885864e-01
5.590338706970214844e-01 1.114422976970672607e-01 1.788698881864547729e-01
5.445339679718017578e-01 1.201059296727180481e-01 1.870022565126419067e-01
5.772060155868530273e-01 1.121243685483932495e-01 1.851474493741989136e-01
5.596333146095275879e-01 1.195171400904655457e-01 1.925193816423416138e-01
8.073445409536361694e-02 2.675818502902984619e-01 -4.096229374408721924e-02
6.844205409288406372e-02 2.792022824287414551e-01 -3.127596154808998108e-02
9.007246792316436768e-02 2.656803429126739502e-01 -2.440522052347660065e-02
7.814179360866546631e-02 2.786052227020263672e-01 -1.537704654037952423e-02
-6.324487924575805664e-01 -3.505384922027587891e-01 -7.348030805587768555e-02
-6.567602157592773438e-01 -3.283440768718719482e-01 -6.573561578989028931e-02
-6.358621716499328613e-01 -3.626159429550170898e-01 -5.231099575757980347e-02
-6.583940386772155762e-01 -3.404494822025299072e-01 -4.476454481482505798e-02
-3.971441388130187988e-01 -2.456354349851608276e-01 7.335509359836578369e-02
-4.047956466674804688e-01 -2.338707298040390015e-01 7.897715270519256592e-02
-3.842517137527465820e-01 -2.456058710813522339e-01 8.351404964923858643e-02
-3.916795253753662109e-01 -2.332756966352462769e-01 8.581201732158660889e-02
1.227335035800933838e-01 2.748076915740966797e-01 1.241138279438018799e-01
1.117303445935249329e-01 2.883566021919250488e-01 1.276261657476425171e-01
1.430542618036270142e-01 2.773761451244354248e-01 1.230115890502929688e-01
1.315353512763977051e-01 2.906475067138671875e-01 1.260261237621307373e-01
9.029289335012435913e-02 2.025440782308578491e-01 -1.206394135951995850e-01
8.696472644805908203e-02 2.162076085805892944e-01 -1.166211068630218506e-01
1.038974076509475708e-01 2.057969123125076294e-01 -1.133469492197036743e-01
1.006988734006881714e-01 2.188375443220138550e-01 -1.096065565943717957e-01
7.182698249816894531e-01 -3.281813487410545349e-02 -1.528656780719757080e-01
7.067904472351074219e-01 -1.111547369509935379e-02 -1.464592814445495605e-01
7.345104813575744629e-01 -3.947747498750686646e-02 -1.432437002658843994e-01
7.220429778099060059e-01 -1.696802675724029541e-02 -1.369469314813613892e-01
6.135199069976806641e-01 -1.191301345825195312e-01 -6.247961521148681641e-02
5.969124436378479004e-01 -1.081924811005592346e-01 -4.556411877274513245e-02
6.330270171165466309e-01 -1.266857087612152100e-01 -5.245602130889892578e-02
6.143451929092407227e-01 -1.170173883438110352e-01 -3.357882052659988403e-02
-9.250761270523071289e-01 1.878898739814758301e-01 -1.521401293575763702e-02
-9.177761077880859375e-01 2.160997688770294189e-01 -1.939650624990463257e-02
-9.086048603057861328e-01 1.948674023151397705e-01 -1.337051019072532654e-02
-9.012092351913452148e-01 2.203278690576553345e-01 -1.819069311022758484e-02
3.008613288402557373e-01 -1.103191748261451721e-01 -1.088150516152381897e-01
2.939621806144714355e-01 -9.483028203248977661e-02 -1.037783175706863403e-01
3.164561986923217773e-01 -1.087502539157867432e-01 -1.052368581295013428e-01
3.100563883781433105e-01 -9.256075322628021240e-02 -1.003272682428359985e-01
-6.331905722618103027e-01 1.307449936866760254e-01 -5.660027265548706055e-02
-6.445060968399047852e-01 1.429805755615234375e-01 -5.252971127629280090e-02
-6.211243867874145508e-01 1.221886649727821350e-01 -4.999995976686477661e-02
-6.319431066513061523e-01 1.343395113945007324e-01 -4.605367407202720642e-02
1.837554574012756348e-01 2.737528085708618164e-01 -6.234166398644447327e-02
1.786935180425643921e-01 2.908946871757507324e-01 -5.728301033377647400e-02
2.032706886529922485e-01 2.753874361515045166e-01 -5.641253665089607239e-02
1.971480250358581543e-01 2.917199432849884033e-01 -5.215920880436897278e-02
-2.103548496961593628e-01 -1.445432901382446289e-01 -5.033128708600997925e-02
-2.224811315536499023e-01 -1.357624679803848267e-01 -4.180081933736801147e-02
-2.027999609708786011e-01 -1.490143835544586182e-01 -3.719716519117355347e-02
-2.142760008573532104e-01 -1.406697779893875122e-01 -2.834401279687881470e-02
6.036099195480346680e-01 -3.938735425472259521e-01 6.576686352491378784e-02
5.937300920486450195e-01 -3.773797452449798584e-01 8.448402583599090576e-02
6.245752573013305664e-01 -3.900232911109924316e-01 6.578564643859863281e-02
6.149439811706542969e-01 -3.729044497013092041e-01 8.471702039241790771e-02
3.739741146564483643e-01 -1.182682961225509644e-01 8.567520976066589355e-02
3.684828281402587891e-01 -1.104533001780509949e-01 9.052836894989013672e-02
3.836684525012969971e-01 -1.192617788910865784e-01 9.342658519744873047e-02
3.769270479679107666e-01 -1.107649207115173340e-01 9.739106893539428711e-02
5.119290947914123535e-01 1.694513484835624695e-02 -5.497296527028083801e-02
5.187481641769409180e-01 3.695350512862205505e-02 -6.057948246598243713e-02
5.261904001235961914e-01 2.050122618675231934e-02 -4.542115330696105957e-02
5.326771140098571777e-01 4.066669940948486328e-02 -5.110394954681396484e-02
-6.696421504020690918e-01 3.858998417854309082e-01 9.971777349710464478e-02
-6.578791737556457520e-01 3.987579941749572754e-01 8.213593065738677979e-02
-6.491770744323730469e-01 3.803701698780059814e-01 9.781513363122940063e-02
-6.385890841484069824e-01 3.927845358848571777e-01 8.300942182540893555e-02
1.546344161033630371e-01 -2.984055317938327789e-03 1.154774054884910583e-02
1.522662192583084106e-01 2.021732926368713379e-02 1.622109860181808472e-02
1.622677147388458252e-01 2.209855243563652039e-03 2.214364334940910339e-02
1.602249145507812500e-01 2.543731406331062317e-02 2.700785174965858459e-02
-2.802579700946807861e-01 2.290352433919906616e-02 1.567176133394241333e-01
-2.801632583141326904e-01 4.227542504668235779e-02 1.511315256357192993e-01
-2.647134065628051758e-01 2.235655486583709717e-02 1.634889990091323853e-01
-2.642276883125305176e-01 4.183911159634590149e-02 1.590003818273544312e-01
-7.720685005187988281e-01 3.190044313669204712e-02 7.422284223139286041e-03
-7.795814275741577148e-01 5.282826721668243408e-02 8.850995451211929321e-03
-7.618173956871032715e-01 3.105477057397365570e-02 1.883607730269432068e-02
-7.676522135734558105e-01 5.025992542505264282e-02 1.914630271494388580e-02
-2.529788315296173096e-01 -3.353230357170104980e-01 1.141880229115486145e-01
-2.649023830890655518e-01 -3.224218785762786865e-01 1.292589157819747925e-01
-2.331801652908325195e-01 -3.346003592014312744e-01 1.150564476847648621e-01
-2.463251948356628418e-01 -3.223742842674255371e-01 1.308576911687850952e-01
-2.200917303562164307e-01 -3.614926636219024658e-01 -5.569120496511459351e-02
-2.325094789266586304e-01 -3.533713221549987793e-01 -5.180518701672554016e-02
-1.985054612159729004e-01 -3.604736030101776123e-01 -5.313563346862792969e-02
-2.117118984460830688e-01 -3.543184399604797363e-01 -4.415970295667648315e-02
-2.447966486215591431e-01 -8.710688352584838867e-02 5.589235201478004456e-02
-2.525226771831512451e-01 -7.313660532236099243e-02 6.083409115672111511e-02
-2.439818382263183594e-01 -8.397979289293289185e-02 7.103583961725234985e-02
-2.519025504589080811e-01 -7.137453556060791016e-02 7.649540901184082031e-02
4.968687593936920166e-01 -2.816245853900909424e-01 5.198248475790023804e-02
4.813547432422637939e-01 -2.745238840579986572e-01 6.074434891343116760e-02
5.100249052047729492e-01 -2.823759317398071289e-01 6.021632254123687744e-02
4.940370023250579834e-01 -2.751889228820800781e-01 6.830378621816635132e-02
-3.721288964152336121e-02 4.386329278349876404e-02 2.045935094356536865e-01
-3.887489810585975647e-02 6.701129674911499023e-02 2.095239758491516113e-01
-2.079955860972404480e-02 4.706249386072158813e-02 2.029486149549484253e-01
-2.195835113525390625e-02 7.084476947784423828e-02 2.079846858978271484e-01
5.435030460357666016e-01 -3.783259689807891846e-01 7.517630606889724731e-02
5.308482646942138672e-01 -3.631617128849029541e-01 9.605824947357177734e-02
5.662415027618408203e-01 -3.786492347717285156e-01 7.923052459955215454e-02
5.543840527534484863e-01 -3.635832071304321289e-01 9.949751198291778564e-02
-1.127078086137771606e-01 1.883846335113048553e-02 -2.313799224793910980e-02
-1.128907576203346252e-01 3.595176711678504944e-02 -1.836606860160827637e-02
-1.134117469191551208e-01 2.192709967494010925e-02 -2.698383294045925140e-03
-1.133136451244354248e-01 3.870823234319686890e-02 1.306878868490457535e-03
7.580665349960327148e-01 -2.729468941688537598e-01 -2.962810918688774109e-02
7.464983463287353516e-01 -2.691983580589294434e-01 -1.849513687193393707e-02
7.718322277069091797e-01 -2.766463160514831543e-01 -1.772425509989261627e-02
7.605305910110473633e-01 -2.723607420921325684e-01 -6.810844410210847855e-03
-1.872783750295639038e-01 -2.134327590465545654e-01 9.527193754911422729e-02
-1.891698390245437622e-01 -1.994638442993164062e-01 9.700994938611984253e-02
-1.857872754335403442e-01 -2.118865102529525757e-01 1.093969643115997314e-01
-1.872949600219726562e-01 -1.974038183689117432e-01 1.108720973134040833e-01
5.927422046661376953e-01 -2.279981225728988647e-01 -3.195863962173461914e-02
5.822610259056091309e-01 -2.264415770769119263e-01 -2.223353460431098938e-02
6.050893664360046387e-01 -2.316604852676391602e-01 -2.304324135184288025e-02
5.948347449302673340e-01 -2.301569432020187378e-01 -1.324298605322837830e-02
-6.972272396087646484e-01 2.047763019800186157e-01 1.460860297083854675e-02
-7.006491422653198242e-01 2.288368493318557739e-01 1.891795918345451355e-02
-6.878935098648071289e-01 2.061807513236999512e-01 3.444192185997962952e-02
-6.901641488075256348e-01 2.298546135425567627e-01 3.715161234140396118e-02
5.494629144668579102e-01 2.047488540410995483e-01 3.950818255543708801e-02
5.518933534622192383e-01 2.264762073755264282e-01 3.537758067250251770e-02
5.729581117630004883e-01 2.075411379337310791e-01 4.228125140070915222e-02
5.751248002052307129e-01 2.289723753929138184e-01 3.752350062131881714e-02
-2.259346842765808105e-01 -1.563383638858795166e-01 2.059078961610794067e-02
-2.288428843021392822e-01 -1.427572369575500488e-01 2.959603257477283478e-02
-2.292904704809188843e-01 -1.510224938392639160e-01 3.584417700767517090e-02
-2.321116775274276733e-01 -1.372727006673812866e-01 4.395561292767524719e-02
4.868638515472412109e-01 -3.831515461206436157e-02 -8.351967483758926392e-02
4.919156432151794434e-01 -1.883997209370136261e-02 -8.733649551868438721e-02
5.022452473640441895e-01 -3.013574331998825073e-02 -7.646968215703964233e-02
5.097131729125976562e-01 -1.190581452101469040e-02 -8.062227815389633179e-02
1.369082033634185791e-01 2.022697180509567261e-01 4.318558424711227417e-02
1.300235390663146973e-01 2.245565950870513916e-01 4.648498073220252991e-02
1.455478817224502563e-01 2.043873518705368042e-01 5.690222978591918945e-02
1.386632174253463745e-01 2.266742289066314697e-01 6.020162627100944519e-02
9.248080849647521973e-02 -1.856770366430282593e-01 1.109036281704902649e-01
9.487200528383255005e-02 -1.692530363798141479e-01 1.190519183874130249e-01
1.000287011265754700e-01 -1.733583211898803711e-01 1.240219101309776306e-01
1.064124703407287598e-01 -1.599430292844772339e-01 1.291726231575012207e-01
5.150607228279113770e-01 -6.889058649539947510e-02 5.910601466894149780e-02
5.107879042625427246e-01 -5.156075954437255859e-02 5.721116811037063599e-02
5.301324129104614258e-01 -6.665103882551193237e-02 5.847948417067527771e-02
5.257084965705871582e-01 -4.909978434443473816e-02 5.604876950383186340e-02
-8.830735087394714355e-01 -1.852181926369667053e-02 -1.836860738694667816e-02
-8.977799415588378906e-01 -7.958631031215190887e-04 -1.129839010536670685e-02
-8.793082237243652344e-01 -2.656495943665504456e-02 -4.964149091392755508e-03
-8.943700194358825684e-01 -8.560746908187866211e-03 2.489943522959947586e-03
-2.435554414987564087e-01 4.344009980559349060e-02 -1.558753568679094315e-02
-2.351924926042556763e-01 5.560290068387985229e-02 -1.998975127935409546e-02
-2.429154068231582642e-01 4.891029372811317444e-02 -1.526473788544535637e-03
-2.345521748065948486e-01 6.148638948798179626e-02 -6.660732440650463104e-03
-3.516447246074676514e-01 -3.207904100418090820e-02 2.626339532434940338e-02
-3.405763208866119385e-01 -1.752060279250144958e-02 2.826657332479953766e-02
-3.504525721073150635e-01 -2.317881025373935699e-02 4.390584677457809448e-02
-3.392368257045745850e-01 -8.169431239366531372e-03 4.760960489511489868e-02
4.764424636960029602e-03 2.729878425598144531e-01 -7.595674693584442139e-02
-2.246048999950289726e-03 2.751072645187377930e-01 -6.312879174947738647e-02
2.165033482015132904e-02 2.696023285388946533e-01 -6.498504430055618286e-02
1.458447519689798355e-02 2.719961702823638916e-01 -5.228735506534576416e-02
-3.487612009048461914e-01 -7.651921361684799194e-03 8.310897648334503174e-02
-3.342380523681640625e-01 6.415512412786483765e-03 8.238484710454940796e-02
-3.443255126476287842e-01 -2.418552059680223465e-03 9.751230478286743164e-02
-3.276627659797668457e-01 1.212780922651290894e-02 9.463763982057571411e-02
-2.263926416635513306e-01 -3.672688305377960205e-01 2.269728779792785645e-01
-2.415215671062469482e-01 -3.557457327842712402e-01 2.469176799058914185e-01
-2.028136998414993286e-01 -3.581156432628631592e-01 2.376582771539688110e-01
-2.173930406570434570e-01 -3.458395600318908691e-01 2.571470737457275391e-01
-5.223069190979003906e-01 1.112279817461967468e-01 -6.901131570339202881e-02
-5.263368487358093262e-01 1.276920288801193237e-01 -6.498483568429946899e-02
-5.103881359100341797e-01 1.138382852077484131e-01 -7.018301635980606079e-02
-5.143304467201232910e-01 1.307482719421386719e-01 -6.581842899322509766e-02
3.895076215267181396e-01 -1.238501146435737610e-01 1.749022491276264191e-02
3.764798045158386230e-01 -1.145910099148750305e-01 3.103770501911640167e-02
3.941276073455810547e-01 -1.248646676540374756e-01 3.273612260818481445e-02
3.817501962184906006e-01 -1.160566061735153198e-01 4.565411806106567383e-02
2.671392560005187988e-01 -8.892624825239181519e-02 -5.380244553089141846e-02
2.470797449350357056e-01 -8.477319777011871338e-02 -3.744611516594886780e-02
2.746239304542541504e-01 -8.784324675798416138e-02 -3.321737423539161682e-02
2.552380263805389404e-01 -8.392634242773056030e-02 -1.625991426408290863e-02
2.782159745693206787e-01 -8.482521772384643555e-02 1.028149500489234924e-01
2.761572897434234619e-01 -7.318492233753204346e-02 1.017578840255737305e-01
2.942782640457153320e-01 -8.389491587877273560e-02 1.095804199576377869e-01
2.912230789661407471e-01 -7.302481681108474731e-02 1.084961816668510437e-01
8.763325810432434082e-01 5.753510445356369019e-02 -4.449287801980972290e-02
8.815582394599914551e-01 8.357899636030197144e-02 -4.227964207530021667e-02
8.935967087745666504e-01 6.498338282108306885e-02 -3.250484168529510498e-02
8.992750048637390137e-01 9.204125404357910156e-02 -3.039196506142616272e-02
-1.613799631595611572e-01 2.123583108186721802e-04 1.410829126834869385e-01
-1.699781715869903564e-01 1.368989422917366028e-02 1.400142759084701538e-01
-1.518338620662689209e-01 -2.381291706115007401e-03 1.471204161643981934e-01
-1.610968410968780518e-01 1.112876646220684052e-02 1.458604037761688232e-01
3.959053009748458862e-02 7.717961817979812622e-02 1.112173423171043396e-01
3.151625022292137146e-02 9.227996319532394409e-02 1.182761043310165405e-01
5.467580631375312805e-02 7.679960876703262329e-02 1.113613098859786987e-01
4.516751691699028015e-02 9.269463270902633667e-02 1.168998107314109802e-01
-1.896891742944717407e-01 -1.804771423339843750e-01 -1.787809580564498901e-01
-1.951833516359329224e-01 -1.686509698629379272e-01 -1.763527691364288330e-01
-1.780388057231903076e-01 -1.791049987077713013e-01 -1.783660948276519775e-01
-1.830842941999435425e-01 -1.667428910732269287e-01 -1.760220825672149658e-01
2.036089748144149780e-01 -5.423142760992050171e-02 1.447269469499588013e-01
1.886956840753555298e-01 -3.788856044411659241e-02 1.525907516479492188e-01
2.215332090854644775e-01 -4.812769591808319092e-02 1.419256925582885742e-01
2.077073752880096436e-01 -3.227762132883071899e-02 1.468674838542938232e-01
8.285633921623229980e-01 -1.959843933582305908e-01 2.278915196657180786e-01
8.201493024826049805e-01 -1.799530982971191406e-01 2.374357283115386963e-01
8.416855931282043457e-01 -2.029528766870498657e-01 2.339454442262649536e-01
8.335724472999572754e-01 -1.867930144071578979e-01 2.409022897481918335e-01
