1.975 1.6375 1.70833 1.525 1.39 1.31667 1.18333 
21.8 11.55 8.15833 6.35625 5.285 4.57083 3.83333 
21.025 10.7875 7.275 5.5125 4.425 3.6875 2.95 
52.325 26.6875 18.1917 13.9062 11.32 9.625 7.92 
4.6 2.85 2.3 2.05625 1.9 1.73333 1.61333 
22.775 11.8125 8.16667 6.3 5.17 4.4 3.58667 
25.9 13.375 9.40833 7.34375 6.085 5.26667 4.38 
26.425 13.825 9.55833 7.41875 6.075 5.22917 4.4 
43.325 21.9625 14.8583 11.2312 9.035 7.55 6.10333 
26.2 13.15 8.76667 6.575 5.26 4.38333 3.50667 
35.45 18.325 12.4583 9.5375 7.72 6.5375 5.34667 
31.825 16.1375 11.0833 8.4875 7.005 5.99583 5.04667 
20.625 10.825 7.48333 5.83125 4.825 4.15417 3.52667 
40.35 20.4625 13.8167 10.4625 8.43 7.06667 5.70333 
13.175 7.2875 5.16667 4.09375 3.45 3.02917 2.63 
21.275 11.15 7.81667 6.05625 5.045 4.38333 3.72 
1.05 1.25 1.2 1.175 1.215 1.19167 1.10333 
25.425 12.9875 8.76667 6.63125 5.365 4.525 3.69 
7.9 4.3125 3.075 2.4125 2.045 1.76667 1.50333 
32.05 16.225 10.9833 8.29375 6.645 5.54583 4.46333 
26.075 13.525 9.19167 7.01875 5.7 4.82917 3.99667 
40 20.3875 13.675 10.3125 8.28 6.91667 5.55333 
12.35 6.475 4.475 3.4625 2.995 2.675 2.32333 
24.15 12.45 8.575 6.65625 5.485 4.74167 3.94667 
42.775 21.4625 14.3083 10.7312 8.585 7.15417 5.72333 
34.225 17.85 12.2083 9.4125 7.615 6.47917 5.29 
6.45 3.8 2.975 2.4625 2.17 1.89167 1.57667 
26.7 13.8125 9.49167 7.2625 5.925 5.02083 4.08667 
33 16.6125 11.1333 8.45 6.83 5.75 4.65667 
21.225 11.1375 7.8 6.1375 5.135 4.57917 3.87667 
38.65 20.0125 13.725 10.55 8.62 7.35833 6.12 
37.2 18.925 12.75 9.675 7.86 6.61667 5.33333 
52.1 26.4625 17.9667 13.7312 11.235 9.5875 7.88333 
26.65 13.4125 9.025 6.85 5.5 4.59583 3.70667 
6.35 3.525 2.59167 2.11875 1.87 1.65833 1.41333 
12.25 6.6375 4.60833 3.5 2.87 2.51667 2.19 
31.425 16.1875 11.1 8.5375 7.01 5.98333 4.95333 
40.3 20.6125 14.075 10.775 8.79 7.49583 6.15667 
14.075 7.3625 5.18333 4.0125 3.35 2.90833 2.57667 
52.575 26.725 18.25 13.9312 11.35 9.66667 7.91667 
23.325 12.0375 8.10833 6.15625 4.97 4.17083 3.37 
35.75 18.3625 12.4833 9.43125 7.6 6.37917 5.16 
3.675 2.2875 1.875 1.76875 1.665 1.59583 1.47667 
19.05 9.775 6.68333 5.0625 4.09 3.4625 2.88667 
46.5 23.5 15.6667 11.75 9.4 7.83333 6.26667 
13.45 6.975 4.79167 3.675 2.985 2.49583 2.02333 
11.35 6.275 4.58333 3.7125 3.195 2.79167 2.36667 
23.675 12.4 8.55 6.65 5.575 4.85 4.07667 
24.025 12.4375 8.54167 6.66875 5.55 4.86667 4.11667 
29.425 15.1875 10.425 8.025 6.685 5.77917 4.83 
24.4 12.3375 8.26667 6.25625 5.055 4.22917 3.42667 
28.5 14.75 10.1083 7.81875 6.46 5.54583 4.64 
37.175 18.875 12.6417 9.54375 7.665 6.4125 5.17 
24.075 12.85 8.875 6.85 5.69 4.94167 4.15667 
12 6.0375 4.03333 3.025 2.42 2.01667 1.61333 
33.525 17.175 11.6 8.7375 7.02 5.87083 4.71333 
21.775 11.5875 8.25 6.35625 5.21 4.39583 3.65 
2.85 1.875 1.48333 1.2375 1.1 1.00417 0.916667 
10.8 6.1375 4.475 3.6375 3.125 2.77917 2.42 
17.725 9.3875 6.64167 5.25625 4.41 3.83333 3.23667 
28.575 14.4375 9.675 7.25625 5.805 4.8375 3.87 
7.175 4.3 3.30833 2.74375 2.48 2.25 2.00667 
31.275 15.7125 10.4833 7.8625 6.29 5.24167 4.19333 
21.9 11.475 7.875 6.09375 5.05 4.32917 3.6 
37.175 18.7625 12.6667 9.64375 7.775 6.50417 5.24 
48.875 24.8625 16.8833 12.8125 10.325 8.65417 7.00333 
17.925 9.3625 6.44167 4.95 4.055 3.48333 2.95333 
32.6 16.775 11.5333 9.025 7.405 6.27083 5.07 
14.975 7.95 5.575 4.3875 3.67 3.2 2.68 
26.05 13.5625 9.21667 7.0875 5.81 4.89583 4.06 
27.55 13.95 9.35 7.025 5.625 4.69583 3.76 
37.95 19.925 13.5667 10.4312 8.495 7.14583 5.79 
32.375 16.9 11.7083 9 7.32 6.16667 5.05333 
19.975 10.525 7.28333 5.63125 4.615 3.96667 3.28667 
9.3 5.2 3.825 3.04375 2.595 2.3125 2.02 
15.525 8.3375 5.83333 4.55625 3.885 3.45 3.03333 
28.475 14.7125 10.2667 8 6.6 5.71667 4.73667 
8.75 4.75 3.40833 2.7125 2.31 2.05 1.83333 
24.925 12.775 8.8 6.75625 5.545 4.76667 4.02 
17.725 9.25 6.46667 5.0875 4.27 3.70417 3.12 
23.625 12 8.15833 6.1625 4.94 4.11667 3.29333 
29.45 15.0375 10.325 7.9125 6.47 5.5 4.51333 
25.975 13.025 8.74167 6.56875 5.305 4.44167 3.55333 
33.675 17.4375 11.9167 9.1875 7.605 6.59583 5.53 
48.375 24.775 16.8 12.8687 10.515 8.975 7.35667 
38.125 19.5625 13.4417 10.3625 8.445 7.22083 6.01667 
23.875 12.425 8.73333 6.85 5.665 4.84583 4.01667 
23.425 12.0625 8.20833 6.2875 5.11 4.35417 3.60333 
7.85 4.6875 3.65 3.1 2.71 2.39583 2.08333 
12.075 6.45 4.48333 3.425 2.825 2.39167 1.96667 
6.3 3.9375 3.15 2.56875 2.205 1.97917 1.82333 
35.575 18 12.1417 9.20625 7.455 6.30417 5.13667 
34.125 17.2 11.5917 8.74375 7.065 5.93333 4.80333 
8.8 4.9125 3.64167 2.9 2.435 2.19583 1.91667 
49.175 24.7375 16.5167 12.425 9.965 8.30417 6.64333 
23.225 11.725 7.875 5.975 4.825 4.05833 3.28333 
35.975 18.3875 12.5667 9.68125 7.96 6.87083 5.71 
10.35 5.7125 4.125 3.36875 2.93 2.62917 2.29333 
3.475 2.4625 2.025 1.78125 1.635 1.57083 1.42 
51.55 26.2875 17.8417 13.6375 11.09 9.3375 7.56667 
41 20.65 13.85 10.4 8.345 6.9875 5.64333 
57.65 28.9875 19.3583 14.5187 11.615 9.67917 7.74333 
7.05 3.85 2.8 2.30625 2.075 1.93333 1.74 
28.125 14.5125 10.0083 7.76875 6.5 5.625 4.75333 
14.25 7.7625 5.61667 4.5125 3.81 3.375 2.98667 
21.925 11.3375 7.94167 6.24375 5.2 4.525 3.83333 
29.925 15.5875 10.7667 8.3125 6.86 5.84167 4.85 
14.575 7.725 5.325 4.14375 3.37 2.89583 2.4 
16.55 8.7375 6.2 4.94375 4.145 3.62083 3.06333 
7.875 4.275 3.075 2.45625 2.08 1.825 1.57 
13.75 7.2375 5.01667 3.94375 3.3 2.9 2.48333 
40.9 21 14.375 11.0125 8.955 7.5875 6.16333 
2.775 2.0875 1.75 1.5625 1.4 1.34167 1.27 
39.575 20.2875 13.8667 10.6312 8.635 7.3 5.95333 
9.475 5.425 4.075 3.35 2.88 2.52917 2.16 
35.625 17.975 12.1083 9.1625 7.385 6.19583 5.05333 
13.6 7.05 4.9 3.8125 3.125 2.64167 2.23 
16.35 8.7375 6.09167 4.73125 3.9 3.35833 2.79 
5.4 3.05 2.19167 1.75 1.49 1.34167 1.19 
23.775 12.2875 8.575 6.625 5.455 4.6375 3.83333 
22.1 11.8875 8.275 6.4375 5.37 4.66667 3.98 
24.55 12.625 8.775 6.80625 5.625 4.80417 3.95333 
23.325 12.025 8.36667 6.6 5.53 4.7875 4.02667 
32.2 16.475 11.3333 8.6625 7.035 5.9 4.83333 
50.85 25.7875 17.5333 13.5125 11.015 9.2375 7.4 
26.7 13.975 9.48333 7.24375 5.915 5.04583 4.14333 
53.575 27.3 18.475 14.175 11.53 9.725 7.86333 
22.425 11.8875 8.45833 6.725 5.575 4.80833 4.02667 
5.4 3.3375 2.71667 2.25625 1.98 1.81667 1.69 
20.35 10.65 7.4 5.7125 4.73 4.07917 3.5 
14.2 7.5625 5.225 3.98125 3.25 2.75833 2.21667 
24.675 12.775 8.60833 6.49375 5.23 4.3875 3.53333 
8.7 4.8 3.53333 2.95625 2.53 2.3125 2.09333 
45.875 23.475 15.875 12.1937 9.91 8.43333 6.95667 
53 26.55 17.7083 13.2812 10.625 8.85417 7.08333 
22.45 11.5625 7.875 6.10625 5.005 4.225 3.44667 
42.875 21.725 14.6833 11.1875 9.065 7.64583 6.2 
27.8 14.025 9.425 7.175 5.82 4.87917 3.94333 
10.225 5.325 3.74167 2.875 2.38 2.05833 1.73667 
27.175 14.1875 9.78333 7.5125 6.105 5.14167 4.17333 
29.075 15.15 10.5917 8.15625 6.65 5.63333 4.56333 
32.225 16.7 11.5333 8.91875 7.29 6.225 5.08 
6.125 3.2375 2.38333 1.93125 1.64 1.43333 1.20333 
5.2 2.85 2.25 1.88125 1.64 1.49583 1.34667 
16.65 8.625 5.975 4.6 3.705 3.12917 2.58 
11.175 5.9375 4.325 3.4875 2.905 2.525 2.16 
18.25 9.475 6.63333 5.15625 4.255 3.67917 3.03333 
3.2 2.075 1.68333 1.55 1.41 1.32917 1.21333 
15.3 8 5.6 4.425 3.79 3.375 2.93333 
21.525 11.25 7.83333 6.025 4.93 4.175 3.49 
18.775 9.7125 6.69167 5.2125 4.3 3.69167 3.04667 
3.575 2.125 1.68333 1.475 1.31 1.1875 1.05667 
10.9 5.9125 4.30833 3.43125 3.01 2.63333 2.22 
37.6 19.2125 13.1333 10 8.075 6.79167 5.49333 
44.275 22.3625 15.05 11.3562 9.14 7.63333 6.14333 
26.375 13.2625 8.84167 6.63125 5.305 4.42083 3.53667 
2.975 1.975 1.55833 1.41875 1.37 1.29583 1.22 
2.8 2 1.64167 1.475 1.375 1.30417 1.18 
35.6 18.25 12.4833 9.56875 7.845 6.7125 5.57333 
23.3 12.05 8.19167 6.24375 5.06 4.25 3.45333 
24.675 13.225 9.19167 7.11875 5.915 5.13333 4.28667 
24.2 12.35 8.325 6.36875 5.165 4.3375 3.52 
7.05 3.9125 2.90833 2.3875 2.04 1.8 1.53667 
31.775 16.275 11.125 8.5125 6.995 6.02917 4.97667 
34.85 17.4875 11.7417 8.89375 7.19 6.02917 4.86667 
18.725 9.575 6.76667 5.225 4.355 3.7875 3.19 
4.425 2.825 2.275 2 1.825 1.72917 1.53 
41.625 21.1125 14.2167 10.775 8.71 7.33333 5.95 
29.275 14.8125 9.95833 7.55625 6.115 5.14167 4.21333 
38.825 19.95 13.55 10.4187 8.555 7.30833 6.01 
55.325 27.7625 18.55 13.9312 11.205 9.36667 7.52333 
7.875 4.075 2.9 2.2875 1.92 1.6625 1.41667 
48.875 24.95 16.9167 12.9812 10.67 9.04583 7.40333 
48.225 24.7625 17.125 13.1562 10.7 9.075 7.47667 
16.075 8.25 5.73333 4.525 3.755 3.225 2.66333 
34.825 17.6125 11.85 8.95625 7.225 6.04583 4.89333 
22.325 11.7625 8.16667 6.33125 5.23 4.4375 3.71333 
20.15 10.2375 7.00833 5.45625 4.5 3.92917 3.31333 
27.925 14.6625 10.2167 7.95 6.55 5.60833 4.61667 
34.85 18.0375 12.5 9.7875 8.01 6.77083 5.52 
29.65 15.1125 10.1917 7.76875 6.34 5.37083 4.38 
30.125 15.35 10.5 8.11875 6.74 5.7875 4.86667 
20.525 10.6 7.25 5.53125 4.53 3.9 3.26667 
10.275 5.875 4.21667 3.50625 3.08 2.72917 2.37333 
3.2 1.9 1.50833 1.39375 1.28 1.22083 1.15667 
14.925 7.975 5.675 4.58125 3.905 3.46667 3.00333 
4 2.575 2.025 1.76875 1.605 1.475 1.32667 
40.9 21.1625 14.5583 11.1562 9.03 7.625 6.19667 
31.9 16.425 11.3083 8.775 7.17 6.09583 4.99667 
29.2 15.0625 10.4333 8.0125 6.56 5.6875 4.79 
36.5 18.5625 12.6417 9.6625 7.995 6.86667 5.64667 
41.525 21.175 14.4917 11.1062 9.045 7.7375 6.44333 
34.9 17.725 12.05 9.2 7.61 6.51667 5.47 
21.475 11.0375 7.55 5.81875 4.79 4.0875 3.41667 
13.95 7.625 5.49167 4.43125 3.725 3.27083 2.84667 
33.6 17.2875 11.85 9.10625 7.465 6.375 5.24667 
22.175 11.55 7.80833 5.9 4.8 4.07917 3.33667 
36.25 18.7375 12.9167 9.9 8.135 6.94167 5.78 
11.55 6.2625 4.55833 3.675 3.11 2.73333 2.44333 
4.675 2.9875 2.475 2.075 1.79 1.6375 1.53 
20.65 10.8 7.58333 5.9625 4.92 4.3375 3.64 
26.275 13.55 9.45833 7.40625 6.09 5.15833 4.28333 
46.025 23.5375 15.9667 12.1625 9.9 8.40417 6.81333 
3.475 2.0875 1.55833 1.4625 1.41 1.33333 1.29 
26.55 14.025 9.66667 7.55 6.22 5.3125 4.41 
24.775 12.5875 8.43333 6.33125 5.075 4.22917 3.38333 
3.3 2.1125 1.58333 1.2875 1.08 0.941667 0.813333 
20.725 10.8125 7.56667 5.75 4.725 3.9875 3.32667 
33.5 16.9625 11.4 8.59375 6.885 5.74167 4.60333 
29.325 15.1875 10.525 8.13125 6.675 5.69583 4.77333 
18.325 9.4625 6.4 4.8625 3.92 3.325 2.75667 
15.95 8.4625 5.86667 4.575 3.78 3.23333 2.72 
18.7 9.6375 6.71667 5.2375 4.38 3.78333 3.16 
19.8 10.35 7.08333 5.50625 4.575 3.90833 3.22667 
21.5 11.125 7.575 5.7625 4.66 3.9375 3.19 
47.65 24.225 16.425 12.5187 10.175 8.57917 6.99 
31.925 16.6375 11.5167 8.8625 7.135 6.01667 4.94 
31.675 16.525 11.35 8.6875 7.12 6.05 4.99 
15.175 8.05 5.8 4.625 3.92 3.43333 2.93333 
43.6 22.2125 14.8417 11.1875 9.04 7.58333 6.09333 
13.725 7.1 4.83333 3.6875 2.995 2.5875 2.21667 
26.875 13.55 9.18333 7.01875 5.775 4.9 3.99667 
24.1 12.3125 8.44167 6.50625 5.34 4.57083 3.76 
16.8 8.875 6.275 4.93125 4.125 3.51667 2.87667 
22.275 11.45 7.95833 6.16875 5.09 4.375 3.60333 
31.175 15.5875 10.3917 7.79375 6.235 5.19583 4.15667 
47.05 23.8375 16.1333 12.2812 10.01 8.43333 6.88333 
23.275 12.1875 8.44167 6.54375 5.375 4.61667 3.82333 
17.925 9.3625 6.48333 4.9875 4.145 3.60833 3.04667 
23.975 12.1375 8.24167 6.26875 5.095 4.30417 3.50333 
35.775 18.325 12.5083 9.61875 7.975 6.81667 5.65667 
30.5 15.2875 10.1917 7.64375 6.115 5.09583 4.07667 
6.45 3.3 2.25833 1.70625 1.405 1.21667 1.01333 
19.95 10.2625 6.925 5.25625 4.25 3.575 2.89 
17.525 9.1625 6.51667 5.10625 4.27 3.725 3.17 
12.625 6.4625 4.4 3.35625 2.76 2.35417 1.93667 
13.975 7.1875 4.925 3.76875 3.105 2.6625 2.27333 
2.125 1.5 1.28333 1.2 1.055 0.995833 0.926667 
21.5 11.1375 7.725 6.03125 5.08 4.40833 3.72333 
27 14.1375 9.74167 7.49375 6.125 5.24167 4.36333 
24.25 12.5125 8.63333 6.70625 5.5 4.6625 3.81333 
5.75 3.2375 2.43333 2.025 1.74 1.49583 1.29 
23.5 12.175 8.475 6.575 5.41 4.65 3.95333 
6.175 3.925 3.06667 2.5625 2.26 2.0625 1.81667 
35.025 17.9625 12.2 9.29375 7.575 6.38333 5.18333 
39.175 19.7625 13.2917 10.0375 8.065 6.7625 5.47333 
24.4 12.6125 8.68333 6.7625 5.57 4.7875 3.99667 
11.7 6.3375 4.55 3.56875 3.015 2.58333 2.15333 
37.9 19.0625 12.7917 9.64375 7.755 6.4875 5.2 
27.125 14.2625 9.74167 7.53125 6.185 5.2125 4.30333 
37.1 19.025 12.925 9.9875 8.165 6.99167 5.78667 
12.45 6.675 4.74167 3.68125 3.035 2.62917 2.2 
7.025 3.8625 2.86667 2.39375 2.09 1.87917 1.65667 
31.65 15.95 10.725 8.1625 6.615 5.5625 4.49333 
19.825 10.6625 7.40833 5.725 4.685 3.99167 3.35667 
3.8 2.5125 2.05833 1.825 1.695 1.57917 1.46 
12.275 6.5125 4.49167 3.46875 2.835 2.425 1.96667 
17.1 8.8 6.04167 4.71875 3.89 3.3625 2.88333 
6.65 3.875 2.98333 2.50625 2.12 1.82917 1.52667 
5.825 3.3 2.41667 1.93125 1.65 1.475 1.28 
5.9 3.725 2.94167 2.45625 2.135 1.875 1.75 
5.7 3.4875 2.65833 2.3125 2.03 1.82083 1.56667 
9.525 5.3 3.925 3.23125 2.8 2.45 2.08333 
28.675 14.6375 9.95 7.53125 6.085 5.16667 4.25 
22.1 11.3625 7.95 6.39375 5.38 4.64167 3.93 
9.7 5.45 4.05 3.34375 2.92 2.55 2.16 
23.375 12.475 8.61667 6.61875 5.46 4.6875 3.93333 
46.5 23.85 16.0167 12.1562 9.835 8.24583 6.66333 
25.675 13.475 9.24167 7.10625 5.785 4.87083 3.97667 
19.025 10.025 6.975 5.425 4.545 3.92917 3.30667 
20.075 10.4875 7.30833 5.79375 4.785 4.09583 3.38 
5.55 3.275 2.44167 1.975 1.765 1.64583 1.52333 
21.5 10.9625 7.425 5.625 4.55 3.84167 3.14 
8.05 4.5625 3.55 3 2.595 2.35 2.08333 
36 18.3875 12.5333 9.54375 7.78 6.64583 5.49667 
1.2 1.175 1.09167 1.10625 1.155 1.14167 1.10333 
33.8 17.325 11.8 9.10625 7.49 6.45417 5.36667 
28.375 14.65 10.1083 7.8625 6.515 5.52917 4.57667 
23 12 8.20833 6.28125 5.145 4.3625 3.63 
39.8 20.2625 13.6417 10.3062 8.28 6.91667 5.54667 
2.775 1.8875 1.55 1.375 1.305 1.24167 1.21667 
31.075 15.8375 10.7333 8.275 6.74 5.725 4.73 
4.775 2.8375 2.15 1.83125 1.605 1.45 1.32 
6.95 4.1875 3.11667 2.65 2.29 2.02917 1.79667 
24.625 12.65 8.59167 6.74375 5.59 4.8125 4.01667 
38.1 19.325 13.0417 9.9875 8.15 6.85417 5.57667 
17.775 9.225 6.26667 4.79375 3.975 3.44167 2.89 
31.55 16.55 11.3333 8.68125 7.085 5.96667 4.93333 
31.975 16.2875 11.05 8.45625 6.925 5.8625 4.8 
17.55 8.775 5.85 4.3875 3.51 2.925 2.34 
35.125 17.7625 11.9667 9.10625 7.36 6.17083 5.02 
57.925 29.125 19.4167 14.5625 11.65 9.70833 7.76667 
3.5 2.325 1.91667 1.6 1.4 1.32917 1.26 
2.875 1.8375 1.51667 1.28125 1.095 0.979167 0.87 
13.375 6.9625 4.81667 3.75625 3.165 2.825 2.45667 
42.025 21.0875 14.0917 10.6375 8.52 7.13333 5.73333 
24.85 12.75 8.59167 6.4875 5.28 4.4625 3.60667 
13.65 7.3875 5.36667 4.36875 3.735 3.31667 2.84333 
3.675 2.1375 1.55833 1.2625 1.06 0.9125 0.786667 
12 6.325 4.575 3.73125 3.16 2.77083 2.37667 
19.825 10.4 7.15 5.49375 4.405 3.675 2.95 
21.1 11.125 7.69167 5.95 4.9 4.175 3.47667 
2.8 1.75 1.30833 1.19375 1.22 1.19583 1.16667 
32.6 16.3375 10.9167 8.19375 6.56 5.47917 4.38667 
34.575 17.925 12.3167 9.46875 7.84 6.72083 5.58 
18.85 9.775 6.58333 5.03125 4.125 3.50833 2.87 
25.45 13.2375 9.23333 7.15625 5.88 5.00833 4.12333 
29.075 15.0125 10.225 7.79375 6.31 5.325 4.36333 
40.95 20.7 13.9333 10.5125 8.47 7.10833 5.77333 
35.225 18 12.2833 9.375 7.635 6.4625 5.25667 
24.925 12.7375 8.66667 6.5875 5.34 4.50833 3.70333 
3.675 2.5375 2.20833 1.8375 1.72 1.625 1.57 
30.75 15.575 10.4667 7.95625 6.405 5.34167 4.27333 
38.55 19.525 13.1 9.86875 7.935 6.64583 5.34 
10.55 6 4.45 3.55 3.05 2.7125 2.37 
16.825 8.9875 6.275 4.90625 4.07 3.50833 2.90667 
19.9 10.475 7.25833 5.64375 4.74 4.09167 3.45 
26.8 13.45 8.96667 6.725 5.38 4.48333 3.58667 
23.5 12.175 8.4 6.44375 5.195 4.3625 3.54667 
32.625 16.775 11.5167 8.79375 7.25 6.20833 5.20667 
1.45 1.4 1.30833 1.1875 1.125 1.10417 1.06 
33.6 17.2625 11.6333 8.90625 7.31 6.25833 5.17 
2.875 1.8625 1.43333 1.24375 1.15 1.17917 1.16 
31.2 15.6 10.4 7.8 6.24 5.2 4.16 
18.775 9.4875 6.40833 4.8375 3.885 3.2375 2.6 
23.35 12.0875 8.51667 6.5875 5.41 4.675 3.91667 
10.8 5.825 4.20833 3.25625 2.665 2.26667 1.91 
14.35 7.525 5.30833 4.19375 3.49 3.04167 2.59667 
33.55 17.3875 11.8 8.8875 7.195 6.04583 4.86333 
36.25 18.575 12.7 9.81875 8.05 6.97083 5.78 
10.75 5.8 4.10833 3.325 2.81 2.44583 2.1 
2.05 1.7375 1.69167 1.58125 1.485 1.375 1.19667 
14.35 7.5875 5.375 4.26875 3.61 3.11667 2.60333 
34.325 17.45 12.0083 9.225 7.615 6.50833 5.30667 
29.925 15.425 10.6417 8.1875 6.73 5.7125 4.68667 
17.55 9.0875 6.21667 4.875 4.04 3.53333 3.01667 
33.3 16.9875 11.5833 8.94375 7.41 6.32083 5.25 
17.3 8.825 6.04167 4.66875 3.855 3.28333 2.76667 
10 5.4875 3.99167 3.2625 2.85 2.59583 2.29 
21.975 11.5125 7.95 6.2125 5.14 4.375 3.63 
28.775 15.0375 10.3917 8.03125 6.575 5.5875 4.57333 
39.775 20.375 13.9833 10.8 8.83 7.52083 6.19667 
29.575 15.1625 10.3833 7.875 6.34 5.28333 4.22667 
36.475 18.2375 12.1667 9.13125 7.31 6.09583 4.87667 
30.175 15.2125 10.275 7.75625 6.22 5.19167 4.16667 
35.775 18.5125 12.6417 9.74375 8.01 6.86667 5.67 
16.775 8.7875 6.125 4.78125 3.98 3.4 2.86333 
27.175 13.8875 9.56667 7.34375 6.04 5.1375 4.24667 
30.875 15.7125 10.8 8.4 6.955 6.00833 4.98667 
34.05 17.2375 11.5833 8.725 6.985 5.825 4.66 
34.075 17.4375 11.925 9.23125 7.585 6.425 5.3 
25.025 12.9375 8.80833 6.9 5.75 4.93333 4.04 
24.225 12.5 8.56667 6.5375 5.4 4.62917 3.82667 
34.65 17.75 12.0917 9.2625 7.635 6.62083 5.52333 
23.8 12.3 8.375 6.4125 5.195 4.41667 3.59667 
9.675 5.375 3.91667 3.20625 2.795 2.52083 2.23333 
14.5 7.55 5.16667 3.9875 3.255 2.75833 2.3 
30.4 15.475 10.525 8.00625 6.495 5.46667 4.42333 
27.95 14.2375 9.65 7.3 5.91 4.99167 4.01333 
30.475 15.4875 10.5167 8.15 6.755 5.77917 4.82 
32.875 16.6 11.175 8.38125 6.705 5.6 4.48333 
36.25 18.45 12.6083 9.64375 7.855 6.72083 5.58667 
42.55 21.6875 14.8 11.3937 9.37 7.99583 6.6 
25.775 13.0625 8.79167 6.6875 5.44 4.67083 3.83 
31.175 16.1 11.0417 8.5625 7.05 6.00833 5.01 
16.625 8.6375 5.875 4.49375 3.685 3.15 2.56333 
42.05 21.4125 14.45 10.9937 8.925 7.52917 6.13 
3.675 2.275 1.85 1.70625 1.67 1.5875 1.47 
39.55 20.3 13.8167 10.5625 8.655 7.43333 6.11667 
19.85 10.175 6.96667 5.28125 4.26 3.57083 2.90333 
39.7 20.4875 13.9667 10.7687 8.805 7.4625 6.12333 
14.4 7.9625 5.70833 4.6 3.855 3.33333 2.82333 
46.9 24.0375 16.4333 12.5687 10.225 8.575 6.98 
10.8 5.8375 4.075 3.15625 2.61 2.24583 1.89 
52.625 26.9625 18.45 14.15 11.57 9.80417 8.00333 
29.85 15.3 10.4833 8.09375 6.675 5.7 4.70667 
15.8 7.9125 5.275 3.95625 3.165 2.6375 2.11 
23.05 11.6375 7.75833 5.81875 4.655 3.87917 3.10333 
8.45 4.7625 3.54167 2.93125 2.595 2.34583 2.09 
33.725 17.0875 11.475 8.64375 6.98 5.87083 4.72 
35.075 17.8625 12.225 9.3875 7.64 6.475 5.35667 
21.875 10.9625 7.34167 5.53125 4.44 3.72083 2.99 
21.15 10.9625 7.56667 5.9125 4.955 4.24583 3.52333 
47.575 24.375 16.6083 12.6125 10.27 8.66667 7.09333 
1.9 1.3125 1.25833 1.2 1.15 1.02917 0.886667 
14.8 7.85 5.41667 4.1875 3.545 3.10833 2.62 
23.8 12.7125 8.775 6.90625 5.755 4.96667 4.13 
32.075 16.2625 10.975 8.36875 6.775 5.70833 4.62 
20.925 11.05 7.69167 5.96875 4.975 4.35833 3.69333 
18.075 9.3125 6.38333 4.90625 4.045 3.48333 2.90667 
3.475 2.1875 1.65 1.45625 1.325 1.275 1.19667 
40.4 20.225 13.5 10.1375 8.11 6.75833 5.40667 
38.55 19.6125 13.2417 10.0437 8.11 6.8 5.48333 
23.85 12.3875 8.61667 6.69375 5.5 4.69583 3.95667 
32.575 16.6125 11.4583 8.90625 7.425 6.44167 5.33667 
19.8 10.2625 6.95 5.2375 4.24 3.56667 2.89 
41.7 20.9625 14.0083 10.5812 8.48 7.0875 5.68667 
28.475 14.5375 9.70833 7.3 5.84 4.86667 3.89333 
50.95 26.125 17.7417 13.6125 11.12 9.36667 7.64 
52.35 26.6125 18.2333 13.975 11.37 9.65417 7.91333 
7.125 4.05 2.95 2.31875 1.955 1.73333 1.47333 
53.625 27.3125 18.45 14.0937 11.435 9.62917 7.81667 
45.35 23 15.6167 11.9687 9.655 8.17917 6.63333 
30.225 15.5125 10.5167 7.98125 6.415 5.375 4.31667 
35.3 18.25 12.525 9.63125 7.94 6.75833 5.60333 
54.6 27.85 18.9 14.4187 11.74 10 8.14 
7.075 3.8875 2.96667 2.51875 2.22 2.00417 1.72667 
28.35 14.3125 9.58333 7.20625 5.765 4.8125 3.85333 
14.5 7.8875 5.65 4.50625 3.79 3.32917 2.97333 
27.4 13.75 9.2 6.95 5.61 4.69167 3.75333 
59.25 30.025 20.1083 15.125 12.12 10.1167 8.1 
38.8 19.7375 13.275 10.1375 8.285 7.025 5.74667 
8.1 4.6625 3.45833 2.925 2.59 2.35417 2.14333 
39.775 20.1375 13.575 10.2562 8.255 6.9125 5.55667 
20.1 10.45 7.38333 5.79375 4.82 4.16667 3.59667 
23.475 11.975 8.075 6.075 4.88 4.07917 3.3 
22.275 11.775 8.14167 6.2875 5.155 4.38333 3.64333 
22.975 11.925 8.275 6.4125 5.345 4.56667 3.75667 
32.9 16.6625 11.1833 8.4375 6.78 5.67083 4.55 
28.2 14.475 9.70833 7.28125 5.835 4.87083 3.89667 
23.175 11.75 7.90833 5.9875 4.815 4.03333 3.22667 
20.025 10.1125 6.825 5.1375 4.125 3.44167 2.77667 
4.5 2.6375 2.15 1.86875 1.66 1.55 1.46667 
28.825 14.4125 9.60833 7.20625 5.765 4.80417 3.84333 
52.35 26.7875 18.125 13.775 11.335 9.65 7.85667 
31.475 16.2125 11.1917 8.675 7.16 6.075 4.95667 
52.45 26.6125 18.0167 13.6375 11.08 9.40417 7.66667 
38.875 19.5875 13.2 10 8.06 6.80417 5.53667 
28.65 14.525 9.975 7.78125 6.435 5.47083 4.49 
17.25 9.0125 6.34167 5.00625 4.1 3.48333 2.87667 
24.075 12.55 8.48333 6.6 5.53 4.77917 3.95 
45.775 23.2375 15.75 12.0437 9.81 8.25833 6.75333 
36.675 18.5875 12.475 9.36875 7.53 6.29583 5.05333 
26.875 13.9875 9.58333 7.43125 6.14 5.23333 4.27 
42.575 21.7125 14.7833 11.2937 9.23 7.74167 6.21667 
3.3 2.15 1.8 1.625 1.44 1.3375 1.28667 
44.7 22.9875 15.4667 11.6562 9.345 7.7875 6.23667 
38.2 19.4 13 9.80625 7.865 6.575 5.28667 
28.6 14.775 10.15 7.8625 6.475 5.55833 4.65667 
17.05 9.0625 6.375 5.05 4.225 3.65833 3.08667 
2.7 1.8375 1.575 1.4375 1.32 1.22083 1.11667 
19.125 9.8375 6.90833 5.35625 4.48 3.875 3.25667 
3.125 2.05 1.76667 1.50625 1.37 1.2625 1.16 
18.425 9.925 6.95833 5.44375 4.58 3.95417 3.30667 
38.25 19.4875 13.2 9.98125 8.005 6.67917 5.36 
38.025 19.225 12.9167 9.7125 7.78 6.5 5.21333 
56.425 28.2125 18.8083 14.1062 11.285 9.40417 7.52333 
2.725 1.7875 1.53333 1.43125 1.355 1.29583 1.26 
31.775 16.3125 11.2667 8.80625 7.245 6.13333 5.00667 
9.325 5.2125 3.84167 3.225 2.825 2.50417 2.14333 
9.05 4.7 3.30833 2.58125 2.155 1.85833 1.56 
25.725 13.1375 8.94167 6.8625 5.62 4.77083 3.96333 
4.3 2.575 2.04167 1.79375 1.71 1.65417 1.55 
11.2 5.9625 4.18333 3.275 2.745 2.42917 2.14333 
28.175 14.4375 9.73333 7.33125 5.875 4.9 3.96333 
31.4 16.2125 11.1833 8.675 7.125 6.0625 5.06667 
23.525 12.275 8.35833 6.39375 5.15 4.35417 3.53667 
12.4 6.55 4.775 3.8125 3.25 2.9125 2.55667 
52.175 26.4625 17.9417 13.6812 11.08 9.36667 7.69333 
29.65 15.125 10.3167 7.89375 6.485 5.54167 4.61 
43.575 22.0625 14.775 11.1 8.925 7.47917 6.01333 
16.9 8.95 6.225 4.8375 4.015 3.47917 3.00667 
13.525 6.85 4.575 3.43125 2.745 2.2875 1.83 
10.775 6.0375 4.425 3.6375 3.115 2.70833 2.28333 
17.425 9.125 6.28333 4.8625 4.01 3.41667 2.88 
46.925 23.9125 16.175 12.1812 9.765 8.15 6.53333 
31.15 16.4625 11.3167 8.71875 7.11 6.00417 4.93333 
45.65 23.2 15.9583 12.1875 9.89 8.44583 6.93333 
27.95 14.5 10.0083 7.6875 6.355 5.4875 4.56 
3.325 2.0375 1.73333 1.51875 1.39 1.27917 1.19333 
40.95 20.85 14.175 10.8125 8.78 7.37917 6.02667 
31.25 16.1625 11.1 8.5625 6.995 5.91667 4.82667 
43.85 22.3 15.05 11.3625 9.18 7.7 6.21 
12.35 6.4625 4.375 3.3625 2.755 2.36667 1.98 
25.4 13.175 8.95833 6.76875 5.48 4.6 3.73 
5.825 3.525 2.55 2.06875 1.79 1.5625 1.34 
22.15 11.5 7.85833 6.0875 5.05 4.325 3.54 
7.075 4.075 2.98333 2.525 2.31 2.08333 1.89667 
32.075 16.4375 11.2417 8.58125 7.085 6.1375 5.14 
25.975 13.275 8.975 6.8125 5.545 4.7375 3.88667 
22.675 11.55 7.78333 5.88125 4.745 3.9875 3.20667 
8.325 4.7625 3.45833 2.88125 2.53 2.25417 1.99667 
3.85 2.4375 1.9 1.625 1.47 1.33333 1.17333 
20.775 10.7 7.33333 5.60625 4.595 3.9 3.21 
5.45 3.125 2.55833 2.21875 1.9 1.69167 1.55 
32.35 16.425 11.05 8.35625 6.725 5.625 4.52667 
43.125 22.0125 15.2 11.7125 9.535 8.0875 6.67 
38.75 19.775 13.4 10.2187 8.25 6.92917 5.60667 
2.075 1.4375 1.28333 1.3125 1.26 1.175 1.03333 
45.95 23.4625 16.0583 12.3 9.96 8.39583 6.79 
6.775 3.9125 2.81667 2.325 2.015 1.8125 1.64 
13.05 6.9125 4.76667 3.68125 3 2.5375 2.09333 
33.625 17.45 12 9.1875 7.51 6.43333 5.43 
35.4 18.0125 12.1583 9.28125 7.58 6.39583 5.18 
4.225 2.525 2.1 1.80625 1.655 1.51667 1.43 
36.925 18.85 12.9 10.0125 8.16 6.90417 5.63 
22.45 12.0125 8.475 6.725 5.61 4.82083 4.04667 
36.05 18.1875 12.275 9.225 7.39 6.17083 4.95333 
24.025 12.55 8.70833 6.74375 5.555 4.75833 3.92333 
9.575 5.25 3.84167 3.1 2.68 2.39583 2.1 
14.55 7.6 5.275 4.0875 3.34 2.85 2.39667 
15.35 7.9375 5.45833 4.325 3.565 3.04167 2.57 
3.75 2.2375 1.70833 1.48125 1.365 1.325 1.26667 
44.625 22.7 15.4917 11.825 9.695 8.22917 6.75667 
25.25 13.275 9.225 7.19375 5.93 5.0875 4.18667 
31.525 16.2625 11.175 8.58125 7.045 6.00833 4.87667 
43.825 21.9125 14.6083 10.9875 8.79 7.32917 5.87333 
9.475 5.35 3.875 3.1 2.6 2.27917 2.04 
8.25 4.8375 3.6 2.95 2.5 2.20417 1.85 
42.1 21.3875 14.5333 11.0625 8.995 7.59583 6.14333 
9.4 5.3875 4.075 3.2625 2.815 2.4625 2.13333 
28.275 14.5875 10.075 7.85 6.5 5.57917 4.62667 
32.7 16.775 11.3833 8.66875 7.015 5.90417 4.78 
16.45 8.6875 6.09167 4.73125 3.865 3.3 2.71667 
28.275 14.4 9.63333 7.2625 5.855 4.9 3.94667 
10.025 5.55 4.025 3.2625 2.8 2.5 2.16333 
34.025 17.4625 11.8583 9.11875 7.545 6.48333 5.45667 
16.925 8.85 6.10833 4.875 4.09 3.50833 2.92 
36.225 18.425 12.4417 9.49375 7.78 6.56667 5.31333 
52.35 26.6375 18.0667 13.8187 11.285 9.4875 7.68667 
40.125 20.3625 13.675 10.3062 8.28 6.925 5.57 
22.5 11.3 7.53333 5.65 4.52 3.76667 3.01333 
35.725 18.2375 12.475 9.6375 7.925 6.73333 5.56667 
43.925 22.275 15.2333 11.6125 9.435 7.95417 6.46 
37.525 19.0625 13.05 10.0875 8.21 6.90833 5.63 
24.2 12.55 8.66667 6.66875 5.535 4.8 4.07333 
22.575 11.6125 7.99167 6.23125 5.125 4.41667 3.66667 
14.4 7.4875 5.11667 3.89375 3.215 2.7625 2.29333 
7.85 4.4625 3.25 2.65 2.31 2.0625 1.81333 
4.65 2.7125 2.05833 1.76875 1.565 1.4625 1.38333 
33.25 17.1625 11.8667 9.15625 7.6 6.5375 5.4 
4.075 2.675 2.09167 1.76875 1.56 1.4625 1.32667 
34.275 17.3 11.65 8.79375 7.055 5.90417 4.76333 
24.225 12.825 8.73333 6.73125 5.49 4.62083 3.79667 
51.25 26.0875 17.7667 13.475 10.86 9.09583 7.37 
33.075 16.85 11.2833 8.5 6.89 5.83333 4.68333 
28.525 14.4625 9.825 7.4625 6.075 5.1375 4.22333 
26.2 13.7625 9.51667 7.40625 6.125 5.225 4.37667 
8.825 4.6625 3.29167 2.6125 2.215 1.95417 1.68667 
49.2 24.8625 16.6333 12.5312 10.025 8.35417 6.68333 
9.275 5.2125 3.78333 3.0625 2.64 2.39167 2.11667 
53.025 27.1625 18.3417 13.975 11.265 9.475 7.64 
17 8.9625 6.225 4.96875 4.11 3.55417 3.02667 
23.3 12.25 8.58333 6.6875 5.475 4.66667 3.87333 
42.65 21.5375 14.65 11.1625 9.015 7.6125 6.21 
50.8 25.6625 17.1167 12.8375 10.27 8.55833 6.84667 
38.85 19.775 13.5583 10.4125 8.555 7.3125 6.04333 
18.925 9.9 6.93333 5.31875 4.33 3.67917 3.01667 
33.85 17.575 12.0417 9.225 7.57 6.44167 5.30333 
22.1 11.825 8.03333 6.18125 5.065 4.29167 3.52667 
37.7 19.35 13.1083 9.93125 8.02 6.74167 5.44667 
14.625 7.8375 5.475 4.2375 3.525 3.02083 2.52333 
21.375 10.9125 7.45833 5.88125 4.9 4.24167 3.54333 
46.875 23.45 15.6333 11.725 9.38 7.81667 6.25333 
23.775 12.0125 8.03333 6.03125 4.835 4.04167 3.26333 
7.225 3.9 2.81667 2.4 2.11 1.88333 1.65667 
42.925 21.8125 14.9083 11.425 9.305 7.875 6.44667 
31.375 15.9625 10.7583 8.0875 6.52 5.50833 4.58333 
2.875 1.7125 1.39167 1.2875 1.165 1.10417 1.02333 
42.15 21.45 14.5667 11.075 8.995 7.59167 6.14 
49.425 25.475 17.4 13.3687 10.915 9.24167 7.54333 
9.425 5.1875 3.69167 2.95 2.48 2.17917 1.93 
13.7 7.3875 5.31667 4.1875 3.515 3.0625 2.61667 
21.175 10.8 7.31667 5.5375 4.465 3.74583 3.02333 
7.85 4.4625 3.50833 2.975 2.61 2.37083 2.09 
45.9 23.4875 16.0333 12.2562 9.94 8.34167 6.82667 
24.825 12.8375 8.73333 6.65625 5.36 4.475 3.61333 
34.8 18.025 12.5083 9.65 7.92 6.77083 5.61667 
19.25 9.975 6.90833 5.45625 4.595 3.99583 3.38333 
41.425 20.8375 13.8917 10.4187 8.335 6.94583 5.55667 
3.2 1.925 1.51667 1.425 1.35 1.27917 1.19667 
20.075 10.625 7.43333 5.8375 4.81 4.12917 3.48 
25.75 13.4625 9.3 7.26875 6.025 5.1875 4.36333 
30.05 15.025 10.0167 7.5125 6.01 5.00833 4.00667 
30.5 15.3375 10.3 7.74375 6.21 5.2125 4.19333 
22.375 11.9125 8.375 6.5375 5.44 4.69167 3.83333 
13.825 6.925 4.61667 3.4625 2.77 2.30833 1.84667 
50.8 25.9375 17.6083 13.475 11.015 9.37917 7.80667 
49.175 25.125 17.025 13.0062 10.645 9.025 7.35667 
30.2 15.525 10.6167 8.2125 6.765 5.84167 4.88 
24.5 12.25 8.16667 6.125 4.9 4.08333 3.26667 
22.75 11.8625 8.25 6.44375 5.395 4.7 3.92667 
29.25 14.6375 9.75833 7.31875 5.855 4.87917 3.90333 
3.675 2.2125 1.94167 1.75625 1.63 1.51667 1.36 
13.575 7.2 4.925 3.81875 3.11 2.625 2.18 
2.875 1.9125 1.625 1.425 1.395 1.40833 1.37 
7.925 4.5375 3.35833 2.7875 2.445 2.23333 2.01 
35.725 18.175 12.4667 9.63125 7.845 6.67917 5.46 
8.1 4.75 3.68333 3.075 2.68 2.41667 2.07 
37.825 19.1625 12.8417 9.69375 7.775 6.49583 5.22333 
48.4 24.825 16.8833 12.8875 10.425 8.775 7.16 
30.7 15.775 10.675 8.1375 6.595 5.55 4.51333 
14.525 7.2625 4.86667 3.6875 2.965 2.47083 1.97667 
22.4 11.9 8.31667 6.39375 5.27 4.54583 3.77667 
32.5 16.6 11.2167 8.46875 6.785 5.68333 4.58333 
2.225 1.5125 1.38333 1.3125 1.275 1.18333 1.07333 
43.1 22.0625 15.0667 11.6187 9.495 8.00833 6.49667 
33.375 17.125 11.6 8.875 7.35 6.29583 5.16333 
24.875 12.825 8.81667 6.80625 5.65 4.87083 4.05667 
25.9 13.4875 9.2 7.14375 5.89 5 4.11333 
50.3 25.675 17.475 13.275 10.795 9.13333 7.42333 
2.975 1.7875 1.38333 1.225 1.21 1.20833 1.17667 
33.625 17.1875 11.6333 8.9375 7.33 6.20833 5.07 
27.45 13.9 9.35 7.14375 5.805 4.85 3.89 
40 20.3375 13.8 10.4937 8.585 7.35833 6.07667 
26.25 13.4875 9.09167 6.84375 5.48 4.60833 3.71333 
13.325 6.9125 4.74167 3.64375 2.95 2.47917 2.01 
33.125 16.7875 11.3083 8.56875 6.86 5.71667 4.57333 
24.85 12.45 8.3 6.225 4.98 4.15 3.32 
44.275 22.7375 15.3583 11.7375 9.51 8.03333 6.57333 
21.1 10.85 7.425 5.65 4.56 3.8375 3.11 
6.65 3.8625 2.875 2.375 2.15 1.95 1.70667 
11.4 6.225 4.43333 3.50625 2.92 2.5125 2.11333 
44.9 22.725 15.275 11.5437 9.34 7.82917 6.30333 
24.675 12.6125 8.59167 6.65625 5.515 4.73333 3.87333 
47.075 23.8875 16.0833 12.1062 9.685 8.07083 6.45667 
39.175 19.875 13.35 10.1 8.18 6.9 5.57333 
35.4 18.2125 12.425 9.5625 7.775 6.6125 5.49 
33.5 16.925 11.375 8.6 6.9 5.7625 4.61333 
24.575 12.3125 8.225 6.16875 4.935 4.1125 3.29 
35.075 17.5375 11.7083 8.7875 7.03 5.85833 4.69 
17.175 8.85 6.03333 4.65 3.8 3.25 2.69 
55.875 28.3375 19.075 14.45 11.585 9.65417 7.72333 
26.625 13.4875 9.03333 6.825 5.53 4.63333 3.73667 
49.3 25.1375 17.0917 12.9937 10.575 8.9375 7.28667 
20 10.4625 7.21667 5.5375 4.525 3.85417 3.13333 
22.45 11.5875 8.00833 6.1375 5.005 4.26667 3.51 
39.425 20.25 13.6167 10.275 8.25 6.89167 5.53 
44.55 22.7 15.2667 11.5125 9.28 7.74583 6.21333 
26.55 13.85 9.49167 7.31875 6.08 5.20833 4.34 
34.85 17.9625 12.2167 9.225 7.435 6.2375 5.04 
36.6 18.8875 12.8667 9.85 8.01 6.77083 5.55 
2.95 1.8375 1.45833 1.38125 1.28 1.22917 1.19667 
37.125 18.7 12.5333 9.44375 7.57 6.3375 5.09333 
20.425 10.5125 7.13333 5.425 4.375 3.675 2.97667 
42.45 21.225 14.15 10.6125 8.49 7.075 5.66 
17 9.05 6.45 5.06875 4.245 3.71667 3.23 
47.875 24.45 16.675 12.8062 10.445 8.85833 7.30333 
12.775 6.6375 4.65833 3.73125 3.225 2.81667 2.37667 
41.075 21.0375 14.3583 11 9.08 7.75417 6.41333 
20.9 10.8 7.35 5.6 4.58 3.89583 3.18667 
30.825 15.9 10.9083 8.3875 6.9 5.85417 4.79333 
36.675 18.8625 12.9 9.8625 7.945 6.67083 5.38667 
35.5 18.2625 12.3917 9.40625 7.615 6.37917 5.14 
31.125 16.025 10.9667 8.4375 6.885 5.79583 4.73 
24.15 12.45 8.575 6.69375 5.46 4.6125 3.79 
25.325 13.05 8.825 6.725 5.455 4.6 3.75333 
3.95 2.7125 2.175 1.85625 1.705 1.62083 1.43333 
29.45 15.1375 10.325 7.975 6.55 5.64167 4.69 
9.4 5.425 4.01667 3.31875 2.91 2.5375 2.13667 
8.875 4.6875 3.48333 2.8875 2.57 2.34167 2.08 
20 10.4375 7.23333 5.70625 4.755 4.06667 3.45333 
42.175 21.7 14.75 11.2125 9.09 7.62917 6.16333 
33 16.925 11.6667 8.9875 7.375 6.30417 5.26333 
14.275 7.3375 5.05833 3.8875 3.21 2.73333 2.26 
44.175 22.3875 15.1583 11.4937 9.31 7.82083 6.30667 
49.5 24.8 16.6 12.575 10.145 8.5 6.84 
40.05 20.5375 13.875 10.4625 8.38 7.00417 5.60333 
25.8 13.0125 8.80833 6.66875 5.375 4.49583 3.60333 
2.675 1.8125 1.50833 1.35625 1.23 1.17917 1.12333 
19.625 10.2 7.08333 5.5125 4.57 3.97917 3.33 
33.125 16.6875 11.225 8.50625 6.83 5.71667 4.61667 
5.375 3.1625 2.53333 2.21875 1.99 1.85417 1.73333 
3.55 2.3125 1.85 1.6125 1.505 1.4625 1.43333 
50.7 25.4625 17 12.8 10.255 8.54583 6.83667 
11 6.0625 4.4 3.64375 3.09 2.6875 2.34333 
46.875 23.875 16.2083 12.4687 10.2 8.675 7.11667 
48.825 25.0125 17.0333 12.9937 10.53 8.90417 7.21667 
30.05 15.625 10.7667 8.2625 6.735 5.69167 4.66 
20.525 10.3375 6.99167 5.35625 4.355 3.65 2.96333 
3.375 2.3625 1.9 1.60625 1.405 1.31667 1.24333 
23.625 12.3375 8.54167 6.75 5.625 4.9125 4.18 
24.225 12.275 8.35833 6.31875 5.06 4.21667 3.37333 
8.5 4.8 3.625 3 2.595 2.2875 1.98667 
16.475 8.725 6.13333 4.79375 3.91 3.3125 2.72667 
10.15 5.65 4.03333 3.29375 2.85 2.60417 2.28333 
5.075 2.85 2.05833 1.64375 1.35 1.175 1.02 
31.025 15.5125 10.3417 7.75625 6.205 5.17083 4.13667 
29.875 15.425 10.75 8.26875 6.85 5.84167 4.89 
22.425 11.5375 7.85 6.0125 4.955 4.1875 3.43333 
8.25 4.6125 3.4 2.8 2.49 2.22917 1.90333 
27.45 14 9.41667 7.1375 5.78 4.90833 3.98 
12.75 7.05 4.975 3.9 3.26 2.83333 2.37 
18.375 10.0375 7.05 5.4625 4.47 3.775 3.11333 
41.425 21.05 14.425 11.125 9 7.55833 6.14333 
20.5 10.7375 7.5 5.8625 4.93 4.27917 3.68667 
27.025 13.9625 9.54167 7.3125 6.025 5.1125 4.19 
41.025 20.975 14.3583 11.0187 9.03 7.70417 6.35 
31.975 16.5 11.3917 8.73125 7.19 6.1375 5.02 
9.8 5.0125 3.48333 2.70625 2.255 1.94167 1.61333 
22.575 11.725 8.15 6.36875 5.24 4.475 3.80667 
32.975 16.775 11.275 8.51875 6.885 5.8 4.71667 
30.4 15.7625 10.8417 8.3625 6.92 5.8875 4.84667 
46.775 23.875 16.1417 12.25 9.835 8.20417 6.59 
23.55 12.1625 8.45833 6.65625 5.525 4.775 3.97667 
31.8 16.2 11.1583 8.70625 7.175 6.10833 5.05333 
13.35 6.8125 4.6 3.5 2.84 2.425 2.03333 
4.925 3 2.41667 2.05 1.845 1.65833 1.5 
32.275 16.2 10.8917 8.23125 6.585 5.4875 4.4 
49.375 24.6875 16.4583 12.3437 9.875 8.22917 6.58333 
30.675 15.55 10.4333 7.8875 6.385 5.39583 4.44333 
7.075 4.4 3.46667 2.9375 2.515 2.29583 2.08 
18.7 9.5375 6.54167 4.975 4.01 3.4 2.81667 
27.475 14.2875 9.85 7.5875 6.24 5.32083 4.34 
22.55 11.7 8.10833 6.2875 5.18 4.475 3.71333 
28.525 14.675 9.95 7.54375 6.095 5.15417 4.21 
31.75 16 10.75 8.06875 6.495 5.42083 4.39667 
58.5 29.575 19.7833 14.85 11.9 9.9375 7.97333 
12.425 6.5625 4.61667 3.6 2.965 2.5625 2.13667 
11.075 5.7875 4.00833 3.09375 2.505 2.12083 1.73667 
32.125 16.0625 10.7083 8.03125 6.425 5.35417 4.28333 
51.95 26.55 18.2333 13.9562 11.33 9.575 7.79667 
47.95 24.2625 16.3083 12.3375 9.985 8.3875 6.77333 
27.375 14.25 10.05 7.8375 6.47 5.54583 4.65333 
30.625 15.575 10.4917 7.90625 6.35 5.3 4.24667 
38.95 19.6625 13.2917 10.1 8.19 6.9375 5.63333 
29.6 15.275 10.5667 8.14375 6.68 5.725 4.82333 
32.425 16.675 11.4333 8.8125 7.24 6.175 5.14 
20.975 11.075 7.775 6.1125 5.06 4.3375 3.69333 
23.85 12.45 8.79167 6.875 5.65 4.82917 3.94 
51.375 26.225 17.7583 13.5562 10.985 9.37917 7.72667 
18.525 10.0125 6.99167 5.48125 4.625 3.98333 3.30667 
26.225 13.5375 9.29167 7.11875 5.775 4.91667 4.09 
33.275 17.275 11.8917 9.15625 7.435 6.30833 5.18 
46.275 23.6625 16.1333 12.2812 9.985 8.4875 6.96333 
36.075 18.7125 13 10.075 8.2 6.9625 5.68667 
43.725 22.0375 14.7 11.025 8.82 7.35 5.88 
20.2 10.7625 7.625 6.05625 5.02 4.375 3.70667 
35.4 17.9875 12.2917 9.475 7.755 6.55 5.33333 
7.725 4.475 3.30833 2.7875 2.51 2.3 2.05 
8.025 4.3625 3.20833 2.61875 2.275 2.00833 1.77333 
37.225 19.3125 13.1667 10.0937 8.22 6.94167 5.68333 
34 17.3 11.6417 8.78125 7.085 5.97083 4.85 
39.675 20.3125 13.7083 10.4187 8.475 7.18333 5.89 
30.3 15.375 10.325 7.81875 6.305 5.32083 4.34 
8.375 4.5375 3.19167 2.53125 2.13 1.85 1.57667 
28.825 14.85 10.2417 7.975 6.635 5.77083 4.84 
8.025 4.375 3.09167 2.44375 2.05 1.77917 1.59 
18.55 9.85 6.88333 5.39375 4.52 3.90833 3.29 
36.7 19 12.9583 9.88125 7.965 6.66667 5.37 
33.65 17.6 12.075 9.26875 7.54 6.3625 5.20333 
2.975 1.825 1.475 1.35625 1.31 1.27083 1.18 
47.075 24.1875 16.5917 12.7125 10.385 8.775 7.1 
35.8 18.275 12.3417 9.2875 7.46 6.21667 4.97333 
11.325 6.35 4.60833 3.81875 3.265 2.8875 2.56 
25 13.1625 9.05833 6.9625 5.7 4.82917 3.97667 
25.2 13.0125 8.84167 6.71875 5.44 4.575 3.68333 
23.8 12.0625 8.13333 6.20625 4.995 4.18333 3.36 
19.7 10.0875 6.825 5.18125 4.21 3.60417 3.01 
27.3 14.15 9.78333 7.525 6.17 5.32083 4.50667 
6.9 4.025 2.98333 2.375 2.025 1.77083 1.55333 
34.175 17.15 11.525 8.6875 6.965 5.8375 4.71 
29.85 15.325 10.5417 8.19375 6.695 5.68333 4.80333 
40.15 20.2125 13.525 10.1437 8.115 6.7625 5.41 
10.2 5.3875 3.73333 2.94375 2.445 2.12083 1.82333 
33.45 17.2375 11.9 9.19375 7.585 6.56667 5.44667 
23.725 12.4 8.49167 6.475 5.265 4.45 3.6 
3.675 2.5375 2.00833 1.825 1.665 1.475 1.29 
21.6 11.5125 8.11667 6.425 5.4 4.72917 4.02 
34.45 17.3375 11.6417 8.76875 7.055 5.89583 4.72 
50.725 25.6625 17.2333 13.05 10.56 8.87083 7.15 
32.925 16.6375 11.1667 8.4625 6.81 5.70833 4.61333 
32.15 16.6375 11.5667 8.88125 7.195 6.14167 5.03333 
23.175 12.0875 8.39167 6.50625 5.315 4.50833 3.69333 
43.55 21.925 14.65 10.9875 8.79 7.325 5.86 
15.05 7.9125 5.46667 4.225 3.5 3.00833 2.57667 
21.65 11.5125 8.06667 6.26875 5.155 4.37917 3.61 
7.825 4.4125 3.29167 2.66875 2.24 2.02083 1.79 
52.6 26.6875 18.05 13.6187 10.92 9.1 7.28 
25.9 13.4125 9.3 7.1875 5.905 5.05 4.23333 
3.025 1.9125 1.59167 1.4 1.345 1.25 1.23 
22.425 11.7875 8.20833 6.3625 5.21 4.44583 3.68667 
6.2 3.6375 2.70833 2.225 2.02 1.89583 1.77 
24.675 12.85 8.86667 6.81875 5.575 4.7375 3.87333 
33.9 17.5125 11.9833 9.0625 7.325 6.17083 4.95 
35.9 18.275 12.3417 9.3125 7.48 6.25417 5.03 
34.975 17.85 12.2667 9.4375 7.7 6.52917 5.43333 
31.725 16.2 11.0417 8.55625 7.09 6.09583 5.06333 
45.275 22.8625 15.4917 11.825 9.65 8.15 6.64 
21.675 11.4625 8.05 6.26875 5.175 4.47083 3.7 
13.4 7.3 5.35 4.3375 3.665 3.22083 2.75 
36.9 18.7 12.5917 9.5 7.64 6.44583 5.22333 
13.65 7.35 5.11667 4.0125 3.365 2.9375 2.5 
24.25 12.25 8.23333 6.2375 5.01 4.20833 3.38 
31.4 16.1875 11.05 8.525 7.005 5.99167 4.93333 
42.15 21.6875 14.75 11.225 9.17 7.80417 6.42667 
39.225 19.975 13.5083 10.2812 8.305 6.9625 5.60667 
21.525 11.2625 7.88333 6.18125 5.2 4.52917 3.82333 
9.45 5.15 3.73333 3.1 2.68 2.38333 2.17 
37.525 19.3625 13.2 10.1 8.23 6.96667 5.71667 
3.55 2.4125 2.03333 1.86875 1.755 1.61667 1.4 
33.825 17.2625 11.7833 8.99375 7.29 6.1875 5.07333 
30.35 15.3625 10.3333 7.80625 6.285 5.27917 4.25667 
6.05 3.8375 3.025 2.55 2.23 2.03333 1.79 
31.05 15.85 10.7917 8.36875 6.945 5.94167 4.95667 
31.45 15.975 10.9 8.325 6.745 5.65 4.61 
33.75 16.95 11.3167 8.49375 6.805 5.675 4.55333 
38.4 19.8125 13.4833 10.2187 8.225 6.88333 5.52667 
9.175 5.05 3.675 2.9875 2.555 2.25833 1.98 
49.925 25.175 16.9333 12.7875 10.335 8.675 6.96333 
14.5 7.9125 5.6 4.31875 3.58 3.0875 2.54333 
48.75 25.05 17.1333 13.1875 10.695 8.98333 7.30667 
18.5 9.3375 6.29167 4.83125 4.03 3.47083 2.93 
20.55 10.6375 7.175 5.4375 4.4 3.675 2.94 
5.675 3.475 2.79167 2.40625 2.105 1.83333 1.55333 
2.55 1.6125 1.4 1.275 1.205 1.12083 1.06667 
34.225 17.2875 11.6083 8.75625 7.035 5.87917 4.74 
13.725 7.25 5.075 3.9875 3.35 2.93333 2.52667 
31.6 16.325 11.3 8.775 7.175 6.1 4.99 
32.975 16.95 11.6333 8.9 7.3 6.2125 5.10333 
22.675 11.9125 8.11667 6.25 5.15 4.37083 3.55667 
26.65 13.475 9.11667 6.94375 5.635 4.76667 3.91667 
10.375 5.775 4.2 3.43125 3.045 2.70833 2.36333 
10.75 5.9 4.16667 3.36875 2.895 2.54167 2.22 
26.9 13.475 8.98333 6.7375 5.39 4.49167 3.59333 
28.75 15.15 10.5333 8.1875 6.75 5.79583 4.80667 
3.25 1.8 1.51667 1.40625 1.29 1.225 1.13667 
37.025 18.6375 12.6 9.65625 7.825 6.60417 5.41667 
30.975 15.7875 10.725 8.175 6.605 5.54167 4.47333 
49.625 25 16.8 12.6312 10.13 8.475 6.8 
41.125 20.925 14.2083 10.7812 8.775 7.425 6.03 
7.725 4.2 3.11667 2.54375 2.235 2.09167 1.91667 
16.15 8.375 5.83333 4.58125 3.79 3.30417 2.82333 
28.775 14.7 9.89167 7.4625 5.985 4.99583 4.03667 
37.2 18.7875 12.6167 9.49375 7.605 6.34167 5.09333 
46.8 23.975 16.425 12.4937 10.105 8.48333 6.86667 
18.75 9.525 6.38333 4.80625 3.865 3.25833 2.62667 
6.225 3.7 2.93333 2.53125 2.215 1.9875 1.75333 
31.4 16 10.925 8.45 6.92 6.00417 5.05333 
36.45 18.775 12.975 9.91875 8.095 6.87917 5.60333 
21.4 10.9625 7.41667 5.6 4.505 3.78333 3.06667 
35.925 18.4125 12.475 9.54375 7.74 6.55417 5.33333 
21.55 11.1375 7.65833 5.9375 4.91 4.19167 3.41667 
57.5 29.175 19.6833 14.7937 11.835 9.8625 7.89 
20.125 10.5 7.06667 5.3625 4.31 3.6125 2.90667 
42.25 21.5625 14.5333 11.0437 9.055 7.7 6.26 
7.825 4.475 3.36667 2.78125 2.415 2.1625 1.90667 
14.7 7.9625 5.66667 4.5375 3.85 3.36667 2.76667 
39.725 20 13.45 10.1312 8.125 6.77917 5.43667 
34.9 17.9 12.1583 9.25625 7.47 6.2625 5.04333 
23.125 12.1875 8.5 6.61875 5.445 4.65833 3.85333 
26.325 13.6125 9.38333 7.325 6.045 5.17917 4.29 
4.575 2.6625 1.99167 1.61875 1.405 1.25 1.08 
32.275 16.4875 11.15 8.4625 6.825 5.73333 4.62333 
22.8 11.775 8.04167 6.23125 5.135 4.42083 3.67 
34.075 17.0875 11.4167 8.56875 6.865 5.725 4.59333 
25.1 12.775 8.54167 6.40625 5.125 4.27083 3.41667 
12.2 6.8 4.98333 4.075 3.46 3.01667 2.50333 
19.6 9.975 6.75 5.10625 4.09 3.40833 2.72667 
27 13.625 9.09167 6.81875 5.455 4.54583 3.63667 
49.225 25.1625 17.2833 13.2687 10.84 9.1875 7.56333 
14.3 7.6 5.26667 4.075 3.355 2.87917 2.42333 
11.3 5.95 4.2 3.28125 2.75 2.39583 2.09 
24.775 12.9125 8.91667 6.7875 5.655 4.87083 4.08 
35.225 17.7375 11.8917 8.93125 7.175 5.99583 4.8 
49.75 25.3 17.1417 13.1125 10.64 9.025 7.33 
56.1 28.1375 18.7667 14.075 11.26 9.38333 7.50667 
21.475 11.175 7.7 5.85625 4.715 3.93333 3.15 
23.05 11.9 8.15 6.26875 5.125 4.37917 3.59 
32.775 16.6 11.325 8.71875 7.17 6.07083 4.94333 
30.9 15.75 10.7583 8.25 6.875 5.93333 4.92333 
14.825 7.825 5.36667 4.125 3.4 2.95833 2.52333 
30.275 15.525 10.7833 8.3375 6.865 5.88333 4.93 
11.75 5.9875 3.99167 2.99375 2.395 1.99583 1.59667 
20.675 10.875 7.38333 5.625 4.56 3.8375 3.09333 
7.575 4.025 2.825 2.3 1.935 1.66667 1.43333 
25.15 12.7 8.51667 6.4375 5.175 4.32083 3.45667 
52.05 26.35 17.7167 13.4562 10.93 9.24167 7.54 
45.7 23.15 15.6917 11.9 9.67 8.1375 6.54667 
16.6 8.8375 6.275 5.03125 4.23 3.68333 3.09 
5.475 3.4 2.65 2.275 2.1 1.87083 1.59333 
26.95 13.7875 9.3 7.08125 5.795 4.97083 4.13 
27.225 14.35 10.0083 7.81875 6.4 5.47917 4.56333 
25.025 12.6625 8.50833 6.39375 5.115 4.2625 3.41 
24.725 12.6125 8.58333 6.56875 5.41 4.6375 3.81 
34.675 17.525 12.1 9.39375 7.72 6.52917 5.35 
29.7 14.9875 10.075 7.625 6.13 5.11667 4.10333 
47.7 24.3125 16.525 12.6 10.25 8.68333 7.06667 
50.625 25.825 17.675 13.5187 10.915 9.23333 7.57 
37.975 19.1875 12.9083 9.75 7.83 6.5625 5.30667 
27.75 14.65 10.2 7.96875 6.52 5.52083 4.50667 
30.3 15.7625 10.775 8.24375 6.755 5.79167 4.85667 
17.775 9.075 6.23333 4.8375 4.07 3.5125 2.96333 
31.25 16.0875 11.0917 8.5 6.985 5.90833 4.85 
37.75 18.95 12.6417 9.4875 7.595 6.32917 5.06667 
18.375 9.9 6.95833 5.51875 4.595 3.97917 3.39667 
51.05 26.025 17.5917 13.3375 10.83 9.15417 7.50667 
35.425 17.875 11.9833 9.06875 7.265 6.0625 4.87 
30.9 15.5375 10.3917 7.8 6.245 5.20833 4.17333 
15.325 7.9875 5.44167 4.1625 3.385 2.85 2.31667 
9.85 5.2125 3.65 2.88125 2.41 2.09167 1.75333 
38.525 19.7875 13.5333 10.2687 8.29 6.975 5.62333 
15.45 8.1 5.70833 4.53125 3.91 3.425 2.95 
57.45 29 19.4333 14.6062 11.74 9.82083 7.87333 
20.5 10.5875 7.25833 5.8 4.87 4.17083 3.39667 
17.975 9.4 6.65 5.19375 4.335 3.75417 3.16667 
53.575 27.175 18.3667 14.1187 11.55 9.80417 8.04667 
16.95 8.5375 5.69167 4.26875 3.415 2.84583 2.27667 
44.35 22.7125 15.2667 11.5187 9.265 7.7625 6.25 
8.25 4.75 3.50833 2.925 2.59 2.275 1.99333 
23.575 12.1 8.375 6.54375 5.43 4.5875 3.79333 
12.275 6.6 4.65833 3.74375 3.205 2.78333 2.38 
34.9 17.55 11.7833 8.91875 7.185 6.00417 4.81333 
4.075 2.625 1.99167 1.725 1.63 1.475 1.33 
14.7 7.4625 5.2 4.06875 3.37 2.925 2.48 
13.7 7.1875 5.05 3.96875 3.285 2.84167 2.39667 
43.525 22.4375 15.275 11.6375 9.545 8.05417 6.61 
37.85 19.125 12.875 9.71875 7.815 6.56667 5.34333 
19.275 10.275 7.08333 5.46875 4.66 4.14167 3.51 
5.275 3.1375 2.38333 2.00625 1.745 1.57917 1.41667 
17.175 9.1 6.46667 5.125 4.31 3.70833 3.13333 
41.325 21.2 14.2917 10.7937 8.7 7.2875 5.85333 
30.35 15.5625 10.6667 8.28125 6.82 5.83333 4.81667 
3.85 2.2125 1.68333 1.4 1.24 1.1125 0.96 
15.65 8.3 5.78333 4.5125 3.72 3.17083 2.68333 
35.475 18.1125 12.325 9.4875 7.785 6.6875 5.56 
2.85 1.8125 1.65 1.45625 1.335 1.22083 1.17667 
6.775 3.575 2.51667 2 1.68 1.47917 1.25333 
33.275 17.225 11.95 9.2 7.605 6.52083 5.40667 
1.25 1.15 1.18333 1.20625 1.175 1.19583 1.19333 
40.025 20.5875 14.0833 10.85 8.82 7.45 6.06667 
46.725 23.75 15.9167 11.9812 9.605 8.01667 6.43333 
30.675 15.725 10.6833 8.08125 6.51 5.50417 4.52333 
44.6 22.3 14.875 11.1812 8.945 7.45417 5.97667 
17.925 9.275 6.44167 4.9625 4.025 3.37083 2.75333 
2.15 1.9 1.675 1.53125 1.45 1.39583 1.34333 
22.25 11.65 7.88333 6.0875 5.08 4.40417 3.63667 
38.35 19.3 13 9.85 7.94 6.71667 5.46 
37.95 19.625 13.3583 10.3687 8.46 7.20833 5.95333 
9.9 5.3875 3.85833 3.04375 2.55 2.20833 1.90667 
23.325 11.9625 8.31667 6.5625 5.405 4.67083 4.00333 
8.2 4.675 3.46667 2.88125 2.6 2.37083 2.15333 
41.3 20.725 13.825 10.3687 8.295 6.9125 5.53 
46.475 24.075 16.2667 12.45 10.165 8.64167 7.16667 
46.575 23.7375 16.025 12.1437 9.84 8.38333 6.87333 
49.475 25.05 17.0417 12.975 10.525 8.8875 7.25667 
4.6 2.8875 2.29167 2.01875 1.84 1.6625 1.46333 
21.45 11.2375 7.8 6.075 4.995 4.29583 3.65333 
33 17 11.5667 8.8 7.1 5.94583 4.79 
46.125 23.5 16.0167 12.25 9.975 8.3875 6.81333 
26.175 13.575 9.35 7.24375 5.97 5.03333 4.11667 
27 14.1125 9.75 7.55 6.165 5.2875 4.47333 
2.15 1.4125 1.325 1.30625 1.27 1.19167 1.05 
47.8 24.125 16.1 12.075 9.66 8.05 6.44 
36.925 18.8125 12.675 9.6 7.73 6.46667 5.18333 
19.45 10.075 6.84167 5.20625 4.2 3.54583 2.86667 
56.35 28.3 18.8667 14.15 11.32 9.43333 7.54667 
42.4 21.8125 14.8833 11.4062 9.31 7.94167 6.52667 
3.225 2 1.60833 1.44375 1.325 1.23333 1.13333 
44.95 22.95 15.5583 11.8 9.67 8.1875 6.66 
10.15 5.5625 4.04167 3.29375 2.815 2.5 2.18 
37.175 18.8 12.6167 9.55 7.665 6.40833 5.15 
41.75 20.925 13.9583 10.4687 8.385 6.9875 5.59 
5.425 3.35 2.59167 2.2125 1.895 1.65 1.4 
19.5 10.3 7.14167 5.63125 4.69 3.975 3.3 
22.35 11.7125 8.03333 6.15625 5.03 4.25417 3.47667 
19.825 10.525 7.48333 5.9 4.945 4.32083 3.68 
36.6 18.6375 12.6167 9.6125 7.83 6.64167 5.36667 
36.025 18.5125 12.675 9.725 7.935 6.73333 5.59 
26.05 13.4625 9.31667 7.20625 5.94 5.0625 4.15 
26.65 13.575 9.15 6.91875 5.575 4.6625 3.73333 
4.075 2.6875 2.05 1.7875 1.66 1.52917 1.38667 
43.625 21.85 14.5667 10.9437 8.76 7.30833 5.84667 
4.825 2.65 2.01667 1.71875 1.54 1.375 1.20667 
18.9 10 7 5.44375 4.595 4.09583 3.49333 
12.175 6.6875 4.79167 3.8125 3.235 2.83333 2.40667 
29.3 15.175 10.55 8.11875 6.61 5.60417 4.57667 
20.125 10.5875 7.35 5.6625 4.665 4.02083 3.38333 
37.975 19.5625 13.3333 10.1937 8.22 6.875 5.52667 
46.15 23.5875 16.025 12.1875 9.865 8.25833 6.64 
31.375 16.2 11.1583 8.6375 7.115 6.06667 5.06333 
9.45 5.125 3.69167 2.9 2.445 2.12083 1.84667 
28.2 14.5375 9.95833 7.65 6.3 5.41667 4.55333 
2.475 1.6 1.3 1.23125 1.155 1.09583 1.02 
3.875 2.625 1.975 1.725 1.57 1.37917 1.16667 
34 17.3875 11.8 8.98125 7.26 6.12917 4.96667 
18.35 9.725 6.84167 5.36875 4.52 3.96667 3.35 
3.775 2.375 1.83333 1.65 1.5 1.35833 1.26333 
33.825 17.175 11.5583 8.78125 7.115 5.99583 4.90333 
52.575 26.725 18.2167 13.8812 11.39 9.65833 7.89 
1.725 1.2125 0.975 0.85625 0.76 0.654167 0.573333 
42.925 21.9125 14.8917 11.3937 9.305 7.9125 6.53 
3.275 2.0375 1.56667 1.35625 1.265 1.24167 1.14333 
50.8 25.75 17.3583 13.2 10.625 8.90417 7.23 
22.5 11.825 8.05 6.18125 5.04 4.25833 3.48667 
20.45 10.675 7.39167 5.7875 4.84 4.22083 3.54667 
25.95 13.4125 9.16667 7.25625 5.975 5.09583 4.17667 
23.6 12.225 8.45 6.60625 5.425 4.62083 3.81 
50.15 25.7125 17.4417 13.3 10.845 9.2 7.53 
3.4 2.275 1.75 1.59375 1.515 1.38333 1.22 
35.85 18.225 12.2667 9.29375 7.5 6.29583 5.1 
25.35 12.7875 8.56667 6.45625 5.21 4.35833 3.5 
30.225 15.5 10.5583 8.0125 6.42 5.3625 4.29 
46.125 23.2875 15.625 11.7625 9.445 7.875 6.3 
29.2 14.825 10.1583 7.85 6.545 5.6375 4.62667 
45.85 23.15 15.4333 11.575 9.26 7.71667 6.17333 
44.725 22.9125 15.375 11.625 9.415 7.91667 6.36333 
24.425 12.3 8.20833 6.175 4.945 4.12083 3.29667 
16.275 8.425 5.88333 4.6875 3.995 3.53333 3.04 
39 19.6875 13.1667 9.91875 7.95 6.65417 5.37 
