-1.087184399366378784e-01 3.451446890830993652e-01 2.486943602561950684e-01
1.125680208206176758e-01 3.670724630355834961e-01 -1.553298085927963257e-01
1.169293373823165894e-01 3.760088682174682617e-01 -1.546597480773925781e-01
1.185989528894424438e-01 3.711473047733306885e-01 -1.444715559482574463e-01
1.226136684417724609e-01 3.803071081638336182e-01 -1.447182595729827881e-01
3.380776047706604004e-01 7.358332276344299316e-01 -1.397502720355987549e-01
3.398420512676239014e-01 7.470578551292419434e-01 -1.427760869264602661e-01
3.442026376724243164e-01 7.378535866737365723e-01 -1.325355023145675659e-01
3.462738692760467529e-01 7.490227818489074707e-01 -1.353689730167388916e-01
1.178822517395019531e-01 3.991548120975494385e-01 -1.903107762336730957e-01
1.242002844810485840e-01 4.073036909103393555e-01 -1.968350857496261597e-01
1.216173619031906128e-01 4.012532532215118408e-01 -1.832031458616256714e-01
1.277934610843658447e-01 4.095277190208435059e-01 -1.889367550611495972e-01
2.126891911029815674e-02 -6.620799005031585693e-02 8.497621119022369385e-02
1.395620405673980713e-02 -6.003463268280029297e-02 9.019305557012557983e-02
2.125756442546844482e-02 -7.272297888994216919e-02 9.448616206645965576e-02
1.356795988976955414e-02 -6.634383648633956909e-02 9.951188415288925171e-02
-6.444142758846282959e-02 3.468010425567626953e-01 -1.107190996408462524e-01
-5.942528322339057922e-02 3.588157594203948975e-01 -1.091945096850395203e-01
-6.836051493883132935e-02 3.543890714645385742e-01 -1.001424491405487061e-01
-6.323298066854476929e-02 3.661834299564361572e-01 -9.873361140489578247e-02
2.995036169886589050e-02 -2.327885925769805908e-01 -1.475580316036939621e-02
3.438030928373336792e-02 -2.224069982767105103e-01 -1.539794448763132095e-02
4.263824597001075745e-02 -2.351203709840774536e-01 -1.194605324417352676e-02
4.687912017107009888e-02 -2.246643453836441040e-01 -1.260696910321712494e-02
1.012643501162528992e-01 4.551056325435638428e-01 -8.801694959402084351e-02
1.043350473046302795e-01 4.591171443462371826e-01 -9.611805528402328491e-02
1.092951074242591858e-01 4.482289254665374756e-01 -8.635918796062469482e-02
1.122153773903846741e-01 4.522550404071807861e-01 -9.388948231935501099e-02
1.106465905904769897e-01 -5.690842866897583008e-01 9.778262674808502197e-02
1.108950972557067871e-01 -5.589591860771179199e-01 1.017592176795005798e-01
1.197020113468170166e-01 -5.644026398658752441e-01 9.736640751361846924e-02
1.206839457154273987e-01 -5.537792444229125977e-01 1.005549505352973938e-01
-7.016547024250030518e-02 1.651943475008010864e-01 -1.475502699613571167e-01
-6.982846558094024658e-02 1.767974048852920532e-01 -1.449455171823501587e-01
-6.073626503348350525e-02 1.664402633905410767e-01 -1.493814438581466675e-01
-5.992238968610763550e-02 1.768829077482223511e-01 -1.479458212852478027e-01
6.038509309291839600e-02 3.894337117671966553e-01 1.256392300128936768e-01
5.341413989663124084e-02 3.974038958549499512e-01 1.290095895528793335e-01
5.813327804207801819e-02 3.839992880821228027e-01 1.322079747915267944e-01
5.113097280263900757e-02 3.919603526592254639e-01 1.382495313882827759e-01
5.620254576206207275e-02 -5.816726088523864746e-01 9.280680865049362183e-02
5.536916106939315796e-02 -5.720383524894714355e-01 9.637940675020217896e-02
6.016184762120246887e-02 -5.783959031105041504e-01 9.623454511165618896e-02
5.966042354702949524e-02 -5.685875415802001953e-01 1.008290573954582214e-01
1.370515525341033936e-01 -7.854998111724853516e-01 7.132004201412200928e-02
1.336955577135086060e-01 -7.812827229499816895e-01 7.920718193054199219e-02
1.450250595808029175e-01 -7.830902934074401855e-01 7.492253184318542480e-02
1.413995176553726196e-01 -7.785020470619201660e-01 8.295261859893798828e-02
-1.454348862171173096e-01 -2.233968228101730347e-01 -9.078869968652725220e-02
-1.531362980604171753e-01 -2.149879932403564453e-01 -8.468890935182571411e-02
-1.386318355798721313e-01 -2.283547371625900269e-01 -8.052553981542587280e-02
-1.461757868528366089e-01 -2.196997106075286865e-01 -7.401072233915328979e-02
3.769770637154579163e-02 4.216554462909698486e-01 -2.038690298795700073e-01
4.193671792745590210e-02 4.319699704647064209e-01 -2.043524086475372314e-01
3.675942495465278625e-02 4.271734058856964111e-01 -2.008238285779953003e-01
4.119363799691200256e-02 4.373735189437866211e-01 -2.010788172483444214e-01
-2.417383790016174316e-01 -1.630904525518417358e-01 2.713299691677093506e-01
-2.446659356355667114e-01 -1.554303467273712158e-01 2.774870693683624268e-01
-2.403639107942581177e-01 -1.609425842761993408e-01 2.798926830291748047e-01
-2.434105277061462402e-01 -1.521611809730529785e-01 2.867333590984344482e-01
-1.547783464193344116e-01 -5.763313770294189453e-01 -1.720688641071319580e-01
-1.433878093957901001e-01 -5.711260437965393066e-01 -1.760181188583374023e-01
-1.500210165977478027e-01 -5.699305534362792969e-01 -1.627992093563079834e-01
-1.387162059545516968e-01 -5.649369359016418457e-01 -1.666313856840133667e-01
-1.576479077339172363e-01 -7.201250642538070679e-03 1.492551714181900024e-01
-1.548569798469543457e-01 3.427578369155526161e-03 1.475793421268463135e-01
-1.497231274843215942e-01 -6.324698217213153839e-03 1.534008532762527466e-01
-1.464994996786117554e-01 4.133051261305809021e-03 1.522145867347717285e-01
2.765253558754920959e-02 -3.292369544506072998e-01 -1.271771192550659180e-01
2.849480696022510529e-02 -3.167202174663543701e-01 -1.255102008581161499e-01
2.110888995230197906e-02 -3.209125101566314697e-01 -1.192340329289436340e-01
2.207889221608638763e-02 -3.090374469757080078e-01 -1.171647384762763977e-01
2.075351774692535400e-01 -2.672068178653717041e-01 6.283812224864959717e-02
2.035521119832992554e-01 -2.600768804550170898e-01 6.410115957260131836e-02
2.090270668268203735e-01 -2.686223089694976807e-01 7.150645554065704346e-02
2.046959549188613892e-01 -2.616757452487945557e-01 7.282661646604537964e-02
-1.084505766630172729e-01 3.830677568912506104e-01 1.711427420377731323e-01
-1.039997190237045288e-01 3.915315270423889160e-01 1.696666032075881958e-01
-1.059895232319831848e-01 3.836656510829925537e-01 1.822113394737243652e-01
-1.019889339804649353e-01 3.922049999237060547e-01 1.805258244276046753e-01
7.413410395383834839e-02 5.686496943235397339e-02 2.224182896316051483e-02
7.934565097093582153e-02 6.651151180267333984e-02 2.236469276249408722e-02
7.468418776988983154e-02 6.308391690254211426e-02 3.173683956265449524e-02
7.977747917175292969e-02 7.248582690954208374e-02 3.192248195409774780e-02
-2.041654139757156372e-01 -1.430670320987701416e-01 -3.514060005545616150e-02
-2.112938761711120605e-01 -1.342910975217819214e-01 -3.138451650738716125e-02
-2.015142440795898438e-01 -1.453350633382797241e-01 -2.493988536298274994e-02
-2.087775766849517822e-01 -1.364122629165649414e-01 -2.128268964588642120e-02
5.794364027678966522e-03 5.966044664382934570e-01 -3.510897606611251831e-02
5.346677266061306000e-03 6.064655184745788574e-01 -3.487421199679374695e-02
-6.834443192929029465e-04 5.984632372856140137e-01 -2.888238802552223206e-02
-1.199370250105857849e-03 6.082974076271057129e-01 -2.830496616661548615e-02
-5.467995256185531616e-02 -2.634037435054779053e-01 3.528924286365509033e-02
-6.421281397342681885e-02 -2.596964240074157715e-01 3.917501866817474365e-02
-4.718163982033729553e-02 -2.683658599853515625e-01 4.442833736538887024e-02
-5.634765699505805969e-02 -2.642240226268768311e-01 4.796114563941955566e-02
1.240612715482711792e-01 6.628723740577697754e-01 -3.030291013419628143e-02
1.165922284126281738e-01 6.702995300292968750e-01 -2.771139144897460938e-02
1.315632164478302002e-01 6.622520089149475098e-01 -2.658260427415370941e-02
1.225526854395866394e-01 6.690657138824462891e-01 -2.390125766396522522e-02
-5.350218713283538818e-02 4.007866978645324707e-01 -1.009048614650964737e-02
-4.804368689656257629e-02 4.118077158927917480e-01 -1.075704861432313919e-02
-5.068556964397430420e-02 4.088695645332336426e-01 -2.442864933982491493e-03
-4.539318382740020752e-02 4.188396632671356201e-01 -2.447000471875071526e-03
8.287674188613891602e-02 4.425502121448516846e-01 -7.200136035680770874e-02
8.531945198774337769e-02 4.469096660614013672e-01 -7.870550453662872314e-02
8.699835836887359619e-02 4.362563788890838623e-01 -6.944724172353744507e-02
8.996441960334777832e-02 4.404505789279937744e-01 -7.586073130369186401e-02
-2.637703418731689453e-01 -6.057046055793762207e-01 -1.662500202655792236e-01
-2.600558996200561523e-01 -5.975519418716430664e-01 -1.693646013736724854e-01
-2.551229894161224365e-01 -6.052292585372924805e-01 -1.667144000530242920e-01
-2.510455548763275146e-01 -5.969375967979431152e-01 -1.698201149702072144e-01
-3.217706680297851562e-01 -6.809685230255126953e-01 -1.654149293899536133e-01
-3.246784210205078125e-01 -6.743135452270507812e-01 -1.635256260633468628e-01
-3.146767914295196533e-01 -6.798343658447265625e-01 -1.672901809215545654e-01
-3.172308504581451416e-01 -6.726248860359191895e-01 -1.651360541582107544e-01
-1.788436770439147949e-01 -4.786719679832458496e-01 -1.929337829351425171e-01
-1.718432456254959106e-01 -4.680178761482238770e-01 -1.934148073196411133e-01
-1.818549036979675293e-01 -4.682703316211700439e-01 -1.802531629800796509e-01
-1.737060993909835815e-01 -4.587911069393157959e-01 -1.842877715826034546e-01
1.608366966247558594e-01 -3.422131836414337158e-01 1.238439604640007019e-01
1.578639298677444458e-01 -3.301419913768768311e-01 1.240314990282058716e-01
1.719740778207778931e-01 -3.429965376853942871e-01 1.224534884095191956e-01
1.690649539232254028e-01 -3.310849070549011230e-01 1.218882724642753601e-01
-1.543774008750915527e-01 1.510400027036666870e-01 3.061748743057250977e-01
-1.532812714576721191e-01 1.604380309581756592e-01 3.067984879016876221e-01
-1.486677378416061401e-01 1.522223800420761108e-01 3.060338497161865234e-01
-1.478981226682662964e-01 1.615570038557052612e-01 3.067467212677001953e-01
-2.399734407663345337e-01 -5.337118506431579590e-01 -1.667479276657104492e-01
-2.325227707624435425e-01 -5.238028168678283691e-01 -1.695778220891952515e-01
-2.383498847484588623e-01 -5.265763998031616211e-01 -1.619328707456588745e-01
-2.305172085762023926e-01 -5.166771411895751953e-01 -1.647896319627761841e-01
-3.286842107772827148e-01 -6.916686296463012695e-01 -1.690112799406051636e-01
-3.329211771488189697e-01 -6.856801509857177734e-01 -1.664286553859710693e-01
-3.246333301067352295e-01 -6.924625635147094727e-01 -1.676316708326339722e-01
-3.281421959400177002e-01 -6.860629320144653320e-01 -1.657962799072265625e-01
2.239082194864749908e-02 -8.612918853759765625e-02 -6.920676678419113159e-02
2.225741930305957794e-02 -7.494635134935379028e-02 -6.818784773349761963e-02
2.289581857621669769e-02 -8.441190421581268311e-02 -5.922097712755203247e-02
2.304658479988574982e-02 -7.351909577846527100e-02 -5.789440125226974487e-02
-1.748922467231750488e-01 6.005402281880378723e-02 -3.827751427888870239e-02
-1.700539290904998779e-01 6.951906532049179077e-02 -3.789807856082916260e-02
-1.736391186714172363e-01 6.512124836444854736e-02 -2.463359758257865906e-02
-1.691874712705612183e-01 7.456536591053009033e-02 -2.456888183951377869e-02
-3.509738668799400330e-02 2.659969627857208252e-01 -1.524002999067306519e-01
-3.091085702180862427e-02 2.779641747474670410e-01 -1.551108807325363159e-01
-2.864313684403896332e-02 2.716784179210662842e-01 -1.554509997367858887e-01
-2.468301914632320404e-02 2.836517095565795898e-01 -1.577613055706024170e-01
-8.128845691680908203e-02 -2.996487915515899658e-01 -2.220149487257003784e-01
-8.189661800861358643e-02 -2.861486673355102539e-01 -2.213704735040664673e-01
-7.240921258926391602e-02 -2.973238229751586914e-01 -2.258339524269104004e-01
-7.286380976438522339e-02 -2.838535308837890625e-01 -2.250924706459045410e-01
-1.309847086668014526e-01 2.676230370998382568e-01 1.806315034627914429e-01
-1.321191489696502686e-01 2.811548113822937012e-01 1.850124001502990723e-01
-1.364304572343826294e-01 2.747520208358764648e-01 1.915899217128753662e-01
-1.376422494649887085e-01 2.885866463184356689e-01 1.961137950420379639e-01
-3.448612689971923828e-01 -6.072213649749755859e-01 -1.104444488883018494e-01
-3.374662697315216064e-01 -6.004610657691955566e-01 -1.180301308631896973e-01
-3.367670476436614990e-01 -6.067340373992919922e-01 -1.067685112357139587e-01
-3.292158246040344238e-01 -5.998998880386352539e-01 -1.145000532269477844e-01
-2.189511060714721680e-01 -2.161874435842037201e-02 7.660309970378875732e-02
-2.155091315507888794e-01 -1.287071872502565384e-02 7.444529235363006592e-02
-2.164652496576309204e-01 -1.791724935173988342e-02 8.597575873136520386e-02
-2.127570211887359619e-01 -8.930668234825134277e-03 8.366391807794570923e-02
1.686196476221084595e-01 6.469566822052001953e-01 1.640777662396430969e-02
1.645413190126419067e-01 6.568815112113952637e-01 1.776517741382122040e-02
1.671914011240005493e-01 6.462840437889099121e-01 2.435752935707569122e-02
1.624758094549179077e-01 6.554250717163085938e-01 2.604774199426174164e-02
9.230492264032363892e-02 -3.992363214492797852e-01 4.368478432297706604e-02
9.642168879508972168e-02 -3.873986899852752686e-01 3.783885762095451355e-02
9.603896737098693848e-02 -4.012604355812072754e-01 5.152030661702156067e-02
1.001055687665939331e-01 -3.891015648841857910e-01 4.567617550492286682e-02
-1.174483597278594971e-01 -1.966820210218429565e-01 -1.239050179719924927e-02
-1.277167499065399170e-01 -1.925609409809112549e-01 -8.681530132889747620e-03
-1.123484447598457336e-01 -2.025603801012039185e-01 -3.246186999604105949e-03
-1.228817626833915710e-01 -1.986569762229919434e-01 5.771731957793235779e-04
-5.123404413461685181e-02 2.946214973926544189e-01 2.519351840019226074e-01
-5.240846797823905945e-02 3.049189150333404541e-01 2.547899782657623291e-01
-4.212422296404838562e-02 2.983266413211822510e-01 2.491825371980667114e-01
-4.286658018827438354e-02 3.088307082653045654e-01 2.515471577644348145e-01
6.845556199550628662e-02 6.153172254562377930e-02 -6.051568314433097839e-02
7.471678406000137329e-02 7.321535795927047729e-02 -6.100456416606903076e-02
7.431045919656753540e-02 6.435588747262954712e-02 -4.724272340536117554e-02
8.109119534492492676e-02 7.613832503557205200e-02 -4.745898395776748657e-02
-2.021179348230361938e-01 -3.041679784655570984e-02 1.177267879247665405e-01
-2.038801312446594238e-01 -1.749148592352867126e-02 1.126467436552047729e-01
-1.940146088600158691e-01 -3.008234500885009766e-02 1.268977671861648560e-01
-1.951315253973007202e-01 -1.795761100947856903e-02 1.224589645862579346e-01
-1.981094246730208397e-03 4.652115106582641602e-01 1.036058217287063599e-01
-5.058310460299253464e-03 4.705366492271423340e-01 9.946784377098083496e-02
5.386837292462587357e-03 4.614332914352416992e-01 1.063915938138961792e-01
-8.170604705810546875e-04 4.659669399261474609e-01 1.045580953359603882e-01
2.405927777290344238e-01 6.651349663734436035e-01 -1.853718757629394531e-01
2.393052279949188232e-01 6.722931265830993652e-01 -1.842577755451202393e-01
2.481485307216644287e-01 6.664178967475891113e-01 -1.825027167797088623e-01
2.470804452896118164e-01 6.735882759094238281e-01 -1.813146173954010010e-01
-2.032174617052078247e-01 -5.689046978950500488e-01 -1.220785453915596008e-01
-2.031416296958923340e-01 -5.592933893203735352e-01 -1.201384291052818298e-01
-1.922707408666610718e-01 -5.678485631942749023e-01 -1.224203035235404968e-01
-1.919396668672561646e-01 -5.577071905136108398e-01 -1.209380552172660828e-01
3.317319555208086967e-03 5.769021511077880859e-01 7.238527387380599976e-02
1.232742564752697945e-03 5.889750719070434570e-01 7.286047190427780151e-02
9.074952453374862671e-03 5.758595466613769531e-01 8.154418319463729858e-02
7.356681395322084427e-03 5.881211161613464355e-01 8.224656432867050171e-02
-2.193251550197601318e-01 -1.118090376257896423e-01 -1.841129362583160400e-02
-2.215948402881622314e-01 -1.038012132048606873e-01 -1.411454752087593079e-02
-2.210499346256256104e-01 -1.097542047500610352e-01 -8.284528739750385284e-03
-2.234114408493041992e-01 -1.019776985049247742e-01 -4.164928104728460312e-03
1.204849034547805786e-01 2.305791974067687988e-01 2.293253317475318909e-02
1.225858479738235474e-01 2.411090433597564697e-01 2.527285367250442505e-02
1.180991083383560181e-01 2.340704053640365601e-01 3.284950181841850281e-02
1.202630996704101562e-01 2.454313039779663086e-01 3.505217283964157104e-02
9.329263120889663696e-02 -7.737354636192321777e-01 7.881087809801101685e-02
8.445094525814056396e-02 -7.725706100463867188e-01 8.463294804096221924e-02
1.024086475372314453e-01 -7.753069996833801270e-01 8.286769688129425049e-02
9.403530508279800415e-02 -7.735503315925598145e-01 8.822692930698394775e-02
8.292937278747558594e-02 -4.894866943359375000e-01 1.762412674725055695e-02
8.986636996269226074e-02 -4.761493206024169922e-01 1.708762906491756439e-02
8.572618663311004639e-02 -4.809661209583282471e-01 2.013725228607654572e-02
9.253442287445068359e-02 -4.680793583393096924e-01 1.959621533751487732e-02
-6.186735630035400391e-02 -4.947674274444580078e-02 1.617203354835510254e-01
-6.039138510823249817e-02 -4.081453755497932434e-02 1.575060188770294189e-01
-5.486736446619033813e-02 -5.705804005265235901e-02 1.620908379554748535e-01
-5.414785817265510559e-02 -4.843080416321754456e-02 1.578751504421234131e-01
-2.314461022615432739e-01 -6.908799707889556885e-02 3.059465996921062469e-02
-2.314553856849670410e-01 -5.984504520893096924e-02 3.161300718784332275e-02
-2.324400693178176880e-01 -6.696103513240814209e-02 4.099283367395401001e-02
-2.315073460340499878e-01 -5.716019868850708008e-02 4.146407917141914368e-02
-1.634813249111175537e-01 -1.792732924222946167e-01 -1.515145301818847656e-01
-1.703451871871948242e-01 -1.696989387273788452e-01 -1.482621133327484131e-01
-1.669243127107620239e-01 -1.806412339210510254e-01 -1.427884697914123535e-01
-1.739261299371719360e-01 -1.710590422153472900e-01 -1.395757347345352173e-01
8.049702644348144531e-02 -4.161413311958312988e-01 5.323649570345878601e-02
8.424896001815795898e-02 -4.040201902389526367e-01 4.730776324868202209e-02
8.529367297887802124e-02 -4.168473184108734131e-01 6.197422742843627930e-02
8.821450918912887573e-02 -4.050290584564208984e-01 5.632409080862998962e-02
1.826088726520538330e-01 5.201554298400878906e-01 1.787532120943069458e-02
1.839068531990051270e-01 5.281276702880859375e-01 1.789066568017005920e-02
1.809920817613601685e-01 5.235576033592224121e-01 2.716202661395072937e-02
1.824422627687454224e-01 5.315658450126647949e-01 2.727615088224411011e-02
1.246651709079742432e-01 2.161414027214050293e-01 -3.465149085968732834e-03
1.262806057929992676e-01 2.260231971740722656e-01 -1.619805116206407547e-04
1.216386109590530396e-01 2.199218869209289551e-01 6.887257564812898636e-03
1.232706606388092041e-01 2.301180362701416016e-01 9.830723516643047333e-03
-2.395912110805511475e-01 -1.354359686374664307e-01 2.128233909606933594e-01
-2.331401407718658447e-01 -1.225263625383377075e-01 2.110469192266464233e-01
-2.407273948192596436e-01 -1.294700056314468384e-01 2.222770303487777710e-01
-2.343189865350723267e-01 -1.166656836867332458e-01 2.207306176424026489e-01
6.071133911609649658e-02 -5.163767933845520020e-01 9.635756909847259521e-02
6.188666447997093201e-02 -5.067895054817199707e-01 9.553474932909011841e-02
6.755194067955017090e-02 -5.158509612083435059e-01 1.031459495425224304e-01
6.732156872749328613e-02 -5.064188838005065918e-01 1.031858697533607483e-01
7.492711395025253296e-02 -2.636495232582092285e-01 1.438870728015899658e-01
7.019716501235961914e-02 -2.522596418857574463e-01 1.483451128005981445e-01
8.619094640016555786e-02 -2.649250924587249756e-01 1.408418565988540649e-01
8.298968523740768433e-02 -2.528913319110870361e-01 1.452541649341583252e-01
2.522238902747631073e-02 1.943989992141723633e-01 -1.534945964813232422e-01
2.898512035608291626e-02 2.047867029905319214e-01 -1.549469679594039917e-01
3.581756353378295898e-02 1.955263465642929077e-01 -1.493913680315017700e-01
3.953988477587699890e-02 2.050389349460601807e-01 -1.505329459905624390e-01
1.226716563105583191e-01 -3.684345781803131104e-01 3.190866857767105103e-02
1.265188455581665039e-01 -3.579981625080108643e-01 2.691969461739063263e-02
1.304903030395507812e-01 -3.715042173862457275e-01 3.476664796471595764e-02
1.349324584007263184e-01 -3.608852624893188477e-01 3.005688078701496124e-02
-2.200946211814880371e-01 -7.594255805015563965e-01 -1.684034615755081177e-01
-2.251839786767959595e-01 -7.502017021179199219e-01 -1.653358638286590576e-01
-2.133555263280868530e-01 -7.625111937522888184e-01 -1.591460406780242920e-01
-2.181472927331924438e-01 -7.531578540802001953e-01 -1.556528657674789429e-01
5.293444544076919556e-02 4.173673093318939209e-01 -2.148607820272445679e-01
5.611079931259155273e-02 4.271528422832489014e-01 -2.170135825872421265e-01
5.985956266522407532e-02 4.148339629173278809e-01 -2.165682166814804077e-01
6.296765804290771484e-02 4.246060252189636230e-01 -2.188967615365982056e-01
1.619470864534378052e-02 -2.749919295310974121e-01 -2.395953983068466187e-01
1.530062779784202576e-02 -2.630597352981567383e-01 -2.384799271821975708e-01
2.492873556911945343e-02 -2.752100825309753418e-01 -2.331394255161285400e-01
2.405891381204128265e-02 -2.631451785564422607e-01 -2.321741282939910889e-01
1.618425101041793823e-01 -2.099348306655883789e-01 8.950772881507873535e-02
1.560214757919311523e-01 -2.032246440649032593e-01 9.219995141029357910e-02
1.596035510301589966e-01 -2.136842906475067139e-01 9.693226218223571777e-02
1.538527011871337891e-01 -2.071197330951690674e-01 9.965580701828002930e-02
1.841712743043899536e-02 -1.841540187597274780e-01 1.653206199407577515e-01
1.959560438990592957e-02 -1.715883612632751465e-01 1.653108596801757812e-01
3.053390420973300934e-02 -1.804768443107604980e-01 1.628543734550476074e-01
3.127871453762054443e-02 -1.683888137340545654e-01 1.625392735004425049e-01
3.487618872895836830e-03 2.774240374565124512e-01 1.709758043289184570e-01
-1.008631195873022079e-03 2.882825136184692383e-01 1.776517480611801147e-01
1.218999922275543213e-02 2.794344425201416016e-01 1.718505024909973145e-01
7.092572748661041260e-03 2.900311350822448730e-01 1.789740622043609619e-01
1.404889822006225586e-01 -4.780093133449554443e-01 1.415510941296815872e-02
1.448839455842971802e-01 -4.682099819183349609e-01 1.412415225058794022e-02
1.503559350967407227e-01 -4.756858050823211670e-01 1.835437491536140442e-02
1.545263230800628662e-01 -4.655593335628509521e-01 1.735415682196617126e-02
-1.937610656023025513e-01 1.994046382606029510e-02 2.526392936706542969e-01
-1.912330240011215210e-01 3.154351934790611267e-02 2.521310150623321533e-01
-1.867808401584625244e-01 1.996255852282047272e-02 2.577622234821319580e-01
-1.841741949319839478e-01 3.166865557432174683e-02 2.571560740470886230e-01
3.014946877956390381e-01 6.855567097663879395e-01 -1.945206224918365479e-01
3.000892996788024902e-01 6.951612234115600586e-01 -1.880847066640853882e-01
3.061438500881195068e-01 6.933351755142211914e-01 -1.855133473873138428e-01
3.042564094066619873e-01 7.028810381889343262e-01 -1.786779761314392090e-01
9.721437236294150352e-04 -9.357514232397079468e-02 -1.542890816926956177e-01
-1.370218582451343536e-03 -8.221822232007980347e-02 -1.514622569084167480e-01
4.587441682815551758e-03 -8.917786180973052979e-02 -1.442870050668716431e-01
2.675321418792009354e-03 -7.773118466138839722e-02 -1.407990902662277222e-01
1.133955046534538269e-01 2.601246237754821777e-01 1.253997385501861572e-01
1.130141019821166992e-01 2.703603804111480713e-01 1.272491216659545898e-01
1.048347651958465576e-01 2.641662657260894775e-01 1.352994889020919800e-01
1.057102754712104797e-01 2.742581367492675781e-01 1.359391063451766968e-01
-1.723950495943427086e-03 7.253695279359817505e-02 1.219073161482810974e-01
1.460043713450431824e-04 8.087956905364990234e-02 1.257853060960769653e-01
1.572973560541868210e-03 8.178633451461791992e-02 1.250552386045455933e-01
5.209272727370262146e-03 8.959598094224929810e-02 1.273890137672424316e-01
-1.475134789943695068e-01 7.107520848512649536e-02 1.297172158956527710e-01
-1.456078439950942993e-01 8.085247874259948730e-02 1.284372508525848389e-01
-1.389769613742828369e-01 6.919906288385391235e-02 1.350533813238143921e-01
-1.388070136308670044e-01 8.066243678331375122e-02 1.340483129024505615e-01
1.295970976352691650e-01 -7.698333859443664551e-01 2.167518995702266693e-02
1.352873146533966064e-01 -7.625448703765869141e-01 1.761922985315322876e-02
1.423553228378295898e-01 -7.730863690376281738e-01 2.397429943084716797e-02
1.483144313097000122e-01 -7.660424709320068359e-01 1.974386535584926605e-02
-2.309974581003189087e-01 -7.452539354562759399e-02 1.906837895512580872e-02
-2.314749658107757568e-01 -6.591777503490447998e-02 2.046323567628860474e-02
-2.321963608264923096e-01 -7.367310672998428345e-02 2.932054921984672546e-02
-2.323860526084899902e-01 -6.455631554126739502e-02 3.040423244237899780e-02
9.163671731948852539e-02 8.891326189041137695e-02 -2.797289937734603882e-02
9.867147356271743774e-02 1.018512845039367676e-01 -2.804771251976490021e-02
9.599909931421279907e-02 9.226991981267929077e-02 -1.670298166573047638e-02
1.029049381613731384e-01 1.056743413209915161e-01 -1.612252742052078247e-02
-2.187649905681610107e-01 1.008956134319305420e-01 2.408495694398880005e-01
-2.147976607084274292e-01 1.118710488080978394e-01 2.389289736747741699e-01
-2.146620601415634155e-01 1.021863222122192383e-01 2.434546351432800293e-01
-2.107464671134948730e-01 1.130117699503898621e-01 2.415313124656677246e-01
-3.413651883602142334e-01 -6.015493273735046387e-01 -1.161264032125473022e-01
-3.337394893169403076e-01 -5.949112772941589355e-01 -1.236425861716270447e-01
-3.321952223777770996e-01 -6.017696261405944824e-01 -1.135199591517448425e-01
-3.246757090091705322e-01 -5.950351357460021973e-01 -1.214078217744827271e-01
9.636121988296508789e-02 -5.536083579063415527e-01 2.329863049089908600e-02
9.906503558158874512e-02 -5.442857146263122559e-01 2.182550169527530670e-02
1.058808192610740662e-01 -5.519923567771911621e-01 2.542774192988872528e-02
1.087809875607490540e-01 -5.431517958641052246e-01 2.401812560856342316e-02
1.355257481336593628e-01 -5.493874549865722656e-01 9.595686197280883789e-02
1.381483823060989380e-01 -5.391740798950195312e-01 9.743903577327728271e-02
1.377357989549636841e-01 -5.437192916870117188e-01 1.029235646128654480e-01
1.409661918878555298e-01 -5.332819223403930664e-01 1.040873751044273376e-01
1.317131072282791138e-01 4.975610673427581787e-01 -1.570455133914947510e-01
1.226773634552955627e-01 5.012132525444030762e-01 -1.570103764533996582e-01
1.364426761865615845e-01 4.898042678833007812e-01 -1.526515334844589233e-01
1.256257146596908569e-01 4.931230545043945312e-01 -1.505640000104904175e-01
-1.181900873780250549e-01 2.079234570264816284e-01 -8.509249985218048096e-02
-1.121806353330612183e-01 2.216510772705078125e-01 -8.587807416915893555e-02
-1.193977296352386475e-01 2.163940221071243286e-01 -7.453830540180206299e-02
-1.115791276097297668e-01 2.324310392141342163e-01 -7.749950140714645386e-02
2.260359823703765869e-01 -3.031516969203948975e-01 9.682406485080718994e-02
2.207100689411163330e-01 -2.956101000308990479e-01 9.780845046043395996e-02
2.261349409818649292e-01 -3.075282275676727295e-01 1.015072315931320190e-01
2.210614681243896484e-01 -2.999708056449890137e-01 1.028795316815376282e-01
3.283367455005645752e-01 7.792835235595703125e-01 -1.107762828469276428e-01
3.371370434761047363e-01 7.874178290367126465e-01 -1.134363785386085510e-01
3.334563374519348145e-01 7.825948596000671387e-01 -1.001132950186729431e-01
3.420076966285705566e-01 7.906253337860107422e-01 -1.029142066836357117e-01
1.806476153433322906e-03 -1.680698990821838379e-01 -1.715886220335960388e-02
3.482762724161148071e-03 -1.602229028940200806e-01 -2.006304636597633362e-02
7.622663397341966629e-03 -1.692786663770675659e-01 -1.134940050542354584e-02
7.882419973611831665e-03 -1.601476818323135376e-01 -1.280969940125942230e-02
-6.847041845321655273e-02 -4.414752125740051270e-01 -2.493256926536560059e-01
-7.062499970197677612e-02 -4.324083924293518066e-01 -2.433043122291564941e-01
-5.962059646844863892e-02 -4.379650652408599854e-01 -2.496349215507507324e-01
-6.200635805726051331e-02 -4.290716052055358887e-01 -2.435433864593505859e-01
-2.277403175830841064e-01 -4.083756357431411743e-02 2.671124786138534546e-02
-2.246323674917221069e-01 -3.143345564603805542e-02 2.735969610512256622e-02
-2.276057749986648560e-01 -3.861110284924507141e-02 3.713849186897277832e-02
-2.246375977993011475e-01 -2.921783179044723511e-02 3.766107186675071716e-02
1.388747245073318481e-02 4.468146860599517822e-01 -1.503606587648391724e-01
1.861518993973731995e-02 4.521365761756896973e-01 -1.506850421428680420e-01
1.547960937023162842e-02 4.519166052341461182e-01 -1.438489109277725220e-01
2.007448300719261169e-02 4.569958448410034180e-01 -1.439156234264373779e-01
1.296608150005340576e-02 -7.425026893615722656e-01 6.689465790987014771e-02
1.165624335408210754e-02 -7.335535287857055664e-01 6.823697686195373535e-02
2.568740770220756531e-02 -7.433460950851440430e-01 7.058084756135940552e-02
2.477387338876724243e-02 -7.345882654190063477e-01 7.220343500375747681e-02
1.775460317730903625e-02 -1.574776917695999146e-01 1.642025858163833618e-01
1.982404477894306183e-02 -1.454465687274932861e-01 1.626229286193847656e-01
2.901533246040344238e-02 -1.545272171497344971e-01 1.627631336450576782e-01
3.134516626596450806e-02 -1.438981890678405762e-01 1.603776365518569946e-01
-1.566491425037384033e-01 3.320362046360969543e-02 1.349761635065078735e-01
-1.528218537569046021e-01 4.166109859943389893e-02 1.343695223331451416e-01
-1.476524621248245239e-01 3.805173933506011963e-02 1.392202526330947876e-01
-1.436722129583358765e-01 4.653423279523849487e-02 1.385882198810577393e-01
-2.350189983844757080e-01 -6.003825664520263672e-01 -1.280236840248107910e-01
-2.354437261819839478e-01 -5.926195383071899414e-01 -1.216534376144409180e-01
-2.255561649799346924e-01 -5.959290862083435059e-01 -1.288031041622161865e-01
-2.258908599615097046e-01 -5.880793333053588867e-01 -1.223650351166725159e-01
-6.165847647935152054e-03 -2.555854320526123047e-01 -8.065687865018844604e-02
-6.329553201794624329e-03 -2.466853559017181396e-01 -7.627711445093154907e-02
-4.052940756082534790e-03 -2.527295649051666260e-01 -7.999497652053833008e-02
-4.076451063156127930e-03 -2.445181459188461304e-01 -7.597184181213378906e-02
1.991311460733413696e-01 5.554506778717041016e-01 -3.057471513748168945e-01
2.046296745538711548e-01 5.662202239036560059e-01 -3.088271915912628174e-01
2.109141498804092407e-01 5.580893158912658691e-01 -3.026259541511535645e-01
2.167157083749771118e-01 5.692176222801208496e-01 -3.057904839515686035e-01
3.048995882272720337e-02 6.456188559532165527e-01 -4.695304855704307556e-02
2.731180563569068909e-02 6.553198099136352539e-01 -4.056201502680778503e-02
3.918856009840965271e-02 6.490991115570068359e-01 -4.730574786663055420e-02
3.559676930308341980e-02 6.577437520027160645e-01 -4.059487581253051758e-02
-1.305684149265289307e-01 2.384354174137115479e-01 2.602771669626235962e-02
-1.258613914251327515e-01 2.499542981386184692e-01 2.593697607517242432e-02
-1.302170157432556152e-01 2.428657859563827515e-01 3.645655140280723572e-02
-1.259873658418655396e-01 2.541603744029998779e-01 3.614177927374839783e-02
1.708741337060928345e-01 -4.337506890296936035e-01 2.470236085355281830e-02
1.724640280008316040e-01 -4.243831336498260498e-01 2.308808825910091400e-02
1.789032369852066040e-01 -4.365997314453125000e-01 3.266960382461547852e-02
1.804257780313491821e-01 -4.262189269065856934e-01 3.076861798763275146e-02
1.407130956649780273e-01 4.875630140304565430e-01 -1.567433625459671021e-01
1.302661299705505371e-01 4.908300340175628662e-01 -1.552712768316268921e-01
1.438927948474884033e-01 4.786987900733947754e-01 -1.515299379825592041e-01
1.329530328512191772e-01 4.822707474231719971e-01 -1.482391506433486938e-01
1.442611515522003174e-01 4.014149010181427002e-01 -1.100453585386276245e-01
1.439649611711502075e-01 4.109868407249450684e-01 -1.096488311886787415e-01
1.424917876720428467e-01 4.021610915660858154e-01 -1.020315662026405334e-01
1.412644535303115845e-01 4.108039140701293945e-01 -1.010792702436447144e-01
2.549250721931457520e-01 6.468942165374755859e-01 -1.888675391674041748e-01
2.529658079147338867e-01 6.535919904708862305e-01 -1.870389580726623535e-01
2.623894214630126953e-01 6.471130847930908203e-01 -1.892895400524139404e-01
2.608969807624816895e-01 6.540377140045166016e-01 -1.872383803129196167e-01
1.226704269647598267e-01 -2.145786434412002563e-01 1.419150084257125854e-01
1.195771545171737671e-01 -2.076967507600784302e-01 1.416170448064804077e-01
1.214606016874313354e-01 -2.208448797464370728e-01 1.463078856468200684e-01
1.177988871932029724e-01 -2.138440608978271484e-01 1.466954946517944336e-01
-4.395296424627304077e-02 2.758501172065734863e-01 2.412714362144470215e-01
-4.652262479066848755e-02 2.853042483329772949e-01 2.458352893590927124e-01
-3.431314602494239807e-02 2.801980972290039062e-01 2.387672811746597290e-01
-3.603747859597206116e-02 2.900669872760772705e-01 2.424910366535186768e-01
1.755033880472183228e-01 6.208578348159790039e-01 4.085170850157737732e-02
1.705977618694305420e-01 6.288866996765136719e-01 4.363226890563964844e-02
1.702903211116790771e-01 6.188217401504516602e-01 5.061797797679901123e-02
1.652095019817352295e-01 6.264614462852478027e-01 5.363465100526809692e-02
1.733871847391128540e-01 -4.537298083305358887e-01 1.185082122683525085e-01
1.775241792201995850e-01 -4.438378512859344482e-01 1.189670711755752563e-01
1.762741059064865112e-01 -4.483941495418548584e-01 1.211349964141845703e-01
1.801600307226181030e-01 -4.388573169708251953e-01 1.216550767421722412e-01
1.857324093580245972e-01 -4.480610191822052002e-01 4.307864606380462646e-02
1.895336210727691650e-01 -4.368755519390106201e-01 4.149510338902473450e-02
1.904751360416412354e-01 -4.462199509143829346e-01 5.262136831879615784e-02
1.950349360704421997e-01 -4.349083602428436279e-01 5.100984871387481689e-02
1.806153059005737305e-01 6.351912021636962891e-01 -2.442732602357864380e-01
1.857203841209411621e-01 6.437090635299682617e-01 -2.479067891836166382e-01
1.824626475572586060e-01 6.404898762702941895e-01 -2.350749671459197998e-01
1.874412000179290771e-01 6.490297913551330566e-01 -2.385351359844207764e-01
1.746816374361515045e-02 6.856197714805603027e-01 4.977265372872352600e-02
2.687453106045722961e-02 6.899858117103576660e-01 4.481277614831924438e-02
2.660400047898292542e-02 6.868307590484619141e-01 5.683336779475212097e-02
3.466035425662994385e-02 6.902297139167785645e-01 5.041664093732833862e-02
6.159179285168647766e-02 -1.465199738740921021e-01 2.703862451016902924e-02
5.728451535105705261e-02 -1.372055858373641968e-01 3.028248995542526245e-02
6.711431592702865601e-02 -1.469602882862091064e-01 3.502028062939643860e-02
6.287228316068649292e-02 -1.376665234565734863e-01 3.801603242754936218e-02
5.921595171093940735e-02 2.448843270540237427e-01 1.656911373138427734e-01
5.884071066975593567e-02 2.556776702404022217e-01 1.703448295593261719e-01
6.652006506919860840e-02 2.488924413919448853e-01 1.653517335653305054e-01
6.619167327880859375e-02 2.597979903221130371e-01 1.690485924482345581e-01
6.021793931722640991e-02 -3.196438252925872803e-01 8.651271462440490723e-02
5.114397779107093811e-02 -3.121777176856994629e-01 9.152095019817352295e-02
7.163301110267639160e-02 -3.211064934730529785e-01 9.249649941921234131e-02
6.238812208175659180e-02 -3.135288953781127930e-01 9.715593606233596802e-02
-1.721398830413818359e-01 8.194646984338760376e-02 3.075109720230102539e-01
-1.727403104305267334e-01 9.185854345560073853e-02 3.071637153625488281e-01
-1.639120727777481079e-01 8.299072086811065674e-02 3.086640238761901855e-01
-1.636120080947875977e-01 9.261609613895416260e-02 3.081491589546203613e-01
-6.320606172084808350e-02 2.773868739604949951e-01 -1.265003085136413574e-01
-6.144513934850692749e-02 2.888699471950531006e-01 -1.252568513154983521e-01
-6.822042912244796753e-02 2.864944338798522949e-01 -1.174915358424186707e-01
-6.690157949924468994e-02 2.974982261657714844e-01 -1.146475225687026978e-01
-1.645341068506240845e-01 6.674201786518096924e-02 2.597257494926452637e-01
-1.582541316747665405e-01 7.696042954921722412e-02 2.565119862556457520e-01
-1.574628502130508423e-01 6.793576478958129883e-02 2.676010429859161377e-01
-1.512429416179656982e-01 7.810069620609283447e-02 2.652003169059753418e-01
-5.897396430373191833e-02 -1.754495799541473389e-01 1.695458143949508667e-01
-5.812217667698860168e-02 -1.643967032432556152e-01 1.716338694095611572e-01
-4.823610559105873108e-02 -1.748015135526657104e-01 1.685487478971481323e-01
-4.738701134920120239e-02 -1.636210381984710693e-01 1.705911010503768921e-01
-1.165611669421195984e-01 3.527647852897644043e-01 1.727315336465835571e-01
-1.134224832057952881e-01 3.610157966613769531e-01 1.754285097122192383e-01
-1.161602810025215149e-01 3.572170436382293701e-01 1.861707270145416260e-01
-1.130911633372306824e-01 3.657210171222686768e-01 1.885225921869277954e-01
-2.885152772068977356e-02 -1.139864623546600342e-01 1.697193384170532227e-01
-2.849006280303001404e-02 -1.007144153118133545e-01 1.680375039577484131e-01
-1.790395751595497131e-02 -1.133934929966926575e-01 1.670618802309036255e-01
-1.837776601314544678e-02 -1.009323745965957642e-01 1.651425808668136597e-01
-1.272687464952468872e-01 2.561776936054229736e-01 3.826565295457839966e-02
-1.231565847992897034e-01 2.674200236797332764e-01 3.784646093845367432e-02
-1.257962584495544434e-01 2.611671388149261475e-01 4.904281720519065857e-02
-1.225699782371520996e-01 2.712934017181396484e-01 4.788831621408462524e-02
-2.033281773328781128e-01 -4.156778100878000259e-03 -1.146261692047119141e-01
-1.983280628919601440e-01 4.511923994868993759e-03 -1.157267540693283081e-01
-2.026460021734237671e-01 1.852992456406354904e-03 -1.054253503680229187e-01
-1.978950798511505127e-01 1.042448077350854874e-02 -1.065029874444007874e-01
-6.454915553331375122e-02 2.330088913440704346e-01 -1.392527967691421509e-01
-6.176079809665679932e-02 2.438799589872360229e-01 -1.388633847236633301e-01
-6.068608164787292480e-02 2.377458512783050537e-01 -1.385818272829055786e-01
-5.813800543546676636e-02 2.488649636507034302e-01 -1.390111148357391357e-01
1.504266411066055298e-01 5.246152877807617188e-01 -1.776432096958160400e-01
1.538856923580169678e-01 5.330015420913696289e-01 -1.864095181226730347e-01
1.594958007335662842e-01 5.212386250495910645e-01 -1.764932423830032349e-01
1.632332652807235718e-01 5.298840999603271484e-01 -1.837017834186553955e-01
7.644814252853393555e-02 6.721369028091430664e-01 8.718500286340713501e-02
8.086465299129486084e-02 6.772615909576416016e-01 7.872999459505081177e-02
8.718871325254440308e-02 6.688759326934814453e-01 8.731912821531295776e-02
9.135735780000686646e-02 6.743770241737365723e-01 7.902718335390090942e-02
-2.590053379535675049e-01 -6.399346590042114258e-01 -1.130116432905197144e-01
-2.601478397846221924e-01 -6.269902586936950684e-01 -1.158992350101470947e-01
-2.512810528278350830e-01 -6.370452642440795898e-01 -1.138530597090721130e-01
-2.522966563701629639e-01 -6.241948008537292480e-01 -1.168658286333084106e-01
-1.439486294984817505e-01 2.890500724315643311e-01 1.982816755771636963e-01
-1.432613879442214966e-01 3.024674952030181885e-01 2.016275227069854736e-01
-1.491194218397140503e-01 2.966894209384918213e-01 2.106890678405761719e-01
-1.466135680675506592e-01 3.095233142375946045e-01 2.123890668153762817e-01
-2.392932325601577759e-01 -5.369893908500671387e-01 -1.364752799272537231e-01
-2.376107573509216309e-01 -5.281450748443603516e-01 -1.423181891441345215e-01
-2.300085127353668213e-01 -5.355905294418334961e-01 -1.338089704513549805e-01
-2.286127209663391113e-01 -5.270858407020568848e-01 -1.389372348785400391e-01
-5.930544808506965637e-02 -1.798763684928417206e-02 1.437052637338638306e-01
-5.502357706427574158e-02 -7.215740159153938293e-03 1.365502625703811646e-01
-4.951322078704833984e-02 -2.499516867101192474e-02 1.429974436759948730e-01
-4.642788693308830261e-02 -1.525884307920932770e-02 1.357441246509552002e-01
3.113326132297515869e-01 7.249851226806640625e-01 -1.621808260679244995e-01
3.153238296508789062e-01 7.364842295646667480e-01 -1.669511497020721436e-01
3.164452612400054932e-01 7.252610325813293457e-01 -1.546757519245147705e-01
3.200904726982116699e-01 7.367440462112426758e-01 -1.597701311111450195e-01
-3.436738252639770508e-01 -6.751075983047485352e-01 -1.591593474149703979e-01
-3.481999039649963379e-01 -6.683034896850585938e-01 -1.558775156736373901e-01
-3.415302634239196777e-01 -6.761614084243774414e-01 -1.556382328271865845e-01
-3.460563421249389648e-01 -6.693572998046875000e-01 -1.523564010858535767e-01
1.296281963586807251e-01 2.948265075683593750e-01 1.373993139714002609e-02
1.278858929872512817e-01 3.041185438632965088e-01 1.788641698658466339e-02
1.275566518306732178e-01 2.931586205959320068e-01 2.476506307721138000e-02
1.259814202785491943e-01 3.027490079402923584e-01 2.888507209718227386e-02
1.195256933569908142e-01 2.745705246925354004e-01 1.037841364741325378e-01
1.165712177753448486e-01 2.847857773303985596e-01 1.096884757280349731e-01
1.121938750147819519e-01 2.799986600875854492e-01 1.169302761554718018e-01
1.110463738441467285e-01 2.901957333087921143e-01 1.200624778866767883e-01
-2.073327079415321350e-02 -4.510837048292160034e-02 1.245772689580917358e-01
-2.813766524195671082e-02 -3.877958282828330994e-02 1.252906918525695801e-01
-1.841846108436584473e-02 -5.652559176087379456e-02 1.313147544860839844e-01
-2.666419371962547302e-02 -5.061568319797515869e-02 1.323995441198348999e-01
1.555491387844085693e-01 -3.179997801780700684e-01 1.278389245271682739e-01
1.561660021543502808e-01 -3.061402738094329834e-01 1.300627291202545166e-01
1.663799881935119629e-01 -3.166210949420928955e-01 1.270627379417419434e-01
1.665449291467666626e-01 -3.047897219657897949e-01 1.274520903825759888e-01
-5.596205219626426697e-02 -2.268961369991302490e-01 -1.439433638006448746e-02
-5.560798570513725281e-02 -2.213795781135559082e-01 -1.917757652699947357e-02
-4.879963025450706482e-02 -2.283093631267547607e-01 -1.427001040428876877e-02
-4.889549687504768372e-02 -2.227110117673873901e-01 -1.895320042967796326e-02
1.235348954796791077e-01 5.471484065055847168e-01 -2.357480823993682861e-01
1.289424449205398560e-01 5.551102161407470703e-01 -2.397233098745346069e-01
1.237411126494407654e-01 5.528913736343383789e-01 -2.272819727659225464e-01
1.293302476406097412e-01 5.606136322021484375e-01 -2.317090630531311035e-01
-4.525276273488998413e-02 -4.140712916851043701e-01 -1.548189967870712280e-01
-4.355263710021972656e-02 -4.048115313053131104e-01 -1.566110849380493164e-01
-3.757538273930549622e-02 -4.136421084403991699e-01 -1.533635705709457397e-01
-3.690750524401664734e-02 -4.041748046875000000e-01 -1.549708694219589233e-01
3.585198819637298584e-01 7.797044515609741211e-01 -1.281982660293579102e-01
3.612999916076660156e-01 7.875629663467407227e-01 -1.271542310714721680e-01
3.618297278881072998e-01 7.781526446342468262e-01 -1.197707653045654297e-01
3.643898367881774902e-01 7.859472632408142090e-01 -1.187618300318717957e-01
1.543740928173065186e-01 -7.492825984954833984e-01 6.394133716821670532e-02
1.443497836589813232e-01 -7.482199668884277344e-01 6.651117652654647827e-02
1.587084233760833740e-01 -7.543991208076477051e-01 7.049913704395294189e-02
1.489880979061126709e-01 -7.532846331596374512e-01 7.321272045373916626e-02
-5.122103169560432434e-02 1.245994493365287781e-02 1.323863416910171509e-01
-4.975190758705139160e-02 2.308751828968524933e-02 1.302626132965087891e-01
-3.791780769824981689e-02 9.718058630824089050e-03 1.280686706304550171e-01
-3.597636893391609192e-02 2.006820961833000183e-02 1.272382587194442749e-01
1.133411973714828491e-01 -1.614685654640197754e-01 6.652101129293441772e-02
1.075930967926979065e-01 -1.548396199941635132e-01 6.849886476993560791e-02
1.196938306093215942e-01 -1.614709049463272095e-01 7.436137646436691284e-02
1.141332611441612244e-01 -1.547346264123916626e-01 7.663355022668838501e-02
-1.863425672054290771e-01 -1.441097259521484375e-01 -1.460670977830886841e-01
-1.921955049037933350e-01 -1.335099935531616211e-01 -1.417928338050842285e-01
-1.929813921451568604e-01 -1.423135399818420410e-01 -1.349988728761672974e-01
-1.985396146774291992e-01 -1.318775713443756104e-01 -1.309445947408676147e-01
2.796763479709625244e-01 6.772516965866088867e-01 -1.697538793087005615e-01
2.782354950904846191e-01 6.871015429496765137e-01 -1.643028706312179565e-01
2.852640748023986816e-01 6.850433349609375000e-01 -1.642693728208541870e-01
2.834827303886413574e-01 6.953637003898620605e-01 -1.589379161596298218e-01
1.407899409532546997e-01 -3.737943470478057861e-01 1.136685758829116821e-01
1.414548903703689575e-01 -3.624622523784637451e-01 1.117221489548683167e-01
1.508658081293106079e-01 -3.751395046710968018e-01 1.142804622650146484e-01
1.494363844394683838e-01 -3.627682626247406006e-01 1.132006645202636719e-01
2.513734064996242523e-02 -1.560764163732528687e-01 -1.811902672052383423e-01
2.293696440756320953e-02 -1.449327915906906128e-01 -1.797304302453994751e-01
2.754406817257404327e-02 -1.537243574857711792e-01 -1.717335879802703857e-01
2.560182474553585052e-02 -1.427520066499710083e-01 -1.701864451169967651e-01
3.964335843920707703e-02 5.775199532508850098e-01 9.580270200967788696e-02
3.732482716441154480e-02 5.903237462043762207e-01 9.691897779703140259e-02
5.058190971612930298e-02 5.775276422500610352e-01 9.744130074977874756e-02
4.812866076827049255e-02 5.902801752090454102e-01 9.827879071235656738e-02
2.019215971231460571e-01 -4.460182785987854004e-01 9.545271843671798706e-02
2.055094540119171143e-01 -4.359171688556671143e-01 9.583584219217300415e-02
1.994181573390960693e-01 -4.405734837055206299e-01 1.026391908526420593e-01
2.033483684062957764e-01 -4.302018284797668457e-01 1.026208028197288513e-01
-1.718354374170303345e-01 8.644327521324157715e-02 6.363307684659957886e-02
-1.680613905191421509e-01 9.689550846815109253e-02 6.468861550092697144e-02
-1.675818413496017456e-01 8.892904967069625854e-02 7.424277812242507935e-02
-1.638340204954147339e-01 9.958104789257049561e-02 7.503776252269744873e-02
7.978292554616928101e-02 -7.041673064231872559e-01 4.893154278397560120e-02
7.979959994554519653e-02 -6.917976140975952148e-01 4.979190975427627563e-02
8.865518867969512939e-02 -6.991431117057800293e-01 4.743213579058647156e-02
8.990241587162017822e-02 -6.870269179344177246e-01 4.862235859036445618e-02
-7.574737071990966797e-02 3.274287581443786621e-01 -9.358672797679901123e-02
-7.149603217840194702e-02 3.390480577945709229e-01 -9.249647706747055054e-02
-7.973232120275497437e-02 3.344406783580780029e-01 -8.433286100625991821e-02
-7.500375062227249146e-02 3.458822071552276611e-01 -8.355748653411865234e-02
2.208827733993530273e-01 -2.896610498428344727e-01 6.267882883548736572e-02
2.183263599872589111e-01 -2.820789217948913574e-01 6.381029635667800903e-02
2.242708057165145874e-01 -2.912303805351257324e-01 6.953339278697967529e-02
2.213793098926544189e-01 -2.835992872714996338e-01 7.136792689561843872e-02
-1.501424517482519150e-02 -4.473110288381576538e-02 1.163483411073684692e-01
-2.319578453898429871e-02 -3.834686428308486938e-02 1.187990456819534302e-01
-1.522059645503759384e-02 -5.396814644336700439e-02 1.239889711141586304e-01
-2.422878146171569824e-02 -4.782334342598915100e-02 1.263435781002044678e-01
-9.952081367373466492e-03 6.602116227149963379e-01 3.049862943589687347e-02
-3.017191309481859207e-03 6.697798371315002441e-01 3.069599345326423645e-02
-4.157937131822109222e-03 6.650995016098022461e-01 4.062794521450996399e-02
2.938629360869526863e-03 6.748788356781005859e-01 4.078833013772964478e-02
9.221399575471878052e-02 2.641654908657073975e-01 -1.269056499004364014e-01
9.408723562955856323e-02 2.756520211696624756e-01 -1.287946254014968872e-01
1.011430993676185608e-01 2.656474411487579346e-01 -1.178656369447708130e-01
