0.189488 0.163671 0.151304 0.00179582
0.614453 0.259031 0.540491 0.000824455
0.615951 0.267888 0.540156 0.00231343
0.61254 0.261407 0.55199 0.00078775
0.614066 0.270178 0.551994 0.000738842
0.453812 0.0282937 0.260362 0.000455726
0.442621 0.0267493 0.274 0.00102884
0.463255 0.0283417 0.270588 0.000546562
0.452052 0.0266692 0.283471 0.00106935
0.166877 0.0284422 0.411391 0.00127971
0.15287 0.0253695 0.42819 0.00172045
0.178598 0.0286402 0.424672 0.00153246
0.166365 0.0257184 0.440255 0.00132221
0.409518 0.735368 0.557524 0.000631816
0.417834 0.737105 0.552608 0.00108453
0.41586 0.733636 0.565584 0.00233043
0.42824 0.736261 0.558709 0.000264721
0.472634 0.0564489 0.0747316 0.000570411
0.474823 0.0701146 0.073474 0.000803784
0.486213 0.0573763 0.0775855 0.0030636
0.488242 0.0702774 0.0754925 0.000861868
0.601576 0.389359 0.404044 0.00689746
0.604795 0.403143 0.403486 0.00759942
0.605269 0.391351 0.415414 0.0043621
0.609224 0.405437 0.415414 0.00419803
0.400167 0.495719 0.0317975 0.00120852
0.399324 0.506613 0.0302165 0.000396015
0.414877 0.495461 0.0318744 0.000902396
0.414355 0.506195 0.0301209 0.000882406
0.404936 0.235614 0.441453 0.0045161
0.412824 0.23776 0.435393 0.00435636
0.414204 0.234204 0.448266 0.00565327
0.422074 0.236455 0.442874 0.00366967
0.893971 0.02968 0.739671 0.00174527
0.880775 0.0309409 0.751304 0.000433557
0.899741 0.032821 0.747772 0.00142938
0.886602 0.034647 0.759581 0.0024109
0.61393 0.687032 0.547881 0.000500032
0.614741 0.701206 0.548865 0.00133576
0.609624 0.692332 0.558322 0.00353238
0.61063 0.706328 0.5592 0.0025034
0.312869 0.0882334 0.760158 0.0092717
0.298543 0.0867536 0.772894 0.000865341
0.320842 0.0871111 0.772166 0.000685873
0.307146 0.0857684 0.784985 0.000259505
0.121825 0.443653 0.563742 0.00115424
0.12096 0.455836 0.563375 0.000758726
0.134796 0.444704 0.562978 4.71374e-05
0.134284 0.457028 0.562517 0.000452898
0.716427 0.0350661 0.676187 0.00232759
0.710795 0.0357204 0.687689 0.00162449
0.724665 0.0371979 0.684871 0.000161928
0.719312 0.0378201 0.696289 0.000510876
0.132115 0.535767 0.564873 0.00162716
0.13018 0.551085 0.564951 0.00169097
0.146403 0.536973 0.563278 0.000346554
0.144321 0.5521 0.563365 0.000268798
0.280835 0.448863 0.0287551 0.00148186
0.280985 0.46713 0.0295027 0.00214791
0.300311 0.453601 0.0284321 0.000630367
0.300484 0.471308 0.0292588 0.00137719
0.273455 0.628914 0.155913 0.000944217
0.26317 0.632704 0.173599 0.000436134
0.286461 0.632649 0.168988 0.000445994
0.275989 0.636297 0.186124 0.000911487
0.574401 0.627974 0.382812 0.000240344
0.573843 0.642227 0.381709 0.000195746
0.582738 0.626534 0.395058 0.00148082
0.581901 0.641288 0.393458 0.00150921
0.297998 0.676332 0.321876 0.00445251
0.29555 0.684653 0.332274 0.00249529
0.308342 0.67835 0.325806 0.00171384
0.305973 0.68825 0.336338 0.00481322
0.193228 0.396777 0.0515938 0.00338687
0.196666 0.411409 0.0509198 0.00120079
0.188223 0.403023 0.063278 0.00155245
0.191261 0.417483 0.061987 0.00114078
0.0645757 0.0749273 0.844358 0.00189483
0.0767158 0.0791297 0.843773 0.00167352
0.0746004 0.0789531 0.852763 0.000644329
0.0863577 0.0832196 0.852538 0.00351319
0.0603298 0.497765 0.432225 0.000371354
0.0602841 0.506654 0.434067 0.00076196
0.0588839 0.500002 0.443422 0.000395645
0.0589738 0.509263 0.444924 0.000267232
0.0558249 0.712662 0.500562 0.00196378
0.0613246 0.724029 0.502332 0.0035809
0.0565466 0.716609 0.514096 0.000888163
0.0624297 0.727466 0.515111 0.00502008
0.162227 0.371353 0.194307 0.0002389
0.16341 0.381261 0.195314 0.00159863
0.159665 0.374811 0.20501 4.76146e-05
0.161032 0.385127 0.205365 0.00135572
0.0592483 0.577822 0.46812 0.000605217
0.0595335 0.592712 0.472117 0.00099351
0.0587773 0.578312 0.484769 0.000567819
0.0588091 0.593304 0.488752 0.0007045
0.242881 0.0297301 0.156823 0.00147129
0.236068 0.0278872 0.166739 0.00032823
0.254878 0.0299641 0.167993 0.00175187
0.248078 0.0282958 0.177968 0.000127184
0.528298 0.16007 0.402997 0.000778577
0.517743 0.164395 0.406103 0.00356109
0.534687 0.157446 0.412768 0.00348196
0.524422 0.16201 0.415738 0.00121572
0.523166 0.553768 0.176929 0.00130083
0.524184 0.567674 0.182102 0.00151025
0.524823 0.560025 0.195335 6.98861e-05
0.52572 0.573768 0.201063 7.2715e-05
0.348007 0.028445 0.191927 0.000325101
0.335645 0.025776 0.205567 0.00228391
0.360143 0.0300009 0.203463 0.00192914
0.347646 0.0274175 0.21711 0.000594212
0.0608539 0.099582 0.225207 0.00412869
0.0599454 0.110436 0.228029 0.00496446
0.0665521 0.1012 0.239612 0.00194344
0.0640913 0.111433 0.243131 0.000425809
0.60441 0.145183 0.115265 0.00153799
0.596575 0.148235 0.119588 0.00153487
0.615287 0.141868 0.1243 0.00481725
0.607708 0.145254 0.128343 0.00141145
0.628515 0.0683215 0.246041 6.62537e-05
0.629296 0.0831598 0.245889 0.000712208
0.627628 0.0738805 0.257022 0.000665478
0.627641 0.0874193 0.257213 0.000646722
0.444125 0.023392 0.780085 0.00222921
0.458704 0.0261245 0.770979 0.000461409
0.453998 0.0254976 0.786782 9.54411e-05
0.468734 0.0278017 0.779052 0.00217311
0.308478 0.0463569 0.721012 0.00144263
0.316861 0.0513885 0.715159 0.00379881
0.323213 0.0448459 0.72725 0.00264412
0.331907 0.0500726 0.721516 0.000486494
0.564685 0.0693108 0.765767 0.00961205
0.578427 0.0724654 0.762804 0.00692499
0.573072 0.071702 0.775228 0.00600743
0.588903 0.0748595 0.770636 0.00354912
0.261092 0.144361 0.550567 0.000469855
0.244885 0.145079 0.558674 0.000285281
0.269413 0.143137 0.562302 0.00164549
0.253384 0.144219 0.569465 0.000530892
0.06688 0.0787827 0.206317 0.00451746
0.064108 0.0898 0.211075 0.00124348
0.0660246 0.0791026 0.222306 0.00367654
0.063625 0.0898725 0.225332 0.00135405
0.613907 0.464473 0.424296 0.00333249
0.615718 0.477258 0.428462 0.00141383
0.616442 0.467629 0.438604 0.000119397
0.618491 0.480318 0.44316 0.00397906
0.47229 0.0264969 0.219925 0.00151671
0.46152 0.0250656 0.23491 0.00288245
0.483688 0.0297032 0.232032 0.00174018
0.473176 0.0278808 0.24683 1.74429e-05
0.616039 0.584557 0.450906 7.52848e-05
0.616368 0.596029 0.451389 0.000416404
0.615381 0.588037 0.46113 0.000315635
0.616047 0.5993 0.462031 0.000373265
0.262765 0.155692 0.208777 0.00594724
0.260418 0.160582 0.220102 0.00100957
0.272793 0.1615 0.214678 0.00011585
0.271018 0.166417 0.226012 0.00485021
0.33074 0.719219 0.361657 9.57633e-05
0.325285 0.724316 0.373321 0.00143562
0.341169 0.724001 0.371091 0.000378092
0.334205 0.729218 0.382947 0.00192214
0.605153 0.0173544 0.624046 0.0089589
0.607382 0.0266103 0.625331 0.000302083
0.613357 0.0229008 0.625769 0.00340618
0.617273 0.0323485 0.62606 0.00136603
0.264864 0.0250834 0.840486 0.000256489
0.253138 0.0236058 0.852714 0.00168311
0.27396 0.0264498 0.849327 0.0011456
0.261113 0.0250595 0.863336 0.000186635
0.0639695 0.107373 0.288648 0.00064138
0.0630907 0.117702 0.291507 0.000162095
0.0614003 0.109598 0.30302 0.00155194
0.0606988 0.120168 0.305843 0.0021767
0.610884 0.0552635 0.0712527 0.0065226
0.613789 0.0663392 0.0739943 0.00390651
0.619763 0.0564672 0.0822365 0.00421952
0.622484 0.0675389 0.0857755 0.00763759
0.36091 0.220442 0.403062 0.00136117
0.363669 0.23036 0.403091 0.00119946
0.373305 0.220632 0.405637 0.000892814
0.375711 0.229369 0.405501 0.00087291
0.353185 0.735416 0.553431 0.000594311
0.355873 0.739084 0.549997 0.00305868
0.36674 0.731763 0.558004 0.00422942
0.369517 0.736287 0.554347 0.000278479
0.245899 0.68713 0.368428 0.00112853
0.238546 0.6928 0.377213 0.000742669
0.259976 0.691565 0.370768 0.00171253
0.251933 0.697232 0.379318 0.00220513
0.156404 0.158165 0.497569 0.00224194
0.172691 0.159222 0.492725 0.00120791
0.165939 0.158384 0.508434 0.00421296
0.181883 0.158974 0.503375 0.00126475
0.247787 0.0271285 0.455309 0.000142462
0.24329 0.0256217 0.469277 0.0013049
0.257494 0.0289525 0.466876 0.00201421
0.25267 0.0274809 0.480508 0.000600639
0.40973 0.236729 0.421388 0.00375054
0.415392 0.240293 0.423825 0.000177646
0.419209 0.23605 0.428412 0.00440392
0.425711 0.239177 0.43022 0.00127067
0.0988647 0.0285844 0.258783 0.000779546
0.0885207 0.0280845 0.267412 0.000317865
0.107198 0.0296477 0.268309 0.00188279
0.0968229 0.0290662 0.277266 0.00134084
0.207763 0.267921 0.0563518 0.000277035
0.195067 0.268647 0.0637147 0.00444413
0.212678 0.263685 0.0635391 0.000555905
0.199769 0.264309 0.0713624 0.000815767
0.302457 0.0569641 0.0678419 0.00186456
0.310487 0.0630754 0.0647174 0.00522294
0.31672 0.0574314 0.0709677 0.000885203
0.324634 0.0641771 0.0682832 0.00203362
0.34153 0.139711 0.0826237 0.00711837
0.339353 0.148345 0.0882286 0.00153963
0.352973 0.142649 0.0852974 0.00417077
0.349144 0.148753 0.092502 0.00196487
0.509663 0.1609 0.290874 0.000421054
0.495611 0.161377 0.299479 9.41724e-05
0.520012 0.160256 0.300297 0.0010263
0.505077 0.16092 0.308299 0.000326363
0.558518 0.027713 0.308597 7.03377e-05
0.550684 0.026155 0.323979 0.00142072
0.57081 0.0299883 0.321429 0.00239933
0.563981 0.0290223 0.336502 0.00149886
0.253789 0.203166 0.318727 0.0034697
0.25633 0.216725 0.31768 0.000957133
0.255869 0.206774 0.330837 0.00107342
0.257507 0.219952 0.330617 0.000557869
0.184898 0.327571 0.0736444 0.00259897
0.188603 0.341139 0.0722633 0.000728457
0.184817 0.328963 0.0824425 0.000853194
0.187316 0.341223 0.0825212 0.00159933
0.553132 0.0806067 0.820382 0.00888616
0.543874 0.0788737 0.835141 0.00266018
0.559903 0.0820106 0.832352 0.00141563
0.549443 0.0811408 0.845427 0.00110386
0.176297 0.38915 0.13148 0.000950258
0.175776 0.40143 0.133384 0.000827155
0.171936 0.392019 0.14443 0.000630249
0.172016 0.404559 0.146084 0.000217263
0.327818 0.0297853 0.141815 0.00145247
0.317747 0.0269526 0.15557 0.00132
0.338432 0.0299955 0.152551 0.00170759
0.328237 0.0271579 0.166134 0.00107054
0.235139 0.0286041 0.304678 0.000980931
0.226365 0.0260129 0.315488 0.00156284
0.247118 0.0295991 0.316493 0.00202536
0.23757 0.0268856 0.327781 0.000638595
0.425544 0.203832 0.336421 0.00130141
0.42562 0.214865 0.340706 0.00148909
0.424605 0.207103 0.350336 0.000725759
0.424563 0.217903 0.3545 0.000790865
0.479551 0.587409 0.0381963 0.00151694
0.475837 0.600976 0.038949 0.00869179
0.490407 0.587521 0.0471352 0.00162217
0.487293 0.601027 0.0480637 0.00334025
0.0990558 0.687077 0.569228 0.000927928
0.0993054 0.69692 0.567626 0.000722179
0.112451 0.686431 0.570256 0.00160681
0.110422 0.697483 0.57059 0.00194743
0.540637 0.496218 0.299549 0.000621863
0.542391 0.510359 0.302838 0.000607852
0.543118 0.497712 0.315273 0.000622943
0.544226 0.511295 0.317129 0.000191726
0.561651 0.143614 0.32479 0.0022109
0.551212 0.146421 0.329661 0.000620653
0.573153 0.143328 0.333563 0.00246358
0.562757 0.147196 0.338591 0.00142876
0.613532 0.337844 0.491025 0.0013872
0.615428 0.353404 0.489227 0.000461919
0.614003 0.343155 0.503813 0.00058098
0.616125 0.358932 0.501479 0.0014794
0.0607761 0.30127 0.433106 0.00121999
0.0586665 0.312496 0.43588 0.000816547
0.059312 0.301222 0.445444 7.55018e-05
0.0580844 0.312489 0.447651 0.00109404
0.168623 0.587084 0.564223 0.000194455
0.172805 0.602193 0.564855 0.000263739
0.185986 0.593251 0.565101 0.000202619
0.18959 0.607919 0.565759 0.000703529
0.110779 0.577071 0.564138 0.00152445
0.106277 0.589939 0.56367 0.00440452
0.123818 0.57474 0.562114 0.00107791
0.120872 0.587916 0.561908 0.00126325
0.523829 0.653446 0.314793 0.00413892
0.519857 0.658971 0.323385 0.000263432
0.535744 0.656914 0.322036 0.00197068
0.531078 0.662096 0.330183 0.000221808
0.115352 0.0792957 0.713008 0.00515879
0.115366 0.0846329 0.722415 0.00137982
0.127616 0.0793964 0.722098 0.00389543
0.123615 0.0825141 0.732491 0.000588359
0.474641 0.0299235 0.121894 0.00148871
0.466266 0.0266613 0.135133 0.0017157
0.484939 0.0306044 0.131518 0.00220975
0.476618 0.0270132 0.144957 0.00132281
0.101167 0.0518462 0.0583235 0.00609422
0.0900458 0.0639724 0.0646005 0.000422125
0.108864 0.0445804 0.0662461 0.00165388
0.0965412 0.0557844 0.0729921 0.00867419
0.0597504 0.365629 0.485335 0.00155446
0.0604915 0.377947 0.488289 0.00237221
0.0585288 0.371374 0.498787 0.000684921
0.0597805 0.385183 0.500227 0.00197343
0.300743 0.0286566 0.169012 0.000443616
0.288049 0.0263036 0.183533 0.00184555
0.312752 0.0300218 0.182115 0.00186367
0.299977 0.027764 0.196661 0.000330213
0.611714 0.0229799 0.509787 0.00381641
0.620978 0.028956 0.507399 0.000763039
0.615174 0.0245823 0.519841 0.00217192
0.622784 0.0313904 0.517335 0.00130132
0.608256 0.315867 0.439035 0.00308119
0.606897 0.330127 0.438754 0.00446758
0.611296 0.317581 0.450647 0.00467876
0.611576 0.332089 0.45035 0.00440633
0.16559 0.220188 0.546211 0.00383581
0.157896 0.222928 0.553995 3.9676e-05
0.174028 0.219408 0.551873 0.00248484
0.167784 0.223078 0.560024 0.00580608
0.565063 0.0394662 0.848566 0.00121832
0.577519 0.042404 0.841599 0.00049712
0.574022 0.0422341 0.856381 0.00142901
0.586265 0.0450137 0.851215 0.00222571
0.338395 0.237475 0.444217 0.00263219
0.352197 0.241445 0.437608 0.000791434
0.350162 0.237262 0.452935 0.00067552
0.363545 0.240544 0.445444 0.000441551
0.29975 0.736715 0.447742 0.000253059
0.290639 0.735774 0.462088 0.000622746
0.309305 0.7382 0.458822 0.00178617
0.300612 0.736767 0.472996 0.000417638
0.470305 0.0796004 0.739906 0.00251842
0.463191 0.0791311 0.752627 0.00127432
0.481026 0.0813264 0.749935 0.000484496
0.473561 0.0806387 0.763267 0.00159932
0.149845 0.583889 0.563281 0.000631315
0.153914 0.59828 0.563687 0.000393311
0.166787 0.587936 0.564576 0.000202255
0.170969 0.603046 0.565207 0.00066045
0.171222 0.0245167 0.590757 0.00188919
0.16696 0.0258771 0.599146 0.000492989
0.182922 0.0279399 0.591302 0.00153493
0.179015 0.0289576 0.599959 0.00258961
0.249163 0.591002 0.566961 0.000418235
0.250492 0.605016 0.567362 0.000724346
0.265272 0.59335 0.567608 0.0006328
0.266988 0.607022 0.56844 0.00136272
0.386987 0.732773 0.431917 0.00296886
0.375843 0.732636 0.441807 0.000698718
0.398019 0.734985 0.44206 0.000364278
0.386645 0.734594 0.452321 0.00185746
0.304933 0.716459 0.353109 0.00167107
0.301808 0.721413 0.364146 0.000360437
0.315709 0.720968 0.36064 0.00192203
0.311806 0.725838 0.37197 0.000381732
0.130289 0.522726 0.564869 0.00172536
0.12869 0.538134 0.564892 0.00172527
0.144589 0.524108 0.563701 0.000178575
0.142814 0.53968 0.563634 9.19591e-05
0.373219 0.215252 0.508367 0.00127921
0.380118 0.21573 0.507807 0.000803641
0.385579 0.215736 0.516351 0.00076347
0.38978 0.216054 0.518479 0.00043663
0.370307 0.686046 0.329306 0.00260283
0.36411 0.69574 0.339411 0.00369112
0.381037 0.690038 0.334734 0.000852175
0.37538 0.700263 0.344713 0.00683126
0.61394 0.67775 0.554832 0.000691412
0.614864 0.691702 0.555669 0.00163692
0.610716 0.682387 0.563579 0.00230215
0.611567 0.696601 0.564573 0.00142668
0.793751 0.0332486 0.776783 0.00199165
0.788536 0.0342453 0.786025 0.0030281
0.801241 0.0343211 0.784131 0.00309451
0.796031 0.0345488 0.794 0.00336455
0.175052 0.565416 0.134626 0.000257211
0.176811 0.578262 0.135513 0.00215185
0.170028 0.570475 0.148904 0.00169847
0.172871 0.582756 0.148591 0.00100795
0.203905 0.161491 0.466492 0.000946949
0.20091 0.159979 0.474948 0.000529543
0.212703 0.161561 0.474915 0.00105171
0.209507 0.160037 0.483482 0.000436375
0.0758461 0.291902 0.561936 0.00407715
0.0759886 0.305673 0.565514 0.000563282
0.0837665 0.293264 0.568246 0.00201964
0.0858247 0.3076 0.570202 0.00386017
0.311143 0.0243064 0.87012 0.000917834
0.29654 0.0240629 0.884748 0.00110119
0.323748 0.0253355 0.882413 0.000159169
0.309189 0.0261773 0.896439 0.00105859
0.177244 0.0742351 0.609964 0.00258603
0.179024 0.0840262 0.608872 0.000241027
0.191295 0.0749063 0.61169 0.00261676
0.193152 0.0846694 0.610814 0.00132816
0.551735 0.705979 0.582218 0.00197838
0.5518 0.718715 0.579179 0.00111675
0.562761 0.704876 0.582424 0.00190063
0.562988 0.717665 0.579332 0.00125172
0.464931 0.459699 0.572874 0.00123573
0.465091 0.473631 0.572143 0.000442732
0.482057 0.460288 0.571754 0.000334027
0.482261 0.474157 0.570998 0.00115384
0.372723 0.0249131 0.763225 0.000774288
0.383361 0.0282213 0.751373 0.00248023
0.383995 0.0225842 0.770245 0.00307351
0.393193 0.0254987 0.760144 0.000204769
0.329312 0.240633 0.225332 0.00892495
0.321225 0.250628 0.227764 0.00126997
0.335424 0.23152 0.235363 0.00686318
0.327172 0.24295 0.237247 0.00455333
0.142191 0.0267694 0.432797 0.000299955
0.130745 0.02533 0.445114 0.00168618
0.150606 0.0274638 0.44414 0.000441333
0.140618 0.0253749 0.455153 0.00159995
0.370533 0.0364197 0.966727 0.00156617
0.377053 0.0420768 0.962089 0.00421832
0.379919 0.0354621 0.96971 0.00443388
0.386521 0.0411134 0.965207 0.00121899
0.337981 0.157084 0.475077 0.00343834
0.35671 0.159464 0.469371 0.00108515
0.3509 0.157988 0.486626 0.00248686
0.369897 0.160757 0.481124 0.000256715
0.142521 0.706239 0.391787 0.00227954
0.135632 0.711628 0.40104 0.000931124
0.15478 0.709641 0.398212 0.00214983
0.148987 0.715271 0.406944 0.00646686
0.624853 0.103775 0.128783 0.00620429
0.619666 0.111032 0.130999 0.00213405
0.628619 0.102291 0.140327 0.00272562
0.625509 0.110394 0.142081 0.000691505
0.256782 0.692389 0.377903 0.00120518
0.249214 0.698161 0.38634 0.000558595
0.269741 0.696885 0.379719 0.00839825
0.26197 0.702172 0.387981 0.00278825
0.411645 0.0442965 0.072908 0.000395387
0.414742 0.0536142 0.0716976 0.000933965
0.42669 0.0436304 0.0749552 0.00205101
0.429998 0.0540808 0.0736689 0.000635061
0.683299 0.0379464 0.80002 0.00108155
0.672464 0.0379043 0.810154 0.00108271
0.692116 0.0378586 0.80948 0.00103364
0.681465 0.0377437 0.819625 0.000962002
0.572365 0.105101 0.621407 0.00191906
0.569271 0.115037 0.614385 0.00506429
0.585014 0.0948259 0.620634 0.00333561
0.579697 0.10772 0.618502 0.00118841
0.361063 0.213888 0.534344 0.00253481
0.353754 0.215955 0.545158 0.000422103
0.373392 0.215477 0.536349 0.000938802
0.367047 0.218758 0.5464 0.00238471
0.10887 0.0928854 0.604119 0.000369903
0.109527 0.103747 0.602149 0.00224912
0.119884 0.092354 0.604111 0.00090262
0.12081 0.103649 0.602255 0.00242705
0.0676968 0.241457 0.441886 0.00136424
0.0582571 0.244093 0.449764 0.000864971
0.0754523 0.240059 0.449796 1.02821e-06
0.0654633 0.242887 0.457811 0.00286323
0.445323 0.0347774 0.930113 0.00650185
0.440051 0.0358837 0.940422 0.00524357
0.458076 0.0330345 0.935663 0.00319325
0.452112 0.0341102 0.94685 0.00259369
0.252845 0.100434 0.613715 0.00259916
0.256585 0.11497 0.611246 3.01707e-05
0.26664 0.103179 0.612598 0.00110972
0.270375 0.118372 0.610563 0.00108751
0.529936 0.472576 0.574904 0.00150944
0.534342 0.488246 0.574876 0.0013001
0.548171 0.479793 0.576809 0.00290655
0.55322 0.495229 0.576455 0.00235468
0.615557 0.459399 0.462198 0.000109717
0.616602 0.472087 0.466739 0.00105403
0.615468 0.463693 0.479298 0.000248614
0.616225 0.476276 0.483185 0.00110745
0.235006 0.352004 0.0282236 0.00255766
0.234057 0.367778 0.0289567 0.00324851
0.250761 0.35286 0.0263669 0.000286572
0.249512 0.368139 0.026368 0.000255572
0.0685326 0.633655 0.565444 0.00183279
0.0688495 0.644487 0.566986 0.000345716
0.0768307 0.635664 0.570338 0.00283339
0.0772679 0.646849 0.571053 0.00349006
0.0541806 0.722682 0.459602 0.00467834
0.0625376 0.731507 0.460364 0.00369618
0.0591926 0.727398 0.469199 0.000583238
0.0672653 0.736832 0.469986 0.000491309
0.603508 0.433177 0.401866 0.00931127
0.606277 0.44721 0.401409 0.00990083
0.606991 0.436239 0.413842 0.00255517
0.610239 0.449747 0.415453 0.0040246
0.443869 0.160521 0.185348 0.00123801
0.435252 0.160137 0.195925 0.00157563
0.453974 0.16205 0.193635 0.000324719
0.446406 0.161438 0.204274 0.000241023
0.25882 0.601725 0.56614 0.000701082
0.260436 0.615375 0.566812 0.000128723
0.276392 0.603886 0.567468 0.000158037
0.27762 0.617121 0.568188 0.000789089
0.100367 0.140714 0.0781135 0.00610767
0.115942 0.145496 0.0772754 0.00133178
0.106913 0.145258 0.0921095 0.00150343
0.125483 0.149618 0.0901054 0.00284498
0.24861 0.0731336 0.806844 0.000757186
0.243145 0.0732872 0.817108 0.00228458
0.259693 0.0729449 0.815059 0.00161761
0.253798 0.0734495 0.825989 0.00191586
0.499702 0.0814858 0.705084 0.00481079
0.49241 0.080829 0.717014 0.0044232
0.512089 0.0849338 0.716026 0.000556127
0.504684 0.0839626 0.728796 0.000206726
0.0549103 0.481382 0.531104 0.00209051
0.0568795 0.496532 0.529295 0.000169125
0.0561896 0.484266 0.543603 0.000484933
0.0581154 0.499218 0.541992 0.00139863
0.371874 0.025798 0.862071 0.000535194
0.360785 0.025774 0.874544 0.00056229
0.380184 0.0264947 0.870998 0.0012668
0.370972 0.0253836 0.884141 0.000209227
0.543285 0.0794677 0.844908 0.00280976
0.532438 0.0783176 0.858234 0.0021396
0.547826 0.0815934 0.855628 0.00070697
0.537416 0.0810056 0.867053 0.00168001
0.324041 0.0278672 0.276717 0.000113988
0.316088 0.0261593 0.288403 0.00154283
0.335844 0.0295329 0.288167 0.00182756
0.328023 0.0278569 0.299659 0.000201727
0.828537 0.0319201 0.680247 0.000250294
0.815977 0.0306976 0.693188 0.000915976
0.83731 0.0312947 0.691042 0.000330308
0.825682 0.0304311 0.704137 0.00113709
0.614727 0.635987 0.435694 0.00221219
0.617795 0.647466 0.436656 0.000879631
0.616244 0.640088 0.445626 0.00139349
0.618607 0.651666 0.446821 0.00255093
0.588062 0.144673 0.576437 9.1502e-05
0.571458 0.147638 0.580438 0.00289353
0.598602 0.139463 0.583171 0.00527527
0.5826 0.143043 0.586148 0.0016791
0.192931 0.414136 0.0524265 0.00313112
0.196456 0.428375 0.0513277 0.00114646
0.188402 0.419148 0.0647979 0.00107369
0.191383 0.433752 0.0631091 0.00148207
0.498801 0.414912 0.574572 0.00223644
0.497021 0.427371 0.573872 0.00153074
0.514841 0.416185 0.573894 0.00113327
0.513672 0.428414 0.573117 0.000335376
0.508215 0.242523 0.28723 0.0018002
0.508406 0.24151 0.300035 0.00164277
0.52057 0.245495 0.297086 0.00203339
0.517775 0.244821 0.311817 0.00199021
0.197735 0.252872 0.567253 0.00178568
0.197091 0.265314 0.571624 0.0025497
0.210862 0.256292 0.566991 0.00240511
0.210171 0.268469 0.571933 0.00250357
0.290552 0.0827326 0.715564 0.00202371
0.282228 0.0839324 0.726326 0.000619641
0.300948 0.0817939 0.726483 0.00154433
0.290109 0.0821943 0.737858 0.000398797
0.133517 0.626575 0.319015 0.000975532
0.139258 0.640076 0.322183 0.00555075
0.127767 0.636419 0.331195 0.000244848
0.133845 0.649794 0.333868 0.00681023
0.400508 0.62782 0.144486 0.000626551
0.384365 0.630257 0.160471 8.07194e-05
0.414411 0.63013 0.157434 0.000641681
0.397554 0.632866 0.173038 0.000454444
0.370972 0.0290985 0.0995349 0.000579352
0.36335 0.028717 0.108103 0.000235478
0.383852 0.0276445 0.10749 0.000841894
0.376627 0.0276766 0.11566 0.000773898
0.709325 0.0318146 0.737379 0.000400155
0.711029 0.0318871 0.741962 0.000491865
0.713635 0.032375 0.742934 0.000983607
0.714797 0.032499 0.74787 0.00112841
0.62399 0.0525743 0.934585 0.00394288
0.634456 0.0581124 0.925684 0.000324514
0.62912 0.0525201 0.943677 0.0028049
0.639121 0.0582985 0.934747 0.00169843
0.266276 0.0251678 0.776546 0.000442211
0.279947 0.025971 0.775267 0.000352541
0.27776 0.0258886 0.786566 0.000320442
0.293113 0.0258704 0.786026 0.00029679
0.051389 0.637726 0.559274 0.00486641
0.0521285 0.648272 0.56125 0.00407494
0.0596701 0.636257 0.565207 0.00184964
0.0601198 0.647131 0.566709 0.000405359
0.613742 0.421391 0.492541 0.00113346
0.615743 0.435422 0.494166 0.000910475
0.612868 0.423908 0.507372 0.00161891
0.614831 0.438029 0.508879 0.000383678
0.481045 0.729773 0.421311 0.00655236
0.475753 0.735194 0.43223 0.00108216
0.490099 0.735743 0.430195 0.00054347
0.48364 0.740286 0.440575 0.00506838
0.796682 0.0324097 0.801488 0.00125719
0.790711 0.0317837 0.810849 0.000671526
0.805012 0.0318209 0.808646 0.000697806
0.798991 0.0317538 0.817743 0.000669903
0.102823 0.0301216 0.520014 0.0034246
0.0919565 0.0292497 0.532287 0.00260569
0.114044 0.0296148 0.531115 0.00296348
0.103097 0.0288708 0.543543 0.00227307
0.50357 0.105247 0.617564 0.000126286
0.501102 0.117434 0.615708 0.00197127
0.518676 0.103092 0.620301 0.00222521
0.515063 0.114932 0.619235 0.0012014
0.628292 0.0415071 0.212843 0.00116084
0.629291 0.0534291 0.215902 8.12333e-05
0.628435 0.0416505 0.225455 0.000687313
0.630136 0.0567206 0.225913 0.00102552
0.405398 0.471336 0.570295 0.00016698
0.405697 0.487484 0.570166 3.80569e-05
0.422655 0.470992 0.571252 0.000673633
0.422925 0.487492 0.570901 0.000245602
0.122993 0.0269819 0.893757 0.00186975
0.11448 0.0249908 0.906223 6.96739e-05
0.13464 0.0262072 0.905205 0.00114126
0.127673 0.0247463 0.9162 0.000274397
0.262029 0.160565 0.233226 0.000970516
0.261317 0.166217 0.243239 0.00173252
0.273296 0.166004 0.240962 0.00085981
0.272899 0.171661 0.250064 0.00835247
0.429659 0.162519 0.301602 0.00125305
0.421296 0.164092 0.309054 0.00365165
0.437445 0.159336 0.312961 0.00188338
0.429008 0.16258 0.318369 0.00138466
0.247643 0.236028 0.294881 0.00915701
0.23969 0.240362 0.300225 0.00434266
0.252882 0.233912 0.30562 0.00471888
0.248171 0.240479 0.308913 0.00408544
0.404549 0.0585253 0.910266 0.00353122
0.405696 0.0599853 0.91121 0.0017754
0.417055 0.0565952 0.919462 0.00123788
0.417275 0.0581233 0.920035 0.000352004
0.360495 0.370807 0.0304374 0.00141395
0.364051 0.384274 0.0295576 0.000384611
0.376033 0.373454 0.0287729 0.000666986
0.37943 0.387228 0.0280708 0.00151583
0.188022 0.23831 0.417178 0.00216329
0.178484 0.238354 0.428831 0.00366101
0.198081 0.239085 0.431696 0.0028668
0.188423 0.23926 0.44179 0.000846658
0.186483 0.362948 0.0867146 0.00163906
0.187042 0.376813 0.0880785 0.00245994
0.183177 0.367483 0.0988709 0.000926048
0.182761 0.380694 0.100611 0.000870952
0.0602114 0.113557 0.117687 0.00757991
0.0676997 0.123732 0.120113 3.20651e-05
0.0641179 0.116674 0.132182 0.00329668
0.0731338 0.127548 0.134334 0.00577116
0.574649 0.658836 0.376257 0.00307553
0.569846 0.669878 0.377741 0.00184662
0.580071 0.656946 0.387001 0.00290685
0.577785 0.671073 0.386193 0.00128343
0.619236 0.134049 0.260811 0.000832763
0.61152 0.138843 0.264141 0.00679465
0.623558 0.132297 0.271338 0.00542834
0.616567 0.13786 0.27421 0.00148472
0.220668 0.0273216 0.223351 0.000649092
0.213554 0.0257567 0.229151 0.0021883
0.22936 0.0304762 0.230126 0.00253357
0.222196 0.0290575 0.236846 0.00114458
0.315888 0.241136 0.432014 0.00192724
0.325308 0.244415 0.430084 0.00156675
0.3266 0.24219 0.439012 0.00128006
0.339116 0.246222 0.434524 0.000702039
0.495899 0.649919 0.265406 0.00112194
0.485519 0.652654 0.272466 0.00249699
0.506969 0.650854 0.275332 0.000312269
0.496399 0.653794 0.281315 0.00208193
0.0544681 0.474432 0.544179 0.00219044
0.0564765 0.489581 0.54259 0.000224649
0.0564613 0.477448 0.555554 9.94499e-05
0.0584213 0.492334 0.553772 0.00201211
0.179203 0.159139 0.496065 0.00127731
0.193367 0.159282 0.491838 0.00115356
0.188682 0.158294 0.506161 0.00134421
0.204069 0.158679 0.500929 0.00171959
0.618126 0.128337 0.357847 0.0022641
0.610905 0.138648 0.359193 0.00492119
0.621409 0.125529 0.370469 0.00587589
0.614509 0.136125 0.371923 0.000985202
0.144103 0.237561 0.533771 0.00214476
0.133013 0.239841 0.539948 0.00016332
0.153318 0.237072 0.538479 0.00707635
0.142377 0.23935 0.544919 0.000307283
0.547602 0.0278621 0.561771 0.00129224
0.549053 0.0263059 0.570669 0.000226501
0.552446 0.0260433 0.575071 0.000470876
0.564925 0.0270579 0.576275 0.000547362
0.389031 0.717273 0.35868 0.000678326
0.383685 0.723914 0.369186 0.00106464
0.400393 0.720606 0.370078 0.00202313
0.395484 0.726947 0.37991 0.00155173
0.207334 0.261024 0.0970755 0.000111897
0.198632 0.261375 0.105074 0.000994117
0.217195 0.260143 0.104892 0.000294073
0.207993 0.260869 0.113343 0.00122744
0.901571 0.034124 0.735287 0.00267934
0.888485 0.0358664 0.747021 0.00124516
0.90755 0.0380169 0.743927 0.000888166
0.894465 0.0398537 0.755784 0.00277792
0.367308 0.537023 0.570677 0.00126841
0.367338 0.556843 0.572198 0.00270493
0.387083 0.541322 0.57024 0.00029561
0.386902 0.559723 0.571207 0.00118951
0.0271247 0.0386934 0.864754 0.00471603
0.0356833 0.0456798 0.86649 0.00320158
0.0316537 0.0427979 0.883089 0.00162097
0.0400613 0.0500095 0.884984 0.009763
0.622727 0.0553106 0.45043 0.000506272
0.62429 0.0648576 0.453047 0.0011235
0.622828 0.0590066 0.462784 8.33418e-05
0.623109 0.0689818 0.465833 0.000276662
0.370846 0.0880907 0.616868 0.00115787
0.376655 0.104141 0.612499 0.00186839
0.386092 0.0903084 0.617855 0.00260018
0.391505 0.106076 0.613505 0.00125888
0.329992 0.0236922 0.85468 0.00159573
0.315669 0.0228619 0.869554 0.00236501
0.343303 0.0255192 0.867709 0.000281966
0.329157 0.0261109 0.88191 0.000931998
0.243653 0.161996 0.39818 0.00115817
0.259395 0.165597 0.392177 0.00405343
0.252639 0.16223 0.407441 0.00142948
0.268465 0.165103 0.401134 0.00200739
0.085505 0.0296789 0.264274 0.00189908
0.0751877 0.0295709 0.272796 0.0018288
0.0944488 0.0301078 0.273666 0.00236724
0.0842724 0.0304586 0.281804 0.00275422
0.135136 0.0235257 0.588976 0.00288376
0.130232 0.0257815 0.596972 0.000593691
0.144814 0.0268045 0.58779 0.000388947
0.139889 0.028131 0.59643 0.00175242
0.559649 0.146671 0.469528 0.00145579
0.546135 0.150285 0.476496 0.00510277
0.568827 0.142085 0.47734 0.00309882
0.555547 0.145786 0.484196 0.000634232
0.149925 0.350662 0.256033 0.00103034
0.151198 0.367783 0.256813 0.00242511
0.145013 0.353572 0.270757 0.000721873
0.145248 0.371243 0.272505 0.000142686
0.69748 0.0303542 0.661228 0.00138164
0.690689 0.0305825 0.673833 0.00109915
0.705333 0.0321278 0.670606 0.00043083
0.699027 0.0327689 0.682765 0.00112411
0.527478 0.265308 0.230811 0.00306785
0.532848 0.278292 0.22767 0.00273557
0.529098 0.265669 0.242992 0.0033681
0.534266 0.278593 0.241563 0.00196925
0.544386 0.0786427 0.0773947 0.00125651
0.542401 0.0898501 0.0766261 0.000491111
0.557965 0.0773781 0.0771533 0.000665066
0.555853 0.0885366 0.0764917 1.02806e-05
0.524417 0.460389 0.186269 0.0010041
0.526463 0.474977 0.188711 0.00265517
0.524944 0.46786 0.202907 0.00106663
0.526916 0.482645 0.204705 0.000612564
0.225495 0.0264155 0.822533 0.00100439
0.215478 0.0253326 0.832709 3.61106e-05
0.237284 0.0279572 0.834492 0.00259439
0.227173 0.0269725 0.844607 0.00165191
0.146261 0.228685 0.477734 0.00157039
0.133303 0.230419 0.482766 0.00950477
0.158622 0.225404 0.48443 0.00879787
0.145827 0.227469 0.488896 0.0017114
0.17527 0.448225 0.132556 0.000126217
0.177005 0.462777 0.133223 0.00195202
0.169968 0.454339 0.146075 0.00225736
0.171064 0.468534 0.147271 0.000947198
0.123965 0.38653 0.336827 0.000343949
0.123686 0.404062 0.342624 0.00301573
0.113169 0.39207 0.352516 0.000987967
0.11251 0.409395 0.358488 0.00144573
0.532688 0.256196 0.268125 0.00375133
0.538559 0.26773 0.268972 0.00192459
0.535743 0.26067 0.28124 0.00277709
0.541115 0.271067 0.282674 0.00231289
0.401971 0.256919 0.142131 0.000527089
0.412744 0.255831 0.143704 0.00149141
0.412616 0.25811 0.15284 0.00161747
0.425203 0.256946 0.153695 0.000504865
0.37275 0.0251685 0.812823 0.000299701
0.362246 0.024673 0.823557 0.000747033
0.383618 0.0265372 0.821641 0.00110478
0.373222 0.0260605 0.832217 0.000674667
0.384214 0.732901 0.386678 4.33895e-05
0.375794 0.736785 0.396315 0.00106315
0.394479 0.734956 0.397528 0.000808796
0.38611 0.738281 0.406258 0.00193
0.303195 0.736989 0.494946 0.00073699
0.291335 0.735103 0.507683 0.00109238
0.312597 0.737727 0.505958 0.00152262
0.302302 0.735322 0.516676 0.000835796
0.402139 0.0348677 0.611222 0.00852261
0.39315 0.0318246 0.626 0.00430944
0.413105 0.0355162 0.6158 0.00642454
0.40335 0.0345748 0.628824 0.00685347
0.526326 0.34288 0.202153 0.00032312
0.527237 0.358607 0.204122 0.000926783
0.527116 0.347806 0.215947 0.00104611
0.527974 0.3634 0.218342 0.000560172
0.0551184 0.40766 0.540342 0.00163864
0.0529013 0.421835 0.541533 0.00382427
0.0602695 0.408184 0.54589 0.00365578
0.0575249 0.422591 0.547157 0.000944808
0.434067 0.0817259 0.819354 0.0102859
0.427554 0.0802418 0.831664 0.000693542
0.443265 0.0806117 0.829424 0.00173146
0.43655 0.0791837 0.841684 0.00315055
0.618265 0.14497 0.138108 0.00165849
0.611082 0.148109 0.143705 0.00150673
0.627053 0.140674 0.146697 0.00565797
0.620355 0.143619 0.152557 0.000884956
0.252845 0.191983 0.275642 0.00554043
0.257979 0.200181 0.276449 0.000386927
0.258252 0.195904 0.284594 9.88407e-05
0.263434 0.205271 0.285147 0.00529325
0.489248 0.737257 0.509848 0.00104486
0.479546 0.735079 0.522919 0.00107515
0.497442 0.737987 0.520302 0.00181852
0.489023 0.735893 0.532444 0.000221642
0.492886 0.0667477 0.919922 0.00862188
0.507581 0.06855 0.916988 0.00290772
0.505583 0.0664591 0.93079 0.00140305
0.520541 0.0680899 0.927269 0.0030538
0.463955 0.16058 0.307182 0.000667636
0.457173 0.160314 0.31786 0.000887283
0.474362 0.157667 0.318352 0.00353455
0.464295 0.158518 0.326461 0.00264746
0.4545 0.0280177 0.318073 0.000427463
0.445241 0.0263587 0.327937 0.00118815
0.46572 0.0293649 0.32802 0.00181609
0.456756 0.0277197 0.338089 0.00021509
0.172217 0.551201 0.565466 0.00110527
0.172548 0.565851 0.565773 0.00134181
0.189001 0.55344 0.56493 0.000120457
0.191166 0.568759 0.565298 0.000366762
0.219729 0.0431604 0.960298 0.00214048
0.217372 0.0506099 0.964408 0.000535975
0.231528 0.0491066 0.961263 0.00246446
0.228876 0.0564259 0.965569 0.00540352
0.318144 0.386303 0.567704 0.00021953
0.320009 0.401143 0.566989 0.000606496
0.332626 0.386769 0.567324 0.000541834
0.334917 0.401913 0.566639 0.00134976
0.516034 0.291441 0.157868 0.00296966
0.521013 0.304026 0.158158 0.00191216
0.520017 0.293357 0.172949 0.00138753
0.525866 0.305536 0.171582 0.00461169
0.391535 0.239272 0.433898 0.00275021
0.399787 0.241385 0.429289 0.000936629
0.400905 0.236678 0.441763 0.00345019
0.408912 0.238726 0.435831 0.00429109
0.62243 0.0479025 0.855864 0.00286398
0.615521 0.0498564 0.864706 0.00597923
0.631564 0.04624 0.867791 0.00194855
0.623394 0.0489695 0.876162 0.00584692
0.337603 0.63074 0.167322 0.000893866
0.33027 0.632033 0.179607 0.00185979
0.349372 0.635 0.177053 0.00160679
0.34164 0.636094 0.188508 0.000591942
0.249833 0.407445 0.56673 0.00094475
0.252505 0.423119 0.565955 3.35067e-05
0.267636 0.410844 0.566926 0.000659927
0.27042 0.426546 0.566439 3.39949e-05
0.0508929 0.0425271 0.849946 0.000110388
0.0593212 0.045991 0.852614 0.00439975
0.0568124 0.0452049 0.864621 0.00458145
0.0665057 0.0499609 0.866049 0.0103689
0.487847 0.0259386 0.539044 0.000720575
0.480934 0.024679 0.550667 0.00193032
0.500882 0.0274531 0.5506 0.000841257
0.493933 0.0262933 0.5624 0.000267959
0.0610004 0.362916 0.443995 0.00172897
0.0611278 0.373616 0.448263 0.00196723
0.0594804 0.369387 0.45705 0.000547366
0.0596438 0.380015 0.461265 0.00082034
0.107111 0.333787 0.363805 0.000346759
0.105004 0.347937 0.36868 0.000288184
0.0992698 0.337154 0.376282 0.000763124
0.0951766 0.349966 0.380235 0.00230391
0.0882335 0.0251444 0.431928 0.00192271
0.0769961 0.0343762 0.448657 0.00738089
0.0887671 0.0223911 0.447776 0.00460909
0.0786641 0.0317972 0.462904 0.00486187
0.0966492 0.623605 0.382726 0.000328136
0.0959848 0.63759 0.385731 0.000598534
0.0880326 0.633862 0.394199 0.00193657
0.0863705 0.647783 0.397774 0.000776697
0.174733 0.215345 0.537283 0.00104506
0.167539 0.217869 0.545528 0.00151307
0.183272 0.216472 0.543969 0.000108296
0.177296 0.219482 0.552515 0.00192906
0.329184 0.736315 0.406641 5.8731e-05
0.319466 0.737773 0.41906 0.00145588
0.339593 0.737732 0.416806 0.0014031
0.329401 0.739103 0.429204 0.00283038
0.528322 0.263741 0.577197 0.000537759
0.526997 0.274944 0.580089 0.00234013
0.539579 0.268849 0.577369 0.000682126
0.538093 0.279228 0.579938 0.00188068
0.398466 0.215927 0.512479 0.000590032
0.407013 0.215847 0.511445 0.00067492
0.411843 0.216688 0.515301 0.000181698
0.411988 0.216053 0.522882 0.000422567
0.384397 0.699062 0.577749 0.00192315
0.386179 0.707804 0.575016 0.000895757
0.396554 0.696537 0.579143 0.00300979
0.397796 0.70525 0.577253 0.00104737
0.163315 0.157477 0.171449 0.00431011
0.181199 0.15951 0.166187 0.00230068
0.173633 0.161298 0.183608 0.000439217
0.189092 0.162863 0.180235 0.00111017
0.0206266 0.0491086 0.929139 0.00515014
0.0332736 0.0550454 0.928779 0.000205968
0.0344767 0.0527957 0.941398 0.000763255
0.0470688 0.0587292 0.941061 0.00502824
0.442387 0.0248583 0.859946 0.000424543
0.436596 0.0236492 0.870407 0.00158848
0.452248 0.0263969 0.869714 0.00115321
0.447038 0.0253693 0.880109 0.000170379
0.215988 0.027741 0.241131 0.000152825
0.209462 0.026043 0.248821 0.00181705
0.225734 0.0293916 0.248301 0.00152749
0.218733 0.0282693 0.256698 0.000442025
0.351095 0.0255235 0.766905 0.000145177
0.359558 0.0289468 0.758624 0.00324049
0.361403 0.0240085 0.772935 0.00163474
0.368261 0.0263398 0.767215 0.000670539
0.460165 0.24948 0.209354 0.00190477
0.476182 0.251754 0.204138 0.000162217
0.47111 0.249653 0.223097 0.000498625
0.4867 0.252402 0.217979 0.00172807
0.124536 0.677757 0.56897 4.16874e-05
0.121188 0.689535 0.569913 0.00102217
0.137245 0.678314 0.568493 0.000769634
0.133662 0.690038 0.569777 0.000557517
0.319724 0.029905 0.087287 0.00133906
0.318396 0.0319043 0.0947345 0.00337038
0.331052 0.0312235 0.092673 0.00267934
0.327677 0.0321242 0.100444 0.00361378
0.437592 0.734288 0.448108 0.00218831
0.427289 0.734848 0.460481 0.00157182
0.448622 0.736999 0.458705 0.00056871
0.437486 0.736523 0.471198 0.000149679
0.231308 0.0453353 0.954413 0.00711419
0.22848 0.052446 0.959 0.000554941
0.242651 0.0531787 0.955741 0.000795758
0.239106 0.0606196 0.960671 0.00884118
0.348403 0.156469 0.134837 0.00532745
0.34522 0.15924 0.144025 0.00268314
0.358927 0.1584 0.14199 0.0015384
0.355842 0.160917 0.15149 0.000975488
0.391971 0.0737733 0.819624 0.00258371
0.386616 0.0754281 0.830919 0.00263171
0.401741 0.0764124 0.827437 0.00135059
0.397061 0.0777371 0.838346 0.00489354
0.354179 0.723518 0.364418 0.00273158
0.346553 0.728629 0.375974 0.00123778
0.364304 0.726478 0.374161 0.000524079
0.356092 0.731325 0.385451 0.00107185
0.450158 0.142775 0.560976 0.00203801
0.467933 0.145008 0.55303 0.000160328
0.461902 0.142922 0.570572 0.00185162
0.478807 0.145082 0.563834 0.000278367
0.0818687 0.0453052 0.610979 0.0023155
0.0827154 0.0545455 0.609016 0.000612628
0.0940289 0.0426651 0.611978 0.00148443
0.0947026 0.0520989 0.610411 0.000645135
0.182419 0.142339 0.599255 0.00227339
0.184041 0.153564 0.596077 0.00893834
0.198289 0.142632 0.601989 0.00197133
0.199595 0.15501 0.597666 0.0103878
0.219845 0.159085 0.282554 0.00223791
0.231723 0.163745 0.280378 0.00241176
0.229022 0.161267 0.29237 1.49757e-05
0.241126 0.166253 0.290331 0.00496051
0.533598 0.346066 0.258159 0.00123158
0.534658 0.359117 0.259941 0.000452846
0.53728 0.344051 0.273736 2.61831e-05
0.5376 0.356969 0.273554 0.000328411
0.307663 0.0943828 0.0673495 0.0026545
0.308597 0.106823 0.0703349 0.000249036
0.320521 0.0962923 0.0687881 0.00156139
0.321139 0.109488 0.0719508 0.00152377
0.501836 0.0259183 0.769787 0.000244248
0.516084 0.0293267 0.763197 0.00362212
0.511807 0.0256879 0.78032 5.62205e-05
0.525253 0.028869 0.77472 0.00321109
0.146702 0.734371 0.548107 0.00163932
0.137424 0.733582 0.554729 0.0023991
0.158396 0.733923 0.556111 0.00205488
0.147342 0.733589 0.563838 0.00235592
0.171653 0.244663 0.259359 0.0014073
0.160343 0.24849 0.265153 0.00296319
0.1749 0.24363 0.269511 0.00151121
0.162686 0.245854 0.277421 0.00145984
0.20855 0.101133 0.612139 0.00217856
0.209404 0.113744 0.608621 0.00141543
0.220697 0.101282 0.613244 0.00296507
0.222836 0.114444 0.609887 0.000503956
0.856657 0.0386506 0.74297 0.00152956
0.849582 0.0383881 0.75329 0.00167892
0.864316 0.0391915 0.750929 0.00209615
0.857734 0.0389836 0.761198 0.00014697
0.467914 0.0374311 0.954127 0.00487186
0.461694 0.0395282 0.963017 0.00500159
0.479729 0.0364153 0.961544 0.00282438
0.47318 0.0381848 0.971244 0.00303361
0.627091 0.0358518 0.102935 0.00523948
0.632659 0.0456327 0.100442 0.000262227
0.631198 0.0379816 0.114252 0.000837278
0.636925 0.0475637 0.111465 0.00481572
0.614071 0.0283343 0.445078 0.00126463
0.628066 0.0337599 0.444314 0.00467286
0.61833 0.0327815 0.457425 0.00471668
0.629891 0.0386611 0.456913 0.00682613
0.568633 0.0662308 0.81916 0.00557942
0.579638 0.0684913 0.817039 0.0036501
0.581611 0.0679268 0.825174 0.003133
0.585483 0.0700995 0.828934 0.000487767
0.56742 0.127249 0.0726222 0.00432612
0.563135 0.133941 0.0778664 0.000998738
0.57819 0.128361 0.0780468 0.000809248
0.573283 0.134774 0.0834709 0.00633146
0.0943238 0.304163 0.389505 0.00176718
0.086564 0.317604 0.395556 0.0016013
0.0805694 0.304903 0.402504 0.00555276
0.0726214 0.318444 0.40865 0.0118452
0.180991 0.257441 0.130188 0.00057394
0.174194 0.264132 0.136886 0.000101214
0.184126 0.254178 0.142811 0.00267095
0.177401 0.260553 0.149277 0.00428723
0.540379 0.402555 0.318757 0.00394458
0.540832 0.41765 0.316196 0.00308631
0.548546 0.400323 0.332581 0.0003873
0.549186 0.414808 0.329393 0.00168533
0.123029 0.238317 0.521972 0.00143736
0.111578 0.24023 0.529064 0.000507269
0.130256 0.238453 0.530878 0.00126333
0.119062 0.240779 0.537484 0.0010922
0.597195 0.696102 0.405689 0.00644902
0.595276 0.707101 0.410228 0.00190867
0.605162 0.697096 0.415426 0.00307384
0.602862 0.707363 0.419155 0.006817
0.20096 0.145655 0.530277 0.000753751
0.206182 0.144717 0.532483 0.000176871
0.218265 0.146013 0.537362 0.00113682
0.214133 0.144085 0.545314 0.000758675
0.0652556 0.0739947 0.362685 0.00341015
0.0640162 0.089485 0.362884 0.00263059
0.0636805 0.0749636 0.379523 0.00293344
0.062458 0.0913945 0.378825 0.00148999
0.406799 0.0251552 0.868134 8.69764e-05
0.400252 0.0236582 0.879946 0.00153599
0.415165 0.026657 0.877183 0.00145012
0.409027 0.0252651 0.888754 0.000105206
0.0886846 0.316148 0.564422 0.00202793
0.0921175 0.332207 0.56534 0.00126765
0.0995107 0.319301 0.568126 0.00138068
0.103797 0.336278 0.568634 0.00170485
0.509782 0.0332181 0.0747421 0.000292994
0.51414 0.0421369 0.0721414 0.00304328
0.523318 0.0312305 0.0789498 0.00260581
0.529428 0.0394691 0.0761169 0.000542089
0.324072 0.15925 0.150772 0.0026424
0.319803 0.160408 0.16083 0.00144137
0.335403 0.160437 0.159745 0.00141812
0.331288 0.161353 0.170355 0.000457412
0.444225 0.622364 0.122969 0.000674404
0.431661 0.624733 0.134633 0.000495491
0.455163 0.623766 0.135214 0.00143974
0.443235 0.627507 0.14408 0.000593461
0.462926 0.0306686 0.924351 0.00564534
0.457282 0.031768 0.935415 0.00197386
0.473416 0.0306455 0.929951 0.00422414
0.467558 0.0317167 0.941648 0.00104799
0.197067 0.0735495 0.815789 0.00253032
0.192844 0.0734331 0.826228 0.00364817
0.206856 0.0759518 0.824864 0.00117826
0.201374 0.0760229 0.835111 0.00634001
0.471942 0.161242 0.187217 0.000511926
0.465991 0.160301 0.197503 0.00140909
0.48179 0.162659 0.196775 0.000943846
0.476174 0.162155 0.206447 0.000481786
0.588818 0.339154 0.405689 0.00136228
0.58841 0.352874 0.404132 0.00174919
0.592773 0.341834 0.41659 0.00607689
0.592874 0.355197 0.415095 0.00452281
0.338779 0.0393924 0.0712886 0.000702264
0.34464 0.0447918 0.0703537 0.000407551
0.352758 0.0390483 0.0740456 0.00309411
0.353315 0.0428976 0.0760172 0.00503483
0.141168 0.478109 0.296698 0.000806475
0.141842 0.492099 0.298913 0.00191491
0.135182 0.483879 0.310434 0.00220391
0.136294 0.498005 0.312278 0.000744538
0.201223 0.609387 0.0582657 0.000875438
0.18924 0.612051 0.0703751 0.000766168
0.20881 0.615275 0.0679878 0.00110999
0.196554 0.617356 0.0808258 0.000796881
0.510508 0.651943 0.278553 0.000821857
0.499868 0.65481 0.284391 0.00254502
0.518709 0.652035 0.286953 0.000555487
0.508952 0.655478 0.292301 0.00182619
0.186439 0.405558 0.56501 0.000892186
0.186467 0.41919 0.563805 0.00037129
0.201469 0.403407 0.564348 0.00015429
0.201763 0.417345 0.563295 0.00127352
0.433832 0.0279368 0.462431 0.000960248
0.421351 0.0258631 0.474553 0.00106092
0.445784 0.0289505 0.474497 0.00202357
0.433829 0.0270674 0.486384 0.000192012
0.315569 0.160266 0.162946 0.00157341
0.31121 0.160892 0.174472 0.00089818
0.326517 0.162203 0.172869 0.000404518
0.322164 0.162759 0.184259 0.00100882
0.4802 0.239945 0.371181 0.00228751
0.504282 0.241753 0.365211 0.000788664
0.493028 0.240749 0.382778 0.000960512
0.516305 0.244623 0.375536 0.00254461
0.124434 0.144121 0.271787 0.00187637
0.139844 0.147371 0.265917 0.00134729
0.134852 0.146089 0.28605 0.000151455
0.150425 0.150216 0.278504 0.00106614
0.315202 0.627202 0.139144 0.000576231
0.309099 0.630131 0.152576 0.00101913
0.327529 0.629595 0.151291 0.000808535
0.320388 0.631542 0.16424 0.000368071
0.17044 0.428621 0.153923 0.000148081
0.171443 0.441636 0.155236 0.00109569
0.166242 0.433594 0.166904 0.00156409
0.167757 0.446403 0.167699 7.44676e-05
0.466929 0.0275594 0.325664 3.16006e-07
0.457934 0.0259337 0.335626 0.00158158
0.477122 0.0291422 0.33495 0.00162185
0.468359 0.0276487 0.345038 0.000172634
0.54288 0.647359 0.281926 0.00446003
0.533644 0.651327 0.286924 0.0011775
0.550069 0.645883 0.289333 0.0104035
0.541524 0.650145 0.294204 0.00120658
0.158598 0.0275234 0.291874 0.000146167
0.148265 0.0259548 0.303202 0.00166493
0.170656 0.0294555 0.303295 0.00183367
0.160883 0.0275181 0.314065 5.63759e-05
0.554328 0.0637461 0.698829 0.0124252
0.547641 0.065557 0.71245 0.00135844
0.562099 0.0618441 0.712593 0.00113886
0.562273 0.0657809 0.721742 0.00917428
0.43228 0.711929 0.578888 0.00174817
0.442642 0.715832 0.572636 0.00478991
0.446544 0.709853 0.584792 0.00728609
0.45325 0.714609 0.579814 0.00211352
0.422869 0.0267144 0.810927 0.00122917
0.413862 0.024405 0.823199 0.00102682
0.432088 0.0271347 0.819718 0.00168455
0.423452 0.02489 0.832045 0.000506517
0.159921 0.271912 0.566967 0.0011606
0.160907 0.286695 0.568728 0.000514407
0.170951 0.27357 0.566731 0.00169158
0.171925 0.288411 0.568336 0.000172123
0.619034 0.0511973 0.542862 0.00178268
0.621068 0.0610607 0.542737 0.000246362
0.619418 0.0556485 0.554876 0.00108516
0.620275 0.06671 0.555386 0.000215927
0.293428 0.347952 0.56839 0.0017139
0.293657 0.364268 0.56768 0.00092876
0.309343 0.354005 0.570004 0.00288542
0.309886 0.369808 0.56913 0.00193013
0.455442 0.125388 0.0721391 0.00186653
0.452026 0.137222 0.0783297 0.00435709
0.470348 0.130864 0.07547 0.00104765
0.466038 0.14142 0.0822397 0.00542612
0.573245 0.345663 0.379427 0.000279135
0.573374 0.358424 0.376441 0.0012429
0.578256 0.347266 0.388519 3.9963e-05
0.578185 0.360287 0.385535 0.00130418
0.908838 0.0345901 0.729789 0.000476789
0.895986 0.0355264 0.740923 0.00161262
0.915205 0.037609 0.738293 0.00707848
0.902255 0.0394716 0.750025 0.00236973
0.244384 0.243956 0.423516 0.00350085
0.236102 0.245101 0.43 6.65059e-05
0.252387 0.243035 0.43209 0.00248529
0.244684 0.243886 0.438322 0.00272523
0.484865 0.0289286 0.255432 0.00106598
0.473804 0.0271063 0.269403 0.00069514
0.498833 0.0292535 0.267762 0.00144221
0.488036 0.0272718 0.281958 0.000477313
0.150966 0.240876 0.330642 4.34383e-05
0.138693 0.241641 0.341639 0.000857391
0.158355 0.242403 0.344309 0.00162882
0.145226 0.24288 0.356043 0.0021576
0.129455 0.73009 0.395859 0.00417078
0.120978 0.735238 0.405586 0.00111562
0.139543 0.733967 0.402278 0.00196601
0.130962 0.739118 0.411778 0.00279023
0.512717 0.162267 0.298634 0.000979089
0.497817 0.162917 0.306626 0.00166363
0.525945 0.161522 0.310227 0.000281297
0.510563 0.162542 0.318064 0.001336
0.204199 0.735334 0.428128 0.000871899
0.195161 0.73733 0.436676 0.000831296
0.213562 0.736251 0.438759 0.00024058
0.20451 0.738662 0.448211 0.0022134
0.0599768 0.37531 0.44732 0.000792327
0.0602845 0.386913 0.451151 0.00119963
0.0576901 0.381654 0.46115 0.00113569
0.0581296 0.393124 0.464989 0.000596478
0.617501 0.0483717 0.402272 0.00698824
0.625973 0.05605 0.402188 0.00147741
0.622091 0.0504653 0.416498 0.00202838
0.630781 0.057839 0.416606 0.00666075
0.265209 0.426708 0.567205 0.000935418
0.267992 0.442485 0.566609 0.000200216
0.282874 0.430018 0.568085 0.00133917
0.285773 0.445194 0.567649 0.000763467
0.290823 0.0291055 0.183026 0.000953763
0.277941 0.0267092 0.197224 0.0013801
0.302804 0.0308861 0.19497 0.00278427
0.289808 0.028623 0.209301 0.00058424
0.540764 0.119458 0.0735133 0.00270163
0.537735 0.128585 0.0771705 0.000992982
0.55459 0.117964 0.0779767 0.0014044
0.551221 0.127137 0.081705 0.00517868
0.4525 0.0281076 0.559031 0.0015367
0.442117 0.0264918 0.572309 2.18835e-05
0.465058 0.0283689 0.567171 0.00183093
0.45578 0.0272056 0.579537 0.000720906
0.144994 0.02772 0.525437 0.00104131
0.138603 0.0261723 0.534546 0.000467214
0.155289 0.0277989 0.534948 0.00115919
0.149418 0.0262225 0.544383 0.000376751
0.454936 0.0256342 0.810638 0.000141391
0.447997 0.0232591 0.82263 0.00218182
0.466855 0.028169 0.821974 0.00272153
0.46186 0.0260412 0.834179 0.000646039
0.223336 0.0322908 0.924439 0.00459959
0.230006 0.0361216 0.917395 0.0110949
