4.976740181446075439e-01 -1.230427399277687073e-01 1.991378329694271088e-02
2.969556152820587158e-01 5.532201007008552551e-02 1.237279325723648071e-01
2.982402145862579346e-01 6.455416232347488403e-02 1.209522485733032227e-01
3.078726232051849365e-01 5.661060661077499390e-02 1.219603046774864197e-01
3.094438016414642334e-01 6.559640169143676758e-02 1.194521635770797729e-01
-7.527150213718414307e-02 2.723650634288787842e-02 -1.561890244483947754e-01
-7.407830655574798584e-02 3.677606582641601562e-02 -1.551628112792968750e-01
-6.540925055742263794e-02 2.967133000493049622e-02 -1.564725488424301147e-01
-6.401095539331436157e-02 3.918499499559402466e-02 -1.553665548563003540e-01
2.766354382038116455e-01 3.365653380751609802e-02 -2.274706065654754639e-01
2.830591797828674316e-01 3.650858998298645020e-02 -2.316313087940216064e-01
2.843461930751800537e-01 3.571468964219093323e-02 -2.239843308925628662e-01
2.903324961662292480e-01 3.882319107651710510e-02 -2.283017784357070923e-01
1.507774144411087036e-01 1.955507248640060425e-01 -3.279807977378368378e-03
1.480704694986343384e-01 1.991401612758636475e-01 1.138894935138523579e-03
1.576411873102188110e-01 1.969711035490036011e-01 -9.708805009722709656e-05
1.545215398073196411e-01 2.002095580101013184e-01 3.968659322708845139e-03
-9.506661295890808105e-01 -1.525447815656661987e-01 -1.986929215490818024e-02
-9.499469995498657227e-01 -1.440064907073974609e-01 -1.888871379196643829e-02
-9.409144520759582520e-01 -1.525253951549530029e-01 -1.947942376136779785e-02
-9.406393170356750488e-01 -1.440472006797790527e-01 -1.839030347764492035e-02
-1.878590881824493408e-02 -1.422295570373535156e-01 9.115079045295715332e-02
-1.972733810544013977e-02 -1.328903436660766602e-01 9.769790619611740112e-02
-5.355531349778175354e-03 -1.401233077049255371e-01 9.215237200260162354e-02
-7.053141016513109207e-03 -1.305175572633743286e-01 9.843280166387557983e-02
-6.760722398757934570e-01 3.318142844364047050e-03 -6.737212650477886200e-03
-6.752980947494506836e-01 9.030687622725963593e-03 -5.388183984905481339e-03
-6.693248152732849121e-01 7.087392732501029968e-03 -6.412940565496683121e-03
-6.694601774215698242e-01 1.364068873226642609e-02 -5.496498197317123413e-03
5.503232479095458984e-01 6.969915330410003662e-02 8.174861781299114227e-03
5.424193739891052246e-01 7.375620305538177490e-02 1.036798302084207535e-02
5.567564368247985840e-01 6.566841900348663330e-02 1.435345504432916641e-02
5.487038493156433105e-01 6.985393166542053223e-02 1.596758887171745300e-02
-1.345400512218475342e-01 2.012721002101898193e-01 2.814919687807559967e-02
-1.219915822148323059e-01 2.014978080987930298e-01 2.409376762807369232e-02
-1.226821988821029663e-01 1.999373883008956909e-01 3.533065691590309143e-02
-1.109576001763343811e-01 2.008461356163024902e-01 3.113253414630889893e-02
-2.789289653301239014e-01 -1.175355687737464905e-01 7.120573520660400391e-02
-2.805783450603485107e-01 -1.065953075885772705e-01 7.788250595331192017e-02
-2.672618031501770020e-01 -1.166042983531951904e-01 7.484578341245651245e-02
-2.685792148113250732e-01 -1.053959503769874573e-01 8.228181302547454834e-02
2.321408390998840332e-01 7.419354468584060669e-02 -1.352216452360153198e-01
2.337638437747955322e-01 8.161199092864990234e-02 -1.321249753236770630e-01
2.418804317712783813e-01 7.837935537099838257e-02 -1.339810341596603394e-01
2.431958168745040894e-01 8.560559898614883423e-02 -1.310177147388458252e-01
3.015745989978313446e-02 -2.052873075008392334e-01 -4.087690636515617371e-02
1.987627893686294556e-02 -2.075173556804656982e-01 -3.270836919546127319e-02
3.807495906949043274e-02 -2.063532471656799316e-01 -3.232399374246597290e-02
2.821612916886806488e-02 -2.086247801780700684e-01 -2.439319714903831482e-02
9.273649752140045166e-02 -1.839215159416198730e-01 4.970148205757141113e-02
8.924975991249084473e-02 -1.755326837301254272e-01 5.989692360162734985e-02
1.029033437371253967e-01 -1.804708987474441528e-01 5.293013900518417358e-02
1.000896021723747253e-01 -1.717573553323745728e-01 6.284841895103454590e-02
-4.621038213372230530e-02 -2.059532701969146729e-02 1.449143290519714355e-01
-4.724952951073646545e-02 -9.442154318094253540e-03 1.476747244596481323e-01
-3.299393877387046814e-02 -1.641542650759220123e-02 1.456390768289566040e-01
-3.428933024406433105e-02 -4.003711510449647903e-03 1.483843028545379639e-01
-7.120971679687500000e-01 2.346709556877613068e-02 -2.798638492822647095e-02
-7.107049822807312012e-01 3.163982927799224854e-02 -2.720617316663265228e-02
-7.048583626747131348e-01 2.547390200197696686e-02 -2.586727961897850037e-02
-7.033523917198181152e-01 3.376256674528121948e-02 -2.498598024249076843e-02
-9.046260267496109009e-02 1.902922429144382477e-02 -1.553335487842559814e-01
-8.938787877559661865e-02 2.847762405872344971e-02 -1.549504399299621582e-01
-8.094637840986251831e-02 2.240096218883991241e-02 -1.562814116477966309e-01
-7.974964380264282227e-02 3.160827234387397766e-02 -1.556535065174102783e-01
3.651101589202880859e-01 -1.548504829406738281e-01 -7.236424088478088379e-02
3.694582283496856689e-01 -1.496401876211166382e-01 -7.526722550392150879e-02
3.726522028446197510e-01 -1.557083874940872192e-01 -6.914409250020980835e-02
3.775736689567565918e-01 -1.504227370023727417e-01 -7.210209220647811890e-02
-3.146320283412933350e-01 -6.548006553202867508e-03 1.081505343317985535e-01
-3.129706680774688721e-01 4.161811433732509613e-03 1.098643615841865540e-01
-3.040711879730224609e-01 -3.607557155191898346e-03 1.094551905989646912e-01
-3.024448156356811523e-01 7.488852366805076599e-03 1.112805530428886414e-01
-7.146891355514526367e-01 -2.139906585216522217e-02 -9.573562070727348328e-03
-7.172802090644836426e-01 -1.464102510362863541e-02 -7.934305816888809204e-03
-7.087657451629638672e-01 -2.016888558864593506e-02 -9.012047201395034790e-03
-7.106063365936279297e-01 -1.378914527595043182e-02 -7.775508798658847809e-03
-8.554459214210510254e-01 -5.264747142791748047e-02 -1.359889190644025803e-02
-8.562873005867004395e-01 -4.368815943598747253e-02 -1.249890029430389404e-02
-8.462842106819152832e-01 -5.301146209239959717e-02 -1.469980925321578979e-02
-8.472492694854736328e-01 -4.392703622579574585e-02 -1.369037572294473648e-02
-5.365005135536193848e-01 7.598811388015747070e-02 2.267077565193176270e-02
-5.336442589759826660e-01 8.172711730003356934e-02 1.652868464589118958e-02
-5.272917747497558594e-01 7.721077650785446167e-02 2.364190295338630676e-02
-5.246472954750061035e-01 8.354210853576660156e-02 1.816567406058311462e-02
2.734143137931823730e-01 -1.258119642734527588e-01 -1.093193143606185913e-01
2.759142518043518066e-01 -1.153380051255226135e-01 -1.150564625859260559e-01
2.852136790752410889e-01 -1.294859647750854492e-01 -1.065754964947700500e-01
2.867416143417358398e-01 -1.192342415452003479e-01 -1.129174530506134033e-01
2.538721263408660889e-01 8.533097803592681885e-02 -3.718115091323852539e-01
2.593852579593658447e-01 9.001610428094863892e-02 -3.784771859645843506e-01
2.615716159343719482e-01 8.726896345615386963e-02 -3.672037422657012939e-01
2.667471766471862793e-01 9.238256514072418213e-02 -3.745620548725128174e-01
-4.933563172817230225e-01 9.616679698228836060e-02 1.340738497674465179e-02
-4.906352162361145020e-01 1.007254421710968018e-01 1.149275898933410645e-02
-4.882116317749023438e-01 9.793076664209365845e-02 1.833107136189937592e-02
-4.823094904422760010e-01 1.012676507234573364e-01 1.451894361525774002e-02
2.893969118595123291e-01 2.087791450321674347e-02 -1.911705136299133301e-01
2.984987497329711914e-01 2.558766119182109833e-02 -1.981865465641021729e-01
2.990644276142120361e-01 2.468905784189701080e-02 -1.860903501510620117e-01
3.080291152000427246e-01 2.933883294463157654e-02 -1.929904669523239136e-01
1.223342269659042358e-01 2.979573607444763184e-01 2.284803055226802826e-02
1.242457255721092224e-01 3.064283430576324463e-01 2.466985955834388733e-02
1.307262629270553589e-01 3.007052242755889893e-01 2.238215133547782898e-02
1.323588937520980835e-01 3.093802332878112793e-01 2.405683696269989014e-02
-3.979739546775817871e-01 -2.056794166564941406e-01 -2.948419563472270966e-02
-3.980335295200347900e-01 -1.957695931196212769e-01 -2.772312052547931671e-02
-3.876775801181793213e-01 -2.043909281492233276e-01 -2.885747514665126801e-02
-3.882455229759216309e-01 -1.944204717874526978e-01 -2.728231810033321381e-02
1.851718872785568237e-01 -4.772439599037170410e-02 -1.438581049442291260e-01
1.882307380437850952e-01 -3.961655125021934509e-02 -1.471798419952392578e-01
1.957291662693023682e-01 -4.441605135798454285e-02 -1.442753374576568604e-01
1.988656818866729736e-01 -3.643184155225753784e-02 -1.476075649261474609e-01
-9.506371617317199707e-01 1.893117427825927734e-01 1.358281262218952179e-02
-9.480012059211730957e-01 2.042618393898010254e-01 1.500464603304862976e-02
-9.358004331588745117e-01 1.979340314865112305e-01 1.217782124876976013e-02
-9.334264993667602539e-01 2.127069830894470215e-01 1.368398591876029968e-02
-8.605280518531799316e-01 -7.071603834629058838e-02 -1.000911742448806763e-02
-8.587452769279479980e-01 -6.121236830949783325e-02 -8.143165148794651031e-03
-8.517785072326660156e-01 -6.797184795141220093e-02 -1.135572139173746109e-02
-8.494892120361328125e-01 -5.820316076278686523e-02 -9.443359449505805969e-03
5.519217848777770996e-01 -2.638169191777706146e-02 -2.178914612159132957e-03
5.567126870155334473e-01 -1.964874006807804108e-02 -4.084942396730184555e-03
5.584825873374938965e-01 -2.527036704123020172e-02 3.951949998736381531e-03
5.631672143936157227e-01 -1.882626116275787354e-02 2.224924508482217789e-03
-6.333699077367782593e-02 -3.464384004473686218e-02 1.394278854131698608e-01
-6.415549665689468384e-02 -2.336746826767921448e-02 1.416587978601455688e-01
-5.182730406522750854e-02 -3.240256011486053467e-02 1.392036974430084229e-01
-5.313377082347869873e-02 -2.079533040523529053e-02 1.418052762746810913e-01
-1.997040510177612305e-01 1.798541098833084106e-01 -5.334624275565147400e-02
-2.035444229841232300e-01 1.840066611766815186e-01 -4.236745834350585938e-02
-1.907324492931365967e-01 1.848905980587005615e-01 -4.735117405652999878e-02
-1.960368901491165161e-01 1.875996440649032593e-01 -3.595431149005889893e-02
5.760963261127471924e-02 -1.758250892162322998e-01 -9.387525171041488647e-02
6.479318439960479736e-02 -1.688567399978637695e-01 -9.999205917119979858e-02
6.986888498067855835e-02 -1.761558949947357178e-01 -9.104377031326293945e-02
7.574483752250671387e-02 -1.692247837781906128e-01 -9.721000492572784424e-02
-1.222551837563514709e-01 1.911572515964508057e-01 5.898697301745414734e-02
-1.145656034350395203e-01 1.939054429531097412e-01 5.352869629859924316e-02
-1.099696829915046692e-01 1.890504211187362671e-01 6.371156126260757446e-02
-1.036514043807983398e-01 1.933003664016723633e-01 5.727621912956237793e-02
4.748206138610839844e-01 -8.875455707311630249e-02 -8.561200648546218872e-02
4.762256443500518799e-01 -7.911843806505203247e-02 -9.116573631763458252e-02
4.845318794250488281e-01 -8.973266929388046265e-02 -8.323135972023010254e-02
4.862195551395416260e-01 -8.018144220113754272e-02 -8.867534995079040527e-02
-1.547325402498245239e-01 1.316344290971755981e-01 -1.207432001829147339e-01
-1.557861119508743286e-01 1.420090943574905396e-01 -1.119151711463928223e-01
-1.446065306663513184e-01 1.377226412296295166e-01 -1.182680428028106689e-01
-1.451905220746994019e-01 1.486009806394577026e-01 -1.091690585017204285e-01
2.239509075880050659e-01 -6.180558353662490845e-03 2.746105790138244629e-01
2.189112305641174316e-01 -5.283985752612352371e-03 2.845814526081085205e-01
2.293054461479187012e-01 -3.003300866112112999e-03 2.817832231521606445e-01
2.247638106346130371e-01 -2.015203004702925682e-03 2.911093831062316895e-01
3.064497411251068115e-01 1.607125699520111084e-01 -4.077304154634475708e-02
2.979518473148345947e-01 1.636408120393753052e-01 -3.351866453886032104e-02
3.143847584724426270e-01 1.618435680866241455e-01 -3.450805321335792542e-02
3.059588670730590820e-01 1.646184623241424561e-01 -2.693978138267993927e-02
2.234656214714050293e-01 -1.634398847818374634e-01 5.968388915061950684e-02
2.232685536146163940e-01 -1.560970097780227661e-01 6.672137230634689331e-02
2.318004071712493896e-01 -1.625996530055999756e-01 5.925582349300384521e-02
2.318987101316452026e-01 -1.544243395328521729e-01 6.661345064640045166e-02
1.232577208429574966e-02 -1.500508487224578857e-01 8.712954819202423096e-02
9.838976897299289703e-03 -1.413966715335845947e-01 9.397230297327041626e-02
2.589595690369606018e-02 -1.476346254348754883e-01 8.665558695793151855e-02
2.327482029795646667e-02 -1.391765624284744263e-01 9.344808012247085571e-02
-1.310477703809738159e-01 -8.712197095155715942e-02 1.159735023975372314e-01
-1.333865970373153687e-01 -7.701320201158523560e-02 1.206798031926155090e-01
-1.189067214727401733e-01 -8.607000112533569336e-02 1.163918599486351013e-01
-1.221453845500946045e-01 -7.595828920602798462e-02 1.210903152823448181e-01
6.439444422721862793e-02 2.035308778285980225e-01 -4.412352573126554489e-03
6.400201469659805298e-02 2.059326618909835815e-01 3.226177999749779701e-03
7.256294041872024536e-02 2.063251435756683350e-01 3.679809160530567169e-04
7.215037196874618530e-02 2.088933438062667847e-01 7.675544824451208115e-03
-3.510973881930112839e-03 1.840430498123168945e-01 -7.451831549406051636e-02
-8.804591372609138489e-03 1.892084926366806030e-01 -6.522785127162933350e-02
6.997195072472095490e-03 1.864430457353591919e-01 -6.809226423501968384e-02
9.339051321148872375e-04 1.913361251354217529e-01 -5.907331779599189758e-02
-7.043067812919616699e-01 -2.140922099351882935e-02 -1.088831294327974319e-02
-7.054975628852844238e-01 -1.524077914655208588e-02 -9.487909264862537384e-03
-6.976192593574523926e-01 -2.016746252775192261e-02 -1.050245203077793121e-02
-6.984970569610595703e-01 -1.413322985172271729e-02 -8.920225314795970917e-03
-4.902998805046081543e-01 1.947060041129589081e-02 6.770889461040496826e-02
-4.874147176742553711e-01 3.014918416738510132e-02 6.912084668874740601e-02
-4.798429906368255615e-01 2.449020557105541229e-02 6.967562437057495117e-02
-4.771858453750610352e-01 3.565979376435279846e-02 7.046201825141906738e-02
1.532650738954544067e-01 -2.386138439178466797e-01 -8.971091359853744507e-02
1.534978151321411133e-01 -2.288938909769058228e-01 -8.216104656457901001e-02
1.604837030172348022e-01 -2.318753451108932495e-01 -8.835703134536743164e-02
1.608815491199493408e-01 -2.221096456050872803e-01 -8.077113330364227295e-02
-3.549725711345672607e-01 1.351105421781539917e-01 2.936872467398643494e-02
-3.524220585823059082e-01 1.414097696542739868e-01 2.610782161355018616e-02
-3.471343517303466797e-01 1.366838365793228149e-01 3.095090389251708984e-02
-3.430669903755187988e-01 1.428771764039993286e-01 2.666035480797290802e-02
-5.691949278116226196e-02 -1.820108443498611450e-01 -8.996435254812240601e-02
-5.488976091146469116e-02 -1.752645373344421387e-01 -9.646794199943542480e-02
-4.872088134288787842e-02 -1.842246353626251221e-01 -8.784294873476028442e-02
-4.620399326086044312e-02 -1.776297092437744141e-01 -9.409202635288238525e-02
-3.778119683265686035e-01 -1.222796291112899780e-01 -1.954608224332332611e-02
-3.782483339309692383e-01 -1.147912815213203430e-01 -1.877641677856445312e-02
-3.692424595355987549e-01 -1.231279298663139343e-01 -1.824900694191455841e-02
-3.698210716247558594e-01 -1.157472506165504456e-01 -1.756866089999675751e-02
-4.870335012674331665e-02 -1.222485005855560303e-01 1.057344973087310791e-01
-5.245293304324150085e-02 -1.136714741587638855e-01 1.108014136552810669e-01
-3.835583478212356567e-02 -1.206555888056755066e-01 1.054532900452613831e-01
-4.166040569543838501e-02 -1.121217012405395508e-01 1.107055693864822388e-01
-8.250743895769119263e-02 -1.572699397802352905e-01 -1.102480813860893250e-01
-7.838473469018936157e-02 -1.500689834356307983e-01 -1.158450245857238770e-01
-7.022396475076675415e-02 -1.574617177248001099e-01 -1.096368655562400818e-01
-6.677622348070144653e-02 -1.497861146926879883e-01 -1.157821044325828552e-01
-3.364526331424713135e-01 -8.396873623132705688e-02 -9.629977494478225708e-02
-3.324357569217681885e-01 -7.615365087985992432e-02 -1.003551408648490906e-01
-3.270665109157562256e-01 -8.486622571945190430e-02 -9.753893315792083740e-02
-3.225616514682769775e-01 -7.662321627140045166e-02 -1.016710475087165833e-01
4.347389638423919678e-01 -1.243933141231536865e-01 4.811840504407882690e-02
4.333129227161407471e-01 -1.170860007405281067e-01 5.543230101466178894e-02
4.424337446689605713e-01 -1.187595576047897339e-01 5.030711367726325989e-02
4.414324462413787842e-01 -1.114449054002761841e-01 5.769002437591552734e-02
9.443488903343677521e-03 2.023488730192184448e-01 -1.144365221261978149e-02
5.645301192998886108e-03 2.039448469877243042e-01 -3.922516480088233948e-03
1.524315495043992996e-02 2.047378867864608765e-01 -6.516663823276758194e-03
1.164673455059528351e-02 2.064094394445419312e-01 9.282454848289489746e-04
-6.079228594899177551e-02 -2.070559859275817871e-01 -1.333422213792800903e-02
-6.683739274740219116e-02 -2.063726335763931274e-01 -3.939233720302581787e-03
-5.270961672067642212e-02 -2.075217664241790771e-01 -7.671958766877651215e-03
-5.994236841797828674e-02 -2.070512175559997559e-01 2.644254826009273529e-03
5.853915810585021973e-01 4.839791357517242432e-02 -2.453161403536796570e-02
5.785775780677795410e-01 5.258298292756080627e-02 -2.262057177722454071e-02
5.916173458099365234e-01 4.577525705099105835e-02 -1.933167874813079834e-02
5.853573679924011230e-01 4.989955201745033264e-02 -1.655243337154388428e-02
-5.137660354375839233e-02 2.028263658285140991e-01 1.023025251924991608e-02
-5.990959331393241882e-02 2.021091133356094360e-01 2.022547647356987000e-02
-4.688029363751411438e-02 2.022789120674133301e-01 2.002995274960994720e-02
-5.429372191429138184e-02 2.016911655664443970e-01 2.920959144830703735e-02
3.001513779163360596e-01 -7.556241005659103394e-02 -1.217655017971992493e-01
2.998770177364349365e-01 -6.684520095586776733e-02 -1.258146315813064575e-01
3.089670538902282715e-01 -7.791750878095626831e-02 -1.194525435566902161e-01
3.092704117298126221e-01 -6.946341693401336670e-02 -1.230978146195411682e-01
-2.972250878810882568e-01 1.798710972070693970e-02 -1.245136633515357971e-01
-2.957580089569091797e-01 3.144404292106628418e-02 -1.223600804805755615e-01
-2.849105596542358398e-01 2.200559154152870178e-02 -1.258438527584075928e-01
-2.830575108528137207e-01 3.573748469352722168e-02 -1.235450506210327148e-01
-8.257560431957244873e-02 6.737148016691207886e-02 1.456741839647293091e-01
-7.926665991544723511e-02 7.704615592956542969e-02 1.442459374666213989e-01
-6.978763639926910400e-02 6.702128052711486816e-02 1.455040872097015381e-01
-6.642664968967437744e-02 7.668700814247131348e-02 1.440046429634094238e-01
3.143036067485809326e-01 1.444761753082275391e-01 6.290675699710845947e-02
3.173006176948547363e-01 1.496785879135131836e-01 5.210674926638603210e-02
3.244912326335906982e-01 1.380737870931625366e-01 6.980967521667480469e-02
3.268582224845886230e-01 1.432035416364669800e-01 5.937093868851661682e-02
5.259407162666320801e-01 -8.465565741062164307e-02 4.516486078500747681e-02
5.221841931343078613e-01 -7.827057689428329468e-02 5.210440978407859802e-02
5.351530313491821289e-01 -8.173865824937820435e-02 4.293821752071380615e-02
5.314491391181945801e-01 -7.493569701910018921e-02 5.004403740167617798e-02
2.165121436119079590e-01 -2.478377148509025574e-02 1.291133165359497070e-01
2.129708677530288696e-01 -1.684020645916461945e-02 1.343661397695541382e-01
2.259471118450164795e-01 -2.045436389744281769e-02 1.303931623697280884e-01
2.222059816122055054e-01 -1.295827142894268036e-02 1.360074579715728760e-01
-4.019061326980590820e-01 -1.271617859601974487e-01 -2.222564443945884705e-02
-4.056955575942993164e-01 -1.218784302473068237e-01 -1.933145709335803986e-02
-3.945161402225494385e-01 -1.279729157686233521e-01 -1.765319891273975372e-02
-3.971084952354431152e-01 -1.221694499254226685e-01 -1.506157871335744858e-02
-4.003345072269439697e-01 4.832882434129714966e-02 8.706155419349670410e-02
-4.013760089874267578e-01 5.632950365543365479e-02 8.610019087791442871e-02
-3.931169807910919189e-01 4.885257780551910400e-02 8.821272850036621094e-02
-3.944279849529266357e-01 5.699716880917549133e-02 8.713985979557037354e-02
-1.389261633157730103e-01 8.880356699228286743e-02 1.367958784103393555e-01
-1.366412937641143799e-01 9.654189646244049072e-02 1.349827945232391357e-01
-1.276538670063018799e-01 8.859547972679138184e-02 1.378715932369232178e-01
-1.255646646022796631e-01 9.646790474653244019e-02 1.363557726144790649e-01
2.428424805402755737e-01 -1.012656912207603455e-01 9.778817743062973022e-02
2.416813522577285767e-01 -9.117085486650466919e-02 1.062646210193634033e-01
2.515003681182861328e-01 -9.620975703001022339e-02 9.914866089820861816e-02
2.503136694431304932e-01 -8.599360287189483643e-02 1.077622100710868835e-01
-9.298835992813110352e-01 -1.443813294172286987e-01 -2.263004146516323090e-02
-9.271545410156250000e-01 -1.348309218883514404e-01 -2.113478444516658783e-02
-9.190396070480346680e-01 -1.415790170431137085e-01 -2.326166070997714996e-02
-9.174269437789916992e-01 -1.321260929107666016e-01 -2.161270938813686371e-02
-4.603007435798645020e-01 7.541564106941223145e-02 -7.008361816406250000e-02
-4.634265005588531494e-01 8.169055730104446411e-02 -6.148632615804672241e-02
-4.501076936721801758e-01 8.183025568723678589e-02 -6.761166453361511230e-02
-4.540036618709564209e-01 8.728556334972381592e-02 -5.887534469366073608e-02
1.062163859605789185e-01 2.017838656902313232e-01 -2.099757269024848938e-02
9.993462264537811279e-02 2.027438580989837646e-01 -1.362875476479530334e-02
1.124342381954193115e-01 2.027471363544464111e-01 -1.550993882119655609e-02
1.064418479800224304e-01 2.036054581403732300e-01 -8.102891966700553894e-03
1.193727031350135803e-01 -1.622563973069190979e-02 1.433572471141815186e-01
1.173308193683624268e-01 -3.891980974003672600e-03 1.445495188236236572e-01
1.305186599493026733e-01 -1.600148528814315796e-02 1.414880454540252686e-01
1.282204091548919678e-01 -3.827031701803207397e-03 1.426918208599090576e-01
-8.209913969039916992e-01 -2.480447478592395782e-02 -5.160604603588581085e-03
-8.228520750999450684e-01 -1.737212017178535461e-02 -7.568428292870521545e-03
-8.125429749488830566e-01 -2.728317119181156158e-02 -4.061705898493528366e-03
-8.137593269348144531e-01 -1.999004930257797241e-02 -6.558020599186420441e-03
-7.081527113914489746e-01 -8.149067871272563934e-03 -5.362705793231725693e-03
-7.099209427833557129e-01 -2.091429196298122406e-03 -4.249294754117727280e-03
-7.010648250579833984e-01 -8.419421501457691193e-03 -5.375239066779613495e-03
-7.021575570106506348e-01 -2.898049540817737579e-03 -3.752818331122398376e-03
-5.539222955703735352e-01 3.587325289845466614e-02 -6.019627302885055542e-02
-5.552381277084350586e-01 4.673064500093460083e-02 -5.623369663953781128e-02
-5.445157885551452637e-01 4.038279503583908081e-02 -6.097184121608734131e-02
-5.459341406822204590e-01 5.141867697238922119e-02 -5.704025924205780029e-02
-3.596310019493103027e-01 2.340903319418430328e-02 -1.075410172343254089e-01
-3.622954189777374268e-01 3.352420032024383545e-02 -1.052498370409011841e-01
-3.498187363147735596e-01 2.491798996925354004e-02 -1.100095734000205994e-01
-3.527040481567382812e-01 3.454563021659851074e-02 -1.074620559811592102e-01
-4.753934741020202637e-01 1.006217151880264282e-01 2.572214789688587189e-02
-4.682420194149017334e-01 1.042670309543609619e-01 2.098106779158115387e-02
-4.699075818061828613e-01 1.020485833287239075e-01 2.944790385663509369e-02
-4.627312123775482178e-01 1.057841628789901733e-01 2.429780922830104828e-02
5.545386672019958496e-01 3.028744086623191833e-02 6.080386787652969360e-02
5.493780374526977539e-01 4.040291905403137207e-02 6.197378411889076233e-02
5.634295344352722168e-01 2.985129691660404205e-02 5.838243290781974792e-02
5.563627481460571289e-01 3.804883733391761780e-02 6.041019037365913391e-02
2.701360583305358887e-01 3.503245115280151367e-02 -1.408899575471878052e-01
2.698421478271484375e-01 4.220187291502952576e-02 -1.399737596511840820e-01
2.782313227653503418e-01 3.427918255329132080e-02 -1.401427984237670898e-01
2.786188423633575439e-01 4.054886102676391602e-02 -1.395180076360702515e-01
-3.909521400928497314e-01 1.863550767302513123e-02 9.195920079946517944e-02
-3.915506601333618164e-01 2.667327970266342163e-02 9.164918959140777588e-02
-3.828046023845672607e-01 1.916100457310676575e-02 9.375665336847305298e-02
-3.831728994846343994e-01 2.740513160824775696e-02 9.349900484085083008e-02
-3.577074408531188965e-01 -6.636320799589157104e-02 7.600167393684387207e-02
-3.666715919971466064e-01 -5.651456490159034729e-02 7.771948724985122681e-02
-3.439623117446899414e-01 -6.925666332244873047e-02 7.719315588474273682e-02
-3.536273837089538574e-01 -5.913317203521728516e-02 7.871812582015991211e-02
-2.994380705058574677e-02 -6.316107511520385742e-02 -1.492534577846527100e-01
-2.871801517903804779e-02 -5.239498242735862732e-02 -1.510679125785827637e-01
-1.800851337611675262e-02 -6.276899576187133789e-02 -1.495690494775772095e-01
-1.741490699350833893e-02 -5.152656883001327515e-02 -1.517328619956970215e-01
2.938022017478942871e-01 9.699834883213043213e-02 1.117617189884185791e-01
2.967435419559478760e-01 1.044637411832809448e-01 1.058413088321685791e-01
3.077054917812347412e-01 9.476403892040252686e-02 1.113603264093399048e-01
3.106702864170074463e-01 1.025401130318641663e-01 1.058047264814376831e-01
-4.016019403934478760e-01 1.182293966412544250e-01 3.543962910771369934e-02
-3.958263099193572998e-01 1.233804747462272644e-01 3.163715824484825134e-02
-3.920250535011291504e-01 1.208843141794204712e-01 3.840527310967445374e-02
-3.856428563594818115e-01 1.267143934965133667e-01 3.414576500654220581e-02
-1.430396586656570435e-01 -1.938392072916030884e-01 1.009592972695827484e-02
-1.494367718696594238e-01 -1.903420388698577881e-01 1.886214315891265869e-02
-1.322522312402725220e-01 -1.938355416059494019e-01 1.562288962304592133e-02
-1.383090168237686157e-01 -1.901631355285644531e-01 2.434707619249820709e-02
5.539456605911254883e-01 -1.304418779909610748e-02 5.889866128563880920e-02
5.505182743072509766e-01 -3.792564850300550461e-03 6.217871978878974915e-02
5.647868514060974121e-01 -9.165230207145214081e-03 5.592066794633865356e-02
5.623831748962402344e-01 -1.104494323953986168e-03 5.797793716192245483e-02
2.713525891304016113e-01 -4.655047319829463959e-03 -1.270455718040466309e-01
2.741519212722778320e-01 2.036679070442914963e-03 -1.278517842292785645e-01
2.769047021865844727e-01 -3.265256527811288834e-03 -1.243490129709243774e-01
2.810877263545989990e-01 1.968895550817251205e-03 -1.259906738996505737e-01
-1.931997090578079224e-01 -2.001422829926013947e-02 -1.420657783746719360e-01
-1.927472651004791260e-01 -9.150654077529907227e-03 -1.425503939390182495e-01
-1.820857077836990356e-01 -1.905346289277076721e-02 -1.435367316007614136e-01
-1.814052760601043701e-01 -8.132589980959892273e-03 -1.440775245428085327e-01
2.508364021778106689e-01 1.205397173762321472e-01 -1.122931912541389465e-01
2.449336647987365723e-01 1.275369971990585327e-01 -1.078827008605003357e-01
2.596216499805450439e-01 1.205469295382499695e-01 -1.099238172173500061e-01
2.535455524921417236e-01 1.278356164693832397e-01 -1.045131683349609375e-01
3.813335597515106201e-01 -1.355433315038681030e-01 4.326699674129486084e-02
3.792831301689147949e-01 -1.301210671663284302e-01 4.913015291094779968e-02
3.866248726844787598e-01 -1.269723922014236450e-01 4.514702036976814270e-02
3.847123980522155762e-01 -1.213704049587249756e-01 5.098164826631546021e-02
-2.203405648469924927e-01 3.550762310624122620e-02 1.310344934463500977e-01
-2.166835069656372070e-01 4.780003428459167480e-02 1.295246183872222900e-01
-2.077862471342086792e-01 3.528224676847457886e-02 1.312600374221801758e-01
-2.049229592084884644e-01 4.713720828294754028e-02 1.296634078025817871e-01
-3.517322242259979248e-01 1.394687443971633911e-01 6.423297338187694550e-03
-3.502439856529235840e-01 1.465195566415786743e-01 5.642956122756004333e-03
-3.452033400535583496e-01 1.414331048727035522e-01 8.616676554083824158e-03
-3.434816300868988037e-01 1.485569477081298828e-01 7.599537260830402374e-03
7.571320980787277222e-02 -2.079276293516159058e-01 -1.981450617313385010e-02
6.974866241216659546e-02 -2.091723531484603882e-01 -1.382513716816902161e-02
8.209770172834396362e-02 -2.062600553035736084e-01 -1.366772875189781189e-02
7.673117518424987793e-02 -2.071473002433776855e-01 -6.999860983341932297e-03
5.127062648534774780e-02 1.694795042276382446e-01 -9.106770157814025879e-02
4.300824552774429321e-02 1.742752194404602051e-01 -8.425309509038925171e-02
6.173620373010635376e-02 1.735556125640869141e-01 -8.760265260934829712e-02
5.314634740352630615e-02 1.783987283706665039e-01 -8.069126307964324951e-02
-6.082418560981750488e-01 5.468390136957168579e-02 -2.180690690875053406e-02
-6.036000847816467285e-01 5.936314910650253296e-02 -2.478469163179397583e-02
-6.023377776145935059e-01 5.516319721937179565e-02 -2.070126868784427643e-02
-5.983912348747253418e-01 6.005832552909851074e-02 -2.299004234373569489e-02
-1.145942658185958862e-01 3.518963232636451721e-02 -1.522706896066665649e-01
-1.131961345672607422e-01 4.401852935552597046e-02 -1.515362858772277832e-01
-1.050535142421722412e-01 3.705943748354911804e-02 -1.529593616724014282e-01
-1.037651821970939636e-01 4.582006856799125671e-02 -1.524649113416671753e-01
-1.308641731739044189e-01 -1.385420262813568115e-01 -1.160549819469451904e-01
-1.247828006744384766e-01 -1.317419856786727905e-01 -1.208121553063392639e-01
-1.208117529749870300e-01 -1.389092057943344116e-01 -1.160543784499168396e-01
-1.145165935158729553e-01 -1.326508671045303345e-01 -1.205866932868957520e-01
-3.192424178123474121e-01 1.430560797452926636e-01 4.470188915729522705e-02
-3.128628730773925781e-01 1.508508175611495972e-01 3.722414001822471619e-02
-3.093621432781219482e-01 1.462077200412750244e-01 4.996190592646598816e-02
-3.025601208209991455e-01 1.536871492862701416e-01 4.211296141147613525e-02
3.445900380611419678e-01 5.797803401947021484e-02 -1.218019872903823853e-01
3.443069458007812500e-01 6.634879112243652344e-02 -1.188221871852874756e-01
3.548628091812133789e-01 6.074506416916847229e-02 -1.200970113277435303e-01
3.535068035125732422e-01 6.922523677349090576e-02 -1.168830767273902893e-01
3.541030883789062500e-01 1.491276770830154419e-01 3.463615477085113525e-02
3.421989381313323975e-01 1.514742374420166016e-01 3.501530736684799194e-02
3.622546195983886719e-01 1.439165323972702026e-01 4.303148761391639709e-02
3.511951863765716553e-01 1.464266926050186157e-01 4.265196993947029114e-02
-2.992522418498992920e-01 -9.440255910158157349e-02 8.032788336277008057e-02
-3.040736615657806396e-01 -8.342596888542175293e-02 8.561342954635620117e-02
-2.861283421516418457e-01 -9.378993511199951172e-02 8.146327733993530273e-02
-2.902364432811737061e-01 -8.302190899848937988e-02 8.733896166086196899e-02
-1.998131126165390015e-01 1.562303900718688965e-01 -8.698324114084243774e-02
-2.022345215082168579e-01 1.631910502910614014e-01 -7.679025083780288696e-02
-1.888453364372253418e-01 1.633368432521820068e-01 -8.352939784526824951e-02
-1.915035992860794067e-01 1.698955893516540527e-01 -7.340552657842636108e-02
-4.085703790187835693e-01 1.241006031632423401e-01 1.134366542100906372e-02
-4.063562750816345215e-01 1.306504011154174805e-01 1.165896281599998474e-02
-4.014293849468231201e-01 1.257898658514022827e-01 1.257286127656698227e-02
-3.991374373435974121e-01 1.325708627700805664e-01 1.297609321773052216e-02
-1.824121028184890747e-01 -1.862919628620147705e-01 -3.891709819436073303e-02
-1.958445459604263306e-01 -1.860210150480270386e-01 -3.461072593927383423e-02
-1.728619933128356934e-01 -1.889860183000564575e-01 -3.309117630124092102e-02
-1.860042512416839600e-01 -1.884759366512298584e-01 -2.865809388458728790e-02
-4.391872286796569824e-01 -6.598033756017684937e-02 -7.172647863626480103e-02
-4.364652037620544434e-01 -5.923341214656829834e-02 -7.601968199014663696e-02
-4.301016926765441895e-01 -6.781291961669921875e-02 -7.296923547983169556e-02
-4.279415905475616455e-01 -6.103025749325752258e-02 -7.714509218931198120e-02
5.278287827968597412e-02 3.263242542743682861e-02 -1.575892716646194458e-01
5.164571478962898254e-02 4.251139238476753235e-02 -1.557387858629226685e-01
6.223139166831970215e-02 3.534881398081779480e-02 -1.586378216743469238e-01
6.079644337296485901e-02 4.448064789175987244e-02 -1.572708934545516968e-01
2.416093051433563232e-01 1.170600950717926025e-01 -4.653881490230560303e-01
2.522453963756561279e-01 1.221671476960182190e-01 -4.700911343097686768e-01
2.515875399112701416e-01 1.177849471569061279e-01 -4.570161700248718262e-01
2.619394361972808838e-01 1.233383268117904663e-01 -4.619620740413665771e-01
3.946765065193176270e-01 -2.141358703374862671e-02 -1.209013164043426514e-01
3.966615796089172363e-01 -1.001582853496074677e-02 -1.227226406335830688e-01
4.062252640724182129e-01 -1.927078142762184143e-02 -1.189714893698692322e-01
4.080837666988372803e-01 -7.684447802603244781e-03 -1.207744479179382324e-01
-6.141273379325866699e-01 -3.920605033636093140e-02 -1.052514836192131042e-02
-6.165919899940490723e-01 -3.237461671233177185e-02 -8.062784560024738312e-03
-6.104946732521057129e-01 -3.340059518814086914e-02 -9.206562303006649017e-03
-6.121643781661987305e-01 -2.639449387788772583e-02 -7.522873114794492722e-03
1.385151296854019165e-01 1.177499629557132721e-02 -1.552966535091400146e-01
1.380083858966827393e-01 2.220746129751205444e-02 -1.550029665231704712e-01
1.482412815093994141e-01 1.260889694094657898e-02 -1.537872105836868286e-01
1.473559141159057617e-01 2.347792685031890869e-02 -1.533867865800857544e-01
-8.974648714065551758e-01 -9.791665524244308472e-02 -1.911132223904132843e-02
-8.960536122322082520e-01 -8.826117217540740967e-02 -1.834542304277420044e-02
-8.896079063415527344e-01 -9.430187195539474487e-02 -1.855192705988883972e-02
-8.871563076972961426e-01 -8.448167145252227783e-02 -1.820264011621475220e-02
8.161682635545730591e-02 2.373590469360351562e-01 1.954301819205284119e-02
7.963955402374267578e-02 2.462253272533416748e-01 2.104999870061874390e-02
8.932757377624511719e-02 2.370513975620269775e-01 1.961699314415454865e-02
8.774381875991821289e-02 2.457945346832275391e-01 2.052065357565879822e-02
1.883266270160675049e-01 -9.822158515453338623e-02 -1.315731108188629150e-01
1.903536766767501831e-01 -8.642596006393432617e-02 -1.344625353813171387e-01
1.993260234594345093e-01 -9.758023172616958618e-02 -1.306289583444595337e-01
2.014360427856445312e-01 -8.543016016483306885e-02 -1.335113793611526489e-01
1.083260327577590942e-01 6.009179726243019104e-02 -1.512764543294906616e-01
1.065111756324768066e-01 6.783111393451690674e-02 -1.493466794490814209e-01
1.167309582233428955e-01 6.269069015979766846e-02 -1.511414647102355957e-01
1.150653064250946045e-01 7.054478675127029419e-02 -1.490767151117324829e-01
-5.981220602989196777e-01 1.428281422704458237e-03 2.880261163227260113e-04
-5.992103815078735352e-01 1.134107261896133423e-02 3.163983346894383430e-04
-5.896059870719909668e-01 6.140132434666156769e-03 -5.863664555363357067e-04
-5.901628732681274414e-01 1.573250442743301392e-02 -5.375716136768460274e-05
-4.108856916427612305e-01 8.092246949672698975e-02 -8.078353106975555420e-02
-4.134100973606109619e-01 8.807186037302017212e-02 -7.326129823923110962e-02
-4.008170962333679199e-01 8.663732558488845825e-02 -7.845752686262130737e-02
-4.036832451820373535e-01 9.370087832212448120e-02 -7.070590555667877197e-02
2.520623803138732910e-01 -1.158955842256546021e-01 8.957098424434661865e-02
2.510029077529907227e-01 -1.057509854435920715e-01 9.822518378496170044e-02
2.608913779258728027e-01 -1.098450347781181335e-01 9.132008254528045654e-02
2.594456076622009277e-01 -9.977893531322479248e-02 9.945514053106307983e-02
-3.096191287040710449e-01 1.226403936743736267e-01 -8.299254626035690308e-02
-3.128384947776794434e-01 1.314710229635238647e-01 -7.111501693725585938e-02
-3.004205226898193359e-01 1.302041709423065186e-01 -7.984548062086105347e-02
-3.032532334327697754e-01 1.379434317350387573e-01 -6.856009364128112793e-02
-7.163766026496887207e-01 -1.237998064607381821e-02 -7.953209802508354187e-03
-7.185794115066528320e-01 -5.623599514365196228e-03 -6.900259293615818024e-03
-7.104219794273376465e-01 -1.079383119940757751e-02 -7.832199335098266602e-03
-7.124820947647094727e-01 -4.388591274619102478e-03 -6.767156533896923065e-03
4.666967988014221191e-01 -1.364709436893463135e-01 1.712908782064914703e-02
4.663728177547454834e-01 -1.316107213497161865e-01 2.241599187254905701e-02
4.720127582550048828e-01 -1.323145329952239990e-01 1.988883316516876221e-02
4.711612164974212646e-01 -1.274387836456298828e-01 2.511896938085556030e-02
3.221547901630401611e-01 -1.369578838348388672e-01 6.275798380374908447e-02
3.205454647541046143e-01 -1.296613067388534546e-01 6.635764241218566895e-02
3.299946188926696777e-01 -1.332814693450927734e-01 6.382275372743606567e-02
3.283032476902008057e-01 -1.262076199054718018e-01 6.739334017038345337e-02
-7.614307999610900879e-01 -5.907184444367885590e-03 -7.347262464463710785e-03
-7.616369128227233887e-01 -2.920720726251602173e-05 -6.827458739280700684e-03
-7.559014558792114258e-01 -6.024975329637527466e-03 -7.921396754682064056e-03
-7.563222050666809082e-01 1.835846342146396637e-05 -7.422869093716144562e-03
4.200624227523803711e-01 -1.070749014616012573e-01 6.530735641717910767e-02
4.202783405780792236e-01 -9.639879316091537476e-02 7.401793450117111206e-02
4.307888746261596680e-01 -1.056989058852195740e-01 6.433591991662979126e-02
4.317878484725952148e-01 -9.412120282649993896e-02 7.329613715410232544e-02
-4.411426484584808350e-01 9.475252032279968262e-02 -5.952800810337066650e-02
-4.457421004772186279e-01 9.940452128648757935e-02 -5.093782395124435425e-02
-4.325155913829803467e-01 1.000418439507484436e-01 -5.645223706960678101e-02
-4.372029304504394531e-01 1.049590930342674255e-01 -4.783046618103981018e-02
-4.895393252372741699e-01 1.000577136874198914e-01 -1.053837221115827560e-02
-4.821843206882476807e-01 1.041829511523246765e-01 -1.317231450229883194e-02
-4.841506183147430420e-01 1.026772484183311462e-01 -5.102104041725397110e-03
-4.765877425670623779e-01 1.065237894654273987e-01 -7.758155465126037598e-03
-4.818541705608367920e-01 -1.810056157410144806e-02 -7.449737936258316040e-02
-4.800584614276885986e-01 -7.536421995609998703e-03 -7.756447046995162964e-02
-4.716012775897979736e-01 -1.660557836294174194e-02 -7.711633294820785522e-02
-4.693692624568939209e-01 -6.057347171008586884e-03 -7.998245954513549805e-02
2.412528991699218750e-01 -1.712746359407901764e-02 -1.429783552885055542e-01
2.433430254459381104e-01 -1.153378747403621674e-02 -1.439678668975830078e-01
2.478373646736145020e-01 -1.681427285075187683e-02 -1.408236473798751831e-01
2.496679574251174927e-01 -1.113766152411699295e-02 -1.416852325201034546e-01
-2.761129736900329590e-01 -3.927248716354370117e-02 -1.225959658622741699e-01
-2.757985889911651611e-01 -2.864769101142883301e-02 -1.252823024988174438e-01
-2.666358649730682373e-01 -3.842535614967346191e-02 -1.235389783978462219e-01
-2.664217352867126465e-01 -2.781892009079456329e-02 -1.261044144630432129e-01
-4.881402254104614258e-01 1.105615794658660889e-01 1.701743109151721001e-03
-4.806971251964569092e-01 1.139240413904190063e-01 -1.730253687128424644e-03
-4.816533625125885010e-01 1.127160713076591492e-01 8.455906063318252563e-03
-4.741085767745971680e-01 1.156176552176475525e-01 3.906649537384510040e-03
-8.660511970520019531e-01 9.751036763191223145e-02 2.721623750403523445e-03
-8.685727119445800781e-01 1.077413260936737061e-01 4.747975617647171021e-03
-8.592893481254577637e-01 9.883973747491836548e-02 3.381730988621711731e-03
-8.619626760482788086e-01 1.097035109996795654e-01 5.289191380143165588e-03
-3.307979106903076172e-01 1.446299254894256592e-01 -3.939623385667800903e-02
-3.274287879467010498e-01 1.473302096128463745e-01 -3.451443091034889221e-02
-3.262563347816467285e-01 1.497891694307327271e-01 -2.819534577429294586e-02
-3.193760514259338379e-01 1.527698785066604614e-01 -2.648999169468879700e-02
-3.379016518592834473e-01 -1.090625226497650146e-01 5.929183587431907654e-02
-3.454545736312866211e-01 -1.002606451511383057e-01 6.299417465925216675e-02
-3.263337016105651855e-01 -1.094557791948318481e-01 6.014072149991989136e-02
-3.337887823581695557e-01 -1.003906950354576111e-01 6.467641890048980713e-02
-2.194373458623886108e-01 1.612210571765899658e-01 -7.531246542930603027e-02
-2.221643030643463135e-01 1.678050309419631958e-01 -6.448533385992050171e-02
-2.104188948869705200e-01 1.676661223173141479e-01 -7.169157266616821289e-02
-2.131475061178207397e-01 1.733260154724121094e-01 -6.117570772767066956e-02
1.106503307819366455e-01 -7.332522422075271606e-03 -1.550009250640869141e-01
1.120876148343086243e-01 1.858867472037672997e-03 -1.554876863956451416e-01
1.206568554043769836e-01 -6.745901890099048615e-03 -1.545498222112655640e-01
1.218216866254806519e-01 2.706525381654500961e-03 -1.548340320587158203e-01
3.705567121505737305e-02 -1.015124022960662842e-01 1.153943464159965515e-01
3.518392518162727356e-02 -9.036186337471008301e-02 1.214532926678657532e-01
5.029243603348731995e-02 -9.957496076822280884e-02 1.148014143109321594e-01
4.846815392374992371e-02 -8.863918483257293701e-02 1.207682862877845764e-01
-6.599700078368186951e-03 -1.424771733582019806e-02 -1.576847434043884277e-01
-5.007154773920774460e-03 -4.695636220276355743e-03 -1.580398082733154297e-01
4.051867872476577759e-03 -1.138895750045776367e-02 -1.571673750877380371e-01
5.907942540943622589e-03 -1.575136324390769005e-03 -1.574354767799377441e-01
2.813131511211395264e-01 2.426238544285297394e-02 -1.976578384637832642e-01
2.891815602779388428e-01 2.933241613209247589e-02 -2.046965062618255615e-01
2.884908318519592285e-01 2.696111425757408142e-02 -1.921163946390151978e-01
2.973466217517852783e-01 3.184861317276954651e-02 -1.991938501596450806e-01
3.708785772323608398e-02 -4.685006663203239441e-02 -1.516741514205932617e-01
3.779519721865653992e-02 -3.462166711688041687e-02 -1.542079001665115356e-01
4.879902303218841553e-02 -4.892532899975776672e-02 -1.524499356746673584e-01
4.979095980525016785e-02 -3.743406012654304504e-02 -1.546245217323303223e-01
1.480616778135299683e-01 -9.861770272254943848e-02 -1.349956989288330078e-01
1.488296240568161011e-01 -9.117604792118072510e-02 -1.380793005228042603e-01
1.574673950672149658e-01 -1.007938534021377563e-01 -1.333917677402496338e-01
1.586598902940750122e-01 -9.334042668342590332e-02 -1.363106369972229004e-01
2.957502901554107666e-01 -1.427381634712219238e-01 6.673828512430191040e-02
2.939849197864532471e-01 -1.356252133846282959e-01 7.340437918901443481e-02
3.049732148647308350e-01 -1.419072300195693970e-01 6.519162654876708984e-02
3.024167418479919434e-01 -1.351404041051864624e-01 7.036492973566055298e-02
2.549571394920349121e-01 1.113796327263116837e-02 3.703534305095672607e-01
2.603451907634735107e-01 1.455943379551172256e-02 3.720337748527526855e-01
2.628588080406188965e-01 1.535468082875013351e-02 3.812996149063110352e-01
2.687709927558898926e-01 1.907081902027130127e-02 3.823678493499755859e-01
1.475349664688110352e-01 -1.958251595497131348e-01 -6.487897783517837524e-02
1.523850709199905396e-01 -1.928851455450057983e-01 -7.010765373706817627e-02
1.518887579441070557e-01 -1.973192840814590454e-01 -6.143756955862045288e-02
1.564933806657791138e-01 -1.942327618598937988e-01 -6.681665778160095215e-02
-5.943598151206970215e-01 2.546872384846210480e-02 5.083915893919765949e-04
-5.945116281509399414e-01 3.348967432975769043e-02 7.287256885319948196e-04
-5.867918729782104492e-01 2.755498513579368591e-02 2.763996599242091179e-05
-5.867248177528381348e-01 3.511888906359672546e-02 5.162885645404458046e-04
-1.893771737813949585e-01 -1.739876121282577515e-01 4.535763710737228394e-02
-1.991026848554611206e-01 -1.660831719636917114e-01 5.188522115349769592e-02
-1.799774765968322754e-01 -1.728079020977020264e-01 5.012802407145500183e-02
-1.893245279788970947e-01 -1.649517863988876343e-01 5.678338557481765747e-02
2.431041449308395386e-01 -1.582549363374710083e-01 6.227270513772964478e-02
2.431477308273315430e-01 -1.490810364484786987e-01 7.017555087804794312e-02
2.548973858356475830e-01 -1.532711386680603027e-01 6.450086086988449097e-02
2.550351023674011230e-01 -1.439869999885559082e-01 7.247389853000640869e-02
-4.517349302768707275e-01 5.776344612240791321e-02 -8.022065460681915283e-02
-4.531082510948181152e-01 6.579530239105224609e-02 -7.436675578355789185e-02
-4.409455060958862305e-01 6.358933448791503906e-02 -8.061613887548446655e-02
-4.430458545684814453e-01 7.078567147254943848e-02 -7.439589500427246094e-02
5.420789122581481934e-01 -3.619132563471794128e-02 -1.506981323473155499e-03
5.464355349540710449e-01 -2.860468626022338867e-02 -2.990842098370194435e-03
5.475584864616394043e-01 -3.535912930965423584e-02 4.186378791928291321e-03
5.517110824584960938e-01 -2.794751897454261780e-02 2.561970148235559464e-03
-7.615601420402526855e-01 1.300200540572404861e-02 1.764334365725517273e-02
-7.620635032653808594e-01 1.930476725101470947e-02 1.597362942993640900e-02
-7.526440620422363281e-01 1.569340936839580536e-02 1.474952325224876404e-02
-7.537416815757751465e-01 2.216273918747901917e-02 1.381967030465602875e-02
-1.196451187133789062e-01 2.013206481933593750e-01 9.353805333375930786e-03
-1.067164242267608643e-01 2.011508196592330933e-01 5.992908962070941925e-03
-1.115297600626945496e-01 2.004216313362121582e-01 1.690608263015747070e-02
-9.834040701389312744e-02 2.001755684614181519e-01 1.341957598924636841e-02
1.701743006706237793e-01 -3.105675801634788513e-02 -1.483175009489059448e-01
1.716427803039550781e-01 -2.232984825968742371e-02 -1.517917662858963013e-01
1.799850612878799438e-01 -2.861791662871837616e-02 -1.492619216442108154e-01
1.828266978263854980e-01 -2.115808799862861633e-02 -1.524494886398315430e-01
7.559875398874282837e-02 4.529502615332603455e-02 -1.560675948858261108e-01
7.358436286449432373e-02 5.350342020392417908e-02 -1.545281708240509033e-01
8.510278910398483276e-02 4.640885069966316223e-02 -1.563369184732437134e-01
8.319043368101119995e-02 5.425383150577545166e-02 -1.548037230968475342e-01
-1.419140994548797607e-01 -1.562266647815704346e-01 7.282195985317230225e-02
-1.458677649497985840e-01 -1.484253704547882080e-01 7.912494987249374390e-02
-1.297908425331115723e-01 -1.546062231063842773e-01 7.520347833633422852e-02
-1.327970921993255615e-01 -1.462449282407760620e-01 8.178631961345672607e-02
2.825867235660552979e-01 -3.673349041491746902e-03 -1.275603324174880981e-01
2.870649993419647217e-01 1.219476456753909588e-03 -1.297343373298645020e-01
2.895238399505615234e-01 -4.268473014235496521e-03 -1.242551803588867188e-01
2.938980162143707275e-01 1.794332638382911682e-05 -1.271488964557647705e-01
3.720230162143707275e-01 -1.752065122127532959e-01 -3.244830295443534851e-02
3.834803998470306396e-01 -1.716673970222473145e-01 -3.534055873751640320e-02
3.797063231468200684e-01 -1.736692190170288086e-01 -2.399692498147487640e-02
3.913617432117462158e-01 -1.702115237712860107e-01 -2.672057598829269409e-02
1.209231466054916382e-01 1.829603761434555054e-01 -6.402057409286499023e-02
1.111712753772735596e-01 1.875359714031219482e-01 -5.599314346909523010e-02
1.303311735391616821e-01 1.846809983253479004e-01 -5.825892090797424316e-02
1.202597767114639282e-01 1.891825199127197266e-01 -5.051405355334281921e-02
-6.170636415481567383e-02 1.193851009011268616e-01 1.330672055482864380e-01
-5.892242863774299622e-02 1.272637248039245605e-01 1.293774694204330444e-01
-5.023737996816635132e-02 1.190593242645263672e-01 1.338685899972915649e-01
-4.698405414819717407e-02 1.270682066679000854e-01 1.302465200424194336e-01
-3.391152322292327881e-01 3.960410133004188538e-02 1.043923348188400269e-01
