-3.536199999999999899e-01 -1.079760000000000025e-01 -1.679500000000000090e-02
9.105000000000000246e-03 -2.030379999999999963e-01 1.809499999999999997e-02
2.605750000000000011e-01 1.755299999999999916e-01 -2.641500000000000098e-02
-1.952480000000000049e-01 1.486850000000000116e-01 -9.919999999999999651e-02
6.137979999999999547e-01 -1.607199999999999948e-02 5.897000000000000332e-03
-5.308100000000000041e-01 -6.169000000000000004e-03 -1.474800000000000069e-02
2.142249999999999988e-01 6.552900000000000391e-02 -3.276069999999999816e-01
-4.598220000000000085e-01 -6.490600000000000536e-02 -1.647099999999999953e-02
-2.315760000000000041e-01 3.299099999999999949e-02 1.277659999999999907e-01
-6.446200000000000541e-02 8.539199999999999569e-02 1.428689999999999960e-01
-2.654859999999999998e-01 1.346579999999999999e-01 8.578700000000000214e-02
4.743149999999999866e-01 -9.933599999999999375e-02 5.477800000000000030e-02
-3.271390000000000131e-01 -5.114099999999999896e-02 9.006100000000000216e-02
6.521240000000000370e-01 -2.120400000000000063e-02 -2.038999999999999840e-02
1.278630000000000044e-01 -1.857129999999999892e-01 -8.184299999999999908e-02
-7.691900000000000126e-02 5.214599999999999791e-02 -1.530160000000000131e-01
5.078810000000000269e-01 -2.379900000000000071e-02 -9.482799999999999563e-02
-6.181600000000000289e-02 -1.182010000000000005e-01 1.063510000000000011e-01
-1.506450000000000011e-01 1.828619999999999968e-01 6.600100000000000411e-02
-3.517159999999999731e-01 -1.755780000000000118e-01 -2.108300000000000105e-02
1.040230000000000044e-01 1.697450000000000070e-01 8.448700000000000654e-02
-9.077749999999999986e-01 9.448099999999999554e-02 2.339999999999999958e-04
5.437229999999999563e-01 7.375099999999999711e-02 -2.485100000000000156e-02
-2.579659999999999731e-01 1.773859999999999881e-01 1.281000000000000021e-03
-5.439690000000000358e-01 5.047100000000000197e-02 3.890999999999999927e-03
-1.255989999999999884e-01 6.063000000000000334e-02 -1.479840000000000044e-01
7.832500000000000573e-02 -9.208299999999999819e-02 -1.411050000000000082e-01
-3.484999999999999903e-02 1.558099999999999936e-02 1.477930000000000077e-01
4.177370000000000250e-01 -1.333519999999999983e-01 4.642999999999999905e-02
2.749759999999999982e-01 -1.924690000000000012e-01 -3.763500000000000179e-02
9.870600000000000207e-02 2.024420000000000108e-01 -1.738800000000000068e-02
1.325119999999999909e-01 3.935600000000000209e-02 -1.537300000000000055e-01
-2.130100000000000049e-02 -2.032059999999999977e-01 1.800200000000000064e-02
-2.964260000000000228e-01 -5.713000000000000023e-02 -1.149209999999999954e-01
-4.840880000000000183e-01 -5.838299999999999740e-02 -6.282500000000000584e-02
1.472279999999999978e-01 -1.774199999999999944e-01 5.394800000000000290e-02
-2.608269999999999755e-01 -1.690840000000000121e-01 -4.308200000000000224e-02
-6.393100000000000172e-02 -5.716600000000000154e-02 1.312979999999999980e-01
-1.790609999999999979e-01 1.663880000000000081e-01 -8.262500000000000400e-02
2.581660000000000066e-01 -4.054999999999999577e-03 2.608219999999999983e-01
3.654089999999999838e-01 -8.878600000000000381e-02 7.288600000000000634e-02
-8.499640000000000528e-01 2.467600000000000002e-02 1.791000000000000057e-03
-8.685500000000000165e-02 1.961120000000000085e-01 -5.296399999999999719e-02
3.023199999999999776e-01 -1.079679999999999945e-01 8.638500000000000345e-02
-4.510219999999999785e-01 -1.069620000000000015e-01 4.695999999999999654e-03
-5.419040000000000523e-01 -6.526800000000000657e-02 1.846700000000000078e-02
1.151770000000000016e-01 1.515430000000000110e-01 1.027689999999999992e-01
4.230099999999999832e-02 1.714680000000000093e-01 -9.172399999999999998e-02
2.798919999999999741e-01 -1.274019999999999875e-01 8.028499999999999526e-02
1.598100000000000076e-01 -2.106379999999999919e-01 -7.118700000000000028e-02
2.695250000000000146e-01 9.995000000000000412e-03 3.293530000000000069e-01
-5.598530000000000451e-01 4.228300000000000114e-02 -8.184000000000000302e-03
-2.451309999999999878e-01 2.301290000000000002e-01 1.678599999999999884e-02
5.043099999999999666e-02 2.406419999999999948e-01 1.745199999999999876e-02
-3.521960000000000091e-01 2.379880000000000051e-01 1.786599999999999994e-02
5.597600000000000353e-01 -1.029270000000000046e-01 -2.122100000000000028e-02
2.674849999999999728e-01 1.585630000000000095e-01 -6.314100000000000268e-02
-2.572720000000000007e-01 -1.353139999999999898e-01 6.454999999999999627e-02
-4.610630000000000006e-01 -1.025869999999999976e-01 7.308000000000000260e-03
4.625589999999999979e-01 5.347400000000000070e-02 8.822800000000000087e-02
-5.278329999999999966e-01 -3.229800000000000032e-02 4.551899999999999696e-02
5.228960000000000274e-01 4.829999999999999767e-04 7.194100000000000494e-02
-3.823650000000000104e-01 -1.262739999999999974e-01 -3.358200000000000074e-02
-4.023630000000000262e-01 8.660500000000000143e-02 -2.694000000000000214e-03
2.132439999999999891e-01 9.572999999999999912e-03 -1.484989999999999921e-01
9.229099999999999804e-02 -3.239299999999999818e-02 -1.539300000000000113e-01
1.025309999999999971e-01 1.166240000000000054e-01 1.285169999999999924e-01
-7.246550000000000491e-01 1.009099999999999928e-02 -3.824700000000000322e-02
-2.602539999999999853e-01 -1.605189999999999950e-01 -6.468799999999999550e-02
2.509410000000000251e-01 -1.793750000000000067e-01 3.787399999999999795e-02
5.812200000000000005e-02 -1.651160000000000128e-01 -1.040409999999999946e-01
-4.788709999999999911e-01 -2.542940000000000200e-01 -3.200700000000000073e-02
-3.933630000000000182e-01 2.514950000000000241e-01 1.887899999999999995e-02
-4.304910000000000125e-01 -2.066649999999999876e-01 -2.628000000000000128e-02
2.618889999999999829e-01 1.256900000000000031e-02 -1.773820000000000119e-01
-2.831370000000000275e-01 1.215009999999999979e-01 8.994900000000000118e-02
1.380709999999999993e-01 1.531059999999999921e-01 9.848899999999999322e-02
4.708350000000000035e-01 -8.465000000000000302e-02 -9.035400000000000376e-02
1.794800000000000006e-01 -1.675409999999999955e-01 6.093099999999999905e-02
-3.198380000000000112e-01 -1.058430000000000065e-01 6.664699999999999791e-02
-1.223729999999999957e-01 -8.340000000000000191e-02 1.172330000000000039e-01
-6.772460000000000147e-01 -8.350000000000000217e-04 -1.928999999999999942e-03
4.140039999999999831e-01 6.747599999999999432e-02 -1.074819999999999942e-01
-3.613660000000000205e-01 -8.741599999999999371e-02 -8.629499999999999671e-02
3.487709999999999977e-01 -1.083110000000000045e-01 8.086100000000000232e-02
4.836289999999999756e-01 -2.577700000000000130e-02 8.470700000000000451e-02
1.681509999999999949e-01 1.591299999999999937e-01 8.699400000000000188e-02
4.571970000000000200e-01 1.030400000000000066e-01 -6.276199999999999835e-02
-9.353289999999999660e-01 -1.874770000000000048e-01 -2.324499999999999830e-02
-6.406110000000000415e-01 -4.243199999999999750e-02 -9.069999999999999937e-03
-6.464499999999999691e-01 2.807499999999999926e-02 4.305999999999999932e-03
-1.163720000000000032e-01 -1.970480000000000009e-01 1.477799999999999947e-02
-1.072999999999999952e-03 1.929019999999999901e-01 -5.708099999999999979e-02
-4.563719999999999999e-01 -8.402300000000000046e-02 -1.678100000000000078e-02
8.271100000000000674e-02 -1.913449999999999873e-01 3.972300000000000136e-02
1.556369999999999976e-01 3.151050000000000240e-01 2.315100000000000144e-02
4.754720000000000057e-01 -7.120700000000000640e-02 7.073100000000000220e-02
3.961970000000000214e-01 -1.523029999999999939e-01 -6.717900000000000260e-02
-2.545569999999999777e-01 1.747190000000000132e-01 2.754099999999999951e-02
-6.647469999999999768e-01 -5.348000000000000323e-03 -1.078299999999999918e-02
-8.245719999999999716e-01 6.283999999999999655e-03 -2.881999999999999840e-02
1.714900000000000105e-02 -1.989920000000000022e-01 3.118299999999999891e-02
-2.596249999999999947e-01 -1.638259999999999994e-01 3.284200000000000313e-02
3.793420000000000125e-01 -1.488039999999999918e-01 -7.353999999999999426e-02
-3.602799999999999891e-01 8.766200000000000381e-02 8.588600000000000401e-02
4.122300000000000270e-02 2.048480000000000023e-01 4.049999999999999781e-04
2.572769999999999779e-01 7.674200000000000466e-02 -3.453869999999999996e-01
-3.489990000000000037e-01 -9.382799999999999474e-02 6.392000000000000459e-02
1.553569999999999951e-01 -2.692129999999999801e-01 3.349900000000000100e-02
-3.529010000000000202e-01 5.475499999999999812e-02 -1.045669999999999933e-01
2.379090000000000094e-01 8.422000000000000319e-02 -3.674799999999999733e-01
-4.829260000000000219e-01 1.003489999999999938e-01 -2.390099999999999864e-02
1.824729999999999963e-01 2.315720000000000001e-01 1.407899999999999950e-02
-3.576159999999999894e-01 -1.731500000000000053e-02 9.307999999999999607e-02
4.720440000000000191e-01 -1.085500000000000007e-02 -1.071759999999999935e-01
-5.163149999999999684e-01 6.763800000000000368e-02 4.587299999999999711e-02
1.821649999999999936e-01 -7.935399999999999399e-02 1.158809999999999979e-01
-3.789150000000000018e-01 2.469339999999999868e-01 1.848100000000000090e-02
-5.926169999999999494e-01 6.913700000000000401e-02 -1.830000000000000029e-04
-6.130390000000000006e-01 -8.529000000000000123e-03 -1.191000000000000001e-03
-4.043240000000000167e-01 -1.215890000000000026e-01 2.726000000000000124e-03
-2.236569999999999947e-01 1.845710000000000128e-01 6.341000000000000282e-03
-5.536529999999999507e-01 6.745199999999999807e-02 2.904899999999999843e-02
2.360299999999999898e-01 6.760700000000000043e-02 1.297460000000000002e-01
1.142740000000000006e-01 -1.637570000000000137e-01 -1.028430000000000039e-01
4.769619999999999971e-01 5.312599999999999961e-02 -9.504799999999999360e-02
-1.727589999999999959e-01 1.488849999999999896e-01 1.007649999999999935e-01
-1.418520000000000059e-01 -8.749099999999999933e-02 1.138350000000000056e-01
-3.294400000000000106e-02 2.063760000000000039e-01 -1.920600000000000085e-02
1.885060000000000069e-01 -2.631279999999999730e-01 2.900799999999999906e-02
6.017000000000000126e-01 -3.961200000000000138e-02 2.932999999999999843e-03
-4.921940000000000204e-01 2.868100000000000163e-02 -7.535200000000000231e-02
3.808019999999999738e-01 1.500239999999999907e-01 3.769000000000000215e-03
-3.201930000000000054e-01 8.997600000000000042e-02 -1.015550000000000064e-01
2.387019999999999975e-01 3.202699999999999991e-02 4.939419999999999922e-01
-9.236710000000000198e-01 1.392230000000000134e-01 6.165999999999999606e-03
-1.032349999999999934e-01 -1.398929999999999896e-01 -1.189019999999999938e-01
3.483269999999999977e-01 1.573769999999999891e-01 -1.398600000000000017e-02
-4.484790000000000165e-01 7.176200000000000634e-02 -5.191999999999999567e-03
6.334370000000000278e-01 -9.088999999999999857e-03 1.370299999999999990e-02
-4.264830000000000010e-01 -9.856399999999999884e-02 -1.495699999999999981e-02
1.124959999999999988e-01 -6.920400000000000162e-02 1.254089999999999927e-01
4.300329999999999986e-01 -1.448589999999999878e-01 -6.381299999999999473e-02
2.283799999999999997e-01 2.487699999999999981e-02 4.560359999999999969e-01
-7.525290000000000035e-01 9.539999999999999869e-03 -5.083900000000000224e-02
-7.717270000000000518e-01 -1.507700000000000012e-02 -8.253999999999999185e-03
2.940409999999999968e-01 -1.082400000000000029e-02 1.892500000000000016e-01
-1.076860000000000039e-01 1.804290000000000060e-01 -8.006499999999999728e-02
-4.158049999999999802e-01 -2.047009999999999941e-01 -2.563999999999999960e-02
2.544699999999999740e-01 1.388709999999999944e-01 8.832399999999999973e-02
6.857099999999999307e-02 -4.204600000000000004e-02 -1.531240000000000101e-01
3.135910000000000086e-01 -1.882159999999999944e-01 -1.676899999999999918e-02
-2.623369999999999869e-01 1.370349999999999902e-01 -8.828400000000000136e-02
2.665199999999999791e-01 8.746500000000000108e-02 -3.682070000000000065e-01
-3.291529999999999734e-01 1.391290000000000027e-01 7.882999999999999383e-03
2.087759999999999894e-01 8.903600000000000403e-02 -1.341320000000000012e-01
-3.510969999999999924e-01 -1.582610000000000128e-01 -2.031799999999999926e-02
-7.796859999999999902e-01 3.395000000000000014e-03 -6.173999999999999801e-03
4.432809999999999806e-01 -6.097999999999999948e-02 8.420999999999999319e-02
-1.321300000000000079e-02 2.003679999999999906e-01 -3.751700000000000174e-02
2.435100000000000112e-02 -1.529339999999999866e-01 -1.137959999999999944e-01
-8.980749999999999567e-01 1.265010000000000023e-01 8.607000000000000067e-03
-1.028209999999999957e-01 -7.997200000000000142e-02 -1.421870000000000078e-01
-2.237790000000000057e-01 -1.502050000000000052e-01 6.082900000000000112e-02
-8.825039999999999552e-01 -5.526799999999999768e-02 -1.728800000000000128e-02
1.389539999999999942e-01 -2.016550000000000009e-01 -4.742600000000000288e-02
-6.639200000000000657e-02 5.670300000000000340e-02 -1.531049999999999911e-01
-6.574879999999999614e-01 -1.313199999999999958e-02 -1.092100000000000015e-02
4.152600000000000041e-02 1.831339999999999912e-01 -7.398200000000000609e-02
3.021099999999999827e-02 1.646110000000000073e-01 -1.019349999999999978e-01
2.427940000000000098e-01 9.135899999999999577e-02 -1.288499999999999923e-01
5.089399999999999480e-01 -1.157159999999999994e-01 2.304600000000000051e-02
3.207349999999999923e-01 1.360770000000000035e-01 7.036900000000000099e-02
2.954459999999999864e-01 -6.405000000000000103e-03 2.094219999999999970e-01
2.742669999999999830e-01 -8.554699999999999804e-02 -1.272629999999999872e-01
-4.592500000000000054e-02 1.920860000000000067e-01 -6.296300000000000507e-02
-5.959440000000000293e-01 -5.119400000000000339e-02 -2.378500000000000059e-02
-7.662710000000000354e-01 3.589999999999999984e-04 -3.442100000000000021e-02
1.589770000000000072e-01 -2.001690000000000136e-01 -5.063700000000000145e-02
4.578599999999999892e-01 1.223090000000000011e-01 -1.651499999999999843e-02
-5.738480000000000247e-01 2.051299999999999998e-02 4.431000000000000043e-03
4.462929999999999953e-01 9.760199999999999432e-02 6.479600000000000637e-02
2.553340000000000054e-01 6.768799999999999817e-02 1.269859999999999878e-01
2.530760000000000232e-01 2.988700000000000037e-02 4.656150000000000011e-01
-1.868269999999999931e-01 -1.702299999999999924e-01 -7.947799999999999310e-02
1.276380000000000015e-01 2.055889999999999940e-01 1.814800000000000094e-02
1.025159999999999960e-01 7.066600000000000659e-02 1.432720000000000105e-01
-6.368679999999999897e-01 1.668599999999999944e-02 -1.043400000000000057e-02
-3.193599999999999772e-01 -1.476250000000000062e-01 -4.704900000000000054e-02
2.777399999999999869e-01 4.297299999999999731e-02 -1.380550000000000110e-01
-1.504729999999999956e-01 1.945770000000000000e-01 -3.944500000000000089e-02
3.249130000000000074e-01 -1.253060000000000007e-01 7.421400000000000219e-02
4.768789999999999973e-01 1.125899999999999956e-01 1.217400000000000079e-02
-3.017670000000000075e-01 -1.699489999999999890e-01 -2.670499999999999957e-02
1.453400000000000004e-02 -1.795480000000000131e-01 5.913199999999999706e-02
-2.165090000000000070e-01 -1.626420000000000088e-01 -8.093799999999999606e-02
3.441940000000000000e-01 -7.155400000000000649e-02 8.840000000000000635e-02
-4.822150000000000047e-01 -3.432000000000000155e-03 6.616299999999999959e-02
-1.327099999999999981e-02 6.464499999999999413e-02 -1.541279999999999872e-01
3.380299999999999971e-02 -2.075599999999999945e-01 -4.983999999999999715e-03
-4.702100000000000030e-02 -8.116500000000000103e-02 -1.451379999999999892e-01
-4.601100000000000328e-02 1.707680000000000031e-01 -9.761200000000000432e-02
1.325749999999999984e-01 -1.773490000000000066e-01 5.523399999999999838e-02
-2.708990000000000009e-01 1.994859999999999967e-01 1.007300000000000036e-02
-2.351149999999999907e-01 -8.651999999999999968e-03 -1.349090000000000011e-01
3.281189999999999940e-01 -9.625599999999999434e-02 7.994800000000000517e-02
3.532460000000000044e-01 -1.088969999999999938e-01 7.976099999999999857e-02
-1.147409999999999958e-01 -1.932250000000000079e-01 -5.910200000000000176e-02
5.835960000000000036e-01 -8.953500000000000347e-02 -1.661800000000000083e-02
-4.187040000000000206e-01 9.460699999999999665e-02 6.186999999999999791e-03
1.192919999999999953e-01 1.995800000000000074e-01 -2.282700000000000007e-02
9.247900000000000564e-02 1.875940000000000107e-01 -5.964300000000000157e-02
-2.882850000000000135e-01 1.366999999999999986e-02 1.149690000000000017e-01
-5.501519999999999744e-01 -1.047099999999999941e-02 5.014799999999999813e-02
3.263159999999999950e-01 1.831999999999999948e-02 1.203369999999999995e-01
-3.721289999999999876e-01 -1.298809999999999965e-01 -3.366899999999999754e-02
2.772180000000000200e-01 1.299999999999999940e-03 2.687510000000000177e-01
2.372660000000000047e-01 1.709899999999999962e-02 4.016339999999999910e-01
4.648200000000000248e-02 2.011040000000000050e-01 3.032100000000000073e-02
6.083079999999999599e-01 -5.607000000000000005e-03 -7.879999999999999852e-03
5.960149999999999615e-01 -1.877300000000000149e-02 -5.606300000000000172e-02
1.280310000000000059e-01 2.010470000000000035e-01 -1.335599999999999982e-02
2.149109999999999909e-01 8.656999999999999765e-03 -1.482650000000000079e-01
4.569050000000000056e-01 1.003570000000000018e-01 -6.668899999999999828e-02
3.876160000000000161e-01 8.156199999999999561e-02 9.757599999999999607e-02
2.773269999999999902e-01 1.282299999999999933e-02 3.424119999999999941e-01
-1.661199999999999830e-02 1.019700000000000051e-01 -1.433079999999999909e-01
7.825699999999999323e-02 -2.789999999999999945e-03 1.463929999999999954e-01
4.967770000000000241e-01 -7.506899999999999684e-02 6.104799999999999810e-02
1.945320000000000105e-01 -2.864169999999999772e-01 3.875800000000000078e-02
2.054040000000000032e-01 -1.840400000000000022e-02 2.091010000000000091e-01
-7.329440000000000399e-01 -1.764900000000000149e-02 -1.713999999999999899e-02
-1.911160000000000081e-01 3.184499999999999831e-02 1.348890000000000089e-01
3.557739999999999791e-01 -1.189439999999999942e-01 -1.017359999999999931e-01
-8.483969999999999567e-01 -6.248000000000000081e-02 -1.060999999999999964e-02
-6.475100000000000300e-01 7.104000000000000072e-03 1.057999999999999913e-03
2.367819999999999925e-01 1.241030000000000050e-01 1.052430000000000032e-01
5.372390000000000221e-01 -7.752599999999999769e-02 -5.817900000000000155e-02
-5.385399999999999909e-02 7.622700000000000309e-02 -1.496669999999999945e-01
4.143069999999999808e-01 -1.159430000000000044e-01 -7.869299999999999906e-02
5.047300000000000120e-01 -9.827299999999999924e-02 4.256499999999999867e-02
-4.238489999999999758e-01 -1.002549999999999969e-01 3.160400000000000015e-02
-2.230330000000000090e-01 1.368699999999999951e-02 -1.381380000000000108e-01
3.157309999999999839e-01 -1.693850000000000078e-01 -7.324300000000000255e-02
-1.236430000000000029e-01 1.370599999999999874e-01 -1.210299999999999987e-01
8.597499999999999587e-02 -3.059399999999999967e-02 -1.545459999999999889e-01
-1.304300000000000077e-02 1.969299999999999939e-01 -4.943199999999999678e-02
2.331620000000000081e-01 -4.128400000000000125e-02 -1.413709999999999967e-01
-8.850890000000000146e-01 -3.954099999999999976e-02 -2.923999999999999950e-03
2.395069999999999977e-01 -3.016000000000000018e-03 2.617709999999999759e-01
-7.349869999999999459e-01 2.271000000000000102e-02 -4.563000000000000216e-03
-2.724880000000000080e-01 -3.617299999999999682e-02 -1.240870000000000029e-01
-1.808480000000000087e-01 1.455339999999999967e-01 -1.051180000000000031e-01
1.594510000000000094e-01 -2.165640000000000065e-01 1.191200000000000071e-02
-8.146229999999999860e-01 2.308400000000000035e-02 1.719000000000000042e-03
2.409070000000000100e-01 -8.374199999999999700e-02 -1.314710000000000045e-01
4.923000000000000292e-03 2.027609999999999968e-01 7.569000000000000207e-03
-1.477219999999999922e-01 -1.802739999999999898e-01 4.362800000000000011e-02
-4.620520000000000183e-01 -6.400400000000000533e-02 -9.076999999999999999e-03
3.618870000000000142e-01 -1.679640000000000022e-01 -5.728599999999999665e-02
2.812799999999999745e-01 5.031700000000000061e-02 1.262079999999999869e-01
-8.303920000000000190e-01 -6.132000000000000298e-03 -1.942699999999999982e-02
-1.867689999999999906e-01 -1.250809999999999977e-01 -1.154690000000000022e-01
-2.118460000000000065e-01 -3.952599999999999864e-02 -1.356090000000000073e-01
-3.934610000000000052e-01 -2.114350000000000118e-01 -2.920400000000000079e-02
-4.436379999999999768e-01 1.087589999999999946e-01 -3.746700000000000030e-02
-4.973429999999999795e-01 -8.598600000000000687e-02 -3.468399999999999955e-02
2.727339999999999764e-01 7.209999999999999612e-04 -1.310360000000000136e-01
-8.353900000000000214e-02 -1.162969999999999976e-01 -1.323030000000000039e-01
-3.008939999999999948e-01 7.337399999999999478e-02 1.081290000000000029e-01
-2.230560000000000043e-01 1.888009999999999966e-01 6.904000000000000414e-03
5.610619999999999497e-01 -1.018669999999999992e-01 -1.981799999999999881e-02
-5.334459999999999757e-01 -4.199499999999999761e-02 -1.479600000000000012e-02
4.321699999999999986e-01 -4.257899999999999879e-02 -1.123040000000000010e-01
-6.916200000000000125e-02 -1.312800000000000078e-02 1.429519999999999957e-01
-1.068329999999999974e-01 -7.424799999999999456e-02 1.219549999999999940e-01
-1.917419999999999958e-01 -1.263029999999999986e-01 -1.138269999999999976e-01
-5.953490000000000171e-01 2.624900000000000150e-02 3.176000000000000004e-03
-2.029900000000000038e-01 1.770089999999999997e-01 -5.651899999999999979e-02
-3.254480000000000151e-01 -1.498710000000000042e-01 -2.563100000000000100e-02
6.477209999999999912e-01 -1.680500000000000049e-02 -6.977999999999999828e-03
5.193980000000000263e-01 1.284399999999999951e-02 7.269699999999999773e-02
3.891189999999999927e-01 -4.077000000000000068e-02 1.019999999999999934e-01
-6.964740000000000375e-01 3.315200000000000091e-02 -2.328999999999999907e-03
5.767039999999999944e-01 -1.996600000000000111e-02 5.086100000000000343e-02
-8.466860000000000497e-01 -2.442999999999999859e-03 -1.695100000000000079e-02
1.160399999999999973e-02 9.554999999999999605e-02 -1.454320000000000057e-01
1.642889999999999906e-01 2.787999999999999923e-01 2.103999999999999967e-02
1.880600000000000049e-01 -2.364559999999999995e-01 1.835399999999999879e-02
-1.387329999999999952e-01 -6.173499999999999821e-02 -1.429860000000000020e-01
-3.701999999999999735e-02 -7.969199999999999895e-02 1.239999999999999991e-01
-3.511710000000000109e-01 4.153099999999999847e-02 -1.077319999999999944e-01
-2.542719999999999980e-01 -1.561839999999999895e-01 -7.613399999999999335e-02
2.089610000000000078e-01 -1.591049999999999964e-01 -9.955999999999999572e-02
3.320989999999999776e-01 1.204930000000000029e-01 8.425399999999999556e-02
5.809980000000000144e-01 -1.767399999999999874e-02 -6.681099999999999539e-02
-9.179749999999999854e-01 -1.556379999999999986e-01 -1.922300000000000050e-02
1.910610000000000086e-01 -1.582050000000000123e-01 6.815599999999999437e-02
-1.872510000000000008e-01 4.947800000000000115e-02 -1.416189999999999949e-01
-6.127789999999999626e-01 4.517000000000000182e-03 -1.447599999999999928e-02
-4.059570000000000123e-01 -1.899629999999999930e-01 -2.616699999999999929e-02
4.937860000000000027e-01 5.147800000000000292e-02 7.578400000000000414e-02
-9.180599999999999872e-02 7.440099999999999492e-02 -1.479100000000000137e-01
2.326419999999999877e-01 4.143100000000000255e-02 -2.599859999999999949e-01
2.765369999999999773e-01 1.624000000000000010e-03 2.793309999999999960e-01
-5.201029999999999820e-01 3.533300000000000329e-02 -6.839399999999999646e-02
-6.292520000000000335e-01 4.944400000000000184e-02 5.360000000000000181e-04
-5.979820000000000135e-01 6.131400000000000045e-02 1.061299999999999917e-02
-5.454780000000000184e-01 2.468700000000000061e-02 -6.513599999999999945e-02
-5.762140000000000040e-01 4.077900000000000275e-02 -7.749999999999999944e-03
5.459039999999999448e-01 2.486999999999999975e-02 5.610799999999999815e-02
-4.460500000000000020e-01 9.367300000000000626e-02 -5.755400000000000099e-02
2.836230000000000140e-01 -1.054549999999999932e-01 9.256000000000000338e-02
-4.143970000000000153e-01 1.254810000000000092e-01 -1.519000000000000038e-02
-2.692189999999999861e-01 1.618499999999999939e-01 -4.893999999999999739e-02
-9.562749999999999861e-01 -1.882989999999999942e-01 -2.515299999999999828e-02
2.284710000000000074e-01 -1.194399999999999976e-02 -1.518380000000000007e-01
3.851339999999999764e-01 -1.736270000000000036e-01 -2.646000000000000088e-02
-9.296299999999999564e-01 -1.668979999999999908e-01 -2.389000000000000151e-02
-2.304829999999999934e-01 6.856199999999999795e-02 -1.300030000000000074e-01
-3.751240000000000130e-01 -1.889200000000000046e-01 -2.302900000000000086e-02
4.201900000000000079e-02 1.744769999999999932e-01 -8.766100000000000281e-02
-3.386640000000000206e-01 -1.665439999999999976e-01 -1.996500000000000011e-02
-6.801730000000000276e-01 9.478000000000000314e-03 3.499999999999999693e-05
-6.789899999999999824e-01 -2.062000000000000031e-03 -2.719999999999999979e-04
1.562999999999999945e-01 1.846510000000000096e-01 -5.321499999999999841e-02
-3.465420000000000167e-01 -6.411600000000000632e-02 7.966399999999999870e-02
5.772299999999999653e-02 -8.676300000000000678e-02 -1.434340000000000059e-01
6.179280000000000328e-01 -2.928100000000000147e-02 -2.558399999999999910e-02
5.505179999999999518e-01 -5.157199999999999979e-02 1.351499999999999924e-02
3.393410000000000037e-01 -1.371040000000000036e-01 -9.308700000000000307e-02
4.914359999999999840e-01 -1.022379999999999955e-01 3.261000000000000010e-02
-4.204800000000000204e-01 -1.024859999999999938e-01 -5.541000000000000092e-02
5.355729999999999658e-01 -1.162860000000000005e-01 -1.204099999999999962e-02
2.419969999999999899e-01 9.033099999999999463e-02 -3.828960000000000141e-01
2.199409999999999976e-01 6.694700000000000650e-02 -3.299860000000000015e-01
3.918599999999999861e-01 8.912299999999999389e-02 9.248499999999999777e-02
2.571820000000000217e-01 9.709600000000000175e-02 -3.994460000000000233e-01
-9.116309999999999691e-01 1.643030000000000046e-01 1.007599999999999989e-02
-1.041089999999999932e-01 1.189780000000000004e-01 1.304800000000000126e-01
2.763880000000000225e-01 1.234770000000000034e-01 -1.040179999999999993e-01
-6.610759999999999970e-01 4.094699999999999729e-02 9.790000000000000091e-03
-3.257229999999999848e-01 -2.747899999999999995e-02 -1.126010000000000066e-01
-2.573119999999999852e-01 -1.704799999999999927e-01 1.501899999999999936e-02
-6.890899999999999803e-02 -1.180709999999999954e-01 1.061340000000000061e-01
3.790109999999999868e-01 -1.547590000000000077e-01 -7.086099999999999344e-02
2.662169999999999814e-01 1.373550000000000049e-01 -9.393899999999999473e-02
-6.715649999999999675e-01 -1.351399999999999997e-02 -4.423999999999999981e-03
-5.344750000000000334e-01 7.039199999999999624e-02 3.507099999999999801e-02
-9.014600000000000390e-02 -2.611099999999999879e-02 1.382829999999999893e-01
5.017359999999999598e-01 4.338199999999999695e-02 7.557200000000000029e-02
-2.800079999999999791e-01 -1.662369999999999959e-01 -2.804200000000000095e-02
1.071909999999999946e-01 -7.849000000000000074e-03 -1.559589999999999865e-01
3.604629999999999779e-01 -1.581710000000000060e-01 3.520199999999999718e-02
2.823669999999999791e-01 2.377500000000000099e-02 -1.962250000000000105e-01
1.657129999999999992e-01 2.190620000000000067e-01 1.144000000000000052e-02
1.920139999999999902e-01 1.720059999999999922e-01 6.580400000000000138e-02
5.941760000000000375e-01 -5.401100000000000345e-02 -1.613200000000000051e-02
5.237020000000000008e-01 7.545100000000000418e-02 -5.387299999999999728e-02
-4.037990000000000190e-01 -1.105740000000000056e-01 2.775199999999999889e-02
4.923580000000000179e-01 -1.278469999999999884e-01 1.738599999999999868e-02
3.057409999999999850e-01 6.083100000000000313e-02 1.211659999999999959e-01
-7.351900000000000102e-02 3.717299999999999771e-02 -1.552630000000000121e-01
2.821690000000000031e-01 3.669900000000000245e-02 -2.304360000000000019e-01
1.542520000000000002e-01 1.990500000000000047e-01 6.999999999999999387e-05
-9.420859999999999790e-01 -1.508990000000000054e-01 -1.966899999999999898e-02
-1.139899999999999941e-02 -1.381719999999999893e-01 9.501900000000000623e-02
-6.696450000000000458e-01 8.984000000000000666e-03 -1.059500000000000025e-02
5.526140000000000496e-01 6.765899999999999692e-02 1.032300000000000058e-02
-1.227729999999999932e-01 2.020069999999999921e-01 2.746499999999999983e-02
-2.689699999999999869e-01 -1.128399999999999959e-01 7.751600000000000157e-02
2.409179999999999933e-01 7.952099999999999447e-02 -1.332770000000000066e-01
2.999299999999999883e-02 -2.068470000000000031e-01 -3.334899999999999670e-02
9.325500000000000456e-02 -1.800120000000000053e-01 5.439399999999999791e-02
-4.582200000000000162e-02 -8.122000000000000747e-03 1.454429999999999890e-01
-7.045890000000000208e-01 2.969099999999999864e-02 -2.925300000000000122e-02
-8.849300000000000221e-02 3.089899999999999938e-02 -1.550910000000000066e-01
3.732420000000000182e-01 -1.511019999999999863e-01 -7.396199999999999997e-02
-3.101200000000000068e-01 1.250000000000000026e-04 1.089490000000000042e-01
-7.126160000000000272e-01 -1.549700000000000036e-02 -9.084999999999999326e-03
-8.503490000000000215e-01 -4.594999999999999779e-02 -1.335300000000000029e-02
-5.332989999999999675e-01 7.923099999999999588e-02 2.156500000000000083e-02
2.811529999999999863e-01 -1.211590000000000028e-01 -1.129819999999999991e-01
2.586849999999999983e-01 8.839900000000000535e-02 -3.730200000000000182e-01
-4.900340000000000251e-01 9.906600000000000128e-02 1.275599999999999998e-02
2.955610000000000182e-01 2.556800000000000045e-02 -1.925920000000000132e-01
1.298860000000000015e-01 2.999689999999999857e-01 2.276200000000000098e-02
-3.933989999999999987e-01 -1.998340000000000116e-01 -2.813900000000000082e-02
1.911080000000000001e-01 -4.222800000000000165e-02 -1.452170000000000127e-01
-9.413059999999999761e-01 1.960669999999999913e-01 1.327300000000000008e-02
-8.556570000000000009e-01 -6.266199999999999548e-02 -9.700000000000000289e-03
5.546879999999999589e-01 -2.474700000000000163e-02 1.415000000000000025e-03
-6.210000000000000242e-02 -2.345699999999999869e-02 1.407100000000000017e-01
-1.919049999999999923e-01 1.857020000000000060e-01 -4.473699999999999899e-02
6.596000000000000474e-02 -1.710250000000000103e-01 -9.836100000000000398e-02
-1.139119999999999994e-01 1.916769999999999863e-01 5.757099999999999718e-02
4.841599999999999793e-01 -8.338900000000000479e-02 -8.619400000000000672e-02
-1.502590000000000037e-01 1.445130000000000026e-01 -1.116530000000000022e-01
2.271690000000000098e-01 -3.165999999999999977e-03 2.846540000000000181e-01
3.013509999999999800e-01 1.633739999999999915e-01 -3.483599999999999891e-02
2.291739999999999888e-01 -1.587119999999999920e-01 6.322200000000000042e-02
1.474999999999999922e-02 -1.446919999999999873e-01 9.006100000000000216e-02
-1.229699999999999960e-01 -8.461200000000000665e-02 1.167330000000000034e-01
6.521200000000000607e-02 2.046260000000000023e-01 4.401999999999999663e-03
1.399999999999999979e-05 1.894200000000000050e-01 -6.445099999999999441e-02
-7.023000000000000353e-01 -1.552300000000000034e-02 -9.371000000000000857e-03
-4.873540000000000094e-01 3.022499999999999840e-02 6.765400000000000580e-02
1.586529999999999885e-01 -2.316769999999999941e-01 -8.482699999999999962e-02
-3.491920000000000024e-01 1.407380000000000020e-01 3.000900000000000095e-02
-5.248900000000000093e-02 -1.814109999999999889e-01 -9.104199999999999793e-02
-3.747300000000000075e-01 -1.183509999999999979e-01 -1.763999999999999943e-02
-5.060699999999999921e-02 -1.125639999999999974e-01 1.093340000000000006e-01
-8.094400000000000206e-02 -1.529020000000000101e-01 -1.132009999999999961e-01
-3.310449999999999782e-01 -7.760100000000000331e-02 -1.001810000000000062e-01
4.388810000000000211e-01 -1.213069999999999982e-01 5.081999999999999712e-02
1.244199999999999993e-02 2.052539999999999920e-01 -3.354999999999999909e-03
-6.206699999999999717e-02 -2.072519999999999918e-01 -1.252600000000000068e-02
5.825380000000000003e-01 5.121099999999999958e-02 -1.846000000000000071e-02
-4.952899999999999664e-02 2.007819999999999883e-01 1.585900000000000157e-02
3.093069999999999986e-01 -7.202400000000000468e-02 -1.212970000000000020e-01
-2.856589999999999963e-01 2.415499999999999939e-02 -1.257610000000000117e-01
-7.656599999999999517e-02 7.492400000000000448e-02 1.441310000000000091e-01
3.235330000000000150e-01 1.448919999999999930e-01 5.795499999999999957e-02
5.250799999999999912e-01 -8.176999999999999547e-02 4.596700000000000091e-02
2.153670000000000029e-01 -1.811199999999999963e-02 1.323920000000000097e-01
-4.018050000000000233e-01 -1.247820000000000040e-01 -1.934200000000000155e-02
-3.980159999999999809e-01 5.232799999999999951e-02 8.666100000000000192e-02
-1.345119999999999927e-01 9.263699999999999712e-02 1.357949999999999990e-01
2.501439999999999775e-01 -9.569900000000000628e-02 1.016579999999999984e-01
-9.250119999999999454e-01 -1.405480000000000063e-01 -2.190299999999999886e-02
-4.551669999999999883e-01 8.067699999999999871e-02 -6.534900000000000431e-02
1.078569999999999945e-01 2.024809999999999943e-01 -1.253899999999999980e-02
1.223420000000000063e-01 -2.075000000000000022e-03 1.438949999999999951e-01
-8.197339999999999627e-01 -2.025599999999999970e-02 -6.369999999999999794e-03
-7.050499999999999545e-01 -5.793000000000000406e-03 -1.796999999999999986e-03
-5.510690000000000310e-01 3.924400000000000110e-02 -6.027699999999999725e-02
-3.564260000000000206e-01 3.335599999999999676e-02 -1.075259999999999966e-01
-4.692729999999999957e-01 1.047850000000000031e-01 2.169099999999999848e-02
5.566489999999999494e-01 3.184700000000000031e-02 6.317799999999999805e-02
2.758240000000000136e-01 3.820099999999999885e-02 -1.389829999999999954e-01
-3.902729999999999810e-01 2.495700000000000002e-02 9.118700000000000416e-02
-3.557139999999999747e-01 -6.185500000000000026e-02 7.793700000000000627e-02
-2.557800000000000004e-02 -5.537399999999999961e-02 -1.511609999999999898e-01
2.994959999999999845e-01 1.009940000000000004e-01 1.074250000000000066e-01
-3.941680000000000184e-01 1.231880000000000058e-01 3.527099999999999680e-02
-1.388999999999999957e-01 -1.918360000000000065e-01 2.112199999999999842e-02
5.540990000000000082e-01 -6.091000000000000060e-03 6.110199999999999659e-02
2.760029999999999983e-01 -1.371000000000000040e-03 -1.242739999999999956e-01
-1.887490000000000001e-01 -1.583700000000000038e-02 -1.428929999999999922e-01
2.454040000000000110e-01 1.268920000000000048e-01 -1.075539999999999968e-01
3.806149999999999811e-01 -1.294659999999999977e-01 4.461199999999999888e-02
-2.141409999999999980e-01 4.678100000000000314e-02 1.300659999999999872e-01
-3.460790000000000255e-01 1.434979999999999867e-01 6.825000000000000337e-03
7.499300000000000410e-02 -2.072930000000000050e-01 -1.305599999999999990e-02
4.671199999999999658e-02 1.745309999999999917e-01 -8.719799999999999773e-02
-6.035279999999999534e-01 5.810200000000000087e-02 -2.595099999999999837e-02
-1.088350000000000012e-01 3.974899999999999961e-02 -1.522610000000000074e-01
-1.234699999999999964e-01 -1.326469999999999871e-01 -1.209139999999999937e-01
-3.140379999999999838e-01 1.487100000000000088e-01 4.038200000000000123e-02
3.473049999999999748e-01 6.253100000000000325e-02 -1.208169999999999938e-01
3.525730000000000253e-01 1.467870000000000008e-01 4.037700000000000317e-02
-3.037059999999999760e-01 -8.370199999999999863e-02 8.340400000000000591e-02
-1.916730000000000100e-01 1.619549999999999879e-01 -8.430999999999999606e-02
-4.034090000000000176e-01 1.281220000000000137e-01 1.371999999999999956e-02
-1.837529999999999997e-01 -1.875779999999999947e-01 -3.357799999999999674e-02
-4.342449999999999921e-01 -6.209499999999999742e-02 -7.512099999999999334e-02
5.789600000000000302e-02 4.182799999999999713e-02 -1.572649999999999881e-01
2.485330000000000039e-01 1.195679999999999937e-01 -4.600790000000000157e-01
3.992359999999999798e-01 -1.471800000000000018e-02 -1.219819999999999932e-01
-6.169189999999999952e-01 -3.307500000000000023e-02 -6.867999999999999973e-03
1.386759999999999937e-01 2.073799999999999949e-02 -1.557499999999999996e-01
-8.919669999999999543e-01 -8.796800000000000452e-02 -1.895200000000000010e-02
8.702200000000000213e-02 2.433859999999999912e-01 1.974499999999999866e-02
1.902689999999999937e-01 -9.306999999999999995e-02 -1.338050000000000073e-01
1.071730000000000044e-01 6.511999999999999733e-02 -1.513970000000000038e-01
-5.971889999999999699e-01 8.753000000000000363e-03 2.703000000000000107e-03
-4.102700000000000236e-01 8.946900000000000686e-02 -7.331200000000000216e-02
2.572490000000000054e-01 -1.067680000000000018e-01 9.534399999999999820e-02
-3.027520000000000211e-01 1.303169999999999884e-01 -7.809800000000000075e-02
-7.137350000000000083e-01 -8.732999999999999444e-03 -9.020999999999999505e-03
4.683550000000000213e-01 -1.314569999999999905e-01 2.120599999999999916e-02
3.265839999999999854e-01 -1.268499999999999905e-01 6.581399999999999750e-02
-7.591499999999999915e-01 -2.452000000000000186e-03 -7.354000000000000294e-03
4.312889999999999779e-01 -9.630500000000000171e-02 7.046199999999999686e-02
-4.398179999999999867e-01 9.784400000000000042e-02 -5.511800000000000033e-02
-4.838620000000000143e-01 1.032720000000000027e-01 -6.850000000000000186e-03
-4.725170000000000203e-01 -1.218100000000000085e-02 -7.795499999999999652e-02
2.427060000000000051e-01 -1.368899999999999978e-02 -1.439479999999999926e-01
-2.722689999999999833e-01 -3.718599999999999683e-02 -1.239880000000000010e-01
-4.821599999999999775e-01 1.157030000000000003e-01 4.602000000000000188e-03
-8.656030000000000113e-01 1.029489999999999988e-01 3.923000000000000272e-03
-3.238550000000000040e-01 1.497989999999999877e-01 -3.033500000000000085e-02
-3.410730000000000151e-01 -1.009789999999999993e-01 6.229400000000000215e-02
-2.118309999999999915e-01 1.649889999999999968e-01 -7.431599999999999318e-02
1.128360000000000057e-01 -3.400000000000000244e-04 -1.561029999999999918e-01
4.280300000000000077e-02 -9.628899999999999959e-02 1.174769999999999981e-01
1.291999999999999963e-03 -3.076000000000000175e-03 -1.584579999999999878e-01
2.859550000000000147e-01 2.726400000000000004e-02 -1.992680000000000007e-01
4.370000000000000273e-02 -4.205400000000000110e-02 -1.537820000000000020e-01
1.541599999999999915e-01 -9.837300000000000211e-02 -1.350699999999999956e-01
2.966849999999999765e-01 -1.373709999999999931e-01 7.082299999999999707e-02
2.632360000000000255e-01 1.582400000000000126e-02 3.761140000000000039e-01
1.533710000000000073e-01 -1.941450000000000120e-01 -6.490500000000000436e-02
-5.904730000000000256e-01 2.848799999999999943e-02 3.324000000000000132e-03
-1.920399999999999885e-01 -1.716050000000000075e-01 4.419200000000000211e-02
2.532429999999999959e-01 -1.488349999999999951e-01 6.858599999999999419e-02
-4.480609999999999871e-01 6.851899999999999658e-02 -7.420499999999999319e-02
5.454350000000000032e-01 -3.373199999999999810e-02 4.369999999999999970e-04
-7.592470000000000052e-01 1.660299999999999970e-02 1.998799999999999882e-02
-1.103399999999999936e-01 2.002220000000000111e-01 1.210699999999999971e-02
1.764539999999999997e-01 -2.852700000000000027e-02 -1.489219999999999988e-01
8.094899999999999318e-02 4.920700000000000074e-02 -1.554129999999999956e-01
-1.352109999999999979e-01 -1.527930000000000121e-01 7.659000000000000530e-02
2.879189999999999805e-01 -1.262000000000000101e-03 -1.277749999999999997e-01
3.857240000000000113e-01 -1.729580000000000006e-01 -2.868199999999999916e-02
1.186510000000000065e-01 1.883469999999999867e-01 -5.424799999999999761e-02
-5.441300000000000303e-02 1.205269999999999953e-01 1.328979999999999884e-01
-3.347789999999999933e-01 4.832999999999999796e-02 1.035260000000000069e-01
2.171899999999999942e-01 1.497680000000000122e-01 -9.128699999999999315e-02
-2.912509999999999821e-01 1.117900000000000005e-01 -9.874499999999999944e-02
-4.908080000000000220e-01 -2.415410000000000057e-01 -2.988000000000000031e-02
-5.836970000000000214e-01 -5.619500000000000189e-02 -9.752000000000000252e-03
-5.732350000000000501e-01 6.534900000000000431e-02 2.292000000000000200e-03
6.988800000000000567e-02 -2.075849999999999917e-01 -2.055200000000000082e-02
6.187120000000000397e-01 -5.574099999999999888e-02 7.179999999999999750e-03
-6.881270000000000442e-01 3.956400000000000194e-02 -1.605000000000000090e-03
4.272880000000000011e-01 1.095269999999999994e-01 -7.101100000000000467e-02
1.103299999999999975e-01 1.910429999999999906e-01 5.128900000000000126e-02
-1.091879999999999934e-01 1.913819999999999966e-01 -5.872900000000000342e-02
2.066369999999999874e-01 -1.173199999999999937e-02 2.368850000000000122e-01
5.258800000000000280e-02 1.983010000000000050e-01 -3.745799999999999824e-02
2.528590000000000004e-01 -1.228600000000000005e-02 2.155769999999999909e-01
2.677910000000000013e-01 4.217499999999999721e-02 -2.434070000000000122e-01
2.125630000000000019e-01 1.865630000000000066e-01 -2.320499999999999993e-02
-1.177630000000000066e-01 9.263699999999999712e-02 -1.404519999999999935e-01
4.520750000000000046e-01 9.674999999999999573e-03 -1.130020000000000052e-01
2.171460000000000057e-01 -1.442000000000000053e-02 -1.574329999999999896e-01
-3.429699999999999971e-01 -1.231450000000000045e-01 4.343099999999999739e-02
-1.502000000000000036e-02 5.491399999999999754e-02 1.479739999999999944e-01
-7.383589999999999876e-01 2.527000000000000079e-02 -3.034999999999999937e-03
9.879899999999999793e-02 -2.037039999999999962e-01 -4.342700000000000032e-02
2.970380000000000242e-01 -9.383800000000000474e-02 -1.217390000000000000e-01
3.331450000000000244e-01 -1.491000000000000103e-01 5.425900000000000167e-02
-5.123379999999999601e-01 -7.101599999999999580e-02 -1.127000000000000050e-02
-2.168799999999999895e-01 -1.757839999999999958e-01 2.913200000000000164e-02
2.250459999999999960e-01 1.066300000000000060e-02 3.629830000000000001e-01
-2.239639999999999964e-01 -2.542300000000000115e-02 -1.353689999999999893e-01
2.468609999999999971e-01 4.126000000000000327e-03 -1.683250000000000024e-01
1.117689999999999934e-01 7.866499999999999881e-02 1.406189999999999940e-01
4.459099999999999731e-01 -1.416850000000000054e-01 -5.987100000000000061e-02
-4.397700000000000220e-02 7.787399999999999878e-02 -1.496560000000000112e-01
-7.943400000000000460e-02 6.521200000000000607e-02 1.447479999999999878e-01
-3.979599999999999804e-01 1.338270000000000015e-01 7.545999999999999756e-03
-6.772890000000000299e-01 1.869499999999999981e-02 -7.746000000000000281e-03
-4.694090000000000207e-01 -7.778699999999999504e-02 -5.750899999999999762e-02
-1.226769999999999944e-01 -1.902099999999999902e-01 3.490800000000000153e-02
1.406689999999999885e-01 -1.854799999999999852e-02 1.393429999999999946e-01
2.206299999999999928e-01 -1.872860000000000080e-01 -5.637199999999999850e-02
-5.079679999999999751e-01 -3.877400000000000291e-02 4.712899999999999728e-02
1.595360000000000111e-01 -1.796000000000000070e-03 -1.527229999999999976e-01
1.986399999999999971e-02 2.013060000000000127e-01 -2.963500000000000162e-02
2.979249999999999954e-01 1.701110000000000122e-01 -7.654000000000000213e-03
5.035180000000000211e-01 -1.126429999999999931e-01 -5.276399999999999840e-02
-8.981799999999999784e-01 8.886499999999999955e-02 -1.196000000000000014e-03
2.884280000000000177e-01 -1.205900000000000027e-02 1.863970000000000071e-01
-9.299650000000000416e-01 -1.282969999999999944e-01 -1.991499999999999868e-02
6.057270000000000154e-01 -6.043799999999999867e-02 -2.747499999999999942e-02
4.359299999999999842e-01 1.134170000000000039e-01 -6.106500000000000122e-02
2.463869999999999949e-01 3.958099999999999813e-02 -2.415660000000000029e-01
-5.795109999999999983e-01 -6.061400000000000121e-02 -9.579000000000000709e-03
3.719759999999999733e-01 -1.074819999999999942e-01 -1.040709999999999968e-01
-3.522009999999999863e-01 1.356670000000000098e-01 -4.238800000000000207e-02
6.069999999999999875e-03 2.059060000000000057e-01 1.145099999999999937e-02
-1.023909999999999959e-01 -1.237479999999999969e-01 1.010540000000000049e-01
-7.713619999999999921e-01 1.934100000000000055e-02 1.429300000000000015e-02
-5.224159999999999915e-01 -2.679099999999999884e-02 -1.528599999999999924e-02
5.769539999999999669e-01 -7.078700000000000270e-02 2.629099999999999840e-02
2.712000000000000001e-03 -1.230590000000000017e-01 1.048629999999999979e-01
1.837330000000000074e-01 -1.070519999999999944e-01 1.031559999999999977e-01
-2.779699999999999949e-01 2.368959999999999955e-01 1.789200000000000165e-02
-3.618060000000000165e-01 -1.229480000000000017e-01 -5.922800000000000287e-02
1.454100000000000011e-02 -1.483740000000000059e-01 8.751899999999999957e-02
-1.329140000000000044e-01 -1.396689999999999876e-01 8.725199999999999623e-02
-5.227960000000000385e-01 -2.788699999999999860e-02 -1.529600000000000057e-02
6.119170000000000442e-01 -3.641699999999999798e-02 -4.508299999999999808e-02
3.733710000000000084e-01 3.791100000000000025e-02 -1.134479999999999933e-01
1.555300000000000016e-01 1.437029999999999974e-01 -1.092459999999999959e-01
-4.621939999999999937e-01 -2.862800000000000067e-02 -7.738599999999999646e-02
1.596100000000000019e-01 -2.011590000000000045e-01 1.150900000000000013e-02
-1.045050000000000007e-01 1.499139999999999917e-01 -1.139850000000000030e-01
-3.056090000000000195e-01 -1.582790000000000030e-01 -1.348599999999999972e-02
2.697220000000000173e-01 4.447600000000000164e-02 -2.560129999999999906e-01
6.491800000000000348e-02 -2.073949999999999960e-01 -1.080899999999999916e-02
-9.065029999999999477e-01 -7.911100000000000076e-02 -1.720199999999999854e-02
5.774409999999999821e-01 1.043600000000000083e-02 -6.691500000000000226e-02
1.809379999999999877e-01 2.707269999999999954e-01 1.869300000000000128e-02
-4.315160000000000107e-01 1.173239999999999977e-01 2.392999999999999988e-02
-4.259950000000000125e-01 1.576699999999999977e-02 -9.171799999999999398e-02
-1.155189999999999967e-01 4.662800000000000278e-02 -1.507960000000000134e-01
-5.387480000000000047e-01 8.793999999999999734e-03 -6.671000000000000540e-02
-6.365650000000000475e-01 -3.814800000000000135e-02 -6.957999999999999775e-03
-8.629000000000000559e-02 -8.148000000000000728e-03 1.430649999999999977e-01
-2.812779999999999725e-01 -1.505060000000000009e-01 -7.023899999999999588e-02
-2.575270000000000059e-01 -4.142599999999999755e-02 -1.265090000000000103e-01
-9.135469999999999979e-01 7.886100000000000054e-02 3.200000000000000153e-03
-5.111569999999999725e-01 2.171299999999999966e-02 -7.223899999999999766e-02
-7.456279999999999575e-01 2.237300000000000053e-02 -2.919300000000000020e-02
3.780470000000000219e-01 -1.734360000000000068e-01 1.033999999999999980e-03
-4.440839999999999788e-01 9.817399999999999738e-02 5.576000000000000227e-03
-2.194989999999999997e-01 2.074380000000000113e-01 1.064099999999999942e-02
-7.452929999999999833e-01 1.651700000000000043e-02 2.185600000000000043e-02
-4.044699999999999684e-02 1.551039999999999919e-01 1.101720000000000060e-01
-2.011689999999999867e-01 1.926839999999999942e-01 -1.662999999999999982e-03
1.317540000000000100e-01 -7.154399999999999649e-02 1.231840000000000018e-01
-6.025690000000000213e-01 -1.950899999999999856e-02 -4.835899999999999921e-02
2.845719999999999916e-01 -1.891249999999999876e-01 -4.517899999999999694e-02
2.431780000000000053e-01 1.955199999999999994e-02 4.129479999999999817e-01
-1.791570000000000107e-01 1.569770000000000054e-01 -9.396500000000000685e-02
2.484010000000000107e-01 5.731300000000000283e-02 -1.392500000000000127e-01
-1.996040000000000036e-01 3.341800000000000326e-02 -1.415810000000000124e-01
-7.892350000000000199e-01 1.965000000000000167e-03 -3.522499999999999937e-02
-3.093219999999999859e-01 1.254230000000000067e-01 -8.101200000000000068e-02
-2.807749999999999968e-01 -1.584460000000000035e-01 -5.533400000000000124e-02
3.884870000000000267e-01 5.124599999999999989e-02 -1.183779999999999971e-01
4.646649999999999947e-01 -1.750499999999999973e-02 9.329300000000000093e-02
-2.824530000000000096e-01 1.046300000000000008e-02 -1.262280000000000069e-01
