1.124243164062500000e+02 -5.966279220581054688e+01 1.477373657226562500e+02
1.165421600341796875e+02 -6.359780883789062500e+01 1.486394195556640625e+02
1.165434341430664062e+02 -6.026582336425781250e+01 1.482123718261718750e+02
5.727769470214843750e+01 -2.229805755615234375e+02 8.635697174072265625e+01
5.750056457519531250e+01 -2.210471801757812500e+02 8.632305145263671875e+01
5.895180892944335938e+01 -2.228588256835937500e+02 8.634191131591796875e+01
5.919034576416015625e+01 -2.210284881591796875e+02 8.642333984375000000e+01
1.208079452514648438e+02 -2.479498138427734375e+02 1.436849212646484375e+02
1.195554122924804688e+02 -2.445686492919921875e+02 1.443934173583984375e+02
1.229959106445312500e+02 -2.468619842529296875e+02 1.433484649658203125e+02
1.216426010131835938e+02 -2.434900512695312500e+02 1.441143493652343750e+02
6.334276580810546875e+01 -1.869517364501953125e+02 9.564527130126953125e+01
6.266704177856445312e+01 -1.839098052978515625e+02 9.509208679199218750e+01
6.517402648925781250e+01 -1.871754455566406250e+02 9.664002990722656250e+01
6.439137268066406250e+01 -1.842194976806640625e+02 9.617863464355468750e+01
1.285368652343750000e+02 -1.500438995361328125e+02 1.181173629760742188e+02
1.288699340820312500e+02 -1.459117889404296875e+02 1.179366226196289062e+02
1.284971923828125000e+02 -1.488010101318359375e+02 1.208493652343750000e+02
1.287976379394531250e+02 -1.446908111572265625e+02 1.206987380981445312e+02
7.442355346679687500e+01 -2.384877471923828125e+02 6.496892547607421875e+01
7.479399871826171875e+01 -2.349928588867187500e+02 6.546999359130859375e+01
7.454452514648437500e+01 -2.377185668945312500e+02 6.809207153320312500e+01
7.494667816162109375e+01 -2.343889007568359375e+02 6.863520050048828125e+01
6.211175918579101562e+01 -2.167062225341796875e+02 9.196379089355468750e+01
6.204295349121093750e+01 -2.150668334960937500e+02 9.212413787841796875e+01
6.287182617187500000e+01 -2.166479492187500000e+02 9.396618652343750000e+01
6.268257522583007812e+01 -2.149456024169921875e+02 9.408126831054687500e+01
4.330280685424804688e+01 -6.904586791992187500e+01 1.724431610107421875e+01
4.168019866943359375e+01 -6.791914367675781250e+01 1.913330459594726562e+01
4.410148620605468750e+01 -6.891031646728515625e+01 2.012818717956542969e+01
4.269137573242187500e+01 -6.774507141113281250e+01 2.213517570495605469e+01
8.451792144775390625e+01 -1.125987701416015625e+02 1.476743927001953125e+02
8.470085906982421875e+01 -1.081874237060546875e+02 1.479030456542968750e+02
8.795660400390625000e+01 -1.105424194335937500e+02 1.480076904296875000e+02
8.783784484863281250e+01 -1.061307144165039062e+02 1.481986999511718750e+02
1.285127716064453125e+02 -9.142445373535156250e+01 6.363752746582031250e+01
1.290378112792968750e+02 -8.683080291748046875e+01 6.361176681518554688e+01
1.283849029541015625e+02 -9.069414520263671875e+01 6.755888366699218750e+01
1.288368682861328125e+02 -8.607099914550781250e+01 6.745586395263671875e+01
7.646904754638671875e+01 -2.345382995605468750e+02 1.430475311279296875e+02
7.648233032226562500e+01 -2.313681182861328125e+02 1.436652984619140625e+02
7.820289611816406250e+01 -2.339497375488281250e+02 1.442462921142578125e+02
7.817564392089843750e+01 -2.306835021972656250e+02 1.449038696289062500e+02
9.571216583251953125e+01 -1.879329986572265625e+02 1.451533660888671875e+02
9.537984466552734375e+01 -1.845143432617187500e+02 1.455439147949218750e+02
9.878665161132812500e+01 -1.866137237548828125e+02 1.448082733154296875e+02
9.860781860351562500e+01 -1.829562835693359375e+02 1.450848846435546875e+02
1.024515838623046875e+02 -1.113490905761718750e+02 1.477320404052734375e+02
1.025617218017578125e+02 -1.083220367431640625e+02 1.481597900390625000e+02
1.058707122802734375e+02 -1.095227737426757812e+02 1.471750488281250000e+02
1.060044860839843750e+02 -1.064390563964843750e+02 1.475847930908203125e+02
7.312232971191406250e+01 -1.680986480712890625e+02 1.392658233642578125e+02
7.297767639160156250e+01 -1.655022583007812500e+02 1.395187683105468750e+02
7.530535888671875000e+01 -1.671969299316406250e+02 1.403025207519531250e+02
7.516068267822265625e+01 -1.645399780273437500e+02 1.405648040771484375e+02
1.296910095214843750e+02 -1.553253784179687500e+02 1.479835205078125000e+02
1.295590667724609375e+02 -1.520248413085937500e+02 1.481734619140625000e+02
1.314524383544921875e+02 -1.544288940429687500e+02 1.495212097167968750e+02
1.312313995361328125e+02 -1.511176910400390625e+02 1.496457672119140625e+02
6.651227569580078125e+01 -1.909409179687500000e+02 1.158340759277343750e+02
6.579393005371093750e+01 -1.878730468750000000e+02 1.164535140991210938e+02
6.717007446289062500e+01 -1.911365051269531250e+02 1.178421249389648438e+02
6.644116973876953125e+01 -1.880921173095703125e+02 1.185203247070312500e+02
1.277341537475585938e+02 -2.713338012695312500e+02 6.467897033691406250e+01
1.279072723388671875e+02 -2.707486877441406250e+02 6.629180145263671875e+01
1.289776306152343750e+02 -2.704499511718750000e+02 6.656148529052734375e+01
1.288512268066406250e+02 -2.700342712402343750e+02 6.854383850097656250e+01
3.425904464721679688e+01 -6.806919097900390625e+01 7.999023437500000000e+01
3.280562210083007812e+01 -6.659702301025390625e+01 8.176196289062500000e+01
3.516586303710937500e+01 -6.750829315185546875e+01 8.237345123291015625e+01
3.380907058715820312e+01 -6.631317901611328125e+01 8.437439727783203125e+01
1.077587509155273438e+02 -1.806447143554687500e+02 2.362554311752319336e+00
1.074733047485351562e+02 -1.764735260009765625e+02 2.379336595535278320e+00
1.126436767578125000e+02 -1.803872375488281250e+02 2.377212047576904297e+00
1.124199523925781250e+02 -1.764958343505859375e+02 2.212121963500976562e+00
7.463911437988281250e+01 -2.324578094482421875e+02 4.647079467773437500e+01
7.510891723632812500e+01 -2.284794616699218750e+02 4.682484817504882812e+01
7.437833404541015625e+01 -2.309130554199218750e+02 5.064278793334960938e+01
7.482086181640625000e+01 -2.268477783203125000e+02 5.096462631225585938e+01
3.689381790161132812e+01 -2.053034362792968750e+02 8.482247924804687500e+01
3.675871658325195312e+01 -2.022335815429687500e+02 8.576499938964843750e+01
3.848580551147460938e+01 -2.041967926025390625e+02 8.591287231445312500e+01
3.838309860229492188e+01 -2.011408996582031250e+02 8.677896881103515625e+01
7.499961090087890625e+01 -2.680112609863281250e+02 5.413853836059570312e+01
7.424139404296875000e+01 -2.655023193359375000e+02 5.379311370849609375e+01
7.469462585449218750e+01 -2.684256286621093750e+02 5.676287078857421875e+01
7.445680999755859375e+01 -2.656257629394531250e+02 5.631675338745117188e+01
8.305486297607421875e+01 -1.827426452636718750e+02 1.136738657951354980e+00
8.269155120849609375e+01 -1.781043090820312500e+02 1.842802405357360840e+00
8.495341491699218750e+01 -1.803138427734375000e+02 1.567158699035644531e+00
8.454292297363281250e+01 -1.757778930664062500e+02 2.227135419845581055e+00
6.415576934814453125e+01 -1.277856216430664062e+02 8.956368255615234375e+01
6.388971328735351562e+01 -1.258624420166015625e+02 8.949782562255859375e+01
6.548213958740234375e+01 -1.273177795410156250e+02 9.072672271728515625e+01
6.518601226806640625e+01 -1.253948440551757812e+02 9.063987731933593750e+01
7.461894226074218750e+01 -2.353976135253906250e+02 1.425536041259765625e+02
7.466295623779296875e+01 -2.322505798339843750e+02 1.431788635253906250e+02
7.696560668945312500e+01 -2.347036895751953125e+02 1.438661193847656250e+02
7.695691680908203125e+01 -2.314524993896484375e+02 1.444646301269531250e+02
1.283892517089843750e+02 -7.633392333984375000e+01 3.570960998535156250e+01
1.283992004394531250e+02 -7.291262817382812500e+01 3.520632553100585938e+01
1.284900512695312500e+02 -7.623720550537109375e+01 4.036279678344726562e+01
1.285445098876953125e+02 -7.275930786132812500e+01 3.978810119628906250e+01
5.274119186401367188e+01 -6.110818862915039062e+01 7.071270942687988281e+00
5.112271881103515625e+01 -5.926105499267578125e+01 8.176172256469726562e+00
5.458052444458007812e+01 -6.114847946166992188e+01 7.433401107788085938e+00
5.288763427734375000e+01 -5.932196807861328125e+01 8.628141403198242188e+00
7.239617919921875000e+01 -6.085589599609375000e+01 6.744689941406250000e+01
7.252137756347656250e+01 -6.004365539550781250e+01 6.821246337890625000e+01
7.436671447753906250e+01 -6.057251358032226562e+01 6.903744506835937500e+01
7.337757110595703125e+01 -6.027013015747070312e+01 7.036046600341796875e+01
6.687725830078125000e+01 -2.582023925781250000e+02 6.699263000488281250e+01
6.677587127685546875e+01 -2.552839355468750000e+02 6.770954895019531250e+01
6.768164062500000000e+01 -2.566828918457031250e+02 6.876628112792968750e+01
6.737779998779296875e+01 -2.538387756347656250e+02 6.978202819824218750e+01
7.456005859375000000e+01 -2.028078613281250000e+02 1.505559062957763672e+01
7.470851135253906250e+01 -1.996755218505859375e+02 1.488410568237304688e+01
7.543228912353515625e+01 -2.023629455566406250e+02 1.750045204162597656e+01
7.535890960693359375e+01 -1.990899505615234375e+02 1.719631195068359375e+01
1.286540069580078125e+02 -6.686404418945312500e+01 1.376833190917968750e+02
1.284434967041015625e+02 -6.420762634277343750e+01 1.378378295898437500e+02
1.291199951171875000e+02 -6.631034088134765625e+01 1.398659973144531250e+02
1.288309631347656250e+02 -6.366586303710937500e+01 1.399790191650390625e+02
7.478189849853515625e+01 -1.082689285278320312e+02 4.885983657836914062e+01
7.507550048828125000e+01 -1.046928176879882812e+02 4.868535232543945312e+01
7.477548980712890625e+01 -1.072762451171875000e+02 5.292800140380859375e+01
7.510530853271484375e+01 -1.036045227050781250e+02 5.280869674682617188e+01
8.892367553710937500e+01 -1.317302246093750000e+02 1.978938102722167969e+00
8.882720184326171875e+01 -1.274021148681640625e+02 2.235146284103393555e+00
9.269775390625000000e+01 -1.309611206054687500e+02 1.995813846588134766e+00
9.266247558593750000e+01 -1.266463165283203125e+02 2.182937860488891602e+00
7.427426147460937500e+01 -2.399359588623046875e+02 7.002143096923828125e+01
7.469557189941406250e+01 -2.367254943847656250e+02 7.055976104736328125e+01
7.479389953613281250e+01 -2.392624511718750000e+02 7.261193084716796875e+01
7.507522583007812500e+01 -2.363569183349609375e+02 7.317880249023437500e+01
1.120589447021484375e+02 -2.693009948730468750e+02 1.609748077392578125e+01
1.112534408569335938e+02 -2.694880676269531250e+02 1.947858047485351562e+01
1.142472152709960938e+02 -2.686856689453125000e+02 1.847563934326171875e+01
1.137194213867187500e+02 -2.688138122558593750e+02 2.172673034667968750e+01
7.650986480712890625e+01 -2.205892944335937500e+02 1.481380462646484375e+02
7.587685394287109375e+01 -2.171412811279296875e+02 1.484262847900390625e+02
7.795751190185546875e+01 -2.202518005371093750e+02 1.490331878662109375e+02
7.723466491699218750e+01 -2.168650665283203125e+02 1.493981323242187500e+02
7.594492340087890625e+01 -5.866625213623046875e+01 1.185242271423339844e+01
7.571736145019531250e+01 -5.786418914794921875e+01 1.373162364959716797e+01
7.675269317626953125e+01 -5.782271957397460938e+01 1.464019775390625000e+01
7.719094085693359375e+01 -5.735940551757812500e+01 1.638488578796386719e+01
1.284804382324218750e+02 -2.597708435058593750e+02 1.286616821289062500e+02
1.286676483154296875e+02 -2.570180053710937500e+02 1.284607391357421875e+02
1.284696044921875000e+02 -2.589412231445312500e+02 1.310928192138671875e+02
1.287863311767578125e+02 -2.561109313964843750e+02 1.307408142089843750e+02
1.287928924560546875e+02 -1.449541320800781250e+02 1.241889114379882812e+02
1.291331787109375000e+02 -1.406584930419921875e+02 1.238781127929687500e+02
1.288728790283203125e+02 -1.436672058105468750e+02 1.266195755004882812e+02
1.291880798339843750e+02 -1.392769622802734375e+02 1.261810455322265625e+02
1.067216339111328125e+02 -6.117925262451171875e+01 1.427441711425781250e+02
1.058858108520507812e+02 -5.868071365356445312e+01 1.430231170654296875e+02
1.103760833740234375e+02 -6.123423767089843750e+01 1.436991119384765625e+02
1.100008621215820312e+02 -5.780759811401367188e+01 1.436017608642578125e+02
7.319548034667968750e+01 -7.890261840820312500e+01 1.037772846221923828e+01
7.371784210205078125e+01 -7.564376068115234375e+01 1.027081394195556641e+01
7.513307189941406250e+01 -7.862915039062500000e+01 1.304493999481201172e+01
7.571068572998046875e+01 -7.525753784179687500e+01 1.286006641387939453e+01
7.154871368408203125e+01 -5.979550552368164062e+01 6.121919250488281250e+01
7.421343231201171875e+01 -5.819181442260742188e+01 6.067532730102539062e+01
7.274662780761718750e+01 -5.892572021484375000e+01 6.398203659057617188e+01
7.560125732421875000e+01 -5.754595565795898438e+01 6.332774734497070312e+01
7.264351654052734375e+01 -1.308333892822265625e+02 3.448358297348022461e+00
7.266339111328125000e+01 -1.267111892700195312e+02 3.493300914764404297e+00
7.264201354980468750e+01 -1.299016113281250000e+02 5.564231872558593750e+00
7.259333038330078125e+01 -1.257599487304687500e+02 5.631391048431396484e+00
5.642882156372070312e+01 -1.737968902587890625e+02 8.676251983642578125e+01
5.642173385620117188e+01 -1.718792114257812500e+02 8.683768463134765625e+01
5.830781555175781250e+01 -1.735239562988281250e+02 8.679853820800781250e+01
5.834713745117187500e+01 -1.715837860107421875e+02 8.685896301269531250e+01
1.304386291503906250e+02 -6.185747909545898438e+01 1.145366058349609375e+02
1.295988769531250000e+02 -5.954272079467773438e+01 1.150738677978515625e+02
1.302182769775390625e+02 -6.240261459350585938e+01 1.169341659545898438e+02
1.295328521728515625e+02 -5.978192901611328125e+01 1.175941619873046875e+02
7.083444976806640625e+01 -6.548005676269531250e+01 2.082719230651855469e+01
7.344011688232421875e+01 -6.413810729980468750e+01 2.052783203125000000e+01
7.126219940185546875e+01 -6.477618408203125000e+01 2.353045463562011719e+01
7.375959014892578125e+01 -6.314364242553710938e+01 2.340694427490234375e+01
6.526661682128906250e+01 -7.341264343261718750e+01 9.321888732910156250e+01
6.559845733642578125e+01 -7.090992736816406250e+01 9.371457672119140625e+01
6.728379058837890625e+01 -7.279244995117187500e+01 9.541414642333984375e+01
6.744045257568359375e+01 -7.031547546386718750e+01 9.544947052001953125e+01
1.294809265136718750e+02 -2.562672424316406250e+02 1.419660491943359375e+02
1.298990020751953125e+02 -2.534024963378906250e+02 1.414860534667968750e+02
1.302599029541015625e+02 -2.550747833251953125e+02 1.436227416992187500e+02
1.304217071533203125e+02 -2.520508270263671875e+02 1.432265167236328125e+02
7.641961669921875000e+01 -1.546675109863281250e+02 2.293707609176635742e+00
7.683251953125000000e+01 -1.513080749511718750e+02 2.306048393249511719e+00
7.911996459960937500e+01 -1.544095306396484375e+02 1.843974471092224121e+00
7.940311431884765625e+01 -1.510402832031250000e+02 1.818773031234741211e+00
6.449811553955078125e+01 -1.430533142089843750e+02 8.857736206054687500e+01
6.415310668945312500e+01 -1.410529022216796875e+02 8.869065856933593750e+01
6.582566070556640625e+01 -1.424672851562500000e+02 8.883129882812500000e+01
6.550294494628906250e+01 -1.404424133300781250e+02 8.894716644287109375e+01
4.597025680541992188e+01 -2.578538818359375000e+02 9.585157775878906250e+01
4.761946105957031250e+01 -2.554127044677734375e+02 9.493981170654296875e+01
4.958958435058593750e+01 -2.568389587402343750e+02 9.670718383789062500e+01
5.096729278564453125e+01 -2.546964721679687500e+02 9.610417938232421875e+01
1.311967620849609375e+02 -6.076553726196289062e+01 1.431012115478515625e+02
1.304000549316406250e+02 -5.784359741210937500e+01 1.428948822021484375e+02
1.316067810058593750e+02 -6.040285110473632812e+01 1.445564117431640625e+02
1.307797546386718750e+02 -5.749569702148437500e+01 1.444225006103515625e+02
9.755767822265625000e+01 -2.273238677978515625e+02 1.482430725097656250e+02
9.798577117919921875e+01 -2.244567108154296875e+02 1.484352264404296875e+02
1.010465164184570312e+02 -2.252147979736328125e+02 1.480352935791015625e+02
1.010771942138671875e+02 -2.222221374511718750e+02 1.481337890625000000e+02
7.340412902832031250e+01 -1.173451919555664062e+02 1.006760635375976562e+02
7.274275970458984375e+01 -1.150755767822265625e+02 1.010142059326171875e+02
7.366513824462890625e+01 -1.172773361206054688e+02 1.027298278808593750e+02
7.320445251464843750e+01 -1.147172470092773438e+02 1.031127700805664062e+02
7.877336120605468750e+01 -2.126195068359375000e+02 1.488268890380859375e+02
7.814498901367187500e+01 -2.093898468017578125e+02 1.487738494873046875e+02
8.085771179199218750e+01 -2.123849334716796875e+02 1.490371704101562500e+02
7.979301452636718750e+01 -2.092249908447265625e+02 1.492309570312500000e+02
1.264037475585937500e+02 -1.072015991210937500e+02 1.432114868164062500e+02
1.253119354248046875e+02 -1.038525924682617188e+02 1.435830078125000000e+02
1.279784088134765625e+02 -1.062461776733398438e+02 1.436232910156250000e+02
1.271732559204101562e+02 -1.027648086547851562e+02 1.438885650634765625e+02
8.430499267578125000e+01 -2.669571838378906250e+02 1.760766029357910156e+00
8.534047698974609375e+01 -2.649714355468750000e+02 1.421916007995605469e+00
8.718356323242187500e+01 -2.670466308593750000e+02 2.514766693115234375e+00
8.831967926025390625e+01 -2.651396179199218750e+02 2.095684289932250977e+00
1.173745269775390625e+02 -2.373884582519531250e+02 1.437428894042968750e+02
1.174573898315429688e+02 -2.344546508789062500e+02 1.439144592285156250e+02
1.201864700317382812e+02 -2.361156311035156250e+02 1.431619415283203125e+02
1.204005203247070312e+02 -2.332031555175781250e+02 1.434135589599609375e+02
1.284790649414062500e+02 -1.529119873046875000e+02 6.549549102783203125e+01
1.291317596435546875e+02 -1.489610748291015625e+02 6.556913757324218750e+01
1.281621856689453125e+02 -1.518082733154296875e+02 6.830171966552734375e+01
1.289271545410156250e+02 -1.478915100097656250e+02 6.875904083251953125e+01
4.858967971801757812e+01 -6.067893218994140625e+01 6.386790275573730469e+00
4.687831115722656250e+01 -5.873366165161132812e+01 7.559841632843017578e+00
5.154685974121093750e+01 -6.076768875122070312e+01 6.900074481964111328e+00
4.994740676879882812e+01 -5.886719512939453125e+01 8.056626319885253906e+00
6.274611282348632812e+01 -1.277746963500976562e+02 8.619417572021484375e+01
6.259994125366210938e+01 -1.260345687866210938e+02 8.617835998535156250e+01
6.415406036376953125e+01 -1.274660339355468750e+02 8.711624145507812500e+01
6.401238250732421875e+01 -1.256240234375000000e+02 8.706505584716796875e+01
5.438647842407226562e+01 -6.469250488281250000e+01 1.006154327392578125e+02
5.605237579345703125e+01 -6.305387878417968750e+01 9.901277160644531250e+01
5.729309463500976562e+01 -6.543254852294921875e+01 1.025761108398437500e+02
5.891985321044921875e+01 -6.374566650390625000e+01 1.008909225463867188e+02
6.667039489746093750e+01 -1.392171325683593750e+02 1.187827148437500000e+02
6.695565032958984375e+01 -1.365842742919921875e+02 1.189298553466796875e+02
6.724275970458984375e+01 -1.390296020507812500e+02 1.204810409545898438e+02
6.752801513671875000e+01 -1.363967437744140625e+02 1.206281814575195312e+02
6.184095001220703125e+01 -1.314039916992187500e+02 8.828791046142578125e+01
6.175295639038085938e+01 -1.293797760009765625e+02 8.815085601806640625e+01
6.307085800170898438e+01 -1.308990173339843750e+02 8.894891357421875000e+01
6.299866104125976562e+01 -1.287736816406250000e+02 8.885403442382812500e+01
1.107084197998046875e+02 -2.213251037597656250e+02 2.209057331085205078e+00
1.104219055175781250e+02 -2.175485839843750000e+02 2.232548475265502930e+00
1.138546905517578125e+02 -2.214570617675781250e+02 1.971392035484313965e+00
1.135631866455078125e+02 -2.177472686767578125e+02 1.912057757377624512e+00
8.130603790283203125e+01 -1.326055450439453125e+02 1.434350891113281250e+02
8.091390228271484375e+01 -1.292721405029296875e+02 1.436436462402343750e+02
8.369123840332031250e+01 -1.311331329345703125e+02 1.437545013427734375e+02
8.345500946044921875e+01 -1.280970916748046875e+02 1.438979492187500000e+02
6.020875930786132812e+01 -8.590991973876953125e+01 8.651187133789062500e+01
5.981590270996093750e+01 -8.404441070556640625e+01 8.670125579833984375e+01
6.153485870361328125e+01 -8.586444091796875000e+01 8.723912048339843750e+01
6.102949142456054688e+01 -8.391725158691406250e+01 8.749893951416015625e+01
8.221812438964843750e+01 -2.694247436523437500e+02 8.075872802734375000e+01
7.998120880126953125e+01 -2.692471923828125000e+02 8.247565460205078125e+01
8.437688446044921875e+01 -2.692329406738281250e+02 8.244299316406250000e+01
8.164451599121093750e+01 -2.691285095214843750e+02 8.462716674804687500e+01
1.266563873291015625e+02 -1.584095611572265625e+02 1.474785156250000000e+02
1.264675979614257812e+02 -1.551088867187500000e+02 1.478396148681640625e+02
1.282959136962890625e+02 -1.565257720947265625e+02 1.489503784179687500e+02
1.281943054199218750e+02 -1.532697448730468750e+02 1.491791839599609375e+02
6.418746948242187500e+01 -2.131008758544921875e+02 8.652316284179687500e+01
6.368262863159179688e+01 -2.114614105224609375e+02 8.684822082519531250e+01
6.586743164062500000e+01 -2.123336944580078125e+02 8.730034637451171875e+01
6.531537628173828125e+01 -2.107168121337890625e+02 8.760471343994140625e+01
4.477741622924804688e+01 -6.748504638671875000e+01 6.934741973876953125e+01
4.327001571655273438e+01 -6.579556274414062500e+01 7.195572662353515625e+01
4.642102050781250000e+01 -6.668418121337890625e+01 7.105651092529296875e+01
4.499124526977539062e+01 -6.521913909912109375e+01 7.367536926269531250e+01
7.475568389892578125e+01 -1.364900665283203125e+02 1.307287750244140625e+02
7.474672698974609375e+01 -1.340319976806640625e+02 1.306811523437500000e+02
7.471416473388671875e+01 -1.364502868652343750e+02 1.334830932617187500e+02
7.470216369628906250e+01 -1.339596862792968750e+02 1.334285125732421875e+02
6.903483581542968750e+01 -1.319313659667968750e+02 1.030026397705078125e+02
6.901219177246093750e+01 -1.297741546630859375e+02 1.030882568359375000e+02
6.930060577392578125e+01 -1.308825225830078125e+02 1.058985748291015625e+02
6.924511718750000000e+01 -1.286334533691406250e+02 1.059260406494140625e+02
5.583689117431640625e+01 -2.351598358154296875e+02 8.092988586425781250e+01
5.626875686645507812e+01 -2.323370513916015625e+02 8.105130004882812500e+01
5.807140731811523438e+01 -2.349306793212890625e+02 8.099941253662109375e+01
5.846993637084960938e+01 -2.321699066162109375e+02 8.106186676025390625e+01
8.557323455810546875e+01 -1.677146453857421875e+02 2.153636932373046875e+00
8.620565032958984375e+01 -1.641150817871093750e+02 2.076745271682739258e+00
8.885561370849609375e+01 -1.677624206542968750e+02 1.979698777198791504e+00
8.922669982910156250e+01 -1.638101043701171875e+02 1.749783039093017578e+00
1.290923767089843750e+02 -8.158409118652343750e+01 5.777401351928710938e+01
1.294320831298828125e+02 -7.774655151367187500e+01 5.836469268798828125e+01
1.285728149414062500e+02 -8.080102539062500000e+01 6.185050201416015625e+01
1.289352569580078125e+02 -7.675910949707031250e+01 6.227250671386718750e+01
6.366752243041992188e+01 -1.577708282470703125e+02 8.991418457031250000e+01
6.361256408691406250e+01 -1.556342315673828125e+02 8.965753936767578125e+01
6.445711517333984375e+01 -1.582038269042968750e+02 9.020954132080078125e+01
6.445935058593750000e+01 -1.561020965576171875e+02 8.991760253906250000e+01
4.697842025756835938e+01 -1.400215454101562500e+02 8.214854431152343750e+01
4.723997497558593750e+01 -1.366067657470703125e+02 8.202642822265625000e+01
4.946808624267578125e+01 -1.401255950927734375e+02 8.171712493896484375e+01
4.967966079711914062e+01 -1.368356475830078125e+02 8.163925933837890625e+01
6.398639678955078125e+01 -2.583958435058593750e+02 7.420825958251953125e+01
6.251588821411132812e+01 -2.565814819335937500e+02 7.642974090576171875e+01
6.526813507080078125e+01 -2.571156311035156250e+02 7.512111663818359375e+01
6.431608581542968750e+01 -2.549606170654296875e+02 7.713096618652343750e+01
1.207755279541015625e+02 -1.644727935791015625e+02 1.979458928108215332e+00
1.214094543457031250e+02 -1.606535034179687500e+02 1.488837480545043945e+00
1.239941177368164062e+02 -1.638575286865234375e+02 2.499347209930419922e+00
1.244179000854492188e+02 -1.602019653320312500e+02 2.241838693618774414e+00
3.898595809936523438e+01 -2.626697082519531250e+02 9.811000823974609375e+00
3.946776962280273438e+01 -2.604754028320312500e+02 1.016910362243652344e+01
4.072226715087890625e+01 -2.618455810546875000e+02 1.093336009979248047e+01
4.082537078857421875e+01 -2.599580078125000000e+02 1.168001937866210938e+01
1.287149047851562500e+02 -1.415747222900390625e+02 4.839409637451171875e+01
1.290689239501953125e+02 -1.386807403564453125e+02 4.887698745727539062e+01
1.288121948242187500e+02 -1.399497833251953125e+02 5.211553192138671875e+01
1.291611633300781250e+02 -1.371149291992187500e+02 5.268904113769531250e+01
1.185465850830078125e+02 -2.693684387207031250e+02 5.061647033691406250e+01
1.172609481811523438e+02 -2.694964294433593750e+02 5.325319290161132812e+01
1.192728424072265625e+02 -2.694808959960937500e+02 5.341465759277343750e+01
1.197335281372070312e+02 -2.691039123535156250e+02 5.485119247436523438e+01
4.317228698730468750e+01 -6.586590576171875000e+01 3.238557434082031250e+01
4.505236816406250000e+01 -6.295211791992187500e+01 3.190195083618164062e+01
4.419358444213867188e+01 -6.429875946044921875e+01 3.600514984130859375e+01
4.609287261962890625e+01 -6.117240142822265625e+01 3.535877227783203125e+01
1.185812683105468750e+02 -9.343833923339843750e+01 1.756263971328735352e+00
1.187202224731445312e+02 -9.009387207031250000e+01 1.411052346229553223e+00
1.225050201416015625e+02 -9.371743011474609375e+01 2.645341873168945312e+00
1.227534561157226562e+02 -9.028956604003906250e+01 2.240047454833984375e+00
6.554686737060546875e+01 -8.838214874267578125e+01 9.284698486328125000e+01
6.542420196533203125e+01 -8.592471313476562500e+01 9.346742248535156250e+01
6.666742706298828125e+01 -8.799571228027343750e+01 9.451369476318359375e+01
6.647592926025390625e+01 -8.544198608398437500e+01 9.527545166015625000e+01
7.445513153076171875e+01 -1.530280151367187500e+02 1.627935218811035156e+01
7.488748931884765625e+01 -1.491237945556640625e+02 1.603551673889160156e+01
7.457115173339843750e+01 -1.521943054199218750e+02 1.897791290283203125e+01
7.492430114746093750e+01 -1.482028350830078125e+02 1.864813995361328125e+01
1.309023590087890625e+02 -2.705014953613281250e+02 1.439017028808593750e+02
1.320069732666015625e+02 -2.674180908203125000e+02 1.435071105957031250e+02
1.306801452636718750e+02 -2.683998413085937500e+02 1.469629364013671875e+02
1.319945831298828125e+02 -2.652219848632812500e+02 1.465847930908203125e+02
1.025591812133789062e+02 -1.382036437988281250e+02 1.484418487548828125e+02
1.017925338745117188e+02 -1.350549774169921875e+02 1.482897644042968750e+02
1.051988449096679688e+02 -1.382417907714843750e+02 1.483953552246093750e+02
1.043124542236328125e+02 -1.351030578613281250e+02 1.482907867431640625e+02
6.639440155029296875e+01 -1.456896057128906250e+02 1.010401992797851562e+02
6.677408599853515625e+01 -1.434382171630859375e+02 1.006134796142578125e+02
6.696069335937500000e+01 -1.450361480712890625e+02 1.032215728759765625e+02
6.715358734130859375e+01 -1.428782501220703125e+02 1.028363723754882812e+02
8.313589477539062500e+01 -5.946527481079101562e+01 4.152069473266601562e+01
8.390480041503906250e+01 -5.849556350708007812e+01 4.301423645019531250e+01
8.480603027343750000e+01 -5.871305847167968750e+01 4.425148391723632812e+01
8.557323455810546875e+01 -5.788691711425781250e+01 4.569810867309570312e+01
7.779517364501953125e+01 -2.710881958007812500e+02 1.045790634155273438e+02
7.533766174316406250e+01 -2.693603210449218750e+02 1.052013778686523438e+02
7.954819488525390625e+01 -2.715413513183593750e+02 1.067683029174804688e+02
7.700723266601562500e+01 -2.696785583496093750e+02 1.072774810791015625e+02
7.716372680664062500e+01 -5.856690979003906250e+01 1.966588020324707031e+01
7.888436889648437500e+01 -5.798618316650390625e+01 2.036835098266601562e+01
7.902066040039062500e+01 -5.789747238159179688e+01 2.196874237060546875e+01
8.054804992675781250e+01 -5.722766494750976562e+01 2.284945869445800781e+01
8.509219360351562500e+01 -2.695440979003906250e+02 1.008667221069335938e+02
8.291169738769531250e+01 -2.693816528320312500e+02 1.034451522827148438e+02
8.672698211669921875e+01 -2.694087524414062500e+02 1.030612945556640625e+02
8.469725036621093750e+01 -2.694996337890625000e+02 1.061530838012695312e+02
5.842520141601562500e+01 -2.516920471191406250e+02 7.945747375488281250e+01
5.794601440429687500e+01 -2.496396026611328125e+02 8.090290832519531250e+01
6.099310684204101562e+01 -2.510104522705078125e+02 7.997206115722656250e+01
6.045552062988281250e+01 -2.490354614257812500e+02 8.119187927246093750e+01
1.059622879028320312e+02 -5.854014205932617188e+01 4.334029006958007812e+01
1.029020385742187500e+02 -5.908959960937500000e+01 4.688634490966796875e+01
1.087820968627929688e+02 -5.838520812988281250e+01 4.622298812866210938e+01
1.055798263549804688e+02 -5.898952102661132812e+01 4.961660766601562500e+01
7.423778533935546875e+01 -1.645804290771484375e+02 8.731634140014648438e+00
7.525476074218750000e+01 -1.613228912353515625e+02 7.838510990142822266e+00
7.450569915771484375e+01 -1.626410217285156250e+02 9.437221527099609375e+00
7.565515899658203125e+01 -1.593242034912109375e+02 8.463976860046386719e+00
7.401735687255859375e+01 -7.744953918457031250e+01 4.897046279907226562e+01
7.503045654296875000e+01 -7.367621612548828125e+01 4.905104064941406250e+01
7.396616363525390625e+01 -7.621569061279296875e+01 5.231478500366210938e+01
7.505740356445312500e+01 -7.329645538330078125e+01 5.186149215698242188e+01
7.383911895751953125e+01 -1.512177734375000000e+02 8.370996856689453125e+01
7.412150573730468750e+01 -1.486386260986328125e+02 8.422882080078125000e+01
7.466139221191406250e+01 -1.510285491943359375e+02 8.542371368408203125e+01
7.495632934570312500e+01 -1.485990447998046875e+02 8.572306823730468750e+01
7.427968597412109375e+01 -2.460293884277343750e+02 9.706713867187500000e+01
7.462397766113281250e+01 -2.435508575439453125e+02 9.715141296386718750e+01
7.393826293945312500e+01 -2.452976989746093750e+02 9.964128875732421875e+01
7.438899230957031250e+01 -2.428585357666015625e+02 9.969870758056640625e+01
7.441055297851562500e+01 -1.054386138916015625e+02 1.219852447509765625e+02
7.435046386718750000e+01 -1.024388732910156250e+02 1.221957550048828125e+02
7.396971893310546875e+01 -1.047323532104492188e+02 1.246061553955078125e+02
7.387151336669921875e+01 -1.015281753540039062e+02 1.248868179321289062e+02
7.451291656494140625e+01 -2.524484252929687500e+02 8.250778198242187500e+01
7.430171203613281250e+01 -2.498827209472656250e+02 8.259931182861328125e+01
7.461168670654296875e+01 -2.524006042480468750e+02 8.516802978515625000e+01
7.439680480957031250e+01 -2.495530242919921875e+02 8.505229949951171875e+01
5.973698043823242188e+01 -2.112367553710937500e+02 8.620259094238281250e+01
5.936534881591796875e+01 -2.096010742187500000e+02 8.644957733154296875e+01
6.127155303955078125e+01 -2.106275787353515625e+02 8.684702301025390625e+01
6.062765884399414062e+01 -2.090159912109375000e+02 8.715082550048828125e+01
6.401488494873046875e+01 -1.252324066162109375e+02 8.971380615234375000e+01
6.380426788330078125e+01 -1.233697662353515625e+02 8.972050476074218750e+01
6.488633728027343750e+01 -1.248588867187500000e+02 9.045594787597656250e+01
6.467382812500000000e+01 -1.229877395629882812e+02 9.045842742919921875e+01
1.076576614379882812e+02 -1.807568359375000000e+02 1.436842193603515625e+02
1.070364761352539062e+02 -1.768849945068359375e+02 1.437672119140625000e+02
1.109388351440429688e+02 -1.803997650146484375e+02 1.441121063232421875e+02
1.099410858154296875e+02 -1.762094421386718750e+02 1.441995849609375000e+02
7.387071990966796875e+01 -2.687165222167968750e+02 1.063571472167968750e+02
7.154238128662109375e+01 -2.669761657714843750e+02 1.069027175903320312e+02
7.538385009765625000e+01 -2.694814147949218750e+02 1.085354614257812500e+02
7.293172454833984375e+01 -2.675708923339843750e+02 1.089961395263671875e+02
1.288599090576171875e+02 -9.193780517578125000e+01 2.930362129211425781e+01
1.290880889892578125e+02 -8.800425720214843750e+01 2.943473052978515625e+01
1.286088867187500000e+02 -9.118753051757812500e+01 3.376673889160156250e+01
1.287674865722656250e+02 -8.721858215332031250e+01 3.376604843139648438e+01
7.955928802490234375e+01 -5.984634399414062500e+01 1.214182586669921875e+02
7.942248535156250000e+01 -5.714181137084960938e+01 1.212733230590820312e+02
8.003309631347656250e+01 -5.921250152587890625e+01 1.240479125976562500e+02
7.990248107910156250e+01 -5.707075119018554688e+01 1.243751449584960938e+02
1.288887329101562500e+02 -9.300179290771484375e+01 8.781227874755859375e+01
1.290323638916015625e+02 -8.881282043457031250e+01 8.735782623291015625e+01
1.286600799560546875e+02 -9.182083129882812500e+01 9.126123046875000000e+01
1.289191131591796875e+02 -8.760073089599609375e+01 9.104150390625000000e+01
1.276454544067382812e+02 -2.646899414062500000e+02 9.405306243896484375e+01
1.291546783447265625e+02 -2.631991882324218750e+02 9.420076751708984375e+01
1.288270111083984375e+02 -2.636993408203125000e+02 9.672078704833984375e+01
1.304712371826171875e+02 -2.624477844238281250e+02 9.688182830810546875e+01
7.367161560058593750e+01 -1.417111968994140625e+02 1.131154861450195312e+02
7.331452941894531250e+01 -1.396293792724609375e+02 1.131578140258789062e+02
7.415687561035156250e+01 -1.415718688964843750e+02 1.152921142578125000e+02
7.367532348632812500e+01 -1.391391601562500000e+02 1.152404861450195312e+02
7.451605224609375000e+01 -2.525116424560546875e+02 8.245481109619140625e+01
7.429870605468750000e+01 -2.500036926269531250e+02 8.253593444824218750e+01
7.462406921386718750e+01 -2.524980010986328125e+02 8.511049652099609375e+01
7.440918731689453125e+01 -2.496504211425781250e+02 8.499476623535156250e+01
5.920263671875000000e+01 -1.292218475341796875e+02 8.076349639892578125e+01
5.929538345336914062e+01 -1.264803161621093750e+02 8.130290985107421875e+01
6.135842895507812500e+01 -1.292762908935546875e+02 8.095246124267578125e+01
6.144285202026367188e+01 -1.265351257324218750e+02 8.146726989746093750e+01
9.256252288818359375e+01 -2.692319335937500000e+02 8.094425201416015625e+01
8.969066619873046875e+01 -2.694292602539062500e+02 8.399083709716796875e+01
9.521514129638671875e+01 -2.687042236328125000e+02 8.357263946533203125e+01
9.246804046630859375e+01 -2.690057373046875000e+02 8.688919830322265625e+01
1.285235443115234375e+02 -2.559848937988281250e+02 1.285503234863281250e+02
1.286385955810546875e+02 -2.530713043212890625e+02 1.282302398681640625e+02
1.284519958496093750e+02 -2.554167938232421875e+02 1.314070739746093750e+02
1.286927185058593750e+02 -2.523395843505859375e+02 1.309524230957031250e+02
3.721703720092773438e+01 -7.272197723388671875e+01 7.583481597900390625e+01
3.487817382812500000e+01 -7.090560913085937500e+01 7.720788574218750000e+01
3.819378280639648438e+01 -7.287026977539062500e+01 7.778148651123046875e+01
3.571096420288085938e+01 -7.099308776855468750e+01 7.909983825683593750e+01
9.779573822021484375e+01 -5.944401931762695312e+01 9.665094375610351562e+00
9.572927856445312500e+01 -5.915377807617187500e+01 1.264302825927734375e+01
9.997074127197265625e+01 -5.879977416992187500e+01 1.220166683197021484e+01
9.798828887939453125e+01 -5.866646957397460938e+01 1.515027046203613281e+01
5.521446609497070312e+01 -2.258706817626953125e+02 8.150998687744140625e+01
5.545638275146484375e+01 -2.236545715332031250e+02 8.136016082763671875e+01
5.741627883911132812e+01 -2.255354003906250000e+02 8.116917419433593750e+01
5.757749938964843750e+01 -2.234392242431640625e+02 8.103433990478515625e+01
5.271712493896484375e+01 -2.163861389160156250e+02 8.648157501220703125e+01
5.298979949951171875e+01 -2.145728759765625000e+02 8.635152435302734375e+01
5.488549041748046875e+01 -2.164546051025390625e+02 8.645193481445312500e+01
5.529752731323242188e+01 -2.148114013671875000e+02 8.641844940185546875e+01
7.432850646972656250e+01 -2.082751007080078125e+02 7.112368774414062500e+01
7.462604522705078125e+01 -2.053035125732421875e+02 7.160957336425781250e+01
7.453073883056640625e+01 -2.080870666503906250e+02 7.384806823730468750e+01
7.462028503417968750e+01 -2.054816589355468750e+02 7.426110839843750000e+01
6.132677841186523438e+01 -2.102199401855468750e+02 8.649068450927734375e+01
6.066313934326171875e+01 -2.086223449707031250e+02 8.680712127685546875e+01
6.280209732055664062e+01 -2.100134124755859375e+02 8.710729980468750000e+01
6.214386367797851562e+01 -2.083691406250000000e+02 8.740657043457031250e+01
7.421224212646484375e+01 -1.856582183837890625e+02 2.270724678039550781e+01
7.460072326660156250e+01 -1.808392944335937500e+02 2.156995391845703125e+01
7.425310516357421875e+01 -1.843039398193359375e+02 2.628918838500976562e+01
7.479648590087890625e+01 -1.794147796630859375e+02 2.507808685302734375e+01
9.879067230224609375e+01 -9.348443603515625000e+01 1.438067474365234375e+02
9.869258117675781250e+01 -8.937962341308593750e+01 1.436643676757812500e+02
1.017988891601562500e+02 -9.253658294677734375e+01 1.442731933593750000e+02
1.018837661743164062e+02 -8.850618743896484375e+01 1.441778564453125000e+02
1.044543685913085938e+02 -2.694670410156250000e+02 2.440645027160644531e+01
1.026636199951171875e+02 -2.697828674316406250e+02 2.687333297729492188e+01
1.072198791503906250e+02 -2.691076354980468750e+02 2.684498023986816406e+01
1.055177841186523438e+02 -2.693553161621093750e+02 2.931103706359863281e+01
5.735092544555664062e+01 -1.123939895629882812e+02 8.782625579833984375e+01
5.696356582641601562e+01 -1.107600402832031250e+02 8.802109527587890625e+01
5.901284790039062500e+01 -1.124467849731445312e+02 8.777517700195312500e+01
5.856025314331054688e+01 -1.106919708251953125e+02 8.797914886474609375e+01
1.111373901367187500e+02 -2.694226989746093750e+02 1.836909866333007812e+01
1.100307693481445312e+02 -2.695896911621093750e+02 2.171400833129882812e+01
1.133182449340820312e+02 -2.688632202148437500e+02 2.094376373291015625e+01
1.124766616821289062e+02 -2.690235290527343750e+02 2.409978294372558594e+01
4.097724914550781250e+01 -2.685463867187500000e+02 2.964650154113769531e+00
4.092815399169921875e+01 -2.661001281738281250e+02 2.750842094421386719e+00
4.279215621948242188e+01 -2.687462463378906250e+02 4.361462593078613281e+00
4.346296310424804688e+01 -2.662692260742187500e+02 4.167556285858154297e+00
1.098899307250976562e+02 -2.395980224609375000e+02 1.446634063720703125e+02
1.100615463256835938e+02 -2.366295623779296875e+02 1.446356964111328125e+02
1.130964660644531250e+02 -2.390174713134765625e+02 1.436693725585937500e+02
1.133341979980468750e+02 -2.361311492919921875e+02 1.437746124267578125e+02
9.161213684082031250e+01 -2.395835876464843750e+02 1.477163238525390625e+02
9.149871826171875000e+01 -2.367064666748046875e+02 1.480086669921875000e+02
9.487541961669921875e+01 -2.395075378417968750e+02 1.479629364013671875e+02
9.498997497558593750e+01 -2.363262329101562500e+02 1.482586212158203125e+02
5.266496276855468750e+01 -2.020923156738281250e+02 8.769349670410156250e+01
5.267642593383789062e+01 -2.001295776367187500e+02 8.787351989746093750e+01
5.447215652465820312e+01 -2.014311065673828125e+02 8.755992126464843750e+01
5.443958663940429688e+01 -1.994527740478515625e+02 8.771984863281250000e+01
4.631415939331054688e+01 -2.602465820312500000e+02 6.606507110595703125e+01
4.628807830810546875e+01 -2.579461669921875000e+02 6.692834472656250000e+01
4.850881195068359375e+01 -2.600280151367187500e+02 6.758660888671875000e+01
4.849954986572265625e+01 -2.577180480957031250e+02 6.848755645751953125e+01
1.277638320922851562e+02 -1.123857574462890625e+02 1.338254394531250000e+02
1.281092529296875000e+02 -1.090448074340820312e+02 1.340425262451171875e+02
1.291335906982421875e+02 -1.115427093505859375e+02 1.352991180419921875e+02
1.293456878662109375e+02 -1.082407608032226562e+02 1.353702697753906250e+02
1.286568908691406250e+02 -1.753970642089843750e+02 9.679114532470703125e+01
1.294115753173828125e+02 -1.702698669433593750e+02 9.749781036376953125e+01
1.281816558837890625e+02 -1.736687164306640625e+02 1.010107879638671875e+02
1.289674072265625000e+02 -1.686300048828125000e+02 1.016162948608398438e+02
1.004248886108398438e+02 -2.691170043945312500e+02 3.103981399536132812e+01
9.867897796630859375e+01 -2.694723205566406250e+02 3.340853881835937500e+01
1.032561569213867188e+02 -2.689891662597656250e+02 3.331021499633789062e+01
1.013092498779296875e+02 -2.694123229980468750e+02 3.567796707153320312e+01
5.423551177978515625e+01 -1.279165954589843750e+02 8.679777526855468750e+01
5.383981704711914062e+01 -1.263549423217773438e+02 8.680052947998046875e+01
5.556576919555664062e+01 -1.275949859619140625e+02 8.669786834716796875e+01
5.513672256469726562e+01 -1.260653762817382812e+02 8.672144317626953125e+01
1.062974395751953125e+02 -1.435002288818359375e+02 1.490414581298828125e+02
1.054999160766601562e+02 -1.404715423583984375e+02 1.491046600341796875e+02
1.092388534545898438e+02 -1.433299713134765625e+02 1.486241149902343750e+02
1.084969406127929688e+02 -1.401931610107421875e+02 1.486687622070312500e+02
8.576988220214843750e+01 -1.485824127197265625e+02 1.485782165527343750e+02
8.576039123535156250e+01 -1.460265350341796875e+02 1.485095214843750000e+02
8.841051483154296875e+01 -1.483278961181640625e+02 1.487286224365234375e+02
8.832957458496093750e+01 -1.458414306640625000e+02 1.486487121582031250e+02
8.018629455566406250e+01 -1.591818695068359375e+02 1.475706329345703125e+02
7.919094848632812500e+01 -1.552116241455078125e+02 1.480548248291015625e+02
8.261085510253906250e+01 -1.587185363769531250e+02 1.476880493164062500e+02
8.177912139892578125e+01 -1.548465576171875000e+02 1.480223236083984375e+02
9.882587432861328125e+01 -1.984833679199218750e+02 1.446108703613281250e+02
9.855988311767578125e+01 -1.951301727294921875e+02 1.448856506347656250e+02
1.027968597412109375e+02 -1.975802154541015625e+02 1.442552337646484375e+02
1.023812637329101562e+02 -1.943866424560546875e+02 1.445751953125000000e+02
7.172624206542968750e+01 -1.658506164550781250e+02 1.075118103027343750e+02
7.175374603271484375e+01 -1.630976562500000000e+02 1.074738540649414062e+02
7.139923858642578125e+01 -1.650138702392578125e+02 1.096636734008789062e+02
7.158735656738281250e+01 -1.619884948730468750e+02 1.094747619628906250e+02
1.101544342041015625e+02 -2.309141998291015625e+02 1.485892639160156250e+02
1.106893539428710938e+02 -2.280404815673828125e+02 1.486025543212890625e+02
1.130340652465820312e+02 -2.290908050537109375e+02 1.476591491699218750e+02
1.135358886718750000e+02 -2.262430419921875000e+02 1.478223114013671875e+02
8.855773925781250000e+01 -2.694071350097656250e+02 1.336984405517578125e+02
8.668589019775390625e+01 -2.691449584960937500e+02 1.369145660400390625e+02
9.023609924316406250e+01 -2.693598327636718750e+02 1.360161285400390625e+02
8.842894744873046875e+01 -2.690942382812500000e+02 1.391979217529296875e+02
7.354174041748046875e+01 -1.679058380126953125e+02 1.049227218627929688e+02
7.371971130371093750e+01 -1.650486450195312500e+02 1.048607025146484375e+02
7.387511444091796875e+01 -1.669134521484375000e+02 1.072248382568359375e+02
7.414906311035156250e+01 -1.639607391357421875e+02 1.070745468139648438e+02
1.283328552246093750e+02 -1.311809082031250000e+02 1.404776000976562500e+02
1.284365844726562500e+02 -1.279326705932617188e+02 1.405801391601562500e+02
1.285643463134765625e+02 -1.303314514160156250e+02 1.427342987060546875e+02
1.285334472656250000e+02 -1.271715927124023438e+02 1.427864837646484375e+02
1.286024780273437500e+02 -1.960182952880859375e+02 9.063025665283203125e+01
1.289259338378906250e+02 -1.925731506347656250e+02 9.081006622314453125e+01
1.286691131591796875e+02 -1.947503509521484375e+02 9.462702941894531250e+01
1.288650970458984375e+02 -1.914720764160156250e+02 9.489279937744140625e+01
9.102757263183593750e+01 -9.170948028564453125e+01 1.425254821777343750e+02
9.086054992675781250e+01 -8.791968536376953125e+01 1.424004821777343750e+02
9.448446655273437500e+01 -9.117326354980468750e+01 1.435912628173828125e+02
9.439704895019531250e+01 -8.716199493408203125e+01 1.433734283447265625e+02
7.422535705566406250e+01 -2.042699584960937500e+02 1.486970214843750000e+02
7.380235290527343750e+01 -2.017486267089843750e+02 1.488246765136718750e+02
7.634160614013671875e+01 -2.039339141845703125e+02 1.485067443847656250e+02
7.584095001220703125e+01 -2.015001525878906250e+02 1.487528076171875000e+02
1.284166870117187500e+02 -2.541755828857421875e+02 4.080288314819335938e+01
1.288431396484375000e+02 -2.508152313232421875e+02 4.126976394653320312e+01
1.284416198730468750e+02 -2.528086547851562500e+02 4.383880615234375000e+01
1.289067535400390625e+02 -2.493951721191406250e+02 4.437358093261718750e+01
9.539565277099609375e+01 -1.754217987060546875e+02 2.274205207824707031e+00
9.622940063476562500e+01 -1.706485290527343750e+02 1.877299308776855469e+00
9.969578552246093750e+01 -1.750114898681640625e+02 2.196525096893310547e+00
1.005768203735351562e+02 -1.703749237060546875e+02 1.568872213363647461e+00
1.218330993652343750e+02 -7.762881469726562500e+01 1.442979278564453125e+02
1.204894027709960938e+02 -7.413966369628906250e+01 1.448557586669921875e+02
1.251627426147460938e+02 -7.720011901855468750e+01 1.440222167968750000e+02
1.234152374267578125e+02 -7.381965637207031250e+01 1.446452636718750000e+02
1.284987945556640625e+02 -1.382119140625000000e+02 3.665303421020507812e+01
1.289090270996093750e+02 -1.345115509033203125e+02 3.621838378906250000e+01
1.285228729248046875e+02 -1.375778198242187500e+02 4.000970458984375000e+01
1.289642944335937500e+02 -1.342157287597656250e+02 3.991089630126953125e+01
1.249428100585937500e+02 -2.697877197265625000e+02 8.746076202392578125e+01
1.273568878173828125e+02 -2.689011840820312500e+02 8.760062408447265625e+01
1.262800979614257812e+02 -2.689487609863281250e+02 8.975800323486328125e+01
1.284619750976562500e+02 -2.678880920410156250e+02 8.975282287597656250e+01
6.203664016723632812e+01 -1.856134338378906250e+02 8.115338134765625000e+01
6.216233062744140625e+01 -1.831384124755859375e+02 8.109504699707031250e+01
6.418499755859375000e+01 -1.851213836669921875e+02 8.175082397460937500e+01
6.418612670898437500e+01 -1.826388092041015625e+02 8.167491149902343750e+01
7.401144409179687500e+01 -2.536616668701171875e+02 6.814905548095703125e+01
7.358329772949218750e+01 -2.504208068847656250e+02 6.774216461181640625e+01
7.371530151367187500e+01 -2.534604339599609375e+02 7.098488616943359375e+01
7.328263092041015625e+01 -2.503753051757812500e+02 7.065832519531250000e+01
1.280271148681640625e+02 -2.659459838867187500e+02 8.772917938232421875e+01
1.294372711181640625e+02 -2.642987670898437500e+02 8.758563995361328125e+01
1.288484344482421875e+02 -2.649379272460937500e+02 8.999328613281250000e+01
1.301044006347656250e+02 -2.633088989257812500e+02 8.991270446777343750e+01
4.055668640136718750e+01 -1.729904785156250000e+02 8.588720703125000000e+01
4.082603073120117188e+01 -1.698120727539062500e+02 8.593313598632812500e+01
4.264217376708984375e+01 -1.719183349609375000e+02 8.550200653076171875e+01
4.276901245117187500e+01 -1.687399444580078125e+02 8.562393951416015625e+01
4.801092529296875000e+01 -2.613463134765625000e+02 3.966984176635742188e+01
4.620975112915039062e+01 -2.586950073242187500e+02 4.222954940795898438e+01
4.674938964843750000e+01 -2.600584106445312500e+02 4.524888992309570312e+01
4.765750885009765625e+01 -2.569345397949218750e+02 4.576712417602539062e+01
7.467075347900390625e+01 -2.127776489257812500e+02 3.248176956176757812e+01
7.496482086181640625e+01 -2.091205291748046875e+02 3.305731201171875000e+01
7.429730224609375000e+01 -2.117005157470703125e+02 3.662981414794921875e+01
7.464595031738281250e+01 -2.078356933593750000e+02 3.696948623657226562e+01
