-4.325004518032073975e-01 -9.098928421735763550e-02 1.260785618796944618e-03
-4.333328306674957275e-01 -8.425778150558471680e-02 1.220387057401239872e-03
7.057378888130187988e-01 -7.031960412859916687e-03 3.323366492986679077e-02
7.050215601921081543e-01 1.460254425182938576e-03 3.691294789314270020e-02
7.142454981803894043e-01 -7.388550322502851486e-03 3.249684348702430725e-02
7.133174538612365723e-01 8.601895533502101898e-04 3.604461625218391418e-02
-9.925049543380737305e-02 4.650739580392837524e-02 -7.067931443452835083e-02
-1.046797707676887512e-01 4.951120167970657349e-02 -6.573095917701721191e-02
-9.323912113904953003e-02 4.749229550361633301e-02 -6.862292438745498657e-02
-9.833771735429763794e-02 5.067760497331619263e-02 -6.365475058555603027e-02
-3.378320038318634033e-01 -5.759399384260177612e-02 -3.030425868928432465e-03
-3.343629837036132812e-01 -5.305790156126022339e-02 -9.047321975231170654e-03
-3.282271623611450195e-01 -5.754033103585243225e-02 -1.350513426586985588e-03
-3.248479068279266357e-01 -5.386861786246299744e-02 -5.906142760068178177e-03
-1.441865861415863037e-01 5.354123562574386597e-02 4.329162463545799255e-02
-1.381768435239791870e-01 5.685012415051460266e-02 4.056672006845474243e-02
-1.369006484746932983e-01 5.434201285243034363e-02 4.348196834325790405e-02
-1.329293400049209595e-01 5.783260613679885864e-02 4.171623662114143372e-02
-1.481051295995712280e-01 1.021005911752581596e-03 -2.706972695887088776e-02
-1.541156321763992310e-01 5.668083205819129944e-03 -2.533406205475330353e-02
-1.422404944896697998e-01 6.218259222805500031e-04 -2.720765024423599243e-02
-1.474236994981765747e-01 5.542411468923091888e-03 -2.551395446062088013e-02
-4.133088588714599609e-01 4.511348530650138855e-02 7.205609232187271118e-02
-4.123980700969696045e-01 4.941069707274436951e-02 6.896195560693740845e-02
-4.024233222007751465e-01 4.472114145755767822e-02 7.599214464426040649e-02
-4.020156264305114746e-01 4.882675036787986755e-02 7.358434051275253296e-02
1.241674367338418961e-02 5.215894803404808044e-02 3.012666851282119751e-02
8.227545768022537231e-03 5.655863508582115173e-02 3.328490257263183594e-02
1.620728708803653717e-02 5.272608250379562378e-02 3.273580223321914673e-02
1.181876100599765778e-02 5.731680244207382202e-02 3.586112335324287415e-02
-4.939627647399902344e-01 -2.047590911388397217e-02 -2.806255593895912170e-02
-4.968659877777099609e-01 -1.394587755203247070e-02 -2.582651190459728241e-02
-4.875267446041107178e-01 -2.084840461611747742e-02 -2.673161961138248444e-02
-4.897355437278747559e-01 -1.458622422069311142e-02 -2.494532614946365356e-02
-4.795040003955364227e-03 6.054506078362464905e-02 -2.008423581719398499e-02
-8.916249498724937439e-03 6.302463263273239136e-02 -1.817692257463932037e-02
2.474327571690082550e-03 5.810863152146339417e-02 -1.643455214798450470e-02
-2.727558137848973274e-03 6.050174683332443237e-02 -1.464774552732706070e-02
-3.647826313972473145e-01 -3.871830180287361145e-03 5.599460005760192871e-02
-3.693611323833465576e-01 -3.372186329215764999e-04 6.088136136531829834e-02
-3.566327691078186035e-01 -3.209054004400968552e-03 5.657348781824111938e-02
-3.607145249843597412e-01 8.945015724748373032e-04 6.105038151144981384e-02
-3.339551091194152832e-01 9.981838613748550415e-02 2.039590477943420410e-02
-3.307219147682189941e-01 1.041323244571685791e-01 1.419517304748296738e-02
-3.239980041980743408e-01 9.765827655792236328e-02 2.237804606556892395e-02
-3.206485807895660400e-01 1.018837541341781616e-01 1.620503887534141541e-02
-1.168684363365173340e-01 2.612069807946681976e-02 -4.413983225822448730e-02
-1.186016798019409180e-01 3.293816000223159790e-02 -4.174205288290977478e-02
-1.102190911769866943e-01 2.676478959619998932e-02 -4.320573434233665466e-02
-1.124824211001396179e-01 3.427951037883758545e-02 -4.084086790680885315e-02
-1.527899950742721558e-01 -1.368883065879344940e-02 -3.520165383815765381e-02
-1.577558666467666626e-01 -8.889065124094486237e-03 -3.277121856808662415e-02
-1.485112011432647705e-01 -1.244986057281494141e-02 -3.405196964740753174e-02
-1.535013169050216675e-01 -7.823945023119449615e-03 -3.161120414733886719e-02
7.864334583282470703e-01 8.337272331118583679e-03 5.958967283368110657e-02
7.872040867805480957e-01 1.533944811671972275e-02 5.934099107980728149e-02
7.930977940559387207e-01 8.660610765218734741e-03 6.082439422607421875e-02
7.945718169212341309e-01 1.504200790077447891e-02 5.958350002765655518e-02
-3.151463866233825684e-01 5.925450474023818970e-02 -3.819129243493080139e-02
-3.156941831111907959e-01 6.227209791541099548e-02 -3.159218654036521912e-02
-3.107374310493469238e-01 6.136161834001541138e-02 -3.361448273062705994e-02
-3.110189139842987061e-01 6.436063349246978760e-02 -2.719601243734359741e-02
2.099559754133224487e-01 6.264584511518478394e-02 4.680187907069921494e-03
2.167986631393432617e-01 6.339420378208160400e-02 3.314855974167585373e-03
2.175267636775970459e-01 6.318951398134231567e-02 1.055979076772928238e-02
2.236821651458740234e-01 6.369227170944213867e-02 9.321752935647964478e-03
-9.595493227243423462e-02 -1.379830669611692429e-02 3.442864120006561279e-02
-9.442254155874252319e-02 -9.705092757940292358e-03 3.389182686805725098e-02
-9.087660163640975952e-02 -1.323222741484642029e-02 3.549265861511230469e-02
-8.972818404436111450e-02 -8.943682536482810974e-03 3.472131863236427307e-02
8.334223181009292603e-02 5.028427764773368835e-02 -3.741918131709098816e-02
8.246816694736480713e-02 5.773248896002769470e-02 -3.822068870067596436e-02
8.911202102899551392e-02 4.986669868230819702e-02 -3.443708270788192749e-02
8.838206529617309570e-02 5.666383355855941772e-02 -3.422353416681289673e-02
1.554775983095169067e-01 -5.758896470069885254e-03 -1.808806695044040680e-02
1.509250253438949585e-01 -2.104537328705191612e-03 -1.487544830888509750e-02
1.610637903213500977e-01 -4.227742552757263184e-03 -1.623945683240890503e-02
1.563428938388824463e-01 -1.240942860022187233e-03 -1.286352984607219696e-02
3.663825988769531250e-01 1.035821065306663513e-02 -4.429706186056137085e-02
3.693766593933105469e-01 1.835106872022151947e-02 -4.539490118622779846e-02
3.740013837814331055e-01 1.094205304980278015e-02 -4.560255631804466248e-02
3.765104413032531738e-01 1.936564967036247253e-02 -4.679252207279205322e-02
-6.608537584543228149e-02 6.784442067146301270e-02 -2.222766634076833725e-03
-6.121703982353210449e-02 7.010926306247711182e-02 -4.858119878917932510e-03
-5.829643458127975464e-02 6.608455628156661987e-02 2.292090095579624176e-03
-5.428623780608177185e-02 6.843028962612152100e-02 7.676804671064019203e-06
-1.335151344537734985e-01 5.646543577313423157e-03 -7.756458222866058350e-02
-1.299224644899368286e-01 1.089502964168787003e-02 -7.964181900024414062e-02
-1.245509311556816101e-01 6.310833618044853210e-03 -7.708644866943359375e-02
-1.210401952266693115e-01 1.135492138564586639e-02 -7.908310741186141968e-02
8.470287919044494629e-02 5.939929932355880737e-02 -1.909117959439754486e-02
8.225475996732711792e-02 6.568275392055511475e-02 -1.971264369785785675e-02
9.412772953510284424e-02 5.755776911973953247e-02 -1.586643792688846588e-02
9.028034657239913940e-02 6.310744583606719971e-02 -1.595671474933624268e-02
-2.886623144149780273e-01 6.497710198163986206e-02 -2.231062203645706177e-02
-2.913727462291717529e-01 6.770887970924377441e-02 -1.880935952067375183e-02
-2.841858565807342529e-01 6.550700217485427856e-02 -2.000917494297027588e-02
-2.872138619422912598e-01 6.815255433320999146e-02 -1.628625206649303436e-02
4.465034902095794678e-01 5.931881070137023926e-02 -1.691885478794574738e-02
4.382035136222839355e-01 6.041869148612022400e-02 -1.082180626690387726e-02
4.511457681655883789e-01 6.035905331373214722e-02 -1.134557370096445084e-02
4.432794451713562012e-01 6.120906397700309753e-02 -5.406030453741550446e-03
-4.316986799240112305e-01 8.609564974904060364e-03 -2.583916299045085907e-02
-4.282815754413604736e-01 1.186233479529619217e-02 -2.895810827612876892e-02
-4.262929558753967285e-01 8.087865076959133148e-03 -2.377035841345787048e-02
-4.225042462348937988e-01 1.142022013664245605e-02 -2.669573388993740082e-02
-4.663802981376647949e-01 6.151800602674484253e-02 -2.120692655444145203e-02
-4.666740894317626953e-01 6.653449684381484985e-02 -2.156459912657737732e-02
-4.587079584598541260e-01 6.177642196416854858e-02 -2.100246027112007141e-02
-4.588050246238708496e-01 6.637537479400634766e-02 -2.145071513950824738e-02
-1.263280510902404785e-01 -8.384902030229568481e-03 5.281187221407890320e-02
-1.282407492399215698e-01 -5.425129085779190063e-03 5.732093378901481628e-02
-1.201592832803726196e-01 -6.785352714359760284e-03 5.341969057917594910e-02
-1.220933422446250916e-01 -3.905934281647205353e-03 5.794431269168853760e-02
2.610875666141510010e-01 5.855330452322959900e-02 9.846466593444347382e-03
2.520976662635803223e-01 5.922009795904159546e-02 1.559685077518224716e-02
2.671427726745605469e-01 5.930141732096672058e-02 1.569029316306114197e-02
2.581789195537567139e-01 5.931558459997177124e-02 2.124842442572116852e-02
-2.044017426669597626e-02 5.471609160304069519e-02 -3.993059694766998291e-02
-2.086955681443214417e-02 5.714892968535423279e-02 -4.042859002947807312e-02
-1.742701791226863861e-02 5.424943938851356506e-02 -3.513624519109725952e-02
-1.538940519094467163e-02 5.685945600271224976e-02 -3.873569145798683167e-02
1.111327111721038818e-01 -8.553989231586456299e-03 -2.834954857826232910e-02
1.090485081076622009e-01 -6.424679886549711227e-03 -2.557208575308322906e-02
1.158515289425849915e-01 -6.131390109658241272e-03 -2.528708241879940033e-02
1.134462803602218628e-01 -4.250344354659318924e-03 -2.224752306938171387e-02
-2.424777671694755554e-02 5.310425162315368652e-02 3.849423304200172424e-02
-2.532116137444972992e-02 5.850700289011001587e-02 3.786813467741012573e-02
-1.728816516697406769e-02 5.379361659288406372e-02 3.809598460793495178e-02
-1.857510581612586975e-02 5.906701833009719849e-02 3.801777958869934082e-02
-3.025052249431610107e-01 -5.864010378718376160e-02 -6.072180345654487610e-03
-3.058023750782012939e-01 -5.707793682813644409e-02 2.912129275500774384e-04
-2.947628498077392578e-01 -5.642326176166534424e-02 -3.160867607221007347e-03
-2.981038093566894531e-01 -5.494654923677444458e-02 3.359274938702583313e-03
-1.705904453992843628e-01 -1.224410254508256912e-02 1.420422550290822983e-02
-1.685577183961868286e-01 -9.257243946194648743e-03 1.059523504227399826e-02
-1.655587702989578247e-01 -1.646482944488525391e-02 1.758122444152832031e-02
-1.644454747438430786e-01 -1.265852805227041245e-02 1.383090671151876450e-02
9.515579938888549805e-01 -7.085232064127922058e-03 3.125371038913726807e-02
9.552554488182067871e-01 1.410104334354400635e-03 3.213327378034591675e-02
9.482070207595825195e-01 -1.694553997367620468e-03 3.953659906983375549e-02
9.513326883316040039e-01 6.439069751650094986e-03 4.033434391021728516e-02
-1.706903427839279175e-01 4.957549273967742920e-02 8.352347649633884430e-03
-1.704145073890686035e-01 5.153626576066017151e-02 1.019244547933340073e-02
-1.647924631834030151e-01 4.925400391221046448e-02 1.337048411369323730e-02
-1.634712368249893188e-01 5.159791931509971619e-02 1.356064993888139725e-02
5.743403434753417969e-01 -2.751402929425239563e-02 2.542142989113926888e-03
5.720708370208740234e-01 -2.685689926147460938e-02 9.534858167171478271e-03
5.801348686218261719e-01 -2.447748556733131409e-02 6.330166943371295929e-03
5.777222514152526855e-01 -2.396268025040626526e-02 1.357392687350511551e-02
-4.212363660335540771e-01 6.501957774162292480e-02 1.094776764512062073e-02
-4.147850573062896729e-01 6.648099422454833984e-02 8.021527901291847229e-03
-4.147095084190368652e-01 6.543383002281188965e-02 1.451722811907529831e-02
-4.089883267879486084e-01 6.705693155527114868e-02 1.114870235323905945e-02
3.421498239040374756e-01 6.391506176441907883e-03 -4.445131495594978333e-02
3.450347781181335449e-01 1.317285746335983276e-02 -4.587414488196372986e-02
3.514338135719299316e-01 7.356135174632072449e-03 -4.376127570867538452e-02
3.545373380184173584e-01 1.420385204255580902e-02 -4.483874887228012085e-02
-4.827674925327301025e-01 3.039258532226085663e-02 -3.488877043128013611e-02
-4.832784831523895264e-01 3.515857085585594177e-02 -3.529812768101692200e-02
-4.775936305522918701e-01 2.917481586337089539e-02 -3.305811434984207153e-02
-4.781838059425354004e-01 3.415136784315109253e-02 -3.319752588868141174e-02
-1.208096668124198914e-01 2.942286804318428040e-02 4.005983099341392517e-02
-1.216973215341567993e-01 3.503200784325599670e-02 4.079598560929298401e-02
-1.143112480640411377e-01 3.165190294384956360e-02 3.898832574486732483e-02
-1.153849735856056213e-01 3.697818890213966370e-02 3.964077681303024292e-02
-4.007168859243392944e-02 -1.292018312960863113e-02 -4.536285623908042908e-02
-4.123628512024879456e-02 -1.081524509936571121e-02 -4.162266477942466736e-02
-3.661531582474708557e-02 -1.204393617808818817e-02 -4.330467805266380310e-02
-3.730486705899238586e-02 -1.001641340553760529e-02 -3.927772492170333862e-02
-2.569900155067443848e-01 4.030673950910568237e-02 -7.787290960550308228e-02
-2.563822269439697266e-01 4.849668964743614197e-02 -7.660349458456039429e-02
-2.473311424255371094e-01 4.210108518600463867e-02 -7.643334567546844482e-02
-2.484209835529327393e-01 5.060398951172828674e-02 -7.404235750436782837e-02
-1.368538383394479752e-02 2.393630892038345337e-02 4.259827733039855957e-02
-1.284070219844579697e-02 3.282953053712844849e-02 4.384458065032958984e-02
-6.886805873364210129e-03 2.625043690204620361e-02 4.357888177037239075e-02
-6.307835690677165985e-03 3.537000715732574463e-02 4.403121396899223328e-02
2.012532576918601990e-02 -3.465223684906959534e-02 -3.000992909073829651e-02
2.453065663576126099e-02 -3.271248191595077515e-02 -3.281246125698089600e-02
2.815221808850765228e-02 -3.591860830783843994e-02 -2.650072984397411346e-02
3.165853396058082581e-02 -3.414856269955635071e-02 -2.909483760595321655e-02
-1.835733354091644287e-01 6.118706241250038147e-02 -1.677322387695312500e-02
-1.893011927604675293e-01 6.421074271202087402e-02 -1.275936514139175415e-02
-1.777903735637664795e-01 6.358318030834197998e-02 -1.415807195007801056e-02
-1.832224428653717041e-01 6.547243148088455200e-02 -9.523257613182067871e-03
-1.764217019081115723e-02 -8.442077785730361938e-03 -3.916450217366218567e-02
-1.999051868915557861e-02 -6.942826788872480392e-03 -3.436563536524772644e-02
-1.405825838446617126e-02 -7.383301854133605957e-03 -3.541595861315727234e-02
-1.731885038316249847e-02 -5.992339458316564560e-03 -3.090497851371765137e-02
-2.669037282466888428e-01 -1.652759313583374023e-02 -2.806222625076770782e-02
-2.695399522781372070e-01 -1.116019953042268753e-02 -2.481332235038280487e-02
-2.619798481464385986e-01 -1.288024522364139557e-02 -2.623519301414489746e-02
-2.642634510993957520e-01 -7.394436281174421310e-03 -2.254409715533256531e-02
6.385087966918945312e-01 -2.629700861871242523e-02 7.268911227583885193e-03
6.331826448440551758e-01 -2.322770096361637115e-02 1.565792411565780640e-02
6.476018428802490234e-01 -2.559433318674564362e-02 1.042668893933296204e-02
6.421346068382263184e-01 -2.220362611114978790e-02 1.888826861977577209e-02
-2.360253781080245972e-01 2.322443947196006775e-02 -8.301558345556259155e-02
-2.357290387153625488e-01 3.181001543998718262e-02 -8.140809834003448486e-02
-2.261629998683929443e-01 2.615349926054477692e-02 -8.009260147809982300e-02
-2.268318384885787964e-01 3.483957797288894653e-02 -7.812558859586715698e-02
-3.540136292576789856e-02 9.431058913469314575e-02 2.431390807032585144e-02
-3.068758174777030945e-02 9.844136238098144531e-02 1.670524664223194122e-02
-3.013050369918346405e-02 9.282898902893066406e-02 2.762193232774734497e-02
-2.592554688453674316e-02 9.686699509620666504e-02 2.076753973960876465e-02
2.087204903364181519e-02 -8.118852972984313965e-03 2.168517000973224640e-02
1.965034939348697662e-02 -2.806389704346656799e-03 2.281344681978225708e-02
2.679799124598503113e-02 -6.263910327106714249e-03 2.323052659630775452e-02
2.558119036257266998e-02 -5.973977968096733093e-04 2.393601648509502411e-02
8.351228237152099609e-01 -5.105205625295639038e-02 -1.317191496491432190e-02
8.250755667686462402e-01 -5.118460953235626221e-02 -4.494345746934413910e-03
8.422713279724121094e-01 -5.201261118054389954e-02 -8.419968187808990479e-03
8.333392739295959473e-01 -5.153191834688186646e-02 5.703696515411138535e-04
-1.415781527757644653e-01 2.302815020084381104e-02 -3.998525068163871765e-02
-1.446386277675628662e-01 2.983424626290798187e-02 -3.894332796335220337e-02
-1.351658552885055542e-01 2.497174404561519623e-02 -4.042808711528778076e-02
-1.378306001424789429e-01 3.161596879363059998e-02 -3.929928690195083618e-02
4.759083986282348633e-01 -5.578336771577596664e-03 3.414320200681686401e-02
4.768471717834472656e-01 1.054569147527217865e-03 3.731645271182060242e-02
4.836139976978302002e-01 -2.504368079826235771e-03 3.475932776927947998e-02
4.843474924564361572e-01 4.167844541370868683e-03 3.783480077981948853e-02
3.588400408625602722e-02 -1.603805273771286011e-02 2.700127102434635162e-02
3.451606631278991699e-02 -1.003515813499689102e-02 2.743029594421386719e-02
4.156169667840003967e-02 -1.273548044264316559e-02 2.748020924627780914e-02
3.929300606250762939e-02 -6.577929481863975525e-03 2.783069759607315063e-02
7.907541990280151367e-01 5.751438811421394348e-02 -5.058195069432258606e-02
7.889010906219482422e-01 6.149862706661224365e-02 -4.434439539909362793e-02
7.974542379379272461e-01 6.175243854522705078e-02 -4.664045944809913635e-02
7.954389452934265137e-01 6.518261134624481201e-02 -4.018735140562057495e-02
9.253167361021041870e-02 -2.547043561935424805e-02 -3.694312646985054016e-02
8.654283732175827026e-02 -2.271051332354545593e-02 -3.421245142817497253e-02
9.689125418663024902e-02 -2.657853439450263977e-02 -3.524158895015716553e-02
9.094510227441787720e-02 -2.384270355105400085e-02 -3.221580386161804199e-02
2.646349370479583740e-01 -1.452684495598077774e-02 -3.251609206199645996e-02
2.711139917373657227e-01 -1.013126596808433533e-02 -3.731419891119003296e-02
2.743137478828430176e-01 -1.457963231950998306e-02 -3.109116107225418091e-02
2.808009386062622070e-01 -1.087764464318752289e-02 -3.552799671888351440e-02
-2.453003078699111938e-01 9.795626997947692871e-02 1.986728608608245850e-02
-2.445900887250900269e-01 1.005528196692466736e-01 1.635262928903102875e-02
-2.383046746253967285e-01 9.618354588747024536e-02 2.332351729273796082e-02
-2.372876256704330444e-01 9.842586517333984375e-02 1.969432644546031952e-02
-1.037292033433914185e-01 -7.764437701553106308e-03 3.018316254019737244e-02
-1.020296663045883179e-01 -3.569198772311210632e-03 2.952720224857330322e-02
-9.855281561613082886e-02 -7.089908700436353683e-03 3.068421222269535065e-02
-9.711638092994689941e-02 -2.638245932757854462e-03 3.002592921257019043e-02
5.268989801406860352e-01 -2.877902612090110779e-02 -6.197163369506597519e-03
5.253006219863891602e-01 -2.895910479128360748e-02 -3.536501433700323105e-03
5.317353010177612305e-01 -2.878704294562339783e-02 -3.416534047573804855e-03
5.295013785362243652e-01 -2.870885469019412994e-02 1.381047302857041359e-03
-3.413378894329071045e-01 -3.852441534399986267e-02 -2.591809071600437164e-02
-3.391550481319427490e-01 -3.234268352389335632e-02 -2.874519862234592438e-02
-3.344227969646453857e-01 -3.900794312357902527e-02 -2.510151639580726624e-02
-3.320628702640533447e-01 -3.250078484416007996e-02 -2.811990305781364441e-02
-2.741448879241943359e-01 -3.362920507788658142e-02 2.677168697118759155e-02
-2.760098576545715332e-01 -2.807700634002685547e-02 3.047234192490577698e-02
-2.687588334083557129e-01 -3.356196358799934387e-02 2.740751393139362335e-02
-2.693664133548736572e-01 -2.772573195397853851e-02 3.094830550253391266e-02
-1.385602653026580811e-01 -1.814151182770729065e-02 -1.346922479569911957e-02
-1.356887668371200562e-01 -1.600774563848972321e-02 -1.551005616784095764e-02
-1.329145431518554688e-01 -2.038269117474555969e-02 -7.253575604408979416e-03
-1.289214491844177246e-01 -1.775998063385486603e-02 -1.055681984871625900e-02
-4.239023625850677490e-01 5.792588368058204651e-02 2.749455347657203674e-02
-4.195905029773712158e-01 6.076756492257118225e-02 2.353532053530216217e-02
-4.184788763523101807e-01 5.525375902652740479e-02 3.105802461504936218e-02
-4.143142700195312500e-01 5.834216251969337463e-02 2.711234986782073975e-02
-9.075469523668289185e-02 -1.408835686743259430e-02 -2.781196497380733490e-02
-9.474097192287445068e-02 -1.062360033392906189e-02 -2.433124929666519165e-02
-8.653671294450759888e-02 -1.435787416994571686e-02 -2.575537376105785370e-02
-9.023331105709075928e-02 -1.102171279489994049e-02 -2.234492823481559753e-02
-2.253195196390151978e-01 3.366171196103096008e-02 -3.744709119200706482e-02
-2.270061075687408447e-01 4.050978645682334900e-02 -3.553123027086257935e-02
-2.169846743345260620e-01 3.448679298162460327e-02 -3.662238642573356628e-02
-2.190237194299697876e-01 4.122657701373100281e-02 -3.486241400241851807e-02
-4.154236018657684326e-01 3.492412716150283813e-02 -4.268865659832954407e-02
-4.147820174694061279e-01 4.087299853563308716e-02 -4.177501797676086426e-02
-4.079172909259796143e-01 3.548030182719230652e-02 -4.294142872095108032e-02
-4.076001048088073730e-01 4.019395634531974792e-02 -4.109371453523635864e-02
-3.847267944365739822e-04 7.908905856311321259e-03 2.080769091844558716e-02
-2.612889977172017097e-03 1.378584466874599457e-02 2.156871184706687927e-02
6.412526592612266541e-03 7.812406402081251144e-03 2.264202013611793518e-02
3.844248130917549133e-03 1.370651461184024811e-02 2.356809005141258240e-02
-3.451098799705505371e-01 -5.605073273181915283e-02 -5.440442822873592377e-03
-3.419445753097534180e-01 -5.098338797688484192e-02 -1.193584688007831573e-02
-3.358325362205505371e-01 -5.672544986009597778e-02 -3.839637618511915207e-03
-3.322784006595611572e-01 -5.242176353931427002e-02 -9.640146046876907349e-03
-2.462069839239120483e-01 5.351490899920463562e-02 5.053370073437690735e-02
-2.455722391605377197e-01 5.801624804735183716e-02 4.690533876419067383e-02
-2.365206778049468994e-01 5.237221717834472656e-02 4.881133884191513062e-02
-2.353329360485076904e-01 5.715655907988548279e-02 4.585697129368782043e-02
4.068379402160644531e-01 -2.803994528949260712e-02 -1.471900939941406250e-02
4.039868712425231934e-01 -2.930335886776447296e-02 -6.601438391953706741e-03
4.161845445632934570e-01 -2.651440165936946869e-02 -1.157359592616558075e-02
4.121523201465606689e-01 -2.717010490596294403e-02 -2.446621656417846680e-03
-2.617967128753662109e-01 -1.193355768918991089e-02 -3.603549674153327942e-02
-2.640137672424316406e-01 -6.482799537479877472e-03 -3.241105377674102783e-02
-2.573917806148529053e-01 -7.945504039525985718e-03 -3.427862003445625305e-02
-2.596846818923950195e-01 -2.593984128907322884e-03 -3.044100850820541382e-02
-3.172672688961029053e-01 6.314578652381896973e-02 -1.560899056494235992e-02
-3.226297795772552490e-01 6.449476629495620728e-02 -9.361680597066879272e-03
-3.104136884212493896e-01 6.408194452524185181e-02 -1.114269904792308807e-02
-3.164561390876770020e-01 6.532455235719680786e-02 -4.910244606435298920e-03
1.345771551132202148e-01 -3.491033613681793213e-02 -3.173362091183662415e-02
1.351065039634704590e-01 -2.959959395229816437e-02 -3.224238380789756775e-02
1.410226523876190186e-01 -3.662659972906112671e-02 -2.923724986612796783e-02
1.431976854801177979e-01 -3.178628534078598022e-02 -3.102147765457630157e-02
8.105181455612182617e-01 6.815116107463836670e-02 -2.935502305626869202e-02
8.085727095603942871e-01 6.975536048412322998e-02 -2.372525446116924286e-02
8.169926404953002930e-01 7.092706859111785889e-02 -2.446376904845237732e-02
8.145090937614440918e-01 7.271543145179748535e-02 -1.882536523044109344e-02
-4.054466784000396729e-01 1.006880700588226318e-01 -1.264983043074607849e-02
-4.091015756130218506e-01 1.061002612113952637e-01 -9.227084927260875702e-03
-3.984412550926208496e-01 1.021270826458930969e-01 -1.224244106560945511e-02
-4.020172953605651855e-01 1.075159758329391479e-01 -8.772859349846839905e-03
2.994397096335887909e-02 4.560634493827819824e-02 3.279732912778854370e-02
2.835509739816188812e-02 5.038077011704444885e-02 3.331128880381584167e-02
3.508381918072700500e-02 4.492719098925590515e-02 3.295010328292846680e-02
3.554011881351470947e-02 5.020785331726074219e-02 3.222875669598579407e-02
-8.168265223503112793e-02 1.869843527674674988e-02 -8.462180942296981812e-02
-8.300392329692840576e-02 2.571133896708488464e-02 -8.114738762378692627e-02
-7.525131106376647949e-02 2.083609811961650848e-02 -8.488276600837707520e-02
-7.644324004650115967e-02 2.769517526030540466e-02 -8.144336193799972534e-02
1.966611444950103760e-01 -1.966133713722229004e-02 1.105393934994935989e-02
1.907123923301696777e-01 -1.786130107939243317e-02 1.779728755354881287e-02
1.990696340799331665e-01 -1.896541751921176910e-02 1.605644822120666504e-02
1.940273791551589966e-01 -1.753471419215202332e-02 2.215093187987804413e-02
9.678603410720825195e-01 -1.943495310842990875e-02 -1.357436412945389748e-03
9.719893932342529297e-01 -1.152979955077171326e-02 -4.698637872934341431e-03
9.698026776313781738e-01 -1.760980486869812012e-02 6.000618916004896164e-03
9.739459156990051270e-01 -1.000210549682378769e-02 3.118059597909450531e-03
-4.166500270366668701e-01 1.882314309477806091e-02 -2.135535702109336853e-02
-4.169031381607055664e-01 2.600943297147750854e-02 -2.164815738797187805e-02
-4.107549190521240234e-01 2.010119333863258362e-02 -2.136822231113910675e-02
-4.111362099647521973e-01 2.721298299729824066e-02 -2.162771113216876984e-02
-2.222266048192977905e-01 1.123721711337566376e-02 -2.712341211736202240e-02
-2.228760272264480591e-01 1.688815280795097351e-02 -2.870835736393928528e-02
-2.157015949487686157e-01 1.121152285486459732e-02 -2.791305631399154663e-02
-2.156963944435119629e-01 1.692986488342285156e-02 -2.981262281537055969e-02
7.956006526947021484e-01 4.250472038984298706e-02 5.066694319248199463e-02
7.973672747611999512e-01 4.762562364339828491e-02 4.728451743721961975e-02
8.050031065940856934e-01 4.187646880745887756e-02 5.198869109153747559e-02
8.069007396697998047e-01 4.717792198061943054e-02 4.859406873583793640e-02
5.107785016298294067e-02 1.567613519728183746e-02 8.175005018711090088e-02
5.169921368360519409e-02 2.202946320176124573e-02 8.077155798673629761e-02
5.986518412828445435e-02 1.632612198591232300e-02 8.154302090406417847e-02
6.080102548003196716e-02 2.288745716214179993e-02 8.027716726064682007e-02
7.722675800323486328e-01 5.500367656350135803e-02 -3.507262468338012695e-02
7.699877023696899414e-01 5.773268267512321472e-02 -2.980836294591426849e-02
7.760454416275024414e-01 5.776608735322952271e-02 -3.099034540355205536e-02
7.756135463714599609e-01 6.061874702572822571e-02 -2.746667899191379547e-02
1.904909871518611908e-02 9.542871266603469849e-02 2.006841078400611877e-02
2.628972940146923065e-02 9.779293835163116455e-02 1.551181916147470474e-02
2.764291688799858093e-02 9.350576996803283691e-02 2.522797882556915283e-02
3.373454511165618896e-02 9.610170125961303711e-02 2.039528638124465942e-02
-5.689939949661493301e-03 -1.078547630459070206e-02 -3.252184763550758362e-02
-9.717765264213085175e-03 -9.306482970714569092e-03 -2.831656858325004578e-02
-3.082419279962778091e-03 -1.090083271265029907e-02 -2.841270342469215393e-02
-7.111942395567893982e-03 -9.602068923413753510e-03 -2.451496012508869171e-02
-1.568064987659454346e-01 -5.656851828098297119e-02 -1.207266934216022491e-02
-1.592793017625808716e-01 -5.519957095384597778e-02 -7.347917184233665466e-03
-1.472789794206619263e-01 -5.759371444582939148e-02 -8.677598088979721069e-03
-1.498677134513854980e-01 -5.714971572160720825e-02 -2.108284970745444298e-03
-1.602621525526046753e-01 -1.579141826368868351e-03 -1.937399990856647491e-02
-1.652880162000656128e-01 3.371623810380697250e-03 -1.797632686793804169e-02
-1.537094265222549438e-01 6.854833336547017097e-04 -1.975119113922119141e-02
-1.597220897674560547e-01 5.484827328473329544e-03 -1.793197728693485260e-02
7.312564849853515625e-01 -1.831181347370147705e-02 2.678481861948966980e-02
7.292968630790710449e-01 -1.161635480821132660e-02 3.102112561464309692e-02
7.399160861968994141e-01 -2.028500288724899292e-02 2.661979198455810547e-02
7.372843623161315918e-01 -1.297383010387420654e-02 2.991581149399280548e-02
6.709410250186920166e-02 2.623793482780456543e-02 7.865767180919647217e-02
6.853374093770980835e-02 3.311939910054206848e-02 7.675842195749282837e-02
7.491363584995269775e-02 2.825274690985679626e-02 7.862686365842819214e-02
7.653891295194625854e-02 3.510168194770812988e-02 7.658539712429046631e-02
7.139550447463989258e-01 -2.540843188762664795e-02 1.006302889436483383e-02
7.114440202713012695e-01 -2.125061303377151489e-02 1.734011992812156677e-02
7.220010757446289062e-01 -2.443518489599227905e-02 1.034452300518751144e-02
7.208082079887390137e-01 -2.089263312518596649e-02 1.648786664009094238e-02
-2.949047684669494629e-01 -7.063450291752815247e-03 4.887413233518600464e-02
-2.986120581626892090e-01 -3.759334562346339226e-03 5.369909480214118958e-02
-2.902214825153350830e-01 -1.218181569129228592e-03 5.010547116398811340e-02
-2.940110862255096436e-01 2.060596831142902374e-03 5.484754592180252075e-02
4.561474919319152832e-02 3.921992704272270203e-02 2.524976804852485657e-02
4.591996222734451294e-02 4.460467398166656494e-02 2.489524334669113159e-02
5.088731274008750916e-02 3.941403701901435852e-02 2.484004758298397064e-02
5.075043067336082458e-02 4.476385936141014099e-02 2.481423132121562958e-02
-3.788750767707824707e-01 -1.008729077875614166e-02 -3.609810024499893188e-02
-3.802275955677032471e-01 -7.836381904780864716e-03 -3.315500915050506592e-02
-3.757159113883972168e-01 -7.802504114806652069e-03 -3.531660884618759155e-02
-3.769425153732299805e-01 -5.489649251103401184e-03 -3.233319520950317383e-02
8.289442658424377441e-01 2.998678013682365417e-02 5.617976188659667969e-02
8.309589028358459473e-01 3.559003770351409912e-02 5.389364436268806458e-02
8.377298712730407715e-01 2.922832593321800232e-02 5.685634911060333252e-02
8.397248387336730957e-01 3.502658754587173462e-02 5.474397540092468262e-02
-8.760926872491836548e-02 1.725928857922554016e-02 -8.434955775737762451e-02
-8.855560421943664551e-02 2.407302521169185638e-02 -8.165883272886276245e-02
-8.103174716234207153e-02 1.871623843908309937e-02 -8.456752449274063110e-02
-8.235301822423934937e-02 2.572914212942123413e-02 -8.109310269355773926e-02
2.118060439825057983e-01 1.801485009491443634e-02 4.390002414584159851e-02
2.137226462364196777e-01 2.600013837218284607e-02 4.065747931599617004e-02
2.213040739297866821e-01 1.937665417790412903e-02 4.518299177289009094e-02
2.238755077123641968e-01 2.696728147566318512e-02 4.259957000613212585e-02
-8.470989018678665161e-02 -7.404899224638938904e-04 2.528217807412147522e-02
-8.456359803676605225e-02 4.119226709008216858e-03 2.486111596226692200e-02
-8.144997060298919678e-02 -1.448843046091496944e-03 2.708671055734157562e-02
-8.144968748092651367e-02 3.215484786778688431e-03 2.633841335773468018e-02
-4.801838845014572144e-02 -1.060091424733400345e-02 -3.931987658143043518e-02
-5.035599321126937866e-02 -8.422789163887500763e-03 -3.521954268217086792e-02
-4.375648871064186096e-02 -1.063275616616010666e-02 -3.669525310397148132e-02
-4.535673931241035461e-02 -8.601368404924869537e-03 -3.234215825796127319e-02
-5.424458384513854980e-01 -2.717181667685508728e-02 -2.837659977376461029e-02
-5.445423126220703125e-01 -2.048334293067455292e-02 -2.285262569785118103e-02
-5.350067615509033203e-01 -2.521293610334396362e-02 -2.382614091038703918e-02
-5.371495485305786133e-01 -1.847221143543720245e-02 -1.828191615641117096e-02
9.074458479881286621e-02 -3.269797191023826599e-03 1.385950297117233276e-02
9.012666344642639160e-02 -1.638284884393215179e-04 1.294012181460857391e-02
9.504161775112152100e-02 -3.037567483261227608e-03 1.600628159940242767e-02
9.591184556484222412e-02 8.539089467376470566e-04 1.320760231465101242e-02
-2.051561623811721802e-01 -7.677199784666299820e-03 4.609960690140724182e-02
-2.084876000881195068e-01 -5.831895861774682999e-03 4.958505928516387939e-02
-2.013680785894393921e-01 -6.339822895824909210e-03 4.830270633101463318e-02
-2.047562599182128906e-01 -4.216902423650026321e-03 5.135959386825561523e-02
-3.218919038772583008e-01 5.277223140001296997e-02 2.154631912708282471e-02
-3.294959068298339844e-01 5.609238892793655396e-02 2.440003864467144012e-02
-3.175742626190185547e-01 5.018350854516029358e-02 2.304505743086338043e-02
-3.241998851299285889e-01 5.344410240650177002e-02 2.568890340626239777e-02
9.163682460784912109e-01 -4.134315624833106995e-02 -3.672120720148086548e-02
9.208779931068420410e-01 -3.772651404142379761e-02 -4.048132151365280151e-02
9.220971465110778809e-01 -4.105393588542938232e-02 -3.292858973145484924e-02
9.271482229232788086e-01 -3.693466633558273315e-02 -3.535452112555503845e-02
-5.783488601446151733e-02 2.480700798332691193e-02 2.060977555811405182e-02
-5.894584953784942627e-02 2.985550463199615479e-02 2.093939296901226044e-02
-4.965592920780181885e-02 2.220183983445167542e-02 2.161262743175029755e-02
-5.178241804242134094e-02 2.731460705399513245e-02 2.278485335409641266e-02
-6.481681019067764282e-02 8.367722481489181519e-02 2.628587931394577026e-02
-6.181886792182922363e-02 8.559843897819519043e-02 2.180243283510208130e-02
-5.554088205099105835e-02 7.946377247571945190e-02 3.087366186082363129e-02
-5.231006443500518799e-02 8.164716511964797974e-02 2.586256526410579681e-02
-4.168730378150939941e-01 2.704881876707077026e-02 1.162441447377204895e-01
-4.234601259231567383e-01 2.693834342062473297e-02 1.227175220847129822e-01
-4.115385711193084717e-01 2.867398783564567566e-02 1.217095926403999329e-01
-4.181511402130126953e-01 2.854498848319053650e-02 1.281025111675262451e-01
7.234283685684204102e-01 -8.866496384143829346e-03 -3.745474666357040405e-02
7.264475226402282715e-01 -3.536443691700696945e-03 -4.312253743410110474e-02
7.324832677841186523e-01 -9.573946706950664520e-03 -3.649163618683815002e-02
7.360008358955383301e-01 -4.723263438791036606e-03 -4.223593324422836304e-02
-2.087489962577819824e-01 4.817344993352890015e-02 -1.350429467856884003e-02
-2.123637646436691284e-01 5.253840982913970947e-02 -1.042157690972089767e-02
-2.030779272317886353e-01 5.107344686985015869e-02 -1.062338426709175110e-02
-2.083865255117416382e-01 5.367488786578178406e-02 -6.320354528725147247e-03
6.270444989204406738e-01 -2.224941737949848175e-02 1.572132483124732971e-02
6.218146085739135742e-01 -1.914190873503684998e-02 2.426832541823387146e-02
6.353682279586791992e-01 -2.165854163467884064e-02 1.943626254796981812e-02
6.296469569206237793e-01 -1.805004850029945374e-02 2.781980484724044800e-02
1.109164208173751831e-01 7.662850618362426758e-02 -3.159834071993827820e-02
1.065118536353111267e-01 8.267213404178619385e-02 -2.602038532495498657e-02
1.195890307426452637e-01 7.826316356658935547e-02 -2.996647171676158905e-02
1.156620532274246216e-01 8.446860313415527344e-02 -2.400481328368186951e-02
-5.374484509229660034e-02 5.173522233963012695e-02 -5.535144358873367310e-02
-5.833392217755317688e-02 5.587011575698852539e-02 -5.151018500328063965e-02
-4.785832762718200684e-02 5.205867812037467957e-02 -5.408996343612670898e-02
-5.256533250212669373e-02 5.612083896994590759e-02 -4.973591864109039307e-02
-9.744572639465332031e-02 -3.943671938031911850e-03 2.516166679561138153e-02
-9.624782204627990723e-02 7.284199818968772888e-04 2.437075413763523102e-02
-9.240399301052093506e-02 -3.513791598379611969e-03 2.599529549479484558e-02
-9.141370654106140137e-02 1.092991442419588566e-03 2.553902752697467804e-02
6.373426914215087891e-01 3.754540812224149704e-03 -4.422605410218238831e-02
6.401522755622863770e-01 1.113491319119930267e-02 -4.527480155229568481e-02
6.472038626670837402e-01 4.815723747014999390e-03 -4.374219849705696106e-02
6.504856348037719727e-01 1.239529810845851898e-02 -4.489183053374290466e-02
-1.572461724281311035e-01 5.069269984960556030e-02 2.770782075822353363e-02
-1.512668579816818237e-01 5.363106727600097656e-02 2.462453953921794891e-02
-1.522782593965530396e-01 5.070166289806365967e-02 3.141156956553459167e-02
-1.462391316890716553e-01 5.357484892010688782e-02 2.864276804029941559e-02
-2.934138774871826172e-01 -6.367431487888097763e-03 -5.023580417037010193e-02
-2.903573513031005859e-01 -2.611636649817228317e-03 -5.214237794280052185e-02
-2.850925922393798828e-01 -7.115059532225131989e-03 -4.999474436044692993e-02
-2.834739387035369873e-01 -2.838987158611416817e-03 -5.125712603330612183e-02
-3.754480779170989990e-01 6.222197040915489197e-02 -1.644634455442428589e-02
-3.821266889572143555e-01 6.439981609582901001e-02 -1.304645556956529617e-02
-3.698697090148925781e-01 6.269144266843795776e-02 -1.390886120498180389e-02
-3.776375055313110352e-01 6.458547711372375488e-02 -1.052645407617092133e-02
-4.397436678409576416e-01 3.430525958538055420e-02 -2.345135807991027832e-02
-4.396091401576995850e-01 3.985043242573738098e-02 -2.412679046392440796e-02
-4.344085156917572021e-01 3.451244533061981201e-02 -2.329610474407672882e-02
-4.342870116233825684e-01 4.029083997011184692e-02 -2.372728101909160614e-02
1.191341802477836609e-01 1.839960366487503052e-02 1.968647725880146027e-02
1.181886345148086548e-01 2.601659670472145081e-02 2.111740782856941223e-02
1.249323934316635132e-01 1.947865262627601624e-02 2.227459289133548737e-02
1.237868517637252808e-01 2.666980773210525513e-02 2.424110099673271179e-02
1.782711595296859741e-01 -1.745645329356193542e-02 1.536402199417352676e-02
1.730510145425796509e-01 -1.547158136963844299e-02 2.140376530587673187e-02
1.811946034431457520e-01 -1.739457994699478149e-02 1.978478208184242249e-02
1.759874373674392700e-01 -1.538608968257904053e-02 2.575765922665596008e-02
1.405992358922958374e-01 4.025148972868919373e-02 -7.816844433546066284e-02
1.367152482271194458e-01 4.598977044224739075e-02 -7.392492890357971191e-02
1.476986706256866455e-01 4.189842194318771362e-02 -7.441603392362594604e-02
1.437510699033737183e-01 4.765921458601951599e-02 -7.014719396829605103e-02
-1.187060102820396423e-01 5.562861636281013489e-02 -3.503664210438728333e-02
-1.201994866132736206e-01 6.031331792473793030e-02 -3.191749751567840576e-02
-1.132250949740409851e-01 5.727003514766693115e-02 -3.355298563838005066e-02
-1.150883063673973083e-01 6.168633699417114258e-02 -3.026237152516841888e-02
9.786657243967056274e-02 -1.680844114162027836e-03 1.680441014468669891e-02
9.917413443326950073e-02 1.571221742779016495e-03 1.376277301460504532e-02
1.026461794972419739e-01 -2.631605602800846100e-03 1.888819038867950439e-02
1.041163355112075806e-01 9.598382748663425446e-04 1.543825585395097733e-02
-3.184918463230133057e-01 -1.214187406003475189e-02 1.606285758316516876e-02
-3.221429288387298584e-01 -9.474354796111583710e-03 2.076374739408493042e-02
-3.138220608234405518e-01 -1.150511484593153000e-02 1.807267405092716217e-02
-3.176369369029998779e-01 -8.852046914398670197e-03 2.263106964528560638e-02
-3.679529950022697449e-02 4.488716647028923035e-02 -1.312357466667890549e-02
-4.414027556777000427e-02 4.639365151524543762e-02 -8.203299716114997864e-03
-3.037415817379951477e-02 4.364164918661117554e-02 -9.092664346098899841e-03
-3.643561527132987976e-02 4.393244534730911255e-02 -3.791883122175931931e-03
1.564728841185569763e-02 -5.778775364160537720e-02 4.919432103633880615e-03
1.361392810940742493e-02 -5.636941269040107727e-02 1.201700232923030853e-02
2.223319001495838165e-02 -5.673558264970779419e-02 8.886123076081275940e-03
2.067504823207855225e-02 -5.485522374510765076e-02 1.565466821193695068e-02
-4.859866499900817871e-01 2.185387723147869110e-02 7.330650091171264648e-02
-4.879389107227325439e-01 2.603180706501007080e-02 7.802765816450119019e-02
-4.822476208209991455e-01 2.256812900304794312e-02 7.788423448801040649e-02
-4.845014810562133789e-01 2.692896127700805664e-02 8.267771452665328979e-02
-5.038605928421020508e-01 7.544397562742233276e-02 2.044267579913139343e-02
-5.025932192802429199e-01 8.329913020133972168e-02 2.067928202450275421e-02
-4.984494447708129883e-01 7.612895220518112183e-02 2.432587742805480957e-02
-4.964004456996917725e-01 8.373188972473144531e-02 2.331989817321300507e-02
8.972987532615661621e-02 4.145079851150512695e-02 1.328371930867433548e-02
8.509404957294464111e-02 4.548664391040802002e-02 1.705738343298435211e-02
9.457446634769439697e-02 4.054344445466995239e-02 1.430095639079809189e-02
9.158352762460708618e-02 4.538324102759361267e-02 1.708515360951423645e-02
6.418474912643432617e-01 4.956091940402984619e-02 -3.070724010467529297e-02
6.402966976165771484e-01 5.275768786668777466e-02 -2.305104583501815796e-02
6.485908627510070801e-01 5.382976680994033813e-02 -2.597111649811267853e-02
6.463661789894104004e-01 5.564912781119346619e-02 -1.859566755592823029e-02
-2.053354084491729736e-01 5.500365793704986572e-02 4.369333013892173767e-02
-2.061509937047958374e-01 5.767791718244552612e-02 4.731202870607376099e-02
-1.994094252586364746e-01 5.485887080430984497e-02 4.817927628755569458e-02
-2.006500512361526489e-01 5.701045319437980652e-02 5.046374350786209106e-02
9.967978298664093018e-02 -1.340458355844020844e-02 4.050236940383911133e-02
9.943609684705734253e-02 -8.988738991320133209e-03 3.983756154775619507e-02
1.048326045274734497e-01 -1.571435295045375824e-02 4.132168367505073547e-02
1.061405688524246216e-01 -1.140303909778594971e-02 3.937171399593353271e-02
9.367862343788146973e-01 4.413050040602684021e-02 -4.740359261631965637e-02
9.323130846023559570e-01 5.297918617725372314e-02 -4.529115185141563416e-02
9.445953965187072754e-01 4.468033835291862488e-02 -4.285418614745140076e-02
9.399935007095336914e-01 5.385183542966842651e-02 -4.072725400328636169e-02
3.300430774688720703e-01 4.583150893449783325e-02 -4.236219450831413269e-02
3.287023901939392090e-01 5.100110545754432678e-02 -3.591652587056159973e-02
3.372997045516967773e-01 4.881767183542251587e-02 -4.050021618604660034e-02
3.347599208354949951e-01 5.338042601943016052e-02 -3.202129900455474854e-02
-4.625109136104583740e-01 -3.193999174982309341e-03 5.586897581815719604e-02
-4.648730754852294922e-01 -4.585137357935309410e-04 6.104725599288940430e-02
-4.550899863243103027e-01 -1.927499193698167801e-03 5.753709375858306885e-02
-4.580036699771881104e-01 5.583765450865030289e-04 6.262433528900146484e-02
-4.088216125965118408e-01 -8.110153675079345703e-02 1.216540113091468811e-03
-4.074495434761047363e-01 -7.524193823337554932e-02 1.052298350259661674e-03
-4.030153751373291016e-01 -8.023879677057266235e-02 1.646823599003255367e-03
-4.014261066913604736e-01 -7.433378696441650391e-02 1.465024775825440884e-03
-5.175718665122985840e-01 7.647973485291004181e-03 -3.958895802497863770e-02
-5.196541547775268555e-01 1.324314996600151062e-02 -3.593817725777626038e-02
-5.098182559013366699e-01 8.655741810798645020e-03 -3.813972324132919312e-02
-5.118697881698608398e-01 1.446003653109073639e-02 -3.420623764395713806e-02
-5.183388292789459229e-02 -4.988835426047444344e-04 -4.275785759091377258e-02
-5.445323884487152100e-02 1.478543505072593689e-03 -3.817694634199142456e-02
-4.731619358062744141e-02 1.665813615545630455e-03 -3.977539762854576111e-02
-4.972337186336517334e-02 3.625387791544198990e-03 -3.487511724233627319e-02
-1.556337028741836548e-01 -2.313163597136735916e-03 7.061556726694107056e-02
-1.563892066478729248e-01 2.737997099757194519e-03 7.399330288171768188e-02
-1.507817804813385010e-01 -1.228190842084586620e-03 7.064849138259887695e-02
-1.511325687170028687e-01 3.815893549472093582e-03 7.400346547365188599e-02
6.631444096565246582e-01 3.285059705376625061e-02 3.640975803136825562e-02
6.644452810287475586e-01 3.756777942180633545e-02 3.297825530171394348e-02
6.722076535224914551e-01 3.130706772208213806e-02 3.670089319348335266e-02
6.724770665168762207e-01 3.746166825294494629e-02 3.478922694921493530e-02
-2.358666509389877319e-01 4.053190350532531738e-02 -3.200137615203857422e-02
-2.369394600391387939e-01 4.695870727300643921e-02 -2.970507927238941193e-02
-2.306430786848068237e-01 4.633885249495506287e-02 -3.029818274080753326e-02
-2.314412593841552734e-01 5.292107537388801575e-02 -2.796301618218421936e-02
-2.403594702482223511e-01 1.476648636162281036e-02 3.884146735072135925e-02
-2.404957711696624756e-01 2.110838890075683594e-02 3.741932660341262817e-02
-2.320517003536224365e-01 1.554994098842144012e-02 3.660087287425994873e-02
-2.329015880823135376e-01 2.293952181935310364e-02 3.549213334918022156e-02
6.039485931396484375e-01 3.081131167709827423e-02 -4.431816190481185913e-02
6.024537086486816406e-01 3.773434832692146301e-02 -3.821383416652679443e-02
6.113349795341491699e-01 3.345824405550956726e-02 -4.190907999873161316e-02
6.096839308738708496e-01 4.000139981508255005e-02 -3.530256077647209167e-02
-1.727120578289031982e-01 2.010593004524707794e-02 -2.228829264640808105e-02
-1.741984039545059204e-01 2.644610591232776642e-02 -2.124756202101707458e-02
-1.656904071569442749e-01 2.095035091042518616e-02 -2.235537581145763397e-02
-1.671874672174453735e-01 2.723842486739158630e-02 -2.115755341947078705e-02
4.393157064914703369e-01 2.470758184790611267e-02 -4.498516768217086792e-02
4.409977793693542480e-01 3.456761687994003296e-02 -4.329318180680274963e-02
4.487227797508239746e-01 2.628502435982227325e-02 -4.326362535357475281e-02
4.505563974380493164e-01 3.586252406239509583e-02 -4.136852547526359558e-02
2.940781973302364349e-02 -1.420836430042982101e-02 2.861728891730308533e-02
2.823841571807861328e-02 -8.354210294783115387e-03 2.920669317245483398e-02
3.485113009810447693e-02 -1.047827955335378647e-02 3.020294383168220520e-02
3.330929577350616455e-02 -4.293453413993120193e-03 3.033390268683433533e-02
-2.789828181266784668e-01 9.374819695949554443e-02 2.318041771650314331e-02
-2.790676653385162354e-01 9.814145416021347046e-02 2.130863815546035767e-02
-2.703344821929931641e-01 9.510722011327743530e-02 2.611531130969524384e-02
-2.703886330127716064e-01 9.957880526781082153e-02 2.439777366816997528e-02
2.465278282761573792e-02 5.349472537636756897e-02 -4.426439106464385986e-02
1.950060576200485229e-02 5.458596721291542053e-02 -3.956244513392448425e-02
2.876592613756656647e-02 5.332783982157707214e-02 -4.049027338624000549e-02
2.376577258110046387e-02 5.443773046135902405e-02 -3.555810078978538513e-02
-4.982903599739074707e-01 -4.848845675587654114e-02 3.269264474511146545e-03
-5.008561611175537109e-01 -4.393161833286285400e-02 8.244734257459640503e-03
-4.919714331626892090e-01 -4.824533313512802124e-02 4.258166067302227020e-03
-4.942437410354614258e-01 -4.340022057294845581e-02 9.156369604170322418e-03
5.008446518331766129e-03 -1.261568162590265274e-02 -4.121150821447372437e-02
1.809422625228762627e-03 -1.116457208991050720e-02 -3.738460317254066467e-02
8.941765874624252319e-03 -1.214664895087480545e-02 -3.762237727642059326e-02
6.904308218508958817e-03 -1.075930800288915634e-02 -3.446488082408905029e-02
-1.871459782123565674e-01 -2.179624745622277260e-03 2.262403257191181183e-02
-1.857433319091796875e-01 6.615719757974147797e-05 2.016885019838809967e-02
-1.827330440282821655e-01 -3.261808305978775024e-03 2.365144714713096619e-02
-1.803019791841506958e-01 -1.341805094853043556e-03 2.049677819013595581e-02
-1.210211068391799927e-01 5.187939852476119995e-02 3.219212219119071960e-02
-1.196515262126922607e-01 5.651735514402389526e-02 3.261635079979896545e-02
-1.173573359847068787e-01 5.292537435889244080e-02 3.277719765901565552e-02
-1.160357594490051270e-01 5.774188786745071411e-02 3.329081088304519653e-02
-4.564105272293090820e-01 2.246832940727472305e-03 2.242706716060638428e-02
-4.631718695163726807e-01 6.987651810050010681e-03 2.853874862194061279e-02
-4.520152807235717773e-01 3.016511909663677216e-03 2.487615495920181274e-02
-4.595233201980590820e-01 8.518212474882602692e-03 3.108043968677520752e-02
-4.733041524887084961e-01 -6.072414107620716095e-03 -2.905656583607196808e-02
