8.329741656780242920e-02 -2.230544984340667725e-01 -2.291361838579177856e-01
8.508846908807754517e-02 -2.065980285406112671e-01 -2.297437191009521484e-01
-6.467981636524200439e-02 9.897373616695404053e-03 -1.404066085815429688e-01
-6.481742858886718750e-02 2.563486620783805847e-02 -1.371908932924270630e-01
-6.831812113523483276e-02 1.100417599081993103e-02 -1.248373612761497498e-01
-6.920296698808670044e-02 2.626506425440311432e-02 -1.205750033259391785e-01
-5.596208199858665466e-02 1.429014205932617188e-01 -9.691273421049118042e-02
-4.390796273946762085e-02 1.638722717761993408e-01 -1.028860062360763550e-01
-5.360555648803710938e-02 1.477842926979064941e-01 -8.019665628671646118e-02
-4.142928123474121094e-02 1.683219522237777710e-01 -8.649567514657974243e-02
9.626835584640502930e-02 3.039934039115905762e-01 -2.853192985057830811e-01
9.606868028640747070e-02 3.141292929649353027e-01 -2.789725661277770996e-01
1.038946509361267090e-01 3.050327301025390625e-01 -2.716353535652160645e-01
1.039369627833366394e-01 3.154294490814208984e-01 -2.670155465602874756e-01
2.176328003406524658e-01 1.310708224773406982e-01 4.199929162859916687e-02
2.220619618892669678e-01 1.526054888963699341e-01 4.281791672110557556e-02
2.257715463638305664e-01 1.335004270076751709e-01 6.266003847122192383e-02
2.293711900711059570e-01 1.524455845355987549e-01 6.334567070007324219e-02
-5.318192839622497559e-01 -4.193255901336669922e-01 1.670498847961425781e-01
-5.223811864852905273e-01 -4.095151424407958984e-01 1.677476167678833008e-01
-5.271010398864746094e-01 -4.165188670158386230e-01 1.800466328859329224e-01
-5.162733793258666992e-01 -4.044692218303680420e-01 1.787754744291305542e-01
-9.279672056436538696e-02 4.354569315910339355e-02 3.141588717699050903e-02
-9.453622996807098389e-02 5.891180038452148438e-02 3.321468085050582886e-02
-8.159631490707397461e-02 4.400511085987091064e-02 3.670288622379302979e-02
-8.375012129545211792e-02 5.919300019741058350e-02 3.844816237688064575e-02
1.114531278610229492e+00 -3.427678346633911133e-01 -2.182627841830253601e-02
1.118637561798095703e+00 -3.270914256572723389e-01 -2.361723408102989197e-02
1.115305662155151367e+00 -3.348579406738281250e-01 -7.130627520382404327e-03
1.119070172309875488e+00 -3.192780613899230957e-01 -9.090020321309566498e-03
1.954882591962814331e-01 -5.741242691874504089e-02 4.053885042667388916e-01
1.963722705841064453e-01 -3.724964335560798645e-02 4.051966071128845215e-01
2.149591594934463501e-01 -5.372538417577743530e-02 3.990990221500396729e-01
2.163569629192352295e-01 -3.389370441436767578e-02 3.985623121261596680e-01
-1.084177270531654358e-01 1.557175070047378540e-03 -3.061073273420333862e-02
-1.034281775355339050e-01 1.848877035081386566e-02 -3.312837332487106323e-02
-1.077820658683776855e-01 8.949656039476394653e-03 -2.378309145569801331e-02
-1.026524007320404053e-01 2.555944211781024933e-02 -2.600342594087123871e-02
1.127018034458160400e-01 -3.404473364353179932e-01 -3.489738330245018005e-02
1.081032156944274902e-01 -3.299158215522766113e-01 -2.860042080283164978e-02
1.176499277353286743e-01 -3.355200290679931641e-01 -2.305153384804725647e-02
1.148158907890319824e-01 -3.242715895175933838e-01 -1.709551364183425903e-02
-1.815755665302276611e-01 2.131737954914569855e-02 4.328010976314544678e-02
-1.899959444999694824e-01 2.818801254034042358e-02 5.178579688072204590e-02
-1.692396551370620728e-01 1.964643038809299469e-02 4.422872513532638550e-02
-1.754452437162399292e-01 2.895602397620677948e-02 5.040824785828590393e-02
7.858980298042297363e-01 -1.522302627563476562e-01 1.012343540787696838e-01
7.793917059898376465e-01 -1.344981938600540161e-01 1.075220331549644470e-01
8.034082055091857910e-01 -1.513809710741043091e-01 9.517576545476913452e-02
7.971324324607849121e-01 -1.335531622171401978e-01 1.014974415302276611e-01
4.725370109081268311e-01 -3.874826431274414062e-01 7.419111207127571106e-03
4.734193682670593262e-01 -3.727666139602661133e-01 1.378776039928197861e-02
4.771954119205474854e-01 -3.812450766563415527e-01 2.488988079130649567e-02
4.781898856163024902e-01 -3.667542040348052979e-01 3.104912117123603821e-02
5.128961205482482910e-01 2.967265248298645020e-01 6.666821241378784180e-02
5.099423527717590332e-01 3.108927011489868164e-01 6.515850871801376343e-02
5.261241793632507324e-01 2.962068617343902588e-01 6.176054105162620544e-02
5.257788300514221191e-01 3.100361526012420654e-01 6.019009649753570557e-02
4.948112368583679199e-02 1.292788386344909668e-01 1.275467276573181152e-01
6.371551007032394409e-02 1.399587988853454590e-01 1.247218027710914612e-01
5.650098994374275208e-02 1.327637732028961182e-01 1.363593935966491699e-01
7.111130654811859131e-02 1.427644640207290649e-01 1.326235681772232056e-01
8.165531158447265625e-01 6.934465467929840088e-02 -1.115988567471504211e-02
8.230902552604675293e-01 8.647017180919647217e-02 -1.692438125610351562e-02
8.368879556655883789e-01 7.122089713811874390e-02 -1.476720161736011505e-02
8.419117331504821777e-01 8.872067928314208984e-02 -2.082614973187446594e-02
-3.808574005961418152e-02 2.649600803852081299e-02 1.675983071327209473e-01
-4.012111946940422058e-02 4.494105651974678040e-02 1.654496639966964722e-01
-2.653506956994533539e-02 2.981462143361568451e-02 1.822233051061630249e-01
-2.815941348671913147e-02 4.709429293870925903e-02 1.793861538171768188e-01
1.468359827995300293e-01 -2.536829411983489990e-01 4.254934489727020264e-01
1.418872922658920288e-01 -2.417947202920913696e-01 4.321055114269256592e-01
1.584445387125015259e-01 -2.484998255968093872e-01 4.198855459690093994e-01
1.535795480012893677e-01 -2.372347116470336914e-01 4.262008965015411377e-01
-3.381054401397705078e-01 -1.646016389131546021e-01 5.933412313461303711e-01
-3.498162031173706055e-01 -1.563103497028350830e-01 6.042535305023193359e-01
-3.363570272922515869e-01 -1.675691008567810059e-01 6.020958423614501953e-01
-3.474009037017822266e-01 -1.586419343948364258e-01 6.122160553932189941e-01
1.532824486494064331e-01 -2.590511143207550049e-01 -5.088290199637413025e-02
1.564313322305679321e-01 -2.452378571033477783e-01 -5.153449997305870056e-02
1.587126851081848145e-01 -2.565504908561706543e-01 -3.505523875355720520e-02
1.618404537439346313e-01 -2.435824275016784668e-01 -3.558478131890296936e-02
4.822955429553985596e-01 -3.132435977458953857e-01 1.551780402660369873e-01
4.882545471191406250e-01 -2.995335161685943604e-01 1.551026552915573120e-01
4.821959137916564941e-01 -3.113109767436981201e-01 1.685811132192611694e-01
4.879713654518127441e-01 -2.973851859569549561e-01 1.681288182735443115e-01
6.909432262182235718e-02 3.966487571597099304e-02 2.457261532545089722e-01
6.921905279159545898e-02 5.376581847667694092e-02 2.448389381170272827e-01
7.999168336391448975e-02 4.384295269846916199e-02 2.531439363956451416e-01
8.009779453277587891e-02 5.736801028251647949e-02 2.519069910049438477e-01
-1.377769373357295990e-02 3.394746482372283936e-01 -1.038025505840778351e-02
-1.207632664591073990e-02 3.526344299316406250e-01 -9.760091081261634827e-03
-7.864037528634071350e-03 3.414506614208221436e-01 -1.427891082130372524e-03
-6.624916102737188339e-03 3.538934588432312012e-01 -1.666830852627754211e-03
5.943612456321716309e-01 3.163431286811828613e-01 2.063976600766181946e-03
5.916492938995361328e-01 3.219506442546844482e-01 1.379171572625637054e-02
6.111454367637634277e-01 3.250903189182281494e-01 9.279176592826843262e-03
6.084827780723571777e-01 3.305302858352661133e-01 2.131631970405578613e-02
3.824806213378906250e-01 3.699381947517395020e-01 2.313680797815322876e-01
3.867910206317901611e-01 3.786689043045043945e-01 2.188815772533416748e-01
3.926185965538024902e-01 3.569640219211578369e-01 2.312007695436477661e-01
3.940470814704895020e-01 3.661041557788848877e-01 2.211321294307708740e-01
1.377302855253219604e-01 7.069165259599685669e-02 4.133730828762054443e-01
1.383988857269287109e-01 8.880878984928131104e-02 4.114235639572143555e-01
1.558532863855361938e-01 7.270799577236175537e-02 4.105295240879058838e-01
1.562674939632415771e-01 9.077513217926025391e-02 4.084693193435668945e-01
1.124738752841949463e-01 9.952155500650405884e-02 2.390877753496170044e-01
1.112632751464843750e-01 1.145080849528312683e-01 2.354435324668884277e-01
1.252588331699371338e-01 9.185833483934402466e-02 2.487394511699676514e-01
1.229515522718429565e-01 1.075096130371093750e-01 2.468176633119583130e-01
1.210648119449615479e-01 -3.690159618854522705e-01 -1.226752549409866333e-01
1.209586337208747864e-01 -3.581496477127075195e-01 -1.211674660444259644e-01
1.223983019590377808e-01 -3.680872321128845215e-01 -1.118707656860351562e-01
1.224960982799530029e-01 -3.575657904148101807e-01 -1.099515482783317566e-01
6.152377650141716003e-02 -1.638829559087753296e-01 -2.730076014995574951e-01
6.703168153762817383e-02 -1.459238976240158081e-01 -2.728355228900909424e-01
7.021795213222503662e-02 -1.579909771680831909e-01 -2.564915418624877930e-01
7.540632039308547974e-02 -1.404418200254440308e-01 -2.565003633499145508e-01
2.306663542985916138e-01 3.338192105293273926e-01 3.813348338007926941e-02
2.226561903953552246e-01 3.480186462402343750e-01 4.051535204052925110e-02
2.351752072572708130e-01 3.359076678752899170e-01 4.949170351028442383e-02
2.274352908134460449e-01 3.498197197914123535e-01 5.172742903232574463e-02
-1.341481059789657593e-01 7.636625319719314575e-02 5.175746232271194458e-02
-1.388741731643676758e-01 8.372488617897033691e-02 5.936364829540252686e-02
-1.251981258392333984e-01 8.093256503343582153e-02 6.030809506773948669e-02
-1.288693398237228394e-01 8.961714804172515869e-02 6.685089319944381714e-02
9.825330972671508789e-01 4.151518642902374268e-02 -6.809465587139129639e-02
9.825677275657653809e-01 6.197981536388397217e-02 -7.255434244871139526e-02
9.972431659698486328e-01 4.713609069585800171e-02 -7.242573052644729614e-02
9.982295632362365723e-01 6.609617173671722412e-02 -7.644803822040557861e-02
-2.369961440563201904e-01 2.428407967090606689e-01 4.149512648582458496e-01
-2.400635629892349243e-01 2.589265704154968262e-01 4.192246794700622559e-01
-2.334563732147216797e-01 2.477722764015197754e-01 4.322502315044403076e-01
-2.352115064859390259e-01 2.642399966716766357e-01 4.361312687397003174e-01
-2.718845009803771973e-02 1.397958397865295410e-01 -2.485269755125045776e-01
-2.500031702220439911e-02 1.563843339681625366e-01 -2.438510060310363770e-01
-2.922046743333339691e-02 1.441500335931777954e-01 -2.260658293962478638e-01
-2.706739306449890137e-02 1.607595682144165039e-01 -2.215956151485443115e-01
-3.874478638172149658e-01 2.935784682631492615e-02 9.873275458812713623e-02
-3.963276147842407227e-01 3.883212432265281677e-02 1.065535619854927063e-01
-3.761003911495208740e-01 3.413097560405731201e-02 1.012844070792198181e-01
-3.827077448368072510e-01 4.486989229917526245e-02 1.072291657328605652e-01
5.066457390785217285e-01 2.931565046310424805e-02 1.157065704464912415e-01
5.142946839332580566e-01 4.882308095693588257e-02 1.077093929052352905e-01
5.106986761093139648e-01 2.391528896987438202e-02 1.146708652377128601e-01
5.185800790786743164e-01 4.335315525531768799e-02 1.067646667361259460e-01
-3.367661833763122559e-01 -1.863815337419509888e-01 6.154265999794006348e-01
-3.482071459293365479e-01 -1.765076965093612671e-01 6.233422756195068359e-01
-3.367440402507781982e-01 -1.870565563440322876e-01 6.279627680778503418e-01
-3.434279859066009521e-01 -1.773730665445327759e-01 6.340318918228149414e-01
1.015947200357913971e-02 2.097353786230087280e-01 -2.412046045064926147e-01
2.164759673178195953e-02 2.252813279628753662e-01 -2.446366548538208008e-01
1.230136584490537643e-02 2.166083008050918579e-01 -2.236186414957046509e-01
2.473075501620769501e-02 2.318196892738342285e-01 -2.271667271852493286e-01
1.395845264196395874e-01 3.569683134555816650e-01 -1.117195710539817810e-01
1.354593932628631592e-01 3.650674521923065186e-01 -1.053020879626274109e-01
1.482834368944168091e-01 3.543663024902343750e-01 -1.063829287886619568e-01
1.446634531021118164e-01 3.626277148723602295e-01 -1.002479940652847290e-01
-3.713059425354003906e-01 3.867365121841430664e-01 5.515788793563842773e-01
-3.694995641708374023e-01 3.995119333267211914e-01 5.572913885116577148e-01
-3.701279461383819580e-01 3.890687227249145508e-01 5.693684220314025879e-01
-3.667117655277252197e-01 4.022726416587829590e-01 5.748456716537475586e-01
8.108685612678527832e-01 2.421030998229980469e-01 3.547231107950210571e-02
8.210065364837646484e-01 2.664245069026947021e-01 2.342816628515720367e-02
8.326711654663085938e-01 2.400988042354583740e-01 3.282769396901130676e-02
8.434263467788696289e-01 2.648217380046844482e-01 2.104431204497814178e-02
1.185463219881057739e-01 1.019684523344039917e-01 -2.050738334655761719e-01
1.216144338250160217e-01 1.177944839000701904e-01 -2.057696133852005005e-01
1.242034286260604858e-01 1.046261340379714966e-01 -1.893063783645629883e-01
1.274379640817642212e-01 1.207338124513626099e-01 -1.899902522563934326e-01
4.508476257324218750e-01 3.587307333946228027e-01 1.777847558259963989e-01
4.401489198207855225e-01 3.698272705078125000e-01 1.802310049533843994e-01
4.467700421810150146e-01 3.459066152572631836e-01 1.897725015878677368e-01
4.357916116714477539e-01 3.572839200496673584e-01 1.920006424188613892e-01
4.770246446132659912e-01 3.816669583320617676e-01 2.142305020242929459e-03
4.829465150833129883e-01 3.983053267002105713e-01 1.928387675434350967e-03
4.795199036598205566e-01 3.904662430286407471e-01 1.423083245754241943e-02
4.839437603950500488e-01 4.050538539886474609e-01 1.454051956534385681e-02
-5.643035769462585449e-01 -3.035126812756061554e-02 -1.906049698591232300e-01
-5.597652792930603027e-01 -2.208621427416801453e-02 -1.868882924318313599e-01
-5.488250851631164551e-01 -2.396981790661811829e-02 -1.821681410074234009e-01
-5.449776649475097656e-01 -1.545325480401515961e-02 -1.776227056980133057e-01
7.368297576904296875e-01 -3.224907815456390381e-01 1.099794656038284302e-01
7.297891378402709961e-01 -3.088679611682891846e-01 1.194097101688385010e-01
7.543622255325317383e-01 -3.186249732971191406e-01 1.038568466901779175e-01
7.466273307800292969e-01 -3.049305081367492676e-01 1.126978099346160889e-01
1.995712667703628540e-01 -2.815920114517211914e-01 3.723035454750061035e-01
1.987665444612503052e-01 -2.646788060665130615e-01 3.685992658138275146e-01
2.158324867486953735e-01 -2.790514528751373291e-01 3.718795478343963623e-01
2.109233736991882324e-01 -2.644356489181518555e-01 3.730269074440002441e-01
2.964296042919158936e-01 -4.908595234155654907e-02 3.596397936344146729e-01
2.960667610168457031e-01 -2.927451953291893005e-02 3.605509400367736816e-01
3.138014376163482666e-01 -4.564923048019409180e-02 3.505089879035949707e-01
3.094401359558105469e-01 -2.728331089019775391e-02 3.537843227386474609e-01
-3.334358632564544678e-01 1.416263580322265625e-01 1.196486800909042358e-01
-3.342048525810241699e-01 1.596209853887557983e-01 1.202418655157089233e-01
-3.197888731956481934e-01 1.441982537508010864e-01 1.321406960487365723e-01
-3.205327689647674561e-01 1.615308076143264771e-01 1.324806064367294312e-01
5.377740859985351562e-01 2.102256864309310913e-01 7.923732697963714600e-02
5.417707562446594238e-01 2.265287339687347412e-01 7.186585664749145508e-02
5.527288317680358887e-01 2.068143784999847412e-01 7.450859993696212769e-02
5.569421052932739258e-01 2.228034734725952148e-01 6.733688712120056152e-02
2.873319685459136963e-01 2.249948680400848389e-03 3.603985607624053955e-01
2.868279814720153809e-01 2.390333823859691620e-02 3.609896898269653320e-01
3.065458536148071289e-01 8.869497105479240417e-03 3.532482087612152100e-01
3.020118176937103271e-01 2.960825711488723755e-02 3.551995158195495605e-01
3.843521475791931152e-01 1.718197017908096313e-01 2.043987959623336792e-01
3.721631765365600586e-01 1.890980601310729980e-01 2.111653685569763184e-01
3.763355314731597900e-01 1.611805558204650879e-01 2.143314033746719360e-01
3.655901551246643066e-01 1.784753203392028809e-01 2.192655354738235474e-01
-5.650137662887573242e-01 -2.992830798029899597e-02 -1.879581809043884277e-01
-5.606871247291564941e-01 -2.165264450013637543e-02 -1.838961392641067505e-01
-5.493774414062500000e-01 -2.366402372717857361e-02 -1.793988198041915894e-01
-5.455300211906433105e-01 -1.514746062457561493e-02 -1.748533844947814941e-01
-6.172316670417785645e-01 2.207174524664878845e-02 -1.599196791648864746e-01
-6.216225624084472656e-01 3.557991236448287964e-02 -1.622964590787887573e-01
-6.125454902648925781e-01 1.769022829830646515e-02 -1.495813131332397461e-01
-6.164944171905517578e-01 3.131615743041038513e-02 -1.525770276784896851e-01
6.316152811050415039e-01 -3.289766907691955566e-01 1.449696868658065796e-01
6.222333908081054688e-01 -3.158494830131530762e-01 1.527237445116043091e-01
6.509252190589904785e-01 -3.300490081310272217e-01 1.403040736913681030e-01
6.396364569664001465e-01 -3.189320862293243408e-01 1.481423825025558472e-01
1.067950762808322906e-02 2.894308567047119141e-01 -2.879032194614410400e-01
2.526800893247127533e-02 3.024604916572570801e-01 -2.940113842487335205e-01
1.710163429379463196e-02 2.972871959209442139e-01 -2.697730064392089844e-01
3.223055601119995117e-02 3.081801533699035645e-01 -2.760872542858123779e-01
7.639632821083068848e-01 3.143305182456970215e-01 -5.117183178663253784e-02
7.592869400978088379e-01 3.281520605087280273e-01 -5.235627666115760803e-02
7.843707799911499023e-01 3.127447664737701416e-01 -5.299712717533111572e-02
7.784019708633422852e-01 3.267710506916046143e-01 -5.309988930821418762e-02
1.183654814958572388e-01 -2.167995572090148926e-01 3.849695920944213867e-01
1.213799640536308289e-01 -1.963889002799987793e-01 3.811661005020141602e-01
1.354393661022186279e-01 -2.298826724290847778e-01 3.795196115970611572e-01
1.391851902008056641e-01 -2.095540463924407959e-01 3.747266530990600586e-01
1.894647926092147827e-01 -9.464605897665023804e-02 9.408750571310520172e-03
1.916081011295318604e-01 -8.023954182863235474e-02 6.795559078454971313e-03
1.951874047517776489e-01 -9.414146095514297485e-02 2.740858681499958038e-02
1.973675489425659180e-01 -7.935471832752227783e-02 2.465831488370895386e-02
1.000924825668334961e+00 -3.917349278926849365e-01 -6.641624867916107178e-02
9.922437667846679688e-01 -3.800846338272094727e-01 -6.231917813420295715e-02
1.015467524528503418e+00 -3.957256674766540527e-01 -6.565066426992416382e-02
1.006770730018615723e+00 -3.846618533134460449e-01 -6.007713451981544495e-02
-5.112956278026103973e-03 1.195546090602874756e-01 1.302856355905532837e-01
1.110881473869085312e-02 1.283873021602630615e-01 1.258488744497299194e-01
1.831379719078540802e-03 1.230855882167816162e-01 1.436093151569366455e-01
1.777295768260955811e-02 1.320457607507705688e-01 1.391213387250900269e-01
2.437266558408737183e-01 -2.708086967468261719e-01 3.771108388900756836e-01
2.314632683992385864e-01 -2.613399624824523926e-01 3.858225941658020020e-01
2.608065903186798096e-01 -2.654172480106353760e-01 3.745888769626617432e-01
2.479170411825180054e-01 -2.564234137535095215e-01 3.843037486076354980e-01
-4.557607471942901611e-01 -3.654824197292327881e-02 -1.014097481966018677e-01
-4.542154073715209961e-01 -1.465449202805757523e-02 -9.704834222793579102e-02
-4.431860148906707764e-01 -2.837798744440078735e-02 -7.574394345283508301e-02
-4.418116509914398193e-01 -6.251564249396324158e-03 -7.344674319028854370e-02
-5.219100117683410645e-01 -4.230844378471374512e-01 1.334374845027923584e-01
-5.165790915489196777e-01 -4.139240682125091553e-01 1.328299492597579956e-01
-5.154997110366821289e-01 -4.210423827171325684e-01 1.397616565227508545e-01
-5.047139525413513184e-01 -4.123204052448272705e-01 1.378197968006134033e-01
-3.514240384101867676e-01 -1.945770531892776489e-01 1.399594098329544067e-01
-3.498482108116149902e-01 -1.775644719600677490e-01 1.400121003389358521e-01
-3.456841409206390381e-01 -1.847158074378967285e-01 1.530467867851257324e-01
-3.449713289737701416e-01 -1.679481714963912964e-01 1.530882865190505981e-01
1.902019530534744263e-01 3.101066648960113525e-01 -3.552346229553222656e-01
1.933912038803100586e-01 3.181437253952026367e-01 -3.476534187793731689e-01
1.943041235208511353e-01 3.207412958145141602e-01 -3.418257832527160645e-01
2.014422416687011719e-01 3.301786780357360840e-01 -3.370362520217895508e-01
6.769544482231140137e-01 2.059049308300018311e-01 2.431217767298221588e-02
6.798545718193054199e-01 2.178315222263336182e-01 1.790600456297397614e-02
6.878548264503479004e-01 2.041802257299423218e-01 2.004228532314300537e-02
6.907497048377990723e-01 2.156885564327239990e-01 1.382938493043184280e-02
2.008580714464187622e-01 2.665430903434753418e-01 -3.338813036680221558e-02
2.045901566743850708e-01 2.849185168743133545e-01 -3.091177903115749359e-02
2.051272243261337280e-01 2.702009677886962891e-01 -1.800181530416011810e-02
2.082333713769912720e-01 2.876703739166259766e-01 -1.580071263015270233e-02
5.807582736015319824e-01 3.192343711853027344e-01 1.012791022658348083e-01
5.844835042953491211e-01 3.341156542301177979e-01 8.878082782030105591e-02
5.970346927642822266e-01 3.114398717880249023e-01 1.005200371146202087e-01
6.007786393165588379e-01 3.264075517654418945e-01 8.802355825901031494e-02
3.856994211673736572e-01 3.211715817451477051e-01 -2.898273169994354248e-01
3.827896714210510254e-01 3.330557942390441895e-01 -2.859221994876861572e-01
3.961573243141174316e-01 3.217518925666809082e-01 -2.789184451103210449e-01
3.920336961746215820e-01 3.331299722194671631e-01 -2.726492583751678467e-01
5.086799860000610352e-01 -4.374600946903228760e-02 1.998564898967742920e-01
5.118256211280822754e-01 -2.046763710677623749e-02 2.006693929433822632e-01
5.226842761039733887e-01 -3.800408914685249329e-02 1.935360282659530640e-01
5.273814797401428223e-01 -1.435583829879760742e-02 1.937261372804641724e-01
5.851784348487854004e-01 1.456682980060577393e-01 7.193806767463684082e-02
5.903236269950866699e-01 1.648792177438735962e-01 6.386735290288925171e-02
6.022216677665710449e-01 1.453875601291656494e-01 6.457912176847457886e-02
6.054475903511047363e-01 1.633526235818862915e-01 5.790771171450614929e-02
6.980891227722167969e-01 8.822506666183471680e-02 3.380889073014259338e-02
6.915372014045715332e-01 1.075303703546524048e-01 3.510159254074096680e-02
7.159233093261718750e-01 8.739359676837921143e-02 2.689650654792785645e-02
7.090158462524414062e-01 1.069968491792678833e-01 2.831665426492691040e-02
-4.688564836978912354e-01 -4.020639359951019287e-01 1.014014855027198792e-01
-4.598145782947540283e-01 -3.885197937488555908e-01 9.812013804912567139e-02
-4.599435031414031982e-01 -4.006501734256744385e-01 1.137834042310714722e-01
-4.509705901145935059e-01 -3.869804143905639648e-01 1.104634329676628113e-01
9.615309834480285645e-01 3.159360587596893311e-01 -4.145335406064987183e-02
9.645924568176269531e-01 3.263275921344757080e-01 -5.119106918573379517e-02
9.764474034309387207e-01 3.151324689388275146e-01 -4.350237548351287842e-02
9.800549745559692383e-01 3.254269957542419434e-01 -5.349865555763244629e-02
9.962770342826843262e-01 -6.626179441809654236e-03 2.611107751727104187e-02
9.996112585067749023e-01 1.453393884003162384e-02 2.285964228212833405e-02
1.012453317642211914e+00 -1.212851144373416901e-03 2.148655802011489868e-02
1.016615509986877441e+00 2.001520618796348572e-02 1.830971986055374146e-02
1.076873898506164551e+00 -2.565279901027679443e-01 1.901272218674421310e-03
1.076654791831970215e+00 -2.380997985601425171e-01 4.003612324595451355e-03
1.086106896400451660e+00 -2.510015070438385010e-01 3.240522462874650955e-03
1.086501240730285645e+00 -2.328062951564788818e-01 4.132146015763282776e-03
-8.152187615633010864e-02 7.943258434534072876e-02 -1.203061826527118683e-02
-7.164941728115081787e-02 9.368906915187835693e-02 -1.519223581999540329e-02
-7.857947796583175659e-02 8.496876806020736694e-02 7.579466328024864197e-04
-6.815385073423385620e-02 9.858015179634094238e-02 -2.270620781928300858e-03
-2.727997303009033203e-01 -3.359623625874519348e-02 2.866476178169250488e-01
-2.730197310447692871e-01 -1.307745743542909622e-02 2.844468355178833008e-01
-2.674738168716430664e-01 -3.056925907731056213e-02 3.039104640483856201e-01
-2.689619958400726318e-01 -9.904191829264163971e-03 3.020202517509460449e-01
4.672369062900543213e-01 3.776044845581054688e-01 -3.898502886295318604e-02
4.746863842010498047e-01 3.960680961608886719e-01 -3.758110478520393372e-02
4.695512354373931885e-01 3.855516016483306885e-01 -2.291860245168209076e-02
4.765870273113250732e-01 4.042097032070159912e-01 -2.210232242941856384e-02
5.088898539543151855e-01 3.475484251976013184e-01 8.980759978294372559e-02
5.020948648452758789e-01 3.617800474166870117e-01 9.370248019695281982e-02
5.058213472366333008e-01 3.472024500370025635e-01 9.956552833318710327e-02
4.966890811920166016e-01 3.618367910385131836e-01 1.037237569689750671e-01
2.766186594963073730e-01 4.128424823284149170e-02 2.028433233499526978e-01
2.761847078800201416e-01 6.097544729709625244e-02 1.982586383819580078e-01
2.809213101863861084e-01 4.035157337784767151e-02 2.126987725496292114e-01
2.814706861972808838e-01 5.922438576817512512e-02 2.086233049631118774e-01
1.006711125373840332e-01 2.900603413581848145e-01 3.492391109466552734e-01
1.089190989732742310e-01 3.071370422840118408e-01 3.438316583633422852e-01
1.118623986840248108e-01 2.885021269321441650e-01 3.461410999298095703e-01
1.195805445313453674e-01 3.056367039680480957e-01 3.405318260192871094e-01
7.365527749061584473e-01 2.641813457012176514e-01 5.905487388372421265e-02
7.446141242980957031e-01 2.801474928855895996e-01 4.925633221864700317e-02
7.553053498268127441e-01 2.551806867122650146e-01 5.802598223090171814e-02
7.632191181182861328e-01 2.712775766849517822e-01 4.835256561636924744e-02
-4.103258252143859863e-01 5.513734370470046997e-02 2.306357175111770630e-01
-4.048881232738494873e-01 6.548188626766204834e-02 2.281967550516128540e-01
-3.929207324981689453e-01 5.129627138376235962e-02 2.340886890888214111e-01
-3.937660455703735352e-01 6.110443547368049622e-02 2.337779849767684937e-01
-2.316442877054214478e-02 1.243307255208492279e-03 -2.469303458929061890e-01
-2.112959884107112885e-02 2.403183653950691223e-02 -2.429350614547729492e-01
-2.777323126792907715e-02 9.096828289330005646e-03 -2.209059149026870728e-01
-2.535299770534038544e-02 3.131120279431343079e-02 -2.173292934894561768e-01
2.419635802507400513e-01 -9.900251775979995728e-02 1.438139230012893677e-01
2.443077266216278076e-01 -8.245585113763809204e-02 1.411056369543075562e-01
2.483861893415451050e-01 -9.344606101512908936e-02 1.564714014530181885e-01
2.501147091388702393e-01 -7.579040527343750000e-02 1.533726453781127930e-01
1.789962798357009888e-01 -3.255461752414703369e-01 7.323133945465087891e-02
1.751218289136886597e-01 -3.215903937816619873e-01 9.032069146633148193e-02
1.917939335107803345e-01 -3.197485506534576416e-01 8.793358504772186279e-02
1.847825050354003906e-01 -3.155795931816101074e-01 1.068286001682281494e-01
9.876762628555297852e-01 6.182530149817466736e-02 1.940131932497024536e-02
9.919828176498413086e-01 7.953436672687530518e-02 1.467010006308555603e-02
1.005700111389160156e+00 6.208534911274909973e-02 1.451649982482194901e-02
1.010278701782226562e+00 7.998735457658767700e-02 9.491022676229476929e-03
9.077981114387512207e-01 3.964938223361968994e-03 -3.471608459949493408e-02
9.063645005226135254e-01 2.585894800722599030e-02 -3.869641199707984924e-02
9.219150543212890625e-01 2.378663048148155212e-03 -3.931326419115066528e-02
9.202875494956970215e-01 2.397815138101577759e-02 -4.352846369147300720e-02
1.042638421058654785e+00 1.333992034196853638e-01 -1.614351198077201843e-02
1.045935988426208496e+00 1.515647917985916138e-01 -2.372418530285358429e-02
1.057700276374816895e+00 1.367372870445251465e-01 -2.003989182412624359e-02
1.061670660972595215e+00 1.542753577232360840e-01 -2.686189860105514526e-02
6.422716975212097168e-01 1.805201917886734009e-01 4.241132363677024841e-02
6.434369087219238281e-01 1.965753436088562012e-01 3.756356239318847656e-02
6.569220423698425293e-01 1.772823780775070190e-01 3.800102695822715759e-02
6.581056118011474609e-01 1.928223371505737305e-01 3.354036435484886169e-02
-3.509169816970825195e-01 3.596522212028503418e-01 5.426548123359680176e-01
-3.598004579544067383e-01 3.717285692691802979e-01 5.448994636535644531e-01
-3.489837646484375000e-01 3.538311719894409180e-01 5.537368059158325195e-01
-3.549968004226684570e-01 3.677999079227447510e-01 5.548910498619079590e-01
1.091722130775451660e+00 -3.151013255119323730e-01 -9.400939196348190308e-02
1.091853618621826172e+00 -3.009400367736816406e-01 -9.163342416286468506e-02
1.103389739990234375e+00 -3.086999654769897461e-01 -9.739948809146881104e-02
1.104117274284362793e+00 -2.949002981185913086e-01 -9.595761448144912720e-02
6.835855245590209961e-01 1.536903381347656250e-01 2.969588339328765869e-02
6.849144697189331055e-01 1.693634986877441406e-01 2.454446069896221161e-02
6.982570886611938477e-01 1.508029997348785400e-01 2.427032403647899628e-02
6.984258890151977539e-01 1.676459908485412598e-01 1.974835433065891266e-02
3.009393513202667236e-01 -8.396996557712554932e-02 2.894939482212066650e-01
2.938515543937683105e-01 -7.125132530927658081e-02 2.915685772895812988e-01
3.134152293205261230e-01 -8.051348477602005005e-02 2.827820181846618652e-01
3.058147728443145752e-01 -6.758629530668258667e-02 2.849194109439849854e-01
3.664790689945220947e-01 -2.804852426052093506e-01 2.571704685688018799e-01
3.574264049530029297e-01 -2.655923366546630859e-01 2.607406675815582275e-01
3.690719902515411377e-01 -2.857141792774200439e-01 2.558738887310028076e-01
3.603498041629791260e-01 -2.711236774921417236e-01 2.590885758399963379e-01
7.924358844757080078e-01 -2.629911899566650391e-01 9.868244826793670654e-02
7.956954240798950195e-01 -2.455348223447799683e-01 1.003525927662849426e-01
8.089048266410827637e-01 -2.558810412883758545e-01 9.439402818679809570e-02
8.123539090156555176e-01 -2.381420433521270752e-01 9.634591639041900635e-02
1.698389500379562378e-01 1.447012554854154587e-02 2.339667081832885742e-01
1.717770397663116455e-01 2.730335481464862823e-02 2.341392189264297485e-01
1.834316253662109375e-01 1.126871630549430847e-02 2.347905188798904419e-01
1.852788627147674561e-01 2.503174543380737305e-02 2.338708937168121338e-01
8.678480982780456543e-01 1.900245398283004761e-01 -5.201581865549087524e-02
8.751415014266967773e-01 2.013226747512817383e-01 -5.785578116774559021e-02
8.812879920005798340e-01 1.913385391235351562e-01 -5.532953515648841858e-02
8.884840607643127441e-01 2.030974030494689941e-01 -6.089634448289871216e-02
-4.239857569336891174e-02 -1.915836893022060394e-02 -2.976072430610656738e-01
-4.334321618080139160e-02 1.528081949800252914e-03 -2.959698736667633057e-01
-4.568165540695190430e-02 -2.123051322996616364e-02 -2.860025167465209961e-01
-4.617183282971382141e-02 1.423299312591552734e-03 -2.828571200370788574e-01
2.338406145572662354e-01 -2.772909700870513916e-01 3.352197408676147461e-01
2.314340472221374512e-01 -2.666747868061065674e-01 3.361397981643676758e-01
2.478448450565338135e-01 -2.758747339248657227e-01 3.393934667110443115e-01
2.429369240999221802e-01 -2.671327590942382812e-01 3.422170281410217285e-01
-1.023914366960525513e-01 7.357697188854217529e-02 8.877674490213394165e-02
-1.054271310567855835e-01 8.291725069284439087e-02 9.367951750755310059e-02
-8.788605779409408569e-02 7.666162401437759399e-02 1.016345024108886719e-01
-9.093668311834335327e-02 8.679836243391036987e-02 1.061383932828903198e-01
6.711964011192321777e-01 1.538159996271133423e-01 1.058170497417449951e-01
6.764502525329589844e-01 1.710378825664520264e-01 1.007880121469497681e-01
6.895932555198669434e-01 1.539516896009445190e-01 1.027349829673767090e-01
6.957048773765563965e-01 1.718902289867401123e-01 9.705023467540740967e-02
1.863944530487060547e-01 1.212050393223762512e-01 -4.313221573829650879e-02
1.917528659105300903e-01 1.420614421367645264e-01 -4.074715077877044678e-02
1.927019208669662476e-01 1.199243217706680298e-01 -2.036286517977714539e-02
1.987116485834121704e-01 1.422037482261657715e-01 -1.734946295619010925e-02
3.670101463794708252e-01 -2.850988507270812988e-01 2.573564946651458740e-01
3.578082323074340820e-01 -2.702976167201995850e-01 2.609069943428039551e-01
3.693977594375610352e-01 -2.907055914402008057e-01 2.561525106430053711e-01
3.601958453655242920e-01 -2.759043574333190918e-01 2.597029805183410645e-01
5.352433323860168457e-01 -3.011575937271118164e-01 1.183241829276084900e-01
5.323954224586486816e-01 -2.871519625186920166e-01 1.223061084747314453e-01
5.488780140876770020e-01 -2.992076575756072998e-01 1.126354560256004333e-01
5.454590916633605957e-01 -2.856064140796661377e-01 1.167202964425086975e-01
6.901758909225463867e-01 -2.594510018825531006e-01 6.507892906665802002e-02
6.870782971382141113e-01 -2.433808743953704834e-01 6.874308735132217407e-02
7.009841203689575195e-01 -2.548130452632904053e-01 6.174132600426673889e-02
6.979689598083496094e-01 -2.380496561527252197e-01 6.567485630512237549e-02
-2.965486049652099609e-02 -2.031229734420776367e-01 -3.327533304691314697e-01
-2.765370160341262817e-02 -1.872824281454086304e-01 -3.368069231510162354e-01
-1.296011637896299362e-02 -2.057751566171646118e-01 -3.310187757015228271e-01
-1.077828649431467056e-02 -1.894970685243606567e-01 -3.352950811386108398e-01
4.529314637184143066e-01 -1.827193200588226318e-01 1.822368204593658447e-01
4.516636431217193604e-01 -1.607737094163894653e-01 1.837629079818725586e-01
4.385519027709960938e-01 -1.749348044395446777e-01 1.938653588294982910e-01
4.363929033279418945e-01 -1.535617411136627197e-01 1.961868405342102051e-01
1.519158184528350830e-01 -2.188415825366973877e-02 3.471276462078094482e-01
1.443932354450225830e-01 -3.957859706133604050e-03 3.505162596702575684e-01
1.597615182399749756e-01 -2.059693448245525360e-02 3.483147621154785156e-01
1.530824601650238037e-01 -2.734990324825048447e-03 3.509468436241149902e-01
1.156321048736572266e+00 -6.069187074899673462e-02 -8.418304473161697388e-02
1.154897212982177734e+00 -4.171254858374595642e-02 -8.643925189971923828e-02
1.162297487258911133e+00 -6.056147813796997070e-02 -7.711039483547210693e-02
1.160796046257019043e+00 -4.141900315880775452e-02 -7.973388582468032837e-02
2.394709140062332153e-01 -4.069347679615020752e-02 3.157889544963836670e-01
2.387100458145141602e-01 -2.262964472174644470e-02 3.128515779972076416e-01
2.541161179542541504e-01 -4.242714494466781616e-02 3.088559508323669434e-01
2.538913190364837646e-01 -2.531873434782028198e-02 3.058168292045593262e-01
2.028363049030303955e-01 1.690857112407684326e-01 2.044638693332672119e-01
2.099571824073791504e-01 1.840544641017913818e-01 2.012533992528915405e-01
2.227937728166580200e-01 1.724168807268142700e-01 2.037503719329833984e-01
2.291659116744995117e-01 1.871829777956008911e-01 2.002055048942565918e-01
8.751115202903747559e-01 1.081473678350448608e-01 -3.515151143074035645e-02
8.754920363426208496e-01 1.269332766532897949e-01 -4.112669453024864197e-02
8.919105529785156250e-01 1.073323488235473633e-01 -4.250221326947212219e-02
8.935512900352478027e-01 1.260517090559005737e-01 -4.874303936958312988e-02
7.342629432678222656e-01 2.909228205680847168e-01 5.043139308691024780e-02
7.417516112327575684e-01 3.065965175628662109e-01 4.040079191327095032e-02
7.524477839469909668e-01 2.810569107532501221e-01 4.923165217041969299e-02
7.601960897445678711e-01 2.969936728477478027e-01 3.932308778166770935e-02
4.431446194648742676e-01 -3.841930627822875977e-01 -6.495916843414306641e-02
4.428108930587768555e-01 -3.668532073497772217e-01 -6.426971405744552612e-02
4.495489895343780518e-01 -3.816581368446350098e-01 -4.963363334536552429e-02
4.487101435661315918e-01 -3.647489845752716064e-01 -4.969664290547370911e-02
-4.069992005825042725e-01 3.869476318359375000e-01 9.027928113937377930e-03
-4.081788361072540283e-01 4.104147255420684814e-01 6.801305338740348816e-03
-3.962844610214233398e-01 3.858621716499328613e-01 2.045750431716442108e-02
-3.983561396598815918e-01 4.097003340721130371e-01 1.841023378074169159e-02
-5.511909723281860352e-01 -4.150268435478210449e-01 2.190906256437301636e-01
-5.586929321289062500e-01 -4.091409742832183838e-01 2.288270890712738037e-01
-5.411520600318908691e-01 -4.158528447151184082e-01 2.266362756490707397e-01
-5.474672913551330566e-01 -4.091542065143585205e-01 2.348542362451553345e-01
-3.760016262531280518e-01 -1.324982494115829468e-01 6.287852525711059570e-01
-3.819651007652282715e-01 -1.229723393917083740e-01 6.336603760719299316e-01
-3.750998675823211670e-01 -1.345929652452468872e-01 6.438925266265869141e-01
-3.775158226490020752e-01 -1.246429532766342163e-01 6.450037360191345215e-01
9.200251698493957520e-01 -3.838027417659759521e-01 -3.016252256929874420e-02
9.203805923461914062e-01 -3.686475753784179688e-01 -3.423127159476280212e-02
9.344318509101867676e-01 -3.945430815219879150e-01 -3.287699073553085327e-02
9.339849948883056641e-01 -3.795090317726135254e-01 -3.680836409330368042e-02
-2.512989342212677002e-01 -1.502387374639511108e-01 4.722816348075866699e-01
-2.461117058992385864e-01 -1.316149234771728516e-01 4.679426252841949463e-01
-2.460126429796218872e-01 -1.507240682840347290e-01 4.908175170421600342e-01
-2.419259697198867798e-01 -1.345256716012954712e-01 4.847112298011779785e-01
6.128043681383132935e-02 1.834836974740028381e-02 2.449538558721542358e-01
6.019609421491622925e-02 3.252921998500823975e-02 2.435958981513977051e-01
7.209691405296325684e-02 1.774169690907001495e-02 2.505969703197479248e-01
7.114973664283752441e-02 3.147491440176963806e-02 2.495037764310836792e-01
7.278306484222412109e-01 -3.566137552261352539e-01 7.751829177141189575e-02
7.155809402465820312e-01 -3.528704345226287842e-01 8.900170028209686279e-02
7.429974675178527832e-01 -3.558275401592254639e-01 7.683050632476806641e-02
7.308258414268493652e-01 -3.511154949665069580e-01 8.818227052688598633e-02
2.093191742897033691e-01 3.659877479076385498e-01 2.790809869766235352e-01
2.023245245218276978e-01 3.826535940170288086e-01 2.845695018768310547e-01
2.258053570985794067e-01 3.672908544540405273e-01 2.742466628551483154e-01
2.182962596416473389e-01 3.841831982135772705e-01 2.794793546199798584e-01
1.002954840660095215e+00 -2.789402902126312256e-01 2.411840856075286865e-02
1.000852346420288086e+00 -2.612194120883941650e-01 2.825085818767547607e-02
1.021803736686706543e+00 -2.735855877399444580e-01 1.803702861070632935e-02
1.020100712776184082e+00 -2.559844255447387695e-01 2.192736417055130005e-02
8.201380968093872070e-01 3.166812658309936523e-01 -7.361850887537002563e-02
8.159900307655334473e-01 3.316307961940765381e-01 -7.394387573003768921e-02
8.398565053939819336e-01 3.181956708431243896e-01 -7.690932601690292358e-02
8.383958339691162109e-01 3.334715366363525391e-01 -7.885731011629104614e-02
9.426961541175842285e-01 2.022810280323028564e-01 -8.318671584129333496e-02
9.461946487426757812e-01 2.180845290422439575e-01 -9.025007486343383789e-02
9.558438062667846680e-01 2.004636973142623901e-01 -8.573864400386810303e-02
9.600592255592346191e-01 2.164966911077499390e-01 -9.320244938135147095e-02
4.247475787997245789e-02 3.123691082000732422e-01 -2.727977931499481201e-01
5.528460443019866943e-02 3.216904103755950928e-01 -2.762464284896850586e-01
5.263160914182662964e-02 3.170536160469055176e-01 -2.581801116466522217e-01
6.367005407810211182e-02 3.250069022178649902e-01 -2.591558098793029785e-01
-4.938551187515258789e-01 5.041542053222656250e-01 9.865896403789520264e-02
-5.002567768096923828e-01 5.138555765151977539e-01 1.048841029405593872e-01
-4.879085421562194824e-01 5.012247562408447266e-01 1.108791157603263855e-01
-4.936863481998443604e-01 5.109171271324157715e-01 1.166957840323448181e-01
4.771824181079864502e-01 -3.761913180351257324e-01 1.685287207365036011e-01
4.720577895641326904e-01 -3.672206103801727295e-01 1.744789332151412964e-01
4.779892265796661377e-01 -3.748453557491302490e-01 1.872225403785705566e-01
4.725032746791839600e-01 -3.658359646797180176e-01 1.946176439523696899e-01
-6.472400426864624023e-01 -2.589625492691993713e-02 -2.174080759286880493e-01
-6.480147242546081543e-01 -1.572533696889877319e-02 -2.221718430519104004e-01
-6.415210366249084473e-01 -3.068456053733825684e-02 -2.118346840143203735e-01
-6.422609090805053711e-01 -2.027608081698417664e-02 -2.164331674575805664e-01
2.721530199050903320e-01 2.897162735462188721e-01 2.337020486593246460e-01
2.630239427089691162e-01 3.006365299224853516e-01 2.411684244871139526e-01
2.806288897991180420e-01 2.944798469543457031e-01 2.355936914682388306e-01
2.716222703456878662e-01 3.059097230434417725e-01 2.427211552858352661e-01
1.112493127584457397e-01 4.928705841302871704e-02 2.529766261577606201e-01
1.132501512765884399e-01 6.208744645118713379e-02 2.529643774032592773e-01
1.160380616784095764e-01 4.995706677436828613e-02 2.641329467296600342e-01
1.176133155822753906e-01 6.270240992307662964e-02 2.641724348068237305e-01
1.115079402923583984e+00 1.603631228208541870e-01 -1.432874649763107300e-01
1.117417812347412109e+00 1.751267313957214355e-01 -1.480393260717391968e-01
1.126385331153869629e+00 1.576377004384994507e-01 -1.375946700572967529e-01
1.128407359123229980e+00 1.724091768264770508e-01 -1.411333680152893066e-01
1.764413863420486450e-01 -2.496623843908309937e-01 3.636713922023773193e-01
1.834686994552612305e-01 -2.308792918920516968e-01 3.541433811187744141e-01
1.949341595172882080e-01 -2.545732855796813965e-01 3.638713955879211426e-01
1.997810602188110352e-01 -2.368617057800292969e-01 3.564473390579223633e-01
1.573818922042846680e-01 -6.684716790914535522e-02 -7.406508922576904297e-02
1.599317193031311035e-01 -5.183856189250946045e-02 -7.576878368854522705e-02
1.649161577224731445e-01 -6.586591154336929321e-02 -5.903299152851104736e-02
1.670002490282058716e-01 -5.131165310740470886e-02 -6.083717942237854004e-02
-3.203857839107513428e-01 -1.879811435937881470e-01 6.324747800827026367e-01
-3.230520486831665039e-01 -1.788643002510070801e-01 6.374475955963134766e-01
-3.190594315528869629e-01 -1.861048638820648193e-01 6.415090560913085938e-01
-3.194437325000762939e-01 -1.771001964807510376e-01 6.457050442695617676e-01
-3.741577267646789551e-01 2.032829672098159790e-01 5.581683292984962463e-02
-3.753536939620971680e-01 2.222588062286376953e-01 5.059161037206649780e-02
-3.594288825988769531e-01 1.978257745504379272e-01 6.443803012371063232e-02
-3.601588010787963867e-01 2.168142497539520264e-01 5.893372744321823120e-02
-2.231230959296226501e-02 -2.053022682666778564e-01 -2.174003124237060547e-01
-2.597246505320072174e-02 -1.857842952013015747e-01 -2.139017134904861450e-01
-2.120486833155155182e-02 -2.046765685081481934e-01 -1.976903378963470459e-01
-2.532455697655677795e-02 -1.851388067007064819e-01 -1.943143308162689209e-01
6.549747586250305176e-01 -2.028848230838775635e-01 7.709829509258270264e-02
6.547534465789794922e-01 -1.851602047681808472e-01 7.834362983703613281e-02
6.712124943733215332e-01 -1.987745314836502075e-01 7.263682782649993896e-02
6.702647805213928223e-01 -1.799034178256988525e-01 7.369545102119445801e-02
1.115250825881958008e+00 -3.730535507202148438e-02 -9.544840082526206970e-03
1.114702939987182617e+00 -2.138227224349975586e-02 -1.043179724365472794e-02
1.126215934753417969e+00 -3.796025365591049194e-02 -1.238999236375093460e-02
1.124706029891967773e+00 -2.251011133193969727e-02 -1.306720636785030365e-02
1.721427291631698608e-01 -1.177662983536720276e-01 2.459750771522521973e-01
1.721335351467132568e-01 -1.021787077188491821e-01 2.447630316019058228e-01
1.872272193431854248e-01 -1.131806597113609314e-01 2.476345747709274292e-01
1.886603385210037231e-01 -9.572932124137878418e-02 2.466013729572296143e-01
-4.567613303661346436e-01 4.919641911983489990e-01 9.797547012567520142e-03
-4.663265347480773926e-01 5.073005557060241699e-01 1.642289385199546814e-02
-4.482007026672363281e-01 4.894859790802001953e-01 2.312988974153995514e-02
-4.575196206569671631e-01 5.057837963104248047e-01 2.928608283400535583e-02
3.111350536346435547e-01 3.638443946838378906e-01 -3.748939037322998047e-01
3.096138238906860352e-01 3.813094198703765869e-01 -3.730598688125610352e-01
3.262104094028472900e-01 3.680048882961273193e-01 -3.631104528903961182e-01
3.262113630771636963e-01 3.849635720252990723e-01 -3.624255061149597168e-01
5.101414918899536133e-01 1.308274716138839722e-01 9.990439563989639282e-02
5.126785039901733398e-01 1.502133756875991821e-01 9.545795619487762451e-02
5.072183012962341309e-01 1.325030624866485596e-01 1.028613522648811340e-01
5.059136748313903809e-01 1.514903604984283447e-01 1.023364365100860596e-01
6.900199055671691895e-01 3.209264278411865234e-01 5.740422755479812622e-02
6.945852637290954590e-01 3.345445990562438965e-01 4.835804924368858337e-02
7.065595984458923340e-01 3.156311213970184326e-01 5.705944448709487915e-02
7.113395333290100098e-01 3.290912806987762451e-01 4.827321320772171021e-02
3.075486123561859131e-01 -4.408587813377380371e-01 -2.606084644794464111e-01
3.001868724822998047e-01 -4.328906536102294922e-01 -2.578406333923339844e-01
3.157934546470642090e-01 -4.438877403736114502e-01 -2.504236996173858643e-01
3.109818994998931885e-01 -4.342638254165649414e-01 -2.470998018980026245e-01
-3.558758646249771118e-02 1.660514473915100098e-01 -3.240310847759246826e-01
-3.424274921417236328e-02 1.806249469518661499e-01 -3.230457007884979248e-01
-3.337261825799942017e-02 1.706460118293762207e-01 -3.084187805652618408e-01
-3.183443099260330200e-02 1.856953501701354980e-01 -3.084072768688201904e-01
8.943445086479187012e-01 -7.017469406127929688e-02 -2.279582805931568146e-02
8.959963917732238770e-01 -4.904698207974433899e-02 -2.660563774406909943e-02
9.146457910537719727e-01 -6.371973454952239990e-02 -2.826268598437309265e-02
9.157328605651855469e-01 -4.244633764028549194e-02 -3.206522017717361450e-02
1.371723860502243042e-01 -4.302655458450317383e-01 -1.541107147932052612e-01
1.266102790832519531e-01 -4.154834151268005371e-01 -1.484776139259338379e-01
1.388670206069946289e-01 -4.332149624824523926e-01 -1.311111450195312500e-01
1.317170113325119019e-01 -4.189773201942443848e-01 -1.297296732664108276e-01
9.852761030197143555e-01 1.520966887474060059e-01 -8.420152589678764343e-04
9.873457551002502441e-01 1.710098534822463989e-01 -8.634394966065883636e-03
1.001347661018371582e+00 1.510414630174636841e-01 -3.614160697907209396e-03
1.003062129020690918e+00 1.700840592384338379e-01 -1.154547929763793945e-02
5.851202607154846191e-01 9.625918418169021606e-02 7.730104774236679077e-02
5.880027413368225098e-01 1.148278191685676575e-01 7.228793203830718994e-02
6.018413901329040527e-01 9.648901969194412231e-02 7.140821218490600586e-02
6.035819649696350098e-01 1.148571446537971497e-01 6.751228123903274536e-02
8.087884187698364258e-01 -8.771453797817230225e-02 9.315606206655502319e-02
8.099612593650817871e-01 -7.241330295801162720e-02 9.246003627777099609e-02
8.243566751480102539e-01 -8.130122721195220947e-02 9.033749997615814209e-02
8.264007568359375000e-01 -6.562219560146331787e-02 8.905979245901107788e-02
6.477624177932739258e-01 -9.153398126363754272e-02 1.442331671714782715e-01
6.481335163116455078e-01 -7.068313658237457275e-02 1.448816657066345215e-01
6.677913069725036621e-01 -8.327493816614151001e-02 1.394652724266052246e-01
6.681650876998901367e-01 -6.222990900278091431e-02 1.402652561664581299e-01
3.929220139980316162e-01 -2.836382389068603516e-01 2.363030314445495605e-01
3.853211402893066406e-01 -2.694522738456726074e-01 2.393282949924468994e-01
3.967759907245635986e-01 -2.878292202949523926e-01 2.352588623762130737e-01
3.891313672065734863e-01 -2.736639976501464844e-01 2.382841259241104126e-01
1.004596590995788574e+00 -3.229409456253051758e-01 -6.080215796828269958e-02
1.007377743721008301e+00 -3.079837560653686523e-01 -6.051508337259292603e-02
1.019900083541870117e+00 -3.230426907539367676e-01 -6.596937030553817749e-02
1.021379232406616211e+00 -3.079099357128143311e-01 -6.511144340038299561e-02
7.978153228759765625e-01 -2.826203107833862305e-01 2.168963104486465454e-02
