1.295290000000000052e-01 -1.661130000000000106e-01 -7.002999999999999677e-03
-3.038150000000000017e-01 -1.128969999999999974e-01 -2.352999999999999883e-02
2.128499999999999837e-02 -1.606950000000000045e-01 -2.818000000000000192e-03
-1.934190000000000076e-01 2.078460000000000030e-01 5.046799999999999897e-02
4.028400000000000036e-02 -1.659640000000000004e-01 -1.763049999999999895e-01
5.232660000000000089e-01 -2.955470000000000041e-01 -2.162999999999999992e-02
1.918189999999999895e-01 2.596680000000000099e-01 9.294700000000000184e-02
4.393050000000000010e-01 -2.762459999999999916e-01 3.300100000000000255e-02
4.113100000000000089e-02 -2.460600000000000009e-01 2.484600000000000003e-02
-1.517739999999999922e-01 2.817310000000000092e-01 -1.981899999999999981e-02
1.243770000000000014e-01 2.906090000000000062e-01 1.321189999999999864e-01
-3.079749999999999988e-01 1.465690000000000048e-01 5.937499999999999722e-02
-1.596069999999999989e-01 -1.516260000000000108e-01 -1.818529999999999869e-01
5.484179999999999611e-01 1.585290000000000032e-01 -4.689399999999999819e-02
-8.219300000000000217e-02 2.037400000000000044e-01 -1.030910000000000021e-01
1.677929999999999977e-01 -2.313010000000000066e-01 3.480799999999999866e-02
6.536459999999999493e-01 1.846939999999999971e-01 -1.328380000000000116e-01
1.511299999999999970e-02 2.138599999999999876e-02 1.872870000000000090e-01
5.405729999999999702e-01 -1.725730000000000042e-01 2.369500000000000078e-02
-3.676550000000000096e-01 2.954869999999999997e-01 5.286699999999999733e-02
3.045889999999999986e-01 -1.593809999999999949e-01 1.825499999999999901e-01
3.923800000000000204e-02 2.968560000000000088e-01 1.279139999999999999e-01
1.909589999999999899e-01 3.086380000000000234e-01 -6.359000000000000069e-03
6.692369999999999708e-01 2.862699999999999967e-02 -8.149599999999999900e-02
-2.253709999999999880e-01 -1.211259999999999976e-01 1.274490000000000067e-01
8.077800000000000258e-02 -7.027600000000000513e-02 1.936170000000000113e-01
-4.628120000000000012e-01 -1.693649999999999878e-01 6.025500000000000300e-02
-2.696520000000000028e-01 2.974959999999999827e-01 -3.454100000000000226e-02
3.152030000000000109e-01 -2.287980000000000014e-01 4.164400000000000046e-02
-3.046829999999999816e-01 2.513250000000000206e-01 1.336690000000000100e-01
2.524299999999999877e-01 -2.225380000000000136e-01 1.168479999999999935e-01
4.770590000000000108e-01 1.924690000000000012e-01 -2.906399999999999956e-02
4.525410000000000266e-01 1.163659999999999972e-01 1.615300000000000069e-02
3.134350000000000191e-01 -2.635020000000000140e-01 -1.670520000000000060e-01
5.500200000000000228e-02 7.069300000000000583e-02 4.777300000000000296e-02
-3.601249999999999729e-01 -2.099000000000000032e-01 -4.559200000000000058e-02
3.776999999999999802e-01 1.553889999999999993e-01 3.522900000000000337e-02
5.084000000000000324e-02 2.907779999999999809e-01 1.644940000000000013e-01
-7.686999999999999389e-02 1.775090000000000001e-01 6.528499999999999581e-02
-8.908699999999999952e-02 -1.702490000000000114e-01 5.052800000000000347e-02
-3.955350000000000255e-01 4.690400000000000125e-02 6.205399999999999805e-02
7.688589999999999591e-01 -1.314899999999999923e-02 1.307230000000000059e-01
3.118199999999999861e-01 2.979789999999999939e-01 -5.612500000000000128e-02
-2.413559999999999872e-01 -2.290860000000000118e-01 2.401700000000000015e-02
-1.399390000000000078e-01 5.956000000000000356e-03 5.514499999999999957e-02
1.140049999999999952e-01 -7.588000000000000300e-02 1.922079999999999900e-01
1.095529999999999976e-01 6.888600000000000279e-02 4.853099999999999775e-02
4.417559999999999820e-01 -3.343299999999999744e-02 1.077440000000000064e-01
1.092309999999999948e-01 -1.605600000000000083e-02 1.919079999999999953e-01
6.562970000000000192e-01 -8.965299999999999658e-02 -7.768899999999999417e-02
-5.314800000000000080e-02 -9.915699999999999514e-02 1.892739999999999978e-01
2.478750000000000120e-01 2.903830000000000022e-01 -8.559200000000000141e-02
-3.286089999999999844e-01 1.843720000000000081e-01 5.452200000000000102e-02
6.541800000000000392e-02 2.569239999999999857e-01 1.174300000000000066e-01
6.601639999999999731e-01 2.350839999999999874e-01 -1.723900000000000085e-02
-9.431499999999999606e-02 -2.076100000000000168e-02 -1.276400000000000035e-01
9.272700000000000387e-02 -5.737600000000000339e-02 2.115970000000000073e-01
-2.634619999999999740e-01 1.778929999999999956e-01 -1.393290000000000084e-01
3.835729999999999973e-01 2.603800000000000003e-01 6.188199999999999951e-02
1.733210000000000028e-01 1.193160000000000054e-01 4.742400000000000088e-02
-2.144590000000000107e-01 -1.828430000000000055e-01 -1.635500000000000148e-02
2.898009999999999753e-01 2.988399999999999945e-01 -7.590500000000000025e-02
1.326380000000000059e-01 -2.263310000000000044e-01 1.529000000000000081e-01
1.371489999999999931e-01 -2.016199999999999937e-01 6.292100000000000470e-02
2.218019999999999992e-01 -1.481619999999999882e-01 5.715599999999999847e-02
-1.960299999999999890e-02 -1.608130000000000115e-01 -2.896999999999999836e-03
8.098900000000000543e-02 1.931539999999999924e-01 -1.072150000000000047e-01
4.058959999999999790e-01 -1.659940000000000027e-01 -6.226500000000000090e-02
4.936800000000000077e-01 -1.728000000000000091e-01 -7.341200000000000503e-02
1.957939999999999958e-01 -2.715080000000000271e-01 1.675099999999999853e-02
-3.411279999999999868e-01 2.877640000000000198e-01 -3.432099999999999734e-02
-1.224449999999999983e-01 2.986829999999999763e-01 1.285860000000000058e-01
-1.098049999999999998e-01 1.717960000000000043e-01 6.627000000000000078e-03
4.740889999999999826e-01 -7.642000000000000355e-03 9.920900000000000551e-02
2.465090000000000059e-01 2.040260000000000129e-01 -1.607899999999999954e-02
1.493299999999999905e-01 2.579750000000000099e-01 4.131399999999999656e-02
-7.687499999999999889e-02 2.606910000000000061e-01 1.231819999999999998e-01
2.747120000000000117e-01 -1.694599999999999926e-02 1.893799999999999997e-02
2.165410000000000112e-01 -1.216590000000000032e-01 1.960220000000000018e-01
2.890399999999999914e-02 -1.301229999999999887e-01 2.005499999999999991e-02
-3.877109999999999723e-01 -1.542949999999999877e-01 -3.896000000000000157e-03
2.943390000000000173e-01 1.311249999999999916e-01 2.080599999999999949e-01
-4.504070000000000018e-01 -1.854599999999999999e-02 -4.929499999999999854e-02
9.125600000000000378e-02 -7.607500000000000373e-02 1.939780000000000115e-01
2.391770000000000007e-01 2.270830000000000071e-01 1.554520000000000068e-01
4.952639999999999820e-01 2.234559999999999880e-01 -1.613660000000000094e-01
4.739039999999999919e-01 1.146390000000000048e-01 2.755499999999999963e-02
5.743719999999999937e-01 1.132799999999999953e-02 -9.437299999999999855e-02
-2.628849999999999798e-01 -1.926609999999999989e-01 -9.148900000000000088e-02
-1.201409999999999978e-01 -2.387779999999999903e-01 -5.353299999999999725e-02
-1.638580000000000036e-01 -5.914599999999999719e-02 8.254000000000000226e-02
5.362130000000000507e-01 -1.417450000000000099e-01 -9.499299999999999411e-02
2.642600000000000157e-02 -1.151620000000000005e-01 1.897040000000000115e-01
2.330359999999999931e-01 5.935000000000000171e-03 -1.218189999999999967e-01
3.107429999999999914e-01 -5.188600000000000156e-02 5.584800000000000181e-02
1.940330000000000110e-01 2.112590000000000023e-01 1.756290000000000073e-01
2.184999999999999876e-03 -1.383759999999999990e-01 -1.092219999999999996e-01
4.779680000000000040e-01 -9.935700000000000087e-02 3.443700000000000233e-02
2.348320000000000130e-01 -9.864399999999999558e-02 1.949099999999999999e-01
3.051429999999999976e-01 -2.098990000000000022e-01 -1.427600000000000049e-02
2.171490000000000087e-01 -2.087380000000000069e-01 1.131289999999999935e-01
5.822659999999999503e-01 2.629020000000000246e-01 1.611100000000000032e-02
5.252710000000000434e-01 1.228400000000000047e-01 -1.100669999999999982e-01
3.892700000000000049e-01 3.673099999999999976e-02 -1.204830000000000068e-01
6.610040000000000360e-01 -2.360680000000000001e-01 -4.136999999999999705e-02
-2.800770000000000204e-01 -8.694200000000000539e-02 1.111199999999999966e-01
2.755380000000000051e-01 2.639650000000000052e-01 8.554699999999999804e-02
-8.935999999999999499e-02 -1.632139999999999980e-01 1.483220000000000094e-01
4.135969999999999924e-01 -1.345850000000000102e-01 5.353600000000000025e-02
-3.995449999999999835e-01 -1.640560000000000074e-01 -1.065399999999999958e-01
1.666120000000000101e-01 2.955349999999999921e-01 4.232299999999999951e-02
7.414199999999999957e-02 2.954339999999999744e-01 3.888500000000000290e-02
-3.236350000000000060e-01 1.580000000000000024e-03 6.474199999999999400e-02
5.311300000000000049e-02 -2.021060000000000079e-01 -1.508400000000000019e-02
4.799340000000000273e-01 -1.868699999999999875e-02 9.186199999999999921e-02
4.544569999999999999e-01 1.432700000000000085e-01 1.514399999999999948e-02
5.561070000000000180e-01 -1.022799999999999959e-01 2.092300000000000063e-02
4.493369999999999864e-01 1.842299999999999841e-02 1.347599999999999909e-01
-1.200409999999999949e-01 2.676850000000000063e-01 1.283479999999999899e-01
6.200820000000000221e-01 -1.046050000000000035e-01 2.140900000000000095e-02
3.872030000000000194e-01 1.703010000000000079e-01 -4.582300000000000262e-02
-3.250759999999999761e-01 2.867129999999999956e-01 -1.500420000000000087e-01
2.153390000000000026e-01 -1.405530000000000113e-01 2.290800000000000128e-02
-4.563929999999999931e-01 9.783000000000000029e-02 5.368900000000000061e-02
-9.908699999999999453e-02 -1.821800000000000086e-01 1.039039999999999964e-01
-2.013780000000000014e-01 1.564800000000000080e-01 1.648340000000000083e-01
3.904859999999999998e-01 1.708860000000000101e-01 -1.004519999999999996e-01
1.723550000000000082e-01 3.019990000000000174e-01 -5.009700000000000264e-02
1.944450000000000067e-01 -1.916809999999999903e-01 -1.518700000000000085e-02
1.215600000000000014e-02 -1.552020000000000066e-01 1.824169999999999958e-01
2.863800000000000026e-02 1.958320000000000061e-01 -9.890400000000000580e-02
5.382289999999999575e-01 4.189199999999999868e-02 2.335500000000000076e-02
4.493840000000000057e-01 1.708679999999999921e-01 1.211300000000000016e-01
5.711469999999999603e-01 -4.313600000000000073e-02 1.777000000000000107e-02
-2.137779999999999958e-01 2.371330000000000104e-01 5.274500000000000022e-02
2.916469999999999896e-01 6.347200000000000064e-02 1.607000000000000095e-02
1.740220000000000100e-01 -1.539349999999999885e-01 1.895000000000000018e-01
4.393739999999999868e-01 -2.558399999999999910e-02 1.279349999999999932e-01
8.744499999999999496e-02 2.404119999999999868e-01 1.631559999999999955e-01
1.105170000000000041e-01 1.434709999999999874e-01 1.958390000000000131e-01
-1.400500000000000009e-02 1.994620000000000004e-01 -4.673100000000000170e-02
4.102700000000000097e-02 2.241549999999999931e-01 5.409400000000000319e-02
-1.295939999999999870e-01 7.845599999999999796e-02 7.237999999999999989e-02
-6.960700000000000220e-02 2.620469999999999744e-01 1.203860000000000069e-01
6.700519999999999810e-01 3.068900000000000100e-02 -8.147699999999999387e-02
-4.002080000000000082e-01 2.651009999999999756e-01 -8.892500000000000404e-02
2.666390000000000149e-01 1.782179999999999875e-01 -6.867600000000000093e-02
1.243120000000000058e-01 3.131260000000000154e-01 -1.602900000000000158e-02
2.502000000000000057e-02 2.249349999999999961e-01 -3.120900000000000063e-02
-7.706999999999999962e-02 -1.513539999999999885e-01 -1.432699999999999946e-02
-3.719180000000000264e-01 5.800999999999999733e-03 -1.299140000000000017e-01
1.894500000000000003e-02 -2.098770000000000080e-01 -1.685470000000000024e-01
4.110289999999999777e-01 -8.283000000000000432e-03 5.571899999999999770e-02
1.828460000000000085e-01 1.626900000000000013e-01 1.865610000000000046e-01
-2.063659999999999939e-01 3.275100000000000233e-01 2.179800000000000140e-02
2.254199999999999954e-02 3.204020000000000201e-01 -1.951599999999999863e-02
-5.429900000000000004e-02 1.491129999999999955e-01 -1.351680000000000104e-01
1.844300000000000106e-01 2.573659999999999837e-01 1.477960000000000107e-01
4.187109999999999999e-01 -2.003530000000000033e-01 -1.635949999999999904e-01
-9.069399999999999684e-02 -2.492749999999999966e-01 -3.295999999999999885e-03
-7.775899999999999479e-02 -1.787719999999999865e-01 -1.710289999999999866e-01
-3.190810000000000035e-01 -1.781850000000000100e-01 -1.724710000000000132e-01
2.038570000000000104e-01 2.984370000000000078e-01 9.020400000000000640e-02
5.527459999999999596e-01 -2.144760000000000000e-01 2.950000000000000148e-04
2.212400000000000130e-02 2.435879999999999990e-01 -1.621070000000000011e-01
7.305519999999999792e-01 1.431759999999999977e-01 1.827900000000000011e-02
-1.432809999999999917e-01 3.035129999999999773e-01 -1.963890000000000080e-01
-1.041990000000000000e-01 2.590459999999999985e-01 7.122199999999999365e-02
-1.581239999999999868e-01 1.147139999999999965e-01 8.266300000000000037e-02
-3.880160000000000275e-01 2.490580000000000016e-01 -4.314899999999999985e-02
-2.119469999999999965e-01 3.350940000000000030e-01 -8.278499999999999748e-02
2.335569999999999868e-01 2.323179999999999967e-01 4.260200000000000098e-02
-3.379980000000000206e-01 3.265109999999999957e-01 -1.108819999999999945e-01
2.272210000000000063e-01 2.703200000000000047e-01 1.502370000000000094e-01
-3.142579999999999818e-01 9.027000000000000302e-03 -1.293890000000000040e-01
5.983600000000000030e-02 1.067730000000000068e-01 1.944140000000000035e-01
-2.045190000000000063e-01 -1.918950000000000100e-01 -2.105999999999999799e-03
4.759050000000000225e-01 2.590230000000000032e-01 -1.812320000000000042e-01
-1.252949999999999897e-01 2.920449999999999990e-01 1.529189999999999994e-01
6.581869999999999665e-01 2.123160000000000047e-01 -1.634599999999999942e-02
-2.096030000000000115e-01 1.680750000000000022e-01 5.458000000000000178e-03
-2.059060000000000057e-01 -1.053189999999999960e-01 7.039900000000000324e-02
5.785529999999999839e-01 2.089200000000000085e-02 1.513100000000000035e-02
-4.547539999999999916e-01 -7.327400000000000579e-02 -1.048299999999999926e-02
4.755940000000000167e-01 -6.874600000000000155e-02 1.147060000000000024e-01
6.098599999999999577e-01 -2.444649999999999879e-01 -1.235299999999999940e-02
4.032580000000000053e-01 7.719900000000000373e-02 5.215100000000000291e-02
-2.476499999999999882e-02 3.220529999999999782e-01 -6.731800000000000284e-02
3.316609999999999836e-01 1.842310000000000059e-01 4.816999999999999754e-02
3.733759999999999857e-01 -1.408260000000000067e-01 6.803700000000000025e-02
5.168099999999999916e-01 2.533880000000000021e-01 -1.738299999999999915e-02
-1.775190000000000101e-01 -1.692819999999999880e-01 -1.566720000000000057e-01
-3.861089999999999800e-01 2.897660000000000236e-01 6.691999999999999338e-02
2.763499999999999984e-02 2.723340000000000205e-01 8.633599999999999608e-02
2.584699999999999775e-01 -1.227820000000000022e-01 2.030190000000000050e-01
6.953399999999999581e-01 1.018200000000000008e-02 5.278999999999999838e-03
5.694789999999999575e-01 -2.858919999999999795e-01 2.948200000000000126e-02
5.111609999999999765e-01 -2.031880000000000075e-01 -1.410699999999999975e-02
5.002889999999999837e-01 -1.992309999999999914e-01 3.319300000000000028e-02
3.988329999999999931e-01 1.123379999999999934e-01 1.560199999999999955e-02
5.185999999999999499e-01 1.401890000000000081e-01 1.610599999999999879e-02
-1.704690000000000094e-01 -1.569969999999999977e-01 9.017000000000000015e-02
-1.249590000000000006e-01 -8.998799999999999855e-02 1.881249999999999867e-01
1.012030000000000013e-01 1.698790000000000022e-01 4.335200000000000164e-02
-7.549100000000000255e-02 -1.001260000000000067e-01 4.948600000000000221e-02
5.052480000000000304e-01 -1.706570000000000031e-01 6.218999999999999702e-03
-1.720289999999999875e-01 3.030990000000000073e-01 1.496719999999999995e-01
2.927879999999999927e-01 2.782109999999999861e-01 -1.877600000000000102e-02
-1.344650000000000012e-01 2.010389999999999955e-01 1.756560000000000066e-01
6.571230000000000127e-01 2.629650000000000043e-01 -2.254099999999999854e-02
-1.421360000000000123e-01 -1.262290000000000079e-01 -6.534299999999999831e-02
4.419190000000000063e-01 -2.878020000000000023e-01 2.707400000000000084e-02
1.981439999999999868e-01 2.978930000000000189e-01 1.698399999999999910e-02
-3.517080000000000206e-01 -3.483599999999999891e-02 -1.299849999999999894e-01
-4.205599999999999894e-01 -2.002760000000000096e-01 -2.755799999999999916e-02
4.632850000000000024e-01 6.037000000000000005e-02 5.319000000000000117e-02
6.432010000000000227e-01 1.528430000000000066e-01 -1.457499999999999941e-02
-2.258850000000000025e-01 3.247900000000000231e-01 -9.708799999999999375e-02
-2.258110000000000117e-01 -1.732869999999999966e-01 1.682180000000000064e-01
-9.728100000000000636e-02 -7.539300000000000168e-02 -1.269619999999999915e-01
-2.077050000000000007e-01 -1.052779999999999966e-01 1.457690000000000097e-01
-3.031940000000000190e-01 -1.896490000000000120e-01 -1.520970000000000100e-01
4.442000000000000115e-02 1.022910000000000069e-01 2.493430000000000091e-01
6.370829999999999549e-01 -2.373409999999999964e-01 -9.125600000000000378e-02
1.673169999999999935e-01 6.119499999999999940e-02 4.956499999999999795e-02
4.054639999999999911e-01 1.879419999999999980e-01 -9.169900000000000273e-02
-2.330029999999999879e-01 -4.235699999999999882e-02 6.323399999999999854e-02
-2.514500000000000068e-02 -1.544510000000000050e-01 7.457900000000000640e-02
2.626749999999999918e-01 2.510859999999999759e-01 2.650399999999999978e-02
5.037260000000000071e-01 1.630179999999999962e-01 -9.052000000000000324e-02
2.645150000000000001e-01 -1.561909999999999965e-01 -7.520499999999999408e-02
-2.867730000000000001e-01 2.142890000000000073e-01 1.225939999999999946e-01
8.866000000000000270e-02 2.073049999999999893e-01 -1.338779999999999970e-01
-3.890750000000000042e-01 2.245679999999999898e-01 -1.051190000000000041e-01
7.377299999999999969e-01 -1.577449999999999963e-01 3.081800000000000164e-02
4.439759999999999818e-01 2.280119999999999925e-01 -1.934579999999999911e-01
5.670900000000000246e-02 -2.475620000000000043e-01 5.585999999999999993e-02
1.980669999999999931e-01 -1.736250000000000016e-01 1.827030000000000043e-01
-5.240899999999999725e-02 1.542050000000000087e-01 8.057999999999999191e-03
-4.595799999999999885e-01 2.181740000000000068e-01 -5.727700000000000152e-02
2.609099999999999753e-01 -1.655799999999999980e-02 1.874200000000000171e-02
-2.061199999999999838e-02 8.450000000000000479e-04 4.204100000000000198e-02
-1.895809999999999995e-01 -1.062759999999999955e-01 1.873700000000000088e-01
-1.905940000000000134e-01 -1.835930000000000062e-01 -1.338540000000000008e-01
-1.322949999999999959e-01 9.895500000000000129e-02 7.197800000000000031e-02
-1.133220000000000061e-01 -1.754429999999999878e-01 8.639700000000000157e-02
3.996520000000000072e-01 -2.568389999999999840e-01 -9.590899999999999426e-02
-3.059379999999999877e-01 3.122530000000000028e-01 5.303399999999999781e-02
-3.514439999999999786e-01 2.467830000000000024e-01 -4.214500000000000191e-02
1.727199999999999916e-02 2.536999999999999811e-01 3.029700000000000101e-02
4.733500000000000207e-02 1.771129999999999927e-01 3.921999999999999792e-02
-5.285549999999999971e-01 2.988290000000000113e-01 3.334399999999999864e-02
-2.223860000000000003e-01 1.018209999999999948e-01 7.835999999999999216e-03
5.955819999999999448e-01 -2.476420000000000010e-01 -2.586099999999999857e-02
-1.890709999999999891e-01 3.233179999999999943e-01 -5.523100000000000231e-02
-2.252709999999999990e-01 -7.453500000000000403e-02 -1.288640000000000063e-01
2.693610000000000171e-01 2.535499999999999976e-01 9.205800000000000094e-02
2.691640000000000144e-01 -1.823670000000000013e-01 -1.695709999999999995e-01
3.960139999999999771e-01 7.033300000000000662e-02 4.680499999999999938e-02
4.151179999999999870e-01 2.189129999999999965e-01 2.958399999999999919e-02
-2.888260000000000272e-01 3.227000000000000007e-02 9.634999999999999468e-03
-3.536000000000000254e-02 8.590100000000000513e-02 3.456599999999999950e-02
-5.307190000000000518e-01 2.593489999999999962e-01 -9.714000000000000412e-03
-2.004450000000000121e-01 -1.633880000000000055e-01 6.825900000000000023e-02
1.725460000000000049e-01 -1.023040000000000060e-01 2.087500000000000119e-02
4.427229999999999777e-01 2.599399999999999974e-02 1.304520000000000124e-01
2.915159999999999973e-01 -1.581440000000000068e-01 -7.488300000000000511e-02
3.322900000000000159e-02 2.244000000000000161e-02 1.879619999999999902e-01
-5.945899999999999797e-02 -3.809999999999999910e-04 -1.272099999999999898e-01
1.596299999999999941e-01 -9.520999999999999949e-03 -1.239790000000000059e-01
3.258730000000000238e-01 2.288830000000000031e-01 -1.685199999999999892e-02
8.513700000000000434e-02 -6.076999999999999763e-02 1.936170000000000113e-01
-2.639810000000000212e-01 -1.750009999999999899e-01 1.129430000000000017e-01
5.034579999999999611e-01 -1.828750000000000098e-01 3.259000000000000091e-02
-3.745319999999999760e-01 9.493000000000000049e-02 -1.328739999999999921e-01
1.142429999999999973e-01 1.344269999999999909e-01 -1.323229999999999962e-01
-1.722869999999999957e-01 3.019029999999999769e-01 1.456530000000000047e-01
3.133179999999999854e-01 2.050869999999999915e-01 1.720359999999999945e-01
5.152250000000000441e-01 1.842779999999999974e-01 -1.782299999999999857e-02
6.894059999999999633e-01 1.471750000000000003e-01 -7.609299999999999398e-02
4.496300000000000296e-02 2.206180000000000085e-01 -1.985740000000000005e-01
3.366999999999999854e-02 3.096860000000000168e-01 1.228100000000000025e-02
4.165699999999999958e-01 5.868799999999999711e-02 1.789699999999999971e-02
-5.724900000000000128e-02 -1.729640000000000066e-01 1.904869999999999897e-01
3.711019999999999874e-01 -3.790299999999999919e-02 5.613499999999999740e-02
3.682300000000000018e-01 1.759860000000000035e-01 -9.754899999999999682e-02
3.380819999999999936e-01 -2.204190000000000038e-01 1.053489999999999982e-01
9.527700000000000058e-02 1.916869999999999963e-01 -4.199300000000000255e-02
7.975599999999999357e-02 1.587780000000000025e-01 4.474299999999999805e-02
1.490529999999999911e-01 -1.106769999999999976e-01 -1.227189999999999948e-01
-2.639589999999999992e-01 2.456069999999999920e-01 1.019319999999999948e-01
-7.921000000000000263e-02 -1.818869999999999931e-01 -1.195520000000000055e-01
4.073109999999999786e-01 -5.465799999999999825e-02 -1.172009999999999996e-01
2.887410000000000254e-01 6.651700000000000668e-02 1.834240000000000037e-01
-2.592729999999999757e-01 -1.042160000000000031e-01 1.527000000000000059e-02
-1.112609999999999988e-01 -1.723739999999999994e-01 -1.717200000000000115e-01
5.373959999999999848e-01 -2.834820000000000118e-01 3.150599999999999928e-02
3.723400000000000321e-02 2.377420000000000089e-01 -1.855120000000000102e-01
6.575020000000000309e-01 -2.241279999999999939e-01 -4.512800000000000145e-02
-1.633099999999999830e-02 2.697370000000000045e-01 -1.874540000000000095e-01
1.433949999999999947e-01 -1.965510000000000035e-01 -1.206890000000000046e-01
1.876029999999999920e-01 -2.148359999999999992e-01 -1.798949999999999994e-01
6.019250000000000433e-01 -2.683840000000000114e-01 2.423999999999999939e-03
9.238200000000000578e-02 -2.589779999999999860e-01 4.364099999999999924e-02
3.330859999999999932e-01 1.712180000000000091e-01 -1.264389999999999958e-01
-3.560650000000000204e-01 3.086209999999999787e-01 5.251399999999999818e-02
3.874340000000000006e-01 -2.591240000000000210e-01 3.831500000000000183e-02
4.284479999999999955e-01 -2.897830000000000128e-01 -1.915800000000000142e-02
6.148000000000000131e-01 -1.786419999999999952e-01 5.890000000000000270e-03
1.164909999999999973e-01 -2.306370000000000087e-01 1.767930000000000057e-01
-3.123909999999999743e-01 -5.350999999999999854e-03 6.624099999999999433e-02
1.475349999999999995e-01 -1.456119999999999914e-01 -2.006799999999999903e-02
5.794899999999999496e-01 -2.892080000000000206e-01 -4.067699999999999788e-02
1.007500000000000062e-02 -1.117849999999999955e-01 1.910299999999999845e-02
-2.559270000000000156e-01 3.326040000000000108e-01 -7.254900000000000237e-02
5.646550000000000180e-01 -2.550640000000000129e-01 -1.204859999999999959e-01
-4.515230000000000077e-01 -3.584999999999999992e-02 -5.761000000000000149e-02
3.005729999999999791e-01 -1.216050000000000048e-01 1.863110000000000044e-01
8.563619999999999566e-01 -2.071800000000000030e-02 1.633469999999999922e-01
1.371680000000000121e-01 1.031559999999999977e-01 1.251299999999999982e-02
2.907739999999999769e-01 1.796020000000000116e-01 2.061499999999999999e-01
-1.026090000000000058e-01 -7.652100000000000568e-02 2.034070000000000045e-01
7.293199999999999683e-02 1.900969999999999882e-01 -1.278050000000000019e-01
5.096129999999999827e-01 -2.654059999999999753e-01 -1.525070000000000037e-01
-7.066500000000000559e-02 1.440819999999999879e-01 1.990830000000000100e-01
-2.487010000000000054e-01 -1.684170000000000111e-01 7.226100000000000578e-02
4.057089999999999863e-01 -2.105059999999999987e-01 -1.559999999999999972e-04
-3.266390000000000127e-01 2.415170000000000095e-01 -1.166679999999999939e-01
3.275589999999999891e-01 -2.316320000000000046e-01 8.132399999999999352e-02
-2.873249999999999971e-01 2.200920000000000099e-01 6.165999999999999953e-02
8.975400000000000045e-02 -2.363169999999999993e-01 -1.301710000000000089e-01
-2.272079999999999933e-01 3.283539999999999792e-01 3.866000000000000079e-03
-1.701320000000000054e-01 -1.527469999999999939e-01 6.310999999999999943e-02
5.170839999999999881e-01 -1.884520000000000084e-01 3.286800000000000138e-02
-4.563740000000000019e-01 -1.003460000000000046e-01 -4.532200000000000117e-02
4.793529999999999736e-01 -1.709229999999999916e-01 -5.115399999999999808e-02
3.434039999999999870e-01 2.010679999999999967e-01 3.286100000000000132e-02
6.158000000000000279e-03 -1.370329999999999881e-01 -6.567000000000000615e-02
2.589279999999999915e-01 -7.675200000000000078e-02 5.612000000000000322e-02
-3.294980000000000131e-01 6.244600000000000151e-02 6.232499999999999846e-02
6.786579999999999835e-01 1.989309999999999967e-01 -1.008519999999999972e-01
1.342639999999999945e-01 -1.653519999999999990e-01 1.824610000000000121e-01
4.979410000000000225e-01 3.800599999999999812e-02 -1.066970000000000002e-01
3.908329999999999860e-01 -2.328649999999999887e-01 6.549999999999999833e-04
-3.339600000000000207e-02 2.704300000000000037e-01 1.065310000000000007e-01
2.302109999999999990e-01 -1.842489999999999961e-01 -1.804949999999999888e-01
-2.260679999999999912e-01 1.399819999999999953e-01 6.070500000000000201e-02
6.318890000000000340e-01 -2.921650000000000080e-01 -1.782900000000000110e-02
-2.903649999999999842e-01 1.380800000000000083e-02 1.032500000000000084e-02
2.823910000000000031e-01 8.944399999999999573e-02 1.814759999999999984e-01
-3.521070000000000033e-01 1.672240000000000115e-01 -1.387490000000000112e-01
8.933999999999999234e-03 -1.561670000000000003e-01 -9.389200000000000323e-02
5.133170000000000233e-01 1.060799999999999937e-02 1.301180000000000114e-01
9.559729999999999617e-01 -2.777699999999999961e-02 1.710820000000000118e-01
-1.635890000000000122e-01 3.027210000000000178e-01 1.008600000000000052e-01
4.152020000000000155e-01 6.459800000000000264e-02 1.247560000000000058e-01
1.425379999999999980e-01 -1.561240000000000128e-01 -8.276100000000000123e-02
-7.674400000000000666e-02 -9.785399999999999654e-02 1.886909999999999976e-01
1.429809999999999970e-01 -2.514440000000000008e-01 -1.763010000000000133e-01
-1.574059999999999904e-01 1.972619999999999929e-01 1.759139999999999870e-01
-3.234540000000000193e-01 4.744299999999999906e-02 -1.292349999999999888e-01
-1.763490000000000058e-01 -2.462139999999999884e-01 -6.374000000000000499e-02
4.219899999999999762e-01 -2.864530000000000132e-01 2.437399999999999983e-02
-6.004199999999999815e-02 -1.836409999999999987e-01 -2.121000000000000055e-03
2.624799999999999911e-01 1.805849999999999955e-01 -9.019699999999999940e-02
-1.788270000000000137e-01 -2.444030000000000091e-01 -2.023600000000000051e-02
-7.135600000000000276e-02 -1.791939999999999922e-01 1.191370000000000068e-01
-1.275199999999999945e-02 -2.335129999999999983e-01 5.684399999999999870e-02
1.374720000000000109e-01 -1.117289999999999950e-01 1.931700000000000084e-01
-3.421939999999999982e-01 -2.117610000000000048e-01 7.269699999999999773e-02
-8.722499999999999698e-02 2.223150000000000126e-01 -1.311859999999999971e-01
-4.024119999999999919e-01 3.514169999999999794e-01 -1.706900000000000084e-02
1.620550000000000046e-01 -2.525890000000000080e-01 -1.697980000000000045e-01
-1.471230000000000038e-01 -1.729430000000000134e-01 -1.659000000000000058e-02
-2.232530000000000070e-01 2.162550000000000028e-01 -1.346100000000000074e-01
-2.804369999999999918e-01 -1.737039999999999973e-01 -9.189500000000000446e-02
-4.413320000000000021e-01 1.080050000000000038e-01 -3.173299999999999732e-02
2.197999999999999867e-03 2.543190000000000173e-01 -2.004489999999999883e-01
-3.252869999999999928e-01 3.224190000000000111e-01 5.238899999999999807e-02
8.277700000000000335e-02 -1.978979999999999906e-01 -1.819659999999999889e-01
2.631430000000000158e-01 2.164939999999999920e-01 4.537900000000000267e-02
-3.396489999999999787e-01 -2.316300000000000026e-01 8.323000000000000537e-03
2.192959999999999909e-01 3.045640000000000014e-01 -6.004899999999999821e-02
6.585250000000000270e-01 -2.388270000000000115e-01 -3.660599999999999965e-02
6.180189999999999850e-01 -2.137350000000000083e-01 -1.200839999999999963e-01
6.002920000000000478e-01 -2.071300000000000086e-01 -1.263100000000000056e-01
-3.617060000000000275e-01 -1.737430000000000085e-01 -8.999899999999999567e-02
-2.872290000000000121e-01 -9.540600000000000469e-02 6.455900000000000527e-02
2.761419999999999986e-01 1.009020000000000056e-01 1.893130000000000090e-01
2.878760000000000208e-01 -3.511000000000000232e-02 1.890759999999999941e-01
6.677539999999999587e-01 -3.065860000000000252e-01 -3.562400000000000289e-02
-3.934989999999999877e-01 3.025470000000000104e-01 6.501099999999999934e-02
5.071400000000000213e-02 1.455510000000000137e-01 2.652010000000000201e-01
5.109920000000000018e-01 2.828899999999999748e-01 -7.199600000000000444e-02
-1.074959999999999943e-01 1.624589999999999923e-01 -1.365919999999999912e-01
8.149000000000000687e-02 -9.206499999999999406e-02 1.926859999999999962e-01
5.038869999999999738e-01 2.433170000000000055e-01 -1.856079999999999952e-01
1.288179999999999881e-01 1.767960000000000087e-01 1.818809999999999871e-01
4.800590000000000135e-01 1.630679999999999907e-01 -9.660000000000000531e-02
4.813169999999999948e-01 2.488599999999999840e-02 1.140430000000000055e-01
-2.283959999999999879e-01 -9.516499999999999959e-02 7.088200000000000056e-02
-4.136250000000000204e-01 2.555800000000000086e-02 8.252000000000000654e-03
-3.267959999999999754e-01 -1.149509999999999976e-01 -1.229689999999999950e-01
7.311579999999999746e-01 1.428530000000000078e-01 -5.239400000000000307e-02
6.149769999999999959e-01 -2.727600000000000025e-01 -8.273400000000000198e-02
9.974399999999999933e-02 2.560120000000000173e-01 4.731300000000000089e-02
-3.454639999999999933e-01 1.684930000000000039e-01 4.845399999999999707e-02
3.957169999999999854e-01 2.560290000000000066e-01 -1.951890000000000014e-01
-8.070900000000000296e-02 3.184239999999999848e-01 2.335500000000000076e-02
-1.371410000000000129e-01 2.999399999999999983e-02 2.022009999999999919e-01
4.563440000000000274e-01 -1.724980000000000124e-01 -6.162100000000000216e-02
1.295299999999999924e-02 -2.029019999999999990e-01 -1.827179999999999915e-01
-4.354140000000000232e-01 2.024340000000000028e-01 2.460999999999999993e-02
1.200459999999999999e-01 -9.063200000000000423e-02 1.931609999999999994e-01
-4.928540000000000143e-01 2.485930000000000084e-01 2.890900000000000067e-02
-4.550679999999999725e-01 9.546000000000000318e-02 5.122700000000000170e-02
4.403150000000000119e-01 3.080600000000000005e-02 1.609700000000000020e-01
1.750300000000000120e-02 1.821010000000000129e-01 1.819230000000000014e-01
6.496399999999999397e-02 1.163229999999999958e-01 4.616499999999999770e-02
4.087500000000000022e-01 -2.324700000000000100e-01 6.769999999999999759e-04
4.590999999999999942e-02 8.881000000000000005e-02 2.457229999999999970e-01
-4.346180000000000043e-01 2.455479999999999885e-01 6.073800000000000032e-02
-3.499249999999999861e-01 -1.270509999999999973e-01 -5.519000000000000294e-02
-4.532900000000000124e-02 -2.066089999999999871e-01 1.719229999999999925e-01
4.474299999999999944e-01 -2.519190000000000040e-01 -1.528289999999999926e-01
3.191160000000000108e-01 1.755670000000000008e-01 -3.750499999999999667e-02
5.122700000000000170e-02 -2.502719999999999945e-01 -2.750299999999999967e-02
4.126340000000000008e-01 2.538949999999999818e-01 2.345699999999999869e-02
-4.768390000000000128e-01 2.063939999999999941e-01 -5.535400000000000043e-02
-1.374640000000000029e-01 2.021219999999999961e-01 4.102999999999999703e-02
5.098390000000000422e-01 1.618120000000000114e-01 -3.420600000000000029e-02
-4.208009999999999806e-01 2.271229999999999916e-01 -9.855600000000000471e-02
3.054580000000000073e-01 -1.799379999999999868e-01 6.471899999999999875e-02
-3.034259999999999735e-01 -1.894730000000000025e-01 -1.628699999999999939e-02
-3.564200000000000146e-01 -1.462720000000000131e-01 -1.339200000000000113e-01
-1.529099999999999904e-01 3.276839999999999753e-01 1.217499999999999971e-01
-2.618869999999999809e-01 -2.281189999999999884e-01 -4.436199999999999866e-02
5.216870000000000118e-01 -1.775559999999999916e-01 -6.970200000000000007e-02
-4.444960000000000022e-01 2.284319999999999962e-01 4.681600000000000344e-02
-8.479299999999999338e-02 2.056240000000000012e-01 -1.975999999999999979e-02
5.581660000000000510e-01 1.051969999999999988e-01 -1.028730000000000061e-01
4.639380000000000170e-01 -2.629369999999999763e-01 -1.139280000000000015e-01
-9.943699999999999761e-02 -1.002249999999999946e-01 7.643899999999999306e-02
-1.835269999999999957e-01 -1.744050000000000045e-01 -1.726040000000000074e-01
-4.411470000000000113e-01 1.293640000000000068e-01 5.344700000000000145e-02
2.150070000000000037e-01 1.818849999999999911e-01 -7.108200000000000629e-02
5.468499999999999472e-01 2.230999999999999928e-01 1.744300000000000017e-02
-1.484010000000000051e-01 -1.987460000000000060e-01 6.080100000000000088e-02
5.403569999999999762e-01 2.293100000000000138e-01 -1.642899999999999916e-02
-1.549290000000000112e-01 2.115269999999999928e-01 8.273999999999999411e-02
4.579699999999999882e-01 7.742100000000000370e-02 -1.170640000000000014e-01
7.138999999999999790e-01 -1.817280000000000006e-01 9.634999999999999468e-03
3.276419999999999888e-01 9.597200000000000175e-02 -1.268100000000000060e-01
-1.024339999999999973e-01 3.045490000000000141e-01 1.157109999999999944e-01
2.414080000000000115e-01 -2.450360000000000038e-01 -1.308400000000000014e-02
-4.751420000000000088e-01 6.629999999999999609e-03 4.605299999999999672e-02
-4.993399999999999922e-02 6.508300000000000196e-02 1.151600000000000019e-02
-2.686810000000000032e-01 -1.228960000000000052e-01 1.129069999999999935e-01
2.844749999999999779e-01 -1.098599999999999993e-01 1.897830000000000072e-01
5.847109999999999808e-01 -2.699159999999999893e-01 -6.562500000000000278e-02
-9.016699999999999715e-02 2.916739999999999888e-01 -1.576480000000000103e-01
-1.786739999999999995e-01 -1.717670000000000030e-01 -2.811000000000000131e-03
1.311890000000000001e-01 -1.247049999999999964e-01 5.629300000000000276e-02
6.894559999999999578e-01 2.312180000000000069e-01 -4.892099999999999921e-02
1.514359999999999873e-01 1.920679999999999887e-01 4.440299999999999803e-02
-1.880749999999999922e-01 6.209800000000000042e-02 9.813999999999999807e-03
-5.282369999999999566e-01 3.003080000000000194e-01 2.004799999999999985e-02
-1.548819999999999919e-01 2.476029999999999898e-01 -1.244579999999999992e-01
-1.927349999999999897e-01 2.031370000000000120e-01 5.782199999999999840e-02
-1.499649999999999872e-01 2.213970000000000105e-01 4.268799999999999678e-02
8.676399999999999391e-02 2.374769999999999937e-01 4.876400000000000179e-02
-6.673099999999999865e-02 -2.541829999999999923e-01 -7.274300000000000210e-02
2.853029999999999733e-01 -2.226859999999999951e-01 -1.383500000000000008e-02
5.531260000000000066e-01 1.742730000000000112e-01 1.932100000000000137e-02
-4.569599999999999773e-01 1.091199999999999982e-02 5.712099999999999816e-02
-4.252110000000000056e-01 3.424340000000000162e-01 3.565900000000000319e-02
4.397730000000000250e-01 1.931249999999999911e-01 -1.527300000000000012e-02
-1.114699999999999996e-01 2.186919999999999975e-01 5.303499999999999881e-02
7.023930000000000451e-01 2.466859999999999886e-01 -7.064399999999999846e-02
-4.011939999999999951e-01 2.503929999999999767e-01 -8.876000000000000556e-02
-1.036890000000000034e-01 2.226490000000000136e-01 -1.957409999999999983e-01
-2.165449999999999875e-01 -9.818000000000000338e-02 1.381320000000000048e-01
5.691880000000000273e-01 1.169909999999999978e-01 1.295600000000000050e-02
-2.650089999999999946e-01 -6.046900000000000192e-02 1.105560000000000015e-01
6.293659999999999810e-01 1.788000000000000093e-03 1.421070000000000111e-01
1.423969999999999958e-01 2.653200000000000003e-01 -3.248899999999999705e-02
-1.426709999999999923e-01 7.035199999999999787e-02 -1.303030000000000022e-01
-7.192400000000000182e-02 4.763499999999999679e-02 -1.282709999999999961e-01
-3.656100000000000322e-02 -2.053679999999999950e-01 1.738089999999999913e-01
2.282559999999999867e-01 2.253580000000000028e-01 1.556420000000000026e-01
-2.342569999999999930e-01 -1.901059999999999972e-01 -1.300739999999999952e-01
-2.366020000000000068e-01 9.042500000000000537e-02 6.247199999999999975e-02
2.235179999999999945e-01 -7.465299999999999714e-02 2.007099999999999995e-01
5.827379999999999782e-01 -1.781290000000000096e-01 -4.267900000000000166e-02
-2.073200000000000043e-02 1.807209999999999928e-01 1.934400000000000008e-01
1.034120000000000039e-01 -1.474360000000000115e-01 -7.817899999999999849e-02
2.164550000000000085e-01 -2.216110000000000024e-01 -1.360659999999999925e-01
1.328110000000000124e-01 -1.432690000000000075e-01 1.386100000000000006e-02
-2.592849999999999877e-01 1.235089999999999938e-01 -1.349420000000000064e-01
2.495100000000000096e-02 -1.423190000000000011e-01 -9.397099999999999898e-02
-4.096279999999999921e-01 -1.848909999999999998e-01 8.307000000000000495e-02
5.109409999999999785e-01 -2.417300000000000004e-01 -1.265800000000000085e-02
6.101800000000000279e-02 1.989710000000000090e-01 -9.600499999999999312e-02
-3.799520000000000119e-01 -1.319210000000000105e-01 -9.479799999999999338e-02
1.698340000000000127e-01 -1.017799999999999955e-01 1.941879999999999995e-01
-4.020610000000000017e-01 -1.819709999999999939e-01 -1.874299999999999924e-02
7.096059999999999590e-01 2.180590000000000028e-01 -8.772199999999999442e-02
2.256160000000000110e-01 2.820960000000000134e-01 1.684170000000000111e-01
5.183079999999999909e-01 4.158400000000000291e-02 3.837999999999999745e-02
1.123630000000000045e-01 -2.176800000000000124e-01 1.944359999999999977e-01
-3.175899999999999834e-01 3.155839999999999756e-01 -3.531900000000000317e-02
4.783649999999999847e-01 -1.057619999999999949e-01 -1.052379999999999982e-01
-3.187090000000000201e-01 -8.011699999999999378e-02 1.795489999999999864e-01
1.548799999999999899e-01 1.898849999999999982e-01 -1.039859999999999951e-01
2.787789999999999990e-01 -2.788769999999999860e-01 -5.156299999999999772e-02
2.930420000000000247e-01 2.158140000000000058e-01 -1.950320000000000109e-01
7.351900000000000102e-02 -2.178579999999999961e-01 1.253110000000000057e-01
6.732599999999999696e-01 2.006670000000000120e-01 -1.111919999999999992e-01
-3.586269999999999736e-01 2.036759999999999959e-01 -1.417529999999999901e-01
-1.206199999999999981e-02 -6.810700000000000087e-02 1.713299999999999892e-02
-1.328400000000000136e-01 2.441290000000000127e-01 -1.065050000000000024e-01
-3.110539999999999972e-01 -1.480489999999999862e-01 -1.769880000000000064e-01
4.091969999999999774e-01 2.895299999999999957e-02 -1.193929999999999991e-01
-4.879129999999999856e-01 6.188400000000000151e-02 -1.485000000000000035e-02
1.227879999999999944e-01 2.416840000000000099e-01 1.430960000000000010e-01
-1.117899999999999970e-02 -1.983570000000000055e-01 1.170360000000000011e-01
6.690679999999999961e-01 2.298159999999999925e-01 -3.831799999999999790e-02
2.887999999999999942e-02 -1.380720000000000003e-01 -4.927900000000000336e-02
4.855760000000000076e-01 2.850420000000000176e-01 -6.391600000000000059e-02
-5.237570000000000281e-01 3.487350000000000172e-01 -3.518400000000000000e-02
-4.868790000000000062e-01 6.186999999999999791e-03 3.919899999999999773e-02
-4.565899999999999820e-02 1.176869999999999999e-01 3.519699999999999912e-02
-2.333780000000000021e-01 1.289430000000000021e-01 1.065379999999999938e-01
4.263540000000000108e-01 1.761739999999999973e-01 1.533460000000000101e-01
-1.008000000000000042e-02 -7.883900000000000630e-02 1.757200000000000081e-02
-2.869650000000000256e-01 -1.964730000000000087e-01 -1.599000000000000074e-02
-3.071909999999999918e-01 -1.053120000000000028e-01 6.380500000000000060e-02
-2.536129999999999773e-01 -1.495029999999999970e-01 1.170059999999999989e-01
-3.626269999999999771e-01 -1.469679999999999875e-01 6.993800000000000017e-02
-3.504380000000000273e-01 -1.059780000000000028e-01 6.727900000000000547e-02
1.986500000000000071e-02 2.820429999999999882e-01 -1.157090000000000063e-01
2.012629999999999975e-01 -2.066280000000000061e-01 1.143350000000000061e-01
5.553869999999999640e-01 1.594999999999999890e-02 2.396900000000000072e-02
-2.255860000000000087e-01 -1.734850000000000003e-01 1.531639999999999946e-01
2.474089999999999900e-01 -1.601329999999999976e-01 -8.382900000000000074e-02
-1.555439999999999878e-01 6.499900000000000122e-02 5.362700000000000106e-02
1.560819999999999985e-01 -1.182359999999999939e-01 1.937200000000000033e-01
7.683700000000000252e-02 9.018199999999999827e-02 2.482640000000000124e-01
-2.959950000000000081e-01 1.332230000000000081e-01 5.661000000000000233e-03
3.499479999999999813e-01 -2.210139999999999882e-01 -1.774600000000000066e-01
4.899959999999999871e-01 2.272909999999999930e-01 2.181200000000000153e-02
-8.847399999999999709e-02 -2.514359999999999928e-01 -3.243599999999999955e-02
3.357740000000000169e-01 1.077749999999999958e-01 -1.276229999999999865e-01
6.364269999999999650e-01 1.425029999999999908e-01 6.297999999999999779e-03
-1.713320000000000121e-01 7.876199999999999868e-02 9.393999999999999573e-03
2.779220000000000024e-01 -1.769010000000000027e-01 -6.709999999999999819e-03
-3.375130000000000075e-01 3.097809999999999730e-01 -8.401799999999999546e-02
2.864500000000000032e-02 2.801020000000000176e-01 -1.938799999999999898e-02
-3.663790000000000102e-01 -1.323999999999999899e-01 -6.338399999999999590e-02
4.995910000000000073e-01 2.117269999999999985e-01 -1.156739999999999990e-01
1.201310000000000017e-01 -1.816820000000000102e-01 1.520549999999999957e-01
3.666730000000000267e-01 -2.261960000000000082e-01 -1.770349999999999979e-01
-1.882659999999999889e-01 2.377120000000000066e-01 -1.885100000000000109e-01
5.661990000000000078e-01 -1.229829999999999951e-01 -8.988000000000000156e-02
-2.546959999999999780e-01 2.484300000000000119e-01 4.913100000000000106e-02
5.152290000000000481e-01 1.198449999999999932e-01 1.684400000000000133e-02
4.114430000000000032e-01 -5.030699999999999755e-02 4.199800000000000061e-02
1.049139999999999934e-01 3.118400000000000061e-01 -8.802500000000000602e-02
5.628640000000000310e-01 2.535430000000000184e-01 -1.586180000000000090e-01
-3.664390000000000147e-01 -2.187669999999999892e-01 2.160000000000000028e-03
-4.198350000000000137e-01 9.137000000000000677e-02 6.002500000000000197e-02
-4.621700000000000114e-02 2.204909999999999926e-01 -1.002289999999999986e-01
1.753020000000000134e-01 2.018429999999999946e-01 -9.524100000000000621e-02
5.156800000000000272e-02 -2.158480000000000121e-01 -1.678830000000000044e-01
5.122149999999999759e-01 2.715020000000000211e-01 -7.614500000000000435e-02
-3.892820000000000169e-01 3.016420000000000212e-01 -9.115199999999999692e-02
-4.333900000000000252e-02 2.040700000000000014e-01 -1.103849999999999970e-01
-2.722249999999999948e-01 -5.723400000000000015e-02 1.329400000000000026e-02
5.407929999999999682e-01 2.549330000000000207e-01 -1.643900000000000083e-01
1.970609999999999862e-01 -1.546210000000000084e-01 1.900910000000000100e-01
5.170940000000000536e-01 -3.204999999999999950e-03 4.161299999999999721e-02
-6.199799999999999756e-02 1.314300000000000017e-02 4.095100000000000129e-02
1.596190000000000109e-01 1.467559999999999976e-01 1.113300000000000053e-02
3.591070000000000095e-01 -6.211499999999999660e-02 5.586399999999999699e-02
-4.647199999999999942e-02 1.181979999999999975e-01 3.529999999999999805e-02
2.941650000000000098e-01 -4.797400000000000275e-02 -1.203700000000000048e-01
-4.328499999999999709e-02 2.016560000000000019e-01 -1.216610000000000053e-01
-4.004420000000000202e-01 1.215439999999999993e-01 -1.224429999999999963e-01
6.548199999999999854e-02 -2.496539999999999870e-01 2.527499999999999886e-02
-4.082239999999999758e-01 1.329400000000000026e-02 6.317899999999999905e-02
6.758830000000000116e-01 -2.162119999999999875e-01 -7.809299999999999575e-02
5.111080000000000068e-01 1.604639999999999955e-01 2.079999999999999905e-02
-2.462199999999999944e-01 3.241100000000000231e-02 1.018999999999999941e-02
-1.955409999999999926e-01 -1.499399999999999900e-01 1.377049999999999941e-01
2.379219999999999946e-01 -1.535100000000000076e-01 -5.530899999999999705e-02
4.924850000000000061e-01 1.623590000000000033e-01 -5.331500000000000128e-02
2.937150000000000039e-01 1.863710000000000089e-01 -1.122930000000000039e-01
-3.491449999999999831e-01 -2.094499999999999973e-01 7.251699999999999813e-02
4.533769999999999745e-01 -1.917270000000000085e-01 -1.050060000000000021e-01
4.747739999999999738e-01 2.311189999999999911e-01 -1.794370000000000132e-01
6.302769999999999762e-01 -2.457310000000000050e-01 -9.303300000000000458e-02
-4.123760000000000203e-01 5.574500000000000288e-02 6.149299999999999905e-02
1.640979999999999939e-01 -1.369399999999999958e-02 5.240100000000000313e-02
6.476399999999999935e-01 -1.822590000000000043e-01 -2.685799999999999993e-02
2.396580000000000099e-01 8.614099999999999535e-02 1.451500000000000012e-02
5.096300000000000135e-02 6.367200000000000637e-02 2.272250000000000103e-01
4.290289999999999937e-01 1.643610000000000071e-01 -1.230910000000000060e-01
5.461999999999999841e-03 2.503290000000000237e-01 1.492529999999999968e-01
-1.186870000000000008e-01 -1.886289999999999911e-01 5.576199999999999907e-02
-3.699350000000000138e-01 -1.602600000000000136e-01 -9.446000000000000230e-02
3.212249999999999828e-01 7.182900000000000396e-02 1.823599999999999943e-01
2.677979999999999805e-01 -1.606809999999999905e-01 -1.124079999999999940e-01
-8.681899999999999340e-02 -1.993630000000000124e-01 -1.703580000000000094e-01
5.849800000000000555e-01 2.692720000000000113e-01 5.656999999999999702e-03
-1.400909999999999933e-01 -1.639730000000000076e-01 -1.647129999999999983e-01
2.306159999999999877e-01 1.587899999999999867e-01 1.160399999999999973e-02
3.754540000000000100e-01 -2.835170000000000190e-01 1.235400000000000040e-02
-3.555360000000000187e-01 3.247630000000000239e-01 -4.289400000000000157e-02
4.099010000000000153e-01 -6.499999999999999702e-03 1.355409999999999948e-01
9.196999999999999620e-02 2.630170000000000008e-01 4.036499999999999810e-02
-3.476100000000000023e-02 1.830199999999999882e-02 -1.268789999999999918e-01
4.029200000000000004e-01 -1.686340000000000061e-01 8.011300000000000365e-02
2.699349999999999805e-01 -1.510410000000000086e-01 1.880689999999999862e-01
-1.965800000000000047e-01 1.563269999999999937e-01 6.080000000000000335e-03
1.230350000000000055e-01 -7.019000000000000239e-02 1.898999999999999994e-02
5.909680000000000488e-01 -2.405249999999999888e-01 -3.021400000000000127e-02
1.340999999999999970e-01 -1.850199999999999900e-01 1.485690000000000066e-01
6.158099999999999685e-01 1.897389999999999910e-01 -5.632199999999999707e-02
