-2.380905598402023315e-01 2.713760435581207275e-01 -1.944550275802612305e-01
-2.487328052520751953e-01 2.859017848968505859e-01 -1.892041116952896118e-01
-2.564911544322967529e-01 2.900643944740295410e-01 -2.015141397714614868e-01
-2.682832777500152588e-01 3.049769401550292969e-01 -1.952755451202392578e-01
-2.410003691911697388e-01 2.984179854393005371e-01 -2.032747566699981689e-01
-2.513262927532196045e-01 3.134106695652008057e-01 -1.966097503900527954e-01
4.426923692226409912e-01 1.254668682813644409e-01 -1.256765872240066528e-01
4.373977482318878174e-01 1.379812806844711304e-01 -1.215043812990188599e-01
4.555367529392242432e-01 1.222185045480728149e-01 -1.202629804611206055e-01
4.493001699447631836e-01 1.361484527587890625e-01 -1.178039386868476868e-01
4.309664964675903320e-01 -6.978160142898559570e-02 6.004513800144195557e-02
4.272495508193969727e-01 -5.818441882729530334e-02 6.190237402915954590e-02
4.410749077796936035e-01 -6.667682528495788574e-02 6.022542715072631836e-02
4.376208484172821045e-01 -5.499440059065818787e-02 6.243016570806503296e-02
2.709538210183382034e-03 -5.971472710371017456e-02 4.235599562525749207e-02
-1.432458288036286831e-03 -4.536639526486396790e-02 4.370261728763580322e-02
1.856428384780883789e-02 -5.260731279850006104e-02 4.705879092216491699e-02
1.270580850541591644e-02 -3.708205744624137878e-02 4.858085513114929199e-02
5.199274420738220215e-02 -5.273037776350975037e-02 1.920990049839019775e-01
5.178690701723098755e-02 -3.851697593927383423e-02 1.914529204368591309e-01
6.409426778554916382e-02 -4.794395714998245239e-02 1.916110962629318237e-01
6.381193548440933228e-02 -3.421475738286972046e-02 1.909974962472915649e-01
-3.834189772605895996e-01 -1.394116133451461792e-01 -1.111741736531257629e-02
-3.849048316478729248e-01 -1.262802630662918091e-01 -1.186185516417026520e-02
-3.738274872303009033e-01 -1.340517103672027588e-01 -3.929419908672571182e-03
-3.750500977039337158e-01 -1.209814101457595825e-01 -4.006962291896343231e-03
2.099484764039516449e-02 1.968332231044769287e-01 -1.272975206375122070e-01
1.451467908918857574e-02 1.965578347444534302e-01 -1.157717034220695496e-01
3.044082038104534149e-02 1.985905468463897705e-01 -1.187373623251914978e-01
2.232625521719455719e-02 1.983589529991149902e-01 -1.058375835418701172e-01
2.495348639786243439e-02 1.906632632017135620e-01 5.119425058364868164e-02
2.868094667792320251e-02 2.050823867321014404e-01 5.001606047153472900e-02
3.777137026190757751e-02 1.936873346567153931e-01 5.045919492840766907e-02
4.140443354845046997e-02 2.078392356634140015e-01 4.957574233412742615e-02
5.590301752090454102e-01 -1.180919408798217773e-01 2.636860869824886322e-02
5.597593188285827637e-01 -1.004727110266685486e-01 2.564248256385326385e-02
5.729338526725769043e-01 -1.168361604213714600e-01 2.605480328202247620e-02
5.742059946060180664e-01 -9.931402653455734253e-02 2.552532032132148743e-02
-9.161038696765899658e-02 1.947280317544937134e-01 -1.488814353942871094e-01
-9.560834616422653198e-02 1.952561885118484497e-01 -1.394401937723159790e-01
-8.202771097421646118e-02 1.956922411918640137e-01 -1.399447321891784668e-01
-8.470782637596130371e-02 1.967431306838989258e-01 -1.317276656627655029e-01
6.698072552680969238e-01 -2.533458173274993896e-01 -7.876116037368774414e-02
6.739525794982910156e-01 -2.411143332719802856e-01 -8.138972520828247070e-02
6.708266139030456543e-01 -2.509703636169433594e-01 -6.848572194576263428e-02
6.756162047386169434e-01 -2.385296821594238281e-01 -6.993259489536285400e-02
-4.739277660846710205e-01 1.639590263366699219e-01 -5.621833726763725281e-02
-4.727116525173187256e-01 1.765363067388534546e-01 -5.965145677328109741e-02
-4.755913913249969482e-01 1.629717350006103516e-01 -4.031782597303390503e-02
-4.749712049961090088e-01 1.752176880836486816e-01 -4.339169710874557495e-02
4.170566201210021973e-01 1.644959002733230591e-01 -1.160232722759246826e-01
4.118778407573699951e-01 1.697394549846649170e-01 -1.093316897749900818e-01
4.242644309997558594e-01 1.629407852888107300e-01 -1.089287176728248596e-01
4.188626706600189209e-01 1.697071790695190430e-01 -1.025857180356979370e-01
3.160592317581176758e-01 -1.691095083951950073e-01 1.963043957948684692e-02
3.084456026554107666e-01 -1.525389254093170166e-01 2.358172275125980377e-02
3.299651741981506348e-01 -1.650422513484954834e-01 1.743496581912040710e-02
3.207127749919891357e-01 -1.481353044509887695e-01 2.138220891356468201e-02
1.933470666408538818e-01 2.915898561477661133e-01 1.618297994136810303e-01
1.823211610317230225e-01 2.989849448204040527e-01 1.650791913270950317e-01
2.084571719169616699e-01 2.909656465053558350e-01 1.704570353031158447e-01
1.997900903224945068e-01 2.998400032520294189e-01 1.723731607198715210e-01
-7.598714530467987061e-02 -1.883506029844284058e-01 -1.823026388883590698e-01
-7.768628746271133423e-02 -1.749913394451141357e-01 -1.809156686067581177e-01
-6.442393362522125244e-02 -1.875050365924835205e-01 -1.764743030071258545e-01
-6.536818295717239380e-02 -1.722985804080963135e-01 -1.778769940137863159e-01
5.692089200019836426e-01 -3.558197990059852600e-02 2.279001660645008087e-02
5.677507519721984863e-01 -2.160956710577011108e-02 2.377207204699516296e-02
5.819270610809326172e-01 -3.371076285839080811e-02 2.207199484109878540e-02
5.805134177207946777e-01 -1.955911889672279358e-02 2.301173284649848938e-02
-2.050838619470596313e-01 1.232758015394210815e-01 9.669632650911808014e-03
-2.070156037807464600e-01 1.412595510482788086e-01 7.186957169324159622e-03
-1.843866556882858276e-01 1.263372004032135010e-01 8.723874576389789581e-03
-1.835987716913223267e-01 1.443636864423751831e-01 6.849739234894514084e-03
4.058163166046142578e-01 -2.839567363262176514e-01 -1.805783621966838837e-02
3.953995108604431152e-01 -2.794036865234375000e-01 -7.281663827598094940e-03
4.178667366504669189e-01 -2.848883569240570068e-01 -1.107275579124689102e-02
4.082291126251220703e-01 -2.804981470108032227e-01 -2.644336782395839691e-04
3.530767932534217834e-02 -1.325467824935913086e-01 -1.222516149282455444e-01
4.386537522077560425e-02 -1.259679496288299561e-01 -1.286561489105224609e-01
4.785700142383575439e-02 -1.344526857137680054e-01 -1.153807193040847778e-01
5.494171380996704102e-02 -1.271830201148986816e-01 -1.220636218786239624e-01
3.709544241428375244e-01 1.016965806484222412e-01 4.589916765689849854e-02
3.697182834148406982e-01 1.162859275937080383e-01 4.694749787449836731e-02
3.854988813400268555e-01 1.069540530443191528e-01 4.389514029026031494e-02
3.849127590656280518e-01 1.220143288373947144e-01 4.588381573557853699e-02
4.703942313790321350e-02 2.891614735126495361e-01 1.441895216703414917e-01
5.611588805913925171e-02 2.933469712734222412e-01 1.369860172271728516e-01
6.416531652212142944e-02 2.855493426322937012e-01 1.505383402109146118e-01
7.114838808774948120e-02 2.896341681480407715e-01 1.429997533559799194e-01
3.078766763210296631e-01 2.546373009681701660e-01 1.047217473387718201e-01
3.064849376678466797e-01 2.598235011100769043e-01 9.589750319719314575e-02
3.157308995723724365e-01 2.536712884902954102e-01 1.149793341755867004e-01
3.159534037113189697e-01 2.596278488636016846e-01 1.051373332738876343e-01
-4.329106509685516357e-01 -1.311829239130020142e-01 -7.668930292129516602e-02
-4.226136803627014160e-01 -1.178925484418869019e-01 -7.626752555370330811e-02
-4.274375736713409424e-01 -1.252334117889404297e-01 -6.646521389484405518e-02
-4.178537726402282715e-01 -1.126058772206306458e-01 -6.568625569343566895e-02
2.393173724412918091e-01 -2.259196043014526367e-01 -1.234636157751083374e-01
2.520157098770141602e-01 -2.156274020671844482e-01 -1.339768469333648682e-01
2.556420564651489258e-01 -2.272612452507019043e-01 -1.190615966916084290e-01
2.684742510318756104e-01 -2.171767354011535645e-01 -1.294843852519989014e-01
-2.989643514156341553e-01 -1.565301567316055298e-01 -1.779176741838455200e-01
-3.070873320102691650e-01 -1.473705470561981201e-01 -1.697923839092254639e-01
-2.860952615737915039e-01 -1.643821448087692261e-01 -1.753524988889694214e-01
-2.929417490959167480e-01 -1.556504070758819580e-01 -1.682594567537307739e-01
-1.996165513992309570e-01 -1.299943476915359497e-01 -1.247030049562454224e-01
-2.069147974252700806e-01 -1.265036016702651978e-01 -1.109221279621124268e-01
-1.879294365644454956e-01 -1.270432323217391968e-01 -1.152603849768638611e-01
-1.948770880699157715e-01 -1.237951517105102539e-01 -1.018139794468879700e-01
5.782054662704467773e-01 1.607772111892700195e-01 1.842088997364044189e-02
5.727933049201965332e-01 1.743684262037277222e-01 1.839463412761688232e-02
5.939859151840209961e-01 1.618086993694305420e-01 1.408085785806179047e-02
5.898392200469970703e-01 1.749818921089172363e-01 1.348714716732501984e-02
1.210272461175918579e-01 -3.667142242193222046e-02 -1.229797303676605225e-01
1.201168224215507507e-01 -1.269925944507122040e-02 -1.230145916342735291e-01
1.440645307302474976e-01 -3.559481352567672729e-02 -1.240527033805847168e-01
1.424757242202758789e-01 -1.119271293282508850e-02 -1.243064403533935547e-01
1.283636242151260376e-01 -1.355949342250823975e-01 5.364727601408958435e-02
1.260216683149337769e-01 -1.210967823863029480e-01 5.479879304766654968e-02
1.435429453849792480e-01 -1.311497390270233154e-01 5.317321792244911194e-02
1.404953300952911377e-01 -1.156158745288848877e-01 5.362626910209655762e-02
5.128112621605396271e-03 -1.418270766735076904e-01 -1.120221316814422607e-01
1.552660204470157623e-02 -1.369057893753051758e-01 -1.175002977252006531e-01
1.821869611740112305e-02 -1.416762173175811768e-01 -1.065516397356987000e-01
2.818270958960056305e-02 -1.360289454460144043e-01 -1.123397648334503174e-01
6.194974184036254883e-01 -2.034621834754943848e-01 -1.885983534157276154e-02
6.124532818794250488e-01 -1.934937834739685059e-01 -1.067189499735832214e-02
6.287590265274047852e-01 -2.019676268100738525e-01 -1.080130785703659058e-02
6.210438013076782227e-01 -1.926621943712234497e-01 -1.893163658678531647e-03
-7.471527159214019775e-02 -1.328864991664886475e-01 -5.783968046307563782e-02
-8.970689028501510620e-02 -1.296692341566085815e-01 -4.991948977112770081e-02
-6.310214102268218994e-02 -1.351108551025390625e-01 -4.856292158365249634e-02
-7.792697846889495850e-02 -1.320892125368118286e-01 -4.115099459886550903e-02
-4.340739548206329346e-01 1.152474209666252136e-01 -9.968770295381546021e-02
-4.313829243183135986e-01 1.318665444850921631e-01 -1.006159409880638123e-01
-4.364554882049560547e-01 1.166880875825881958e-01 -8.586498349905014038e-02
-4.345272183418273926e-01 1.334507912397384644e-01 -8.752464503049850464e-02
-4.603918492794036865e-01 1.807215213775634766e-01 3.482330963015556335e-02
-4.608097672462463379e-01 1.964535266160964966e-01 3.336301818490028381e-02
-4.526296555995941162e-01 1.792707741260528564e-01 4.533245414495468140e-02
-4.527230262756347656e-01 1.949793845415115356e-01 4.402410984039306641e-02
-2.535192072391510010e-01 2.533769905567169189e-01 -2.515185810625553131e-02
-2.531483769416809082e-01 2.666248381137847900e-01 -2.748055756092071533e-02
-2.425454407930374146e-01 2.542346119880676270e-01 -2.395647391676902771e-02
-2.420104891061782837e-01 2.667245864868164062e-01 -2.615372836589813232e-02
-2.774822413921356201e-01 1.923379153013229370e-01 -1.375759541988372803e-01
-2.819842696189880371e-01 2.094909846782684326e-01 -1.364014446735382080e-01
-2.598290145397186279e-01 1.911004483699798584e-01 -1.380005031824111938e-01
-2.644051313400268555e-01 2.077946066856384277e-01 -1.367012113332748413e-01
2.222358882427215576e-01 -1.077089831233024597e-01 3.355980664491653442e-02
2.190106511116027832e-01 -9.083499014377593994e-02 3.455493226647377014e-02
2.436158210039138794e-01 -1.086423248052597046e-01 3.197688236832618713e-02
2.423906773328781128e-01 -9.242542088031768799e-02 3.354814276099205017e-02
3.528552353382110596e-01 2.736633718013763428e-01 -5.931996926665306091e-02
3.500917553901672363e-01 2.844839394092559814e-01 -5.914216488599777222e-02
3.698580563068389893e-01 2.736505568027496338e-01 -5.511186644434928894e-02
3.670233488082885742e-01 2.850098907947540283e-01 -5.572340264916419983e-02
-3.555726632475852966e-02 2.816835045814514160e-01 2.375761605799198151e-02
-3.714583069086074829e-02 2.902090847492218018e-01 2.397957444190979004e-02
-2.628595009446144104e-02 2.804870307445526123e-01 2.862039953470230103e-02
-2.219007350504398346e-02 2.904108464717864990e-01 2.664373442530632019e-02
-3.106154501438140869e-01 -2.019703239202499390e-01 -1.572862714529037476e-01
-3.056235909461975098e-01 -1.921072453260421753e-01 -1.658773720264434814e-01
-3.013869524002075195e-01 -2.127126902341842651e-01 -1.544296741485595703e-01
-2.967004477977752686e-01 -2.023668587207794189e-01 -1.632363051176071167e-01
-2.717444300651550293e-01 -2.094040513038635254e-01 -1.628321260213851929e-01
-2.651957571506500244e-01 -1.996876150369644165e-01 -1.720614582300186157e-01
-2.613570094108581543e-01 -2.143297046422958374e-01 -1.577183455228805542e-01
-2.548776865005493164e-01 -2.046540081501007080e-01 -1.668609231710433960e-01
6.861465424299240112e-02 -2.141112536191940308e-01 9.698947519063949585e-02
5.671809613704681396e-02 -2.138035297393798828e-01 1.094772145152091980e-01
7.793509215116500854e-02 -2.160608172416687012e-01 1.094135791063308716e-01
6.636144965887069702e-02 -2.153894454240798950e-01 1.225038319826126099e-01
-3.928396999835968018e-01 -4.732218384742736816e-02 1.114780362695455551e-02
-3.967239558696746826e-01 -3.060128912329673767e-02 1.258276309818029404e-02
-3.779300153255462646e-01 -4.103269428014755249e-02 1.334830932319164276e-02
-3.814062476158142090e-01 -2.266186848282814026e-02 1.582572422921657562e-02
3.422378301620483398e-01 1.937064379453659058e-01 1.715659350156784058e-01
3.464370071887969971e-01 2.064035385847091675e-01 1.629644632339477539e-01
3.598154485225677490e-01 1.843257993459701538e-01 1.756083667278289795e-01
3.624337315559387207e-01 1.985755860805511475e-01 1.640794575214385986e-01
5.782610774040222168e-01 -2.638907730579376221e-01 -8.489869534969329834e-02
5.855002999305725098e-01 -2.559354603290557861e-01 -8.913708478212356567e-02
5.879974961280822754e-01 -2.630917131900787354e-01 -7.444546371698379517e-02
5.972267389297485352e-01 -2.558457255363464355e-01 -7.830396294593811035e-02
4.738902449607849121e-01 -3.171627223491668701e-02 1.133540868759155273e-01
4.692047834396362305e-01 -2.080319635570049286e-02 1.169459149241447449e-01
4.800931811332702637e-01 -3.179848939180374146e-02 1.203829422593116760e-01
4.754759669303894043e-01 -2.029068954288959503e-02 1.242783814668655396e-01
5.158303976058959961e-01 -3.398476541042327881e-02 3.963999077677726746e-02
5.154090523719787598e-01 -2.161182835698127747e-02 3.845410794019699097e-02
5.254988670349121094e-01 -2.828473597764968872e-02 4.133653640747070312e-02
5.252440571784973145e-01 -1.622039452195167542e-02 4.027685150504112244e-02
-7.931656390428543091e-02 2.816930413246154785e-01 1.214893087744712830e-01
-7.039767503738403320e-02 2.861177623271942139e-01 1.196633577346801758e-01
-6.778457015752792358e-02 2.837632298469543457e-01 1.255134493112564087e-01
-6.425327807664871216e-02 2.874261438846588135e-01 1.272864788770675659e-01
6.139237284660339355e-01 2.384866923093795776e-01 -6.376430392265319824e-02
6.134253144264221191e-01 2.488794475793838501e-01 -6.231946125626564026e-02
6.296677589416503906e-01 2.380996197462081909e-01 -6.371439993381500244e-02
6.269180178642272949e-01 2.481006383895874023e-01 -6.079743057489395142e-02
3.811548352241516113e-01 -1.845934391021728516e-01 -9.450713545083999634e-02
3.683676123619079590e-01 -1.800278872251510620e-01 -8.227285742759704590e-02
3.959568440914154053e-01 -1.822782903909683228e-01 -8.439967036247253418e-02
3.835190832614898682e-01 -1.783367395401000977e-01 -7.256564497947692871e-02
-1.414675265550613403e-01 -4.330259934067726135e-02 1.964962854981422424e-02
-1.414043009281158447e-01 -2.091550827026367188e-02 1.894911192357540131e-02
-1.248733699321746826e-01 -4.093343764543533325e-02 1.706980727612972260e-02
-1.236610040068626404e-01 -1.847203075885772705e-02 1.643199473619461060e-02
4.949302077293395996e-01 2.083170861005783081e-01 -1.319696009159088135e-01
4.905369877815246582e-01 2.194155156612396240e-01 -1.307481229305267334e-01
5.121517777442932129e-01 2.040038704872131348e-01 -1.253463774919509888e-01
5.063105821609497070e-01 2.131520062685012817e-01 -1.217559650540351868e-01
2.011322379112243652e-01 -2.726098299026489258e-01 1.067806128412485123e-02
1.940434128046035767e-01 -2.678971290588378906e-01 1.612111739814281464e-02
2.038722336292266846e-01 -2.722713351249694824e-01 1.889640092849731445e-02
1.963718533515930176e-01 -2.675006091594696045e-01 2.459473162889480591e-02
9.890448302030563354e-03 2.912854850292205811e-01 3.468510881066322327e-02
2.079778350889682770e-02 3.000516593456268311e-01 3.099250979721546173e-02
2.810828574001789093e-02 2.918716669082641602e-01 3.715118393301963806e-02
3.571167215704917908e-02 3.007088899612426758e-01 3.315903991460800171e-02
-2.947796285152435303e-01 -9.780888259410858154e-02 1.722171604633331299e-01
-3.050658702850341797e-01 -8.244091272354125977e-02 1.781279593706130981e-01
-2.804734110832214355e-01 -8.768077194690704346e-02 1.675990819931030273e-01
-2.912318110466003418e-01 -7.202015817165374756e-02 1.739290654659271240e-01
6.012117266654968262e-01 -2.816826477646827698e-02 1.504058670252561569e-02
6.000933647155761719e-01 -1.323968451470136642e-02 1.537071447819471359e-02
6.141787767410278320e-01 -2.888482809066772461e-02 1.390642113983631134e-02
6.137571930885314941e-01 -1.331985741853713989e-02 1.372302230447530746e-02
-2.740045487880706787e-01 1.700309216976165771e-01 1.147629395127296448e-01
-2.775672674179077148e-01 1.857146620750427246e-01 1.158849149942398071e-01
-2.703088521957397461e-01 1.720133423805236816e-01 1.232054755091667175e-01
-2.736611664295196533e-01 1.869651079177856445e-01 1.246712207794189453e-01
-3.734179139137268066e-01 -2.166615873575210571e-01 -8.734967559576034546e-02
-3.617306053638458252e-01 -2.088172584772109985e-01 -9.356468170881271362e-02
-3.681360185146331787e-01 -2.141972184181213379e-01 -7.566031813621520996e-02
-3.570034503936767578e-01 -2.075721919536590576e-01 -8.352835476398468018e-02
1.140799224376678467e-01 -2.253026366233825684e-01 5.913905054330825806e-02
1.092293262481689453e-01 -2.134636938571929932e-01 6.441007554531097412e-02
1.249790862202644348e-01 -2.163106054067611694e-01 6.458227336406707764e-02
1.184925287961959839e-01 -2.052975147962570190e-01 7.054504007101058960e-02
-2.719151079654693604e-01 -7.955151051282882690e-02 6.533203274011611938e-02
-2.712968289852142334e-01 -6.704764813184738159e-02 6.458019465208053589e-02
-2.589229047298431396e-01 -7.601743191480636597e-02 6.543400138616561890e-02
-2.582234740257263184e-01 -6.346926838159561157e-02 6.533631682395935059e-02
-4.377678334712982178e-01 1.937824934720993042e-01 -2.458053454756736755e-02
-4.346853196620941162e-01 2.073194831609725952e-01 -2.052097581326961517e-02
-4.353243112564086914e-01 1.983951330184936523e-01 -1.329794246703386307e-02
-4.319724738597869873e-01 2.126832902431488037e-01 -9.154289960861206055e-03
2.623072266578674316e-01 1.450090855360031128e-01 4.790170490741729736e-02
2.639228105545043945e-01 1.593803465366363525e-01 4.575623199343681335e-02
2.761824131011962891e-01 1.475997418165206909e-01 4.691693186759948730e-02
2.787106633186340332e-01 1.606005877256393433e-01 4.433754831552505493e-02
-4.071681201457977295e-01 9.086376428604125977e-02 -1.248848065733909607e-01
-4.033062756061553955e-01 1.094652190804481506e-01 -1.267257183790206909e-01
-3.916436433792114258e-01 9.459068626165390015e-02 -1.283584386110305786e-01
-3.872568905353546143e-01 1.141263246536254883e-01 -1.303329616785049438e-01
3.644627034664154053e-01 1.695262789726257324e-01 -1.391554474830627441e-01
3.569625616073608398e-01 1.722876578569412231e-01 -1.332707405090332031e-01
3.717825710773468018e-01 1.667298972606658936e-01 -1.321503221988677979e-01
3.645024895668029785e-01 1.693167090415954590e-01 -1.266575008630752563e-01
-1.456461995840072632e-01 2.169106155633926392e-01 4.939659312367439270e-02
-1.451141685247421265e-01 2.290823310613632202e-01 4.733831807971000671e-02
-1.342575699090957642e-01 2.192086130380630493e-01 4.601225256919860840e-02
-1.339520066976547241e-01 2.317273616790771484e-01 4.422521218657493591e-02
3.024778962135314941e-01 2.677215039730072021e-01 -3.559887781739234924e-02
2.997751533985137939e-01 2.776783108711242676e-01 -3.389864414930343628e-02
3.128177523612976074e-01 2.698877751827239990e-01 -3.223285451531410217e-02
3.106759488582611084e-01 2.804062664508819580e-01 -3.104014135897159576e-02
6.117403507232666016e-01 2.031761854887008667e-01 -9.466836601495742798e-02
6.037318706512451172e-01 2.146633863449096680e-01 -8.654958754777908325e-02
6.247699260711669922e-01 2.063760906457901001e-01 -9.391859173774719238e-02
6.158650517463684082e-01 2.173973023891448975e-01 -8.481436967849731445e-02
6.718538999557495117e-01 -3.001127839088439941e-01 2.108276262879371643e-02
6.665471792221069336e-01 -2.903293073177337646e-01 3.385291621088981628e-02
6.875201463699340820e-01 -2.938339114189147949e-01 3.155990317463874817e-02
6.820943951606750488e-01 -2.844265997409820557e-01 4.443123191595077515e-02
4.476611018180847168e-01 2.555584609508514404e-01 -1.181720048189163208e-01
4.444269239902496338e-01 2.666727304458618164e-01 -1.196866333484649658e-01
4.663664400577545166e-01 2.476367950439453125e-01 -1.132161319255828857e-01
4.598372876644134521e-01 2.579222619533538818e-01 -1.136012747883796692e-01
4.618641436100006104e-01 -2.950025796890258789e-01 -5.423601716756820679e-02
4.789318144321441650e-01 -2.878595888614654541e-01 -5.955179780721664429e-02
4.740079343318939209e-01 -2.946559786796569824e-01 -4.459393769502639771e-02
4.931682944297790527e-01 -2.883560955524444580e-01 -5.111195892095565796e-02
-5.560846626758575439e-02 -1.051488965749740601e-01 4.293733090162277222e-02
-6.091414391994476318e-02 -8.841987699270248413e-02 4.340256750583648682e-02
-4.159890860319137573e-02 -9.867621958255767822e-02 3.778150677680969238e-02
-4.636322706937789917e-02 -8.206495642662048340e-02 3.820696473121643066e-02
-7.950174808502197266e-02 -2.053759843111038208e-01 -1.467196792364120483e-01
-8.633485436439514160e-02 -1.997098475694656372e-01 -1.363716870546340942e-01
-6.617229431867599487e-02 -2.002178877592086792e-01 -1.407902389764785767e-01
-7.368012517690658569e-02 -1.951595246791839600e-01 -1.295089423656463623e-01
-2.394904941320419312e-01 -6.762675940990447998e-02 2.412885427474975586e-02
-2.395330965518951416e-01 -5.143594741821289062e-02 2.744518779218196869e-02
-2.289323061704635620e-01 -6.464307755231857300e-02 2.828295342624187469e-02
-2.294912636280059814e-01 -4.898498579859733582e-02 3.080582246184349060e-02
-1.785010695457458496e-01 3.181427419185638428e-01 4.439222067594528198e-02
-2.009915858507156372e-01 3.176801800727844238e-01 5.940229445695877075e-02
-1.658642888069152832e-01 3.194899260997772217e-01 4.868979007005691528e-02
-1.870069503784179688e-01 3.182478547096252441e-01 6.388704478740692139e-02
-4.021647572517395020e-01 -2.157673537731170654e-01 2.820985578000545502e-02
-4.135031402111053467e-01 -2.121108472347259521e-01 3.444989398121833801e-02
-3.920458257198333740e-01 -2.213608324527740479e-01 3.591600060462951660e-02
-4.030600488185882568e-01 -2.172279953956604004e-01 4.214028269052505493e-02
5.200060009956359863e-01 2.086217105388641357e-01 1.525427121669054031e-02
5.202775001525878906e-01 2.250201255083084106e-01 1.666673459112644196e-02
5.346451401710510254e-01 2.154313176870346069e-01 1.084570679813623428e-02
5.336970090866088867e-01 2.304590642452239990e-01 1.153597515076398849e-02
4.640874266624450684e-01 2.738860249519348145e-01 -4.154754802584648132e-02
4.739221036434173584e-01 2.796755433082580566e-01 -5.158613994717597961e-02
4.771164953708648682e-01 2.729662656784057617e-01 -3.744023293256759644e-02
4.859551489353179932e-01 2.787134647369384766e-01 -4.684798792004585266e-02
-9.354605525732040405e-02 -1.123270615935325623e-01 5.298335477709770203e-02
-9.541036188602447510e-02 -9.900863468647003174e-02 5.668517574667930603e-02
-8.087495714426040649e-02 -1.044686213135719299e-01 5.106431618332862854e-02
-8.461043983697891235e-02 -9.140687435865402222e-02 5.475788936018943787e-02
3.714188635349273682e-01 1.711525619029998779e-01 4.705374687910079956e-02
3.653829097747802734e-01 1.864232122898101807e-01 4.649890959262847900e-02
3.847839832305908203e-01 1.717072427272796631e-01 4.754816740751266479e-02
3.790150284767150879e-01 1.872612833976745605e-01 4.710179194808006287e-02
5.092650651931762695e-01 1.590006202459335327e-01 6.952774710953235626e-03
4.970357418060302734e-01 1.668198108673095703e-01 1.147203240543603897e-02
5.188803672790527344e-01 1.556967943906784058e-01 7.284726947546005249e-03
5.068905353546142578e-01 1.636892408132553101e-01 1.221878174692392349e-02
1.484262757003307343e-04 2.487160712480545044e-01 1.498752832412719727e-01
-1.015925034880638123e-02 2.493380010128021240e-01 1.599699556827545166e-01
1.344557106494903564e-02 2.469464093446731567e-01 1.569491624832153320e-01
3.022169228643178940e-03 2.476249933242797852e-01 1.668190509080886841e-01
-3.848928511142730713e-01 -2.101049870252609253e-01 -9.137197397649288177e-03
-3.960133194923400879e-01 -2.073761671781539917e-01 -2.455980051308870316e-03
-3.756441473960876465e-01 -2.129980772733688354e-01 -1.688729855231940746e-03
-3.873986005783081055e-01 -2.111105918884277344e-01 4.861663561314344406e-03
6.268982291221618652e-01 2.714771926403045654e-01 -8.362169377505779266e-03
6.237295866012573242e-01 2.763605713844299316e-01 -5.138750653713941574e-03
6.420671939849853516e-01 2.698356509208679199e-01 -4.601574502885341644e-03
6.347141861915588379e-01 2.752837240695953369e-01 8.366911206394433975e-04
-4.397438466548919678e-01 2.107318043708801270e-01 -4.930102825164794922e-02
-4.342886507511138916e-01 2.192511856555938721e-01 -4.894384741783142090e-02
-4.350932538509368896e-01 2.154982686042785645e-01 -4.117537289857864380e-02
-4.300208389759063721e-01 2.238512933254241943e-01 -4.095117747783660889e-02
-4.332309663295745850e-01 3.322471678256988525e-01 -1.451433636248111725e-02
-4.265199899673461914e-01 3.409015834331512451e-01 -1.344682089984416962e-02
-4.233466684818267822e-01 3.329037129878997803e-01 -3.535690717399120331e-03
-4.175326526165008545e-01 3.409661948680877686e-01 -2.609427319839596748e-03
1.383534371852874756e-01 -3.127054497599601746e-02 1.934630274772644043e-01
1.366498172283172607e-01 -1.563289389014244080e-02 1.947019696235656738e-01
1.523821204900741577e-01 -2.970840595662593842e-02 1.932123601436614990e-01
1.505102366209030151e-01 -1.348669733852148056e-02 1.949580013751983643e-01
1.537395417690277100e-01 -1.991488784551620483e-01 -1.775164008140563965e-01
1.559647172689437866e-01 -1.853224486112594604e-01 -1.769394725561141968e-01
1.720479577779769897e-01 -1.959719806909561157e-01 -1.749963164329528809e-01
1.749525070190429688e-01 -1.825955212116241455e-01 -1.750792115926742554e-01
-3.953626751899719238e-01 1.789415031671524048e-01 5.772889778017997742e-02
-3.959436118602752686e-01 1.942101120948791504e-01 5.593823641538619995e-02
-3.794541954994201660e-01 1.826974600553512573e-01 5.453944206237792969e-02
-3.801576197147369385e-01 1.979647278785705566e-01 5.309025198221206665e-02
-1.772768348455429077e-01 2.495536804199218750e-01 1.331149339675903320e-01
-1.776871830224990845e-01 2.627842724323272705e-01 1.284562051296234131e-01
-1.637315601110458374e-01 2.486696839332580566e-01 1.344057321548461914e-01
-1.636303663253784180e-01 2.617469727993011475e-01 1.279132366180419922e-01
7.396639585494995117e-01 -9.995914995670318604e-02 -5.233798176050186157e-03
7.378283143043518066e-01 -8.063761889934539795e-02 -4.722989629954099655e-03
7.527792453765869141e-01 -9.846874326467514038e-02 -3.741404507309198380e-03
7.509719133377075195e-01 -7.928248494863510132e-02 -3.829458495602011681e-03
6.310110688209533691e-01 -1.527967862784862518e-03 1.127437874674797058e-02
6.323590874671936035e-01 1.534579321742057800e-02 9.935096837580204010e-03
6.458711028099060059e-01 1.649772748351097107e-04 1.008657924830913544e-02
6.478270292282104492e-01 1.818393170833587646e-02 8.600234985351562500e-03
-4.015227556228637695e-01 -2.196594476699829102e-01 3.232564311474561691e-03
-4.130474925041198730e-01 -2.163780629634857178e-01 9.857242926955223083e-03
-3.923908472061157227e-01 -2.243320941925048828e-01 1.261555310338735580e-02
-4.037117958068847656e-01 -2.211721539497375488e-01 1.877232640981674194e-02
3.003482818603515625e-01 9.607077389955520630e-02 2.052609324455261230e-01
2.972922325134277344e-01 1.118477657437324524e-01 2.044172435998916626e-01
3.164370954036712646e-01 1.000771522521972656e-01 2.004285156726837158e-01
3.129892051219940186e-01 1.168537214398384094e-01 1.998326927423477173e-01
-4.955070912837982178e-01 2.411495000123977661e-01 -4.614745825529098511e-02
-4.935250580310821533e-01 2.538458406925201416e-01 -4.523810744285583496e-02
-4.901398718357086182e-01 2.430994063615798950e-01 -3.149167448282241821e-02
-4.929496943950653076e-01 2.561234831809997559e-01 -2.885968983173370361e-02
8.940242975950241089e-02 1.931802779436111450e-01 -7.460994273424148560e-02
7.944390922784805298e-02 1.960774809122085571e-01 -6.001011282205581665e-02
1.004251092672348022e-01 1.947425752878189087e-01 -7.196002453565597534e-02
9.001096338033676147e-02 1.983429193496704102e-01 -5.741810798645019531e-02
7.516290545463562012e-01 1.247905343770980835e-01 -1.157103758305311203e-02
7.514614462852478027e-01 1.363510191440582275e-01 -1.043375674635171890e-02
7.504242658615112305e-01 1.291007548570632935e-01 -4.650596820283681154e-04
7.501944303512573242e-01 1.407374292612075806e-01 -1.888056285679340363e-04
-9.325538575649261475e-02 -1.489707827568054199e-01 1.695086807012557983e-01
-1.043685451149940491e-01 -1.434049606323242188e-01 1.772643774747848511e-01
-7.740040868520736694e-02 -1.478392928838729858e-01 1.741555780172348022e-01
-8.776441961526870728e-02 -1.424225866794586182e-01 1.817547380924224854e-01
3.742190897464752197e-01 -1.704570502042770386e-01 2.086237818002700806e-02
3.591673374176025391e-01 -1.560759693384170532e-01 2.672070637345314026e-02
3.879771530628204346e-01 -1.724852919578552246e-01 2.275683544576168060e-02
3.741532862186431885e-01 -1.589924246072769165e-01 2.839701063930988312e-02
5.386899113655090332e-01 9.571662545204162598e-02 1.778160594403743744e-02
5.377270579338073730e-01 1.143416389822959900e-01 1.740278862416744232e-02
5.539987683296203613e-01 9.653885662555694580e-02 1.634482108056545258e-02
5.535400509834289551e-01 1.160984933376312256e-01 1.627266034483909607e-02
-3.978576064109802246e-01 3.334878683090209961e-01 -7.816350087523460388e-03
-3.952269554138183594e-01 3.422679603099822998e-01 -3.105134470388293266e-03
-3.860045075416564941e-01 3.359256684780120850e-01 1.132006407715380192e-03
-3.846928775310516357e-01 3.443823158740997314e-01 6.079739425331354141e-03
3.518964350223541260e-01 1.845932006835937500e-01 -1.094682812690734863e-01
3.453284800052642822e-01 1.866147518157958984e-01 -1.033649295568466187e-01
3.589750826358795166e-01 1.853108108043670654e-01 -1.007346287369728088e-01
3.528994321823120117e-01 1.868486702442169189e-01 -9.532223641872406006e-02
-6.567770242691040039e-02 2.101384103298187256e-01 -1.060187742114067078e-01
-6.034658104181289673e-02 2.131213843822479248e-01 -1.032638475298881531e-01
-5.929316580295562744e-02 2.109943926334381104e-01 -9.692995250225067139e-02
-5.117806419730186462e-02 2.147144526243209839e-01 -9.641196578741073608e-02
-3.582485616207122803e-01 -1.308684647083282471e-01 7.073684036731719971e-02
-3.557992577552795410e-01 -1.185493394732475281e-01 6.828065961599349976e-02
-3.473924994468688965e-01 -1.282783001661300659e-01 7.115241885185241699e-02
-3.450660407543182373e-01 -1.160218045115470886e-01 6.821326166391372681e-02
5.977252870798110962e-02 6.731165200471878052e-02 4.520983994007110596e-02
5.860685557126998901e-02 8.062917739152908325e-02 4.564142972230911255e-02
7.936645299196243286e-02 6.481993198394775391e-02 4.726104438304901123e-02
7.793258875608444214e-02 8.003371208906173706e-02 4.748414829373359680e-02
-1.864174939692020416e-02 -1.874458640813827515e-01 -1.075996011495590210e-01
-2.932309173047542572e-02 -1.840900927782058716e-01 -9.721729159355163574e-02
-6.538499612361192703e-03 -1.937466710805892944e-01 -9.292375296354293823e-02
-1.202415395528078079e-02 -1.903467774391174316e-01 -8.690133690834045410e-02
-1.695580780506134033e-01 2.836708426475524902e-01 -1.589195728302001953e-01
-1.567257642745971680e-01 2.919414341449737549e-01 -1.611688882112503052e-01
-1.624399721622467041e-01 2.850986421108245850e-01 -1.451053172349929810e-01
-1.487161815166473389e-01 2.933873832225799561e-01 -1.478704065084457397e-01
-3.769713640213012695e-01 -9.885214269161224365e-02 5.990267544984817505e-02
-3.745198249816894531e-01 -8.696459978818893433e-02 5.748761445283889771e-02
-3.640087544918060303e-01 -9.770379960536956787e-02 6.009966507554054260e-02
-3.614488840103149414e-01 -8.537524193525314331e-02 5.758572742342948914e-02
6.577113866806030273e-01 -4.217850416898727417e-02 1.348866820335388184e-01
6.502880454063415527e-01 -3.080477192997932434e-02 1.449427008628845215e-01
6.818582415580749512e-01 -3.414946049451828003e-02 1.387437880039215088e-01
6.740446686744689941e-01 -2.283633127808570862e-02 1.488837152719497681e-01
-5.243239179253578186e-02 -2.241758704185485840e-01 -1.107725501060485840e-01
-6.296339631080627441e-02 -2.184777259826660156e-01 -9.791547060012817383e-02
-3.900393843650817871e-02 -2.234719842672348022e-01 -1.023961678147315979e-01
-4.990333691239356995e-02 -2.179540842771530151e-01 -8.931098133325576782e-02
4.474532306194305420e-01 -2.471245080232620239e-02 9.256362169981002808e-02
4.415107667446136475e-01 -1.357387006282806396e-02 9.624660760164260864e-02
4.494827985763549805e-01 -2.610284462571144104e-02 1.013040840625762939e-01
4.432931244373321533e-01 -1.513367705047130585e-02 1.052614748477935791e-01
-1.442119758576154709e-02 1.046531572937965393e-01 2.049145847558975220e-01
-1.651023514568805695e-02 1.272733062505722046e-01 2.009756565093994141e-01
5.665079690515995026e-03 1.071695461869239807e-01 2.026686817407608032e-01
2.623426727950572968e-03 1.280609667301177979e-01 1.995862126350402832e-01
4.951753318309783936e-01 -2.828359007835388184e-01 -4.638202022761106491e-03
5.116039514541625977e-01 -2.786622047424316406e-01 -8.534670807421207428e-03
5.084868073463439941e-01 -2.777581214904785156e-01 3.529975423589348793e-03
5.231924653053283691e-01 -2.733977138996124268e-01 -8.578623237553983927e-06
-1.243600919842720032e-01 -1.787226647138595581e-01 -1.749542802572250366e-01
-1.269995123147964478e-01 -1.683755964040756226e-01 -1.673181653022766113e-01
-1.129184514284133911e-01 -1.769610941410064697e-01 -1.696721464395523071e-01
-1.143770590424537659e-01 -1.665587276220321655e-01 -1.631388962268829346e-01
3.430432379245758057e-01 -2.512541115283966064e-01 3.511121496558189392e-02
3.354927003383636475e-01 -2.398748397827148438e-01 4.009258374571800232e-02
3.558928966522216797e-01 -2.510072588920593262e-01 4.116260260343551636e-02
3.482860326766967773e-01 -2.393471747636795044e-01 4.553563520312309265e-02
-4.769648313522338867e-01 7.616729289293289185e-02 4.313576593995094299e-02
-4.752467870712280273e-01 9.209321439266204834e-02 4.369022324681282043e-02
-4.581722617149353027e-01 7.832853496074676514e-02 4.844722524285316467e-02
-4.557259380817413330e-01 9.451158344745635986e-02 4.878253117203712463e-02
7.495644688606262207e-02 2.505703568458557129e-01 1.427965015172958374e-01
8.202682435512542725e-02 2.582888901233673096e-01 1.326489001512527466e-01
8.518668264150619507e-02 2.500271499156951904e-01 1.467056125402450562e-01
9.239743649959564209e-02 2.583854496479034424e-01 1.369418799877166748e-01
-1.004913449287414551e-01 2.121766507625579834e-01 1.751267910003662109e-01
-9.890556335449218750e-02 2.262768745422363281e-01 1.709412634372711182e-01
-8.523476868867874146e-02 2.113100141286849976e-01 1.793832778930664062e-01
-8.290381729602813721e-02 2.242532223463058472e-01 1.752147972583770752e-01
-3.283374309539794922e-01 -2.285941243171691895e-01 -2.995907142758369446e-02
-3.364387452602386475e-01 -2.279222458600997925e-01 -2.575654350221157074e-02
-3.184408247470855713e-01 -2.318115085363388062e-01 -2.129394188523292542e-02
-3.259892165660858154e-01 -2.310027331113815308e-01 -1.258926093578338623e-02
-5.586456507444381714e-02 1.981683224439620972e-01 -9.724117070436477661e-02
-4.716472700238227844e-02 2.021639943122863770e-01 -9.719419479370117188e-02
-4.789999127388000488e-02 2.010624706745147705e-01 -8.998970687389373779e-02
-3.988352045416831970e-02 2.047991007566452026e-01 -8.974882960319519043e-02
-6.925440579652786255e-02 2.005087435245513916e-01 -1.409343332052230835e-01
-7.051080465316772461e-02 2.016678452491760254e-01 -1.333373486995697021e-01
-6.331794708967208862e-02 2.005815804004669189e-01 -1.337833702564239502e-01
-6.064232438802719116e-02 2.031365036964416504e-01 -1.292645782232284546e-01
5.501832067966461182e-02 2.965674102306365967e-01 -9.943100810050964355e-02
4.560494422912597656e-02 3.017226755619049072e-01 -8.746785670518875122e-02
6.606843322515487671e-02 2.954278290271759033e-01 -9.147822111845016479e-02
5.855283886194229126e-02 3.000159263610839844e-01 -7.911808043718338013e-02
3.262803331017494202e-02 1.855091154575347900e-01 3.911135718226432800e-02
3.599732369184494019e-02 1.993031799793243408e-01 3.824254497885704041e-02
4.465501382946968079e-02 1.881844252347946167e-01 3.772171586751937866e-02
4.735850170254707336e-02 2.031761109828948975e-01 3.781326115131378174e-02
-6.071124225854873657e-03 2.509599924087524414e-01 1.440073251724243164e-01
-1.642270013689994812e-02 2.515555322170257568e-01 1.542771607637405396e-01
6.385154556483030319e-03 2.506631314754486084e-01 1.499421596527099609e-01
-3.867977298796176910e-03 2.512715756893157959e-01 1.601678282022476196e-01
-9.903829544782638550e-02 7.420790940523147583e-02 2.033599317073822021e-01
-9.813512861728668213e-02 9.649412333965301514e-02 2.020042985677719116e-01
-7.379098236560821533e-02 7.367866486310958862e-02 2.034415900707244873e-01
-7.248315215110778809e-02 9.573097527027130127e-02 2.016453295946121216e-01
2.586577832698822021e-01 2.246825844049453735e-01 -1.828223913908004761e-01
2.560328245162963867e-01 2.408579587936401367e-01 -1.809614896774291992e-01
2.756834626197814941e-01 2.234538197517395020e-01 -1.764322817325592041e-01
2.732985913753509521e-01 2.403657287359237671e-01 -1.762349456548690796e-01
-3.508855700492858887e-01 -6.052904576063156128e-02 1.977090165019035339e-02
-3.556324541568756104e-01 -4.025967419147491455e-02 2.271252870559692383e-02
-3.399706184864044189e-01 -5.404749140143394470e-02 2.278897166252136230e-02
-3.441204130649566650e-01 -3.382389247417449951e-02 2.532559260725975037e-02
4.088404402136802673e-02 -1.425343006849288940e-01 -1.102776601910591125e-01
4.787135124206542969e-02 -1.351052820682525635e-01 -1.169083267450332642e-01
5.220810323953628540e-02 -1.449676156044006348e-01 -1.063370257616043091e-01
5.853041633963584900e-02 -1.371718347072601318e-01 -1.124453544616699219e-01
-1.905961483716964722e-01 -2.048629671335220337e-01 -1.351709477603435516e-02
-1.920852959156036377e-01 -1.945497840642929077e-01 -9.744338691234588623e-03
-1.772985309362411499e-01 -2.032732367515563965e-01 -1.183830946683883667e-02
-1.802949905395507812e-01 -1.930564641952514648e-01 -7.781663909554481506e-03
7.046554684638977051e-01 2.424411848187446594e-02 -6.522955000400543213e-02
7.046980261802673340e-01 4.931124299764633179e-02 -7.121397554874420166e-02
7.258946895599365234e-01 2.732701599597930908e-02 -5.681034922599792480e-02
7.248797416687011719e-01 5.188150331377983093e-02 -6.261682510375976562e-02
-4.105213284492492676e-01 3.004698455333709717e-01 -6.702800095081329346e-02
-4.032894074916839600e-01 3.128138482570648193e-01 -6.589653342962265015e-02
-4.101125001907348633e-01 3.055833578109741211e-01 -5.569075793027877808e-02
-4.045164585113525391e-01 3.183254301548004150e-01 -5.415385961532592773e-02
3.846104741096496582e-01 2.022114843130111694e-01 5.078289657831192017e-02
3.777564764022827148e-01 2.191503196954727173e-01 4.942838475108146667e-02
3.990353643894195557e-01 2.002621442079544067e-01 5.196481943130493164e-02
3.930684924125671387e-01 2.174928933382034302e-01 5.056143924593925476e-02
3.450839817523956299e-01 2.253281772136688232e-01 -1.766941845417022705e-01
3.440167903900146484e-01 2.406838089227676392e-01 -1.768624335527420044e-01
3.601310253143310547e-01 2.320376932621002197e-01 -1.738203614950180054e-01
3.589304387569427490e-01 2.477602064609527588e-01 -1.736067384481430054e-01
-1.588114649057388306e-01 -2.160816639661788940e-01 -1.121933758258819580e-01
-1.720081716775894165e-01 -2.133144438266754150e-01 -9.835895895957946777e-02
-1.435919106006622314e-01 -2.182056605815887451e-01 -1.012645885348320007e-01
-1.571619063615798950e-01 -2.164638638496398926e-01 -8.794307708740234375e-02
-1.458004266023635864e-01 -2.184031903743743896e-01 -1.592412143945693970e-01
-1.557458639144897461e-01 -2.165792733430862427e-01 -1.436852961778640747e-01
-1.325516849756240845e-01 -2.156709879636764526e-01 -1.511017680168151855e-01
-1.427592486143112183e-01 -2.139399051666259766e-01 -1.355264484882354736e-01
2.984421327710151672e-02 -1.972900182008743286e-01 9.453071653842926025e-02
1.309292390942573547e-02 -1.950633227825164795e-01 1.011769026517868042e-01
4.022666811943054199e-02 -2.001821994781494141e-01 1.035603806376457214e-01
2.427384629845619202e-02 -1.985749304294586182e-01 1.113772541284561157e-01
3.829428553581237793e-02 -2.102743387222290039e-01 4.622900858521461487e-02
3.260748460888862610e-02 -1.992692649364471436e-01 5.074971914291381836e-02
4.909967258572578430e-02 -2.073492705821990967e-01 4.960975423455238342e-02
4.373335093259811401e-02 -1.954058110713958740e-01 5.535791069269180298e-02
-7.018025964498519897e-03 -1.430901288986206055e-01 -6.052549555897712708e-02
-2.268787939101457596e-03 -1.368186175823211670e-01 -6.256523728370666504e-02
4.428788088262081146e-03 -1.429740637540817261e-01 -5.333031341433525085e-02
1.402204111218452454e-02 -1.356153637170791626e-01 -5.908275023102760315e-02
6.553196310997009277e-01 -2.709676027297973633e-01 -8.653444051742553711e-02
6.600063443183898926e-01 -2.599274516105651855e-01 -9.049437195062637329e-02
6.674763560295104980e-01 -2.730289995670318604e-01 -7.596929371356964111e-02
6.717560291290283203e-01 -2.607504725456237793e-01 -7.979166507720947266e-02
2.898639142513275146e-01 1.162908151745796204e-01 1.487897336483001709e-02
2.918973267078399658e-01 1.365436613559722900e-01 1.456347852945327759e-02
3.054504990577697754e-01 1.165335252881050110e-01 1.591217517852783203e-02
3.076326251029968262e-01 1.362849622964859009e-01 1.532284729182720184e-02
3.270816206932067871e-01 -1.801008284091949463e-01 1.704706996679306030e-01
3.276826143264770508e-01 -1.615340411663055420e-01 1.815751641988754272e-01
3.473398983478546143e-01 -1.712389886379241943e-01 1.664688885211944580e-01
3.465855121612548828e-01 -1.531526297330856323e-01 1.785969734191894531e-01
2.135426551103591919e-01 3.248111903667449951e-02 4.797596484422683716e-02
2.047740966081619263e-01 4.710042476654052734e-02 4.895555227994918823e-02
2.337343096733093262e-01 3.105788677930831909e-02 4.370678588747978210e-02
2.253178358078002930e-01 4.629026353359222412e-02 4.573856294155120850e-02
3.633424937725067139e-01 1.880363970994949341e-01 -2.159623615443706512e-02
3.609408438205718994e-01 2.044462114572525024e-01 -2.103039808571338654e-02
3.736411631107330322e-01 1.925962716341018677e-01 -2.104600146412849426e-02
3.709086179733276367e-01 2.085332125425338745e-01 -2.020577900111675262e-02
6.379048228263854980e-01 -2.413528561592102051e-01 -9.422133117914199829e-02
6.397016048431396484e-01 -2.264034748077392578e-01 -9.714058041572570801e-02
6.454404592514038086e-01 -2.409617751836776733e-01 -8.581081032752990723e-02
6.471798419952392578e-01 -2.258459329605102539e-01 -8.931487798690795898e-02
1.053043603897094727e-01 -1.788558810949325562e-01 -1.810125112533569336e-01
1.079771146178245544e-01 -1.674358844757080078e-01 -1.851013153791427612e-01
1.177262067794799805e-01 -1.778675019741058350e-01 -1.793293803930282593e-01
1.207263320684432983e-01 -1.666817516088485718e-01 -1.829005777835845947e-01
-4.584655165672302246e-01 -9.814645349979400635e-02 -6.211459636688232422e-03
-4.585418105125427246e-01 -8.415802568197250366e-02 2.361331135034561157e-04
-4.558798074722290039e-01 -9.394152462482452393e-02 5.287436768412590027e-03
-4.558008909225463867e-01 -8.022287487983703613e-02 1.168242096900939941e-02
-3.751128315925598145e-01 -1.334269493818283081e-01 -3.005069307982921600e-02
-3.763814568519592285e-01 -1.205023303627967834e-01 -3.059403225779533386e-02
-3.679693639278411865e-01 -1.324674487113952637e-01 -2.273573167622089386e-02
-3.688266873359680176e-01 -1.196792721748352051e-01 -2.284847572445869446e-02
-1.377121061086654663e-01 2.668856978416442871e-01 1.139116436243057251e-01
-1.323408633470535278e-01 2.777325212955474854e-01 1.045322641730308533e-01
-1.288909167051315308e-01 2.641725242137908936e-01 1.208047866821289062e-01
-1.217863112688064575e-01 2.731562852859497070e-01 1.104774475097656250e-01
-3.805848956108093262e-01 3.100130259990692139e-01 -5.817386507987976074e-02
-3.825692534446716309e-01 3.206652402877807617e-01 -5.125639215111732483e-02
-3.736168742179870605e-01 3.138847649097442627e-01 -5.152402445673942566e-02
-3.762054741382598877e-01 3.243370950222015381e-01 -4.374973848462104797e-02
-4.665716737508773804e-02 -1.914429366588592529e-01 1.032536476850509644e-01
-5.602155625820159912e-02 -1.884667277336120605e-01 1.110721454024314880e-01
-3.699872270226478577e-02 -1.920609027147293091e-01 1.120554879307746887e-01
-4.874323680996894836e-02 -1.892321407794952393e-01 1.187515184283256531e-01
4.546224176883697510e-01 -2.585660517215728760e-01 -1.496276706457138062e-01
4.578173160552978516e-01 -2.476269006729125977e-01 -1.530260592699050903e-01
4.665183424949645996e-01 -2.591547966003417969e-01 -1.432059854269027710e-01
4.680123627185821533e-01 -2.465703338384628296e-01 -1.468555182218551636e-01
-3.770042657852172852e-01 2.289534807205200195e-01 -2.834247611463069916e-02
-3.861632347106933594e-01 2.355611026287078857e-01 -2.278199046850204468e-02
-3.690274655818939209e-01 2.297091931104660034e-01 -2.138891071081161499e-02
-3.785677552223205566e-01 2.358582168817520142e-01 -1.478035561740398407e-02
-1.356192082166671753e-01 -1.653563976287841797e-01 8.091911673545837402e-02
-1.338566839694976807e-01 -1.496755331754684448e-01 8.149673044681549072e-02
-1.215886622667312622e-01 -1.587139368057250977e-01 8.086748421192169189e-02
-1.203220635652542114e-01 -1.431702673435211182e-01 8.189429342746734619e-02
6.434365510940551758e-01 -2.467050030827522278e-02 1.395906209945678711e-01
6.369726061820983887e-01 -1.136776898056268692e-02 1.502137482166290283e-01
6.669268608093261719e-01 -1.689654961228370667e-02 1.429890990257263184e-01
6.595286130905151367e-01 -5.109881050884723663e-03 1.529532670974731445e-01
-3.308480381965637207e-01 -7.280620932579040527e-02 1.777189970016479492e-01
-3.392785191535949707e-01 -5.690629035234451294e-02 1.820936352014541626e-01
-3.184114694595336914e-01 -6.691830605268478394e-02 1.741575300693511963e-01
-3.269684910774230957e-01 -5.099799111485481262e-02 1.784800738096237183e-01
8.138068765401840210e-02 -2.501324117183685303e-01 -2.414033934473991394e-02
8.665603399276733398e-02 -2.486433237791061401e-01 -1.738885417580604553e-02
9.003878384828567505e-02 -2.493748068809509277e-01 -1.153264380991458893e-02
9.771391749382019043e-02 -2.451801747083663940e-01 -6.435542367398738861e-03
-3.503479659557342529e-01 -1.823396682739257812e-01 -1.500649154186248779e-01
