9.375776052474975586e-01 3.629340529441833496e-01 7.619083523750305176e-01
9.636524915695190430e-01 6.614306569099426270e-01 7.452216148376464844e-01
9.643135070800781250e-01 6.640775203704833984e-01 7.457115054130554199e-01
9.674762487411499023e-01 6.627416610717773438e-01 7.458599209785461426e-01
9.678366780281066895e-01 6.656280755996704102e-01 7.464155554771423340e-01
9.206046462059020996e-01 5.396530032157897949e-01 7.565817832946777344e-01
9.181775450706481934e-01 5.434972047805786133e-01 7.569095492362976074e-01
9.243911504745483398e-01 5.405554771423339844e-01 7.556959390640258789e-01
9.217652678489685059e-01 5.441952347755432129e-01 7.561696171760559082e-01
9.452585577964782715e-01 6.449924111366271973e-01 7.598997950553894043e-01
9.457978606224060059e-01 6.497212648391723633e-01 7.597191929817199707e-01
9.492797851562500000e-01 6.469789743423461914e-01 7.609162330627441406e-01
9.495460987091064453e-01 6.517129540443420410e-01 7.608969211578369141e-01
8.306929469108581543e-01 6.641582846641540527e-01 7.406072616577148438e-01
8.308289647102355957e-01 6.687617897987365723e-01 7.410628199577331543e-01
8.306628465652465820e-01 6.666598916053771973e-01 7.430099844932556152e-01
8.312844634056091309e-01 6.710087656974792480e-01 7.436379790306091309e-01
8.717067241668701172e-01 4.291676282882690430e-01 7.542161345481872559e-01
8.708379268646240234e-01 4.331682622432708740e-01 7.560377120971679688e-01
8.754565715789794922e-01 4.318471550941467285e-01 7.560935020446777344e-01
8.748281598091125488e-01 4.358761608600616455e-01 7.574462294578552246e-01
8.864037990570068359e-01 5.599502325057983398e-01 7.609483599662780762e-01
8.864197134971618652e-01 5.637809038162231445e-01 7.609696984291076660e-01
8.902690410614013672e-01 5.630671381950378418e-01 7.590693831443786621e-01
8.905267715454101562e-01 5.672066807746887207e-01 7.592668533325195312e-01
8.308483362197875977e-01 3.806485831737518311e-01 7.589324116706848145e-01
8.316423892974853516e-01 3.833210468292236328e-01 7.595332264900207520e-01
8.328795433044433594e-01 3.816658258438110352e-01 7.609478235244750977e-01
8.337438702583312988e-01 3.843108117580413818e-01 7.615700364112854004e-01
8.346874713897705078e-01 4.470760822296142578e-01 7.348437905311584473e-01
8.350189924240112305e-01 4.507077336311340332e-01 7.351422905921936035e-01
8.349414467811584473e-01 4.473651051521301270e-01 7.376986145973205566e-01
8.352792859077453613e-01 4.510190188884735107e-01 7.379605770111083984e-01
9.782097339630126953e-01 6.238034963607788086e-01 7.435500025749206543e-01
9.777613282203674316e-01 6.278979182243347168e-01 7.435455322265625000e-01
9.816370606422424316e-01 6.239534020423889160e-01 7.436218261718750000e-01
9.812828898429870605e-01 6.281454563140869141e-01 7.435296177864074707e-01
1.033621668815612793e+00 6.204035282135009766e-01 7.454926967620849609e-01
1.034786820411682129e+00 6.258932352066040039e-01 7.448194622993469238e-01
1.038580775260925293e+00 6.217472553253173828e-01 7.455800175666809082e-01
1.039735674858093262e+00 6.272781491279602051e-01 7.448790073394775391e-01
9.610447883605957031e-01 5.504816770553588867e-01 7.460426092147827148e-01
9.603936672210693359e-01 5.533223152160644531e-01 7.467170357704162598e-01
9.652209281921386719e-01 5.511139631271362305e-01 7.455307841300964355e-01
9.647915363311767578e-01 5.540009737014770508e-01 7.460426688194274902e-01
9.797488451004028320e-01 2.675276398658752441e-01 7.443250417709350586e-01
9.788684844970703125e-01 2.709906399250030518e-01 7.439535856246948242e-01
9.834411740303039551e-01 2.670207321643829346e-01 7.442342638969421387e-01
9.825563430786132812e-01 2.705528140068054199e-01 7.438452243804931641e-01
9.012081623077392578e-01 4.081871807575225830e-01 7.542315125465393066e-01
9.023628830909729004e-01 4.118214845657348633e-01 7.533331513404846191e-01
9.058147668838500977e-01 4.074000120162963867e-01 7.536886334419250488e-01
9.067659378051757812e-01 4.111950695514678955e-01 7.528874278068542480e-01
8.244218230247497559e-01 3.616805672645568848e-01 7.392837405204772949e-01
8.242559432983398438e-01 3.661247491836547852e-01 7.395111918449401855e-01
8.275120258331298828e-01 3.624849915504455566e-01 7.388769984245300293e-01
8.275414109230041504e-01 3.670285940170288086e-01 7.391417622566223145e-01
8.927645087242126465e-01 4.304456114768981934e-01 7.392293810844421387e-01
8.927927613258361816e-01 4.358476996421813965e-01 7.389029860496520996e-01
8.973405361175537109e-01 4.301325082778930664e-01 7.394406199455261230e-01
8.981237411499023438e-01 4.354651868343353271e-01 7.391716241836547852e-01
8.528460860252380371e-01 3.972601592540740967e-01 7.645192146301269531e-01
8.508531451225280762e-01 4.015497565269470215e-01 7.649747133255004883e-01
8.557077646255493164e-01 3.978978693485260010e-01 7.637090682983398438e-01
8.537951707839965820e-01 4.020557701587677002e-01 7.641504406929016113e-01
9.996385574340820312e-01 5.775352120399475098e-01 7.439677715301513672e-01
9.989324808120727539e-01 5.819740295410156250e-01 7.438530921936035156e-01
1.002674341201782227e+00 5.785511136054992676e-01 7.443338036537170410e-01
1.001860141754150391e+00 5.828471183776855469e-01 7.440547347068786621e-01
1.033014774322509766e+00 3.612868785858154297e-01 7.445459365844726562e-01
1.032300114631652832e+00 3.660709559917449951e-01 7.447686195373535156e-01
1.037294149398803711e+00 3.624204099178314209e-01 7.445876598358154297e-01
1.036735415458679199e+00 3.671837151050567627e-01 7.448292970657348633e-01
1.004964709281921387e+00 6.049227714538574219e-01 7.468357086181640625e-01
1.004208207130432129e+00 6.083374619483947754e-01 7.466347813606262207e-01
1.008496165275573730e+00 6.033679246902465820e-01 7.467870116233825684e-01
1.007618308067321777e+00 6.067953109741210938e-01 7.464140653610229492e-01
9.002408385276794434e-01 2.548095583915710449e-01 7.387989759445190430e-01
9.007118344306945801e-01 2.611250579357147217e-01 7.383095622062683105e-01
9.055231213569641113e-01 2.575412988662719727e-01 7.389246225357055664e-01
9.057893157005310059e-01 2.639274299144744873e-01 7.383525967597961426e-01
9.287337064743041992e-01 4.759692251682281494e-01 7.587886452674865723e-01
9.284147620201110840e-01 4.792171120643615723e-01 7.584777474403381348e-01
9.314026236534118652e-01 4.763270318508148193e-01 7.590633034706115723e-01
9.310583472251892090e-01 4.797131717205047607e-01 7.586326599121093750e-01
1.050638198852539062e+00 3.302272856235504150e-01 7.430711984634399414e-01
1.050038695335388184e+00 3.337303400039672852e-01 7.429534196853637695e-01
1.054013848304748535e+00 3.302065432071685791e-01 7.434836626052856445e-01
1.053578019142150879e+00 3.345516324043273926e-01 7.435369491577148438e-01
9.151010513305664062e-01 4.948817193508148193e-01 7.522287964820861816e-01
9.152285456657409668e-01 4.992157220840454102e-01 7.519167065620422363e-01
9.184098839759826660e-01 4.964172244071960449e-01 7.521062493324279785e-01
9.186784029006958008e-01 5.007495880126953125e-01 7.518125176429748535e-01
9.636116027832031250e-01 6.908131837844848633e-01 7.519797086715698242e-01
9.632034897804260254e-01 6.948738694190979004e-01 7.513391971588134766e-01
9.689110517501831055e-01 6.918428540229797363e-01 7.506302595138549805e-01
9.683439731597900391e-01 6.966245174407958984e-01 7.501552104949951172e-01
9.297621846199035645e-01 4.922874271869659424e-01 7.587840557098388672e-01
9.298944473266601562e-01 4.951962232589721680e-01 7.587325572967529297e-01
9.326382279396057129e-01 4.927443861961364746e-01 7.586210370063781738e-01
9.328777194023132324e-01 4.958821833133697510e-01 7.585375308990478516e-01
9.304437637329101562e-01 3.844383656978607178e-01 7.497658133506774902e-01
9.307420253753662109e-01 3.871348500251770020e-01 7.497864365577697754e-01
9.333003163337707520e-01 3.852745890617370605e-01 7.494471669197082520e-01
9.336697459220886230e-01 3.879935145378112793e-01 7.495079636573791504e-01
9.737031459808349609e-01 5.739014148712158203e-01 7.448872327804565430e-01
9.736265540122985840e-01 5.777683854103088379e-01 7.454226016998291016e-01
9.765362739562988281e-01 5.747292041778564453e-01 7.454649209976196289e-01
9.767706394195556641e-01 5.787689685821533203e-01 7.461183071136474609e-01
8.205173611640930176e-01 3.292603194713592529e-01 7.382142543792724609e-01
8.212664127349853516e-01 3.348655998706817627e-01 7.372598648071289062e-01
8.193589448928833008e-01 3.288627266883850098e-01 7.422637939453125000e-01
8.199639320373535156e-01 3.349531292915344238e-01 7.409537434577941895e-01
8.110953569412231445e-01 4.258573651313781738e-01 7.370743155479431152e-01
8.116621375083923340e-01 4.319444298744201660e-01 7.368319630622863770e-01
8.108154535293579102e-01 4.264621138572692871e-01 7.415176033973693848e-01
8.116050958633422852e-01 4.326504766941070557e-01 7.412603497505187988e-01
8.315417766571044922e-01 5.745548009872436523e-01 7.567197680473327637e-01
8.305694460868835449e-01 5.787014961242675781e-01 7.567690610885620117e-01
8.341813087463378906e-01 5.741939544677734375e-01 7.581493854522705078e-01
8.332655429840087891e-01 5.782777667045593262e-01 7.582596540451049805e-01
9.351788163185119629e-01 2.750060558319091797e-01 7.501596212387084961e-01
9.341672062873840332e-01 2.785703241825103760e-01 7.498971819877624512e-01
9.388925433158874512e-01 2.746860384941101074e-01 7.491521835327148438e-01
9.380488395690917969e-01 2.783741950988769531e-01 7.489886283874511719e-01
9.164282083511352539e-01 2.152719795703887939e-01 7.383857965469360352e-01
9.157187938690185547e-01 2.166895717382431030e-01 7.408519983291625977e-01
9.205890297889709473e-01 2.168748825788497925e-01 7.390524148941040039e-01
9.198459982872009277e-01 2.185361385345458984e-01 7.413868904113769531e-01
8.302771449089050293e-01 6.296566724777221680e-01 7.451282739639282227e-01
8.306773304939270020e-01 6.345624327659606934e-01 7.458634376525878906e-01
8.314937353134155273e-01 6.318691372871398926e-01 7.474235892295837402e-01
8.321542739868164062e-01 6.368286609649658203e-01 7.480560541152954102e-01
9.544830918312072754e-01 6.568875908851623535e-01 7.454130053520202637e-01
9.553360939025878906e-01 6.593835353851318359e-01 7.452101111412048340e-01
9.578815698623657227e-01 6.585615873336791992e-01 7.454954385757446289e-01
9.587283134460449219e-01 6.608911156654357910e-01 7.456969618797302246e-01
8.357788920402526855e-01 2.306156009435653687e-01 7.650466561317443848e-01
8.330376744270324707e-01 2.354688197374343872e-01 7.657471895217895508e-01
8.402437567710876465e-01 2.309346050024032593e-01 7.640591263771057129e-01
8.373857736587524414e-01 2.357494533061981201e-01 7.649111151695251465e-01
1.031649827957153320e+00 3.195175826549530029e-01 7.449243068695068359e-01
1.031739711761474609e+00 3.241292834281921387e-01 7.450698614120483398e-01
1.035368442535400391e+00 3.216123580932617188e-01 7.437971830368041992e-01
1.035299658775329590e+00 3.261119723320007324e-01 7.440023422241210938e-01
1.048174142837524414e+00 4.285032451152801514e-01 7.471097707748413086e-01
1.047334551811218262e+00 4.339516162872314453e-01 7.477005720138549805e-01
1.051622509956359863e+00 4.299723207950592041e-01 7.477210164070129395e-01
1.050777316093444824e+00 4.351229965686798096e-01 7.484381794929504395e-01
8.372174501419067383e-01 5.375213623046875000e-01 7.582347393035888672e-01
8.366972208023071289e-01 5.413452982902526855e-01 7.584537863731384277e-01
8.402552008628845215e-01 5.380576848983764648e-01 7.577028274536132812e-01
8.394426703453063965e-01 5.418647527694702148e-01 7.579004764556884766e-01
9.237022995948791504e-01 4.281501770019531250e-01 7.428900599479675293e-01
9.231751561164855957e-01 4.333594143390655518e-01 7.426527142524719238e-01
9.281557798385620117e-01 4.282910227775573730e-01 7.433742880821228027e-01
9.280633330345153809e-01 4.329785704612731934e-01 7.434213161468505859e-01
8.376271128654479980e-01 6.539987325668334961e-01 7.366193532943725586e-01
8.365765213966369629e-01 6.590576767921447754e-01 7.372044324874877930e-01
8.401163220405578613e-01 6.554649472236633301e-01 7.374418973922729492e-01
8.395782709121704102e-01 6.605613827705383301e-01 7.379534840583801270e-01
8.692428469657897949e-01 3.692836761474609375e-01 7.603378295898437500e-01
8.700838088989257812e-01 3.730316162109375000e-01 7.600555419921875000e-01
8.692072629928588867e-01 3.702211081981658936e-01 7.639828324317932129e-01
8.698709607124328613e-01 3.738025128841400146e-01 7.637423276901245117e-01
9.587186574935913086e-01 3.113023936748504639e-01 7.464700341224670410e-01
9.567240476608276367e-01 3.148292899131774902e-01 7.462016344070434570e-01
9.616917371749877930e-01 3.103397190570831299e-01 7.466090321540832520e-01
9.602254033088684082e-01 3.136678338050842285e-01 7.463693618774414062e-01
9.089797139167785645e-01 2.162383198738098145e-01 7.546046376228332520e-01
9.066544175148010254e-01 2.167680859565734863e-01 7.578545808792114258e-01
9.124429821968078613e-01 2.166039645671844482e-01 7.556958794593811035e-01
9.102414846420288086e-01 2.175542116165161133e-01 7.586023807525634766e-01
9.874951839447021484e-01 3.285047709941864014e-01 7.522086501121520996e-01
9.873473048210144043e-01 3.320459425449371338e-01 7.514739632606506348e-01
9.892065525054931641e-01 3.289006948471069336e-01 7.532586455345153809e-01
9.891587495803833008e-01 3.326326906681060791e-01 7.525768280029296875e-01
8.170688748359680176e-01 2.587960362434387207e-01 7.525747418403625488e-01
8.143930435180664062e-01 2.636653780937194824e-01 7.543671727180480957e-01
8.200146555900573730e-01 2.587352991104125977e-01 7.581790089607238770e-01
8.172481060028076172e-01 2.633592188358306885e-01 7.604928612709045410e-01
9.729931950569152832e-01 2.510412633419036865e-01 7.543697953224182129e-01
9.752042293548583984e-01 2.536698281764984131e-01 7.530077695846557617e-01
9.767267107963562012e-01 2.511162757873535156e-01 7.549598217010498047e-01
9.788972139358520508e-01 2.535967528820037842e-01 7.534417510032653809e-01
1.016236782073974609e+00 5.000319480895996094e-01 7.470438480377197266e-01
1.016216635704040527e+00 5.040131211280822754e-01 7.473553419113159180e-01
1.019458413124084473e+00 5.018035769462585449e-01 7.470065355300903320e-01
1.019469857215881348e+00 5.057788491249084473e-01 7.472692728042602539e-01
9.992117881774902344e-01 5.463696718215942383e-01 7.447030544281005859e-01
9.980325102806091309e-01 5.502622723579406738e-01 7.448687553405761719e-01
1.003114223480224609e+00 5.465789437294006348e-01 7.439729571342468262e-01
1.001997947692871094e+00 5.506807565689086914e-01 7.442082166671752930e-01
1.013450980186462402e+00 6.665120720863342285e-01 7.398827075958251953e-01
1.010808229446411133e+00 6.706775426864624023e-01 7.415510416030883789e-01
1.012625098228454590e+00 6.675558686256408691e-01 7.426159977912902832e-01
1.009970664978027344e+00 6.717790365219116211e-01 7.442999482154846191e-01
9.792059659957885742e-01 6.886681914329528809e-01 7.470383048057556152e-01
9.785984158515930176e-01 6.934250593185424805e-01 7.469642758369445801e-01
9.834142923355102539e-01 6.885192990303039551e-01 7.465482950210571289e-01
9.832090139389038086e-01 6.929850578308105469e-01 7.464143633842468262e-01
8.884386420249938965e-01 2.619041502475738525e-01 7.398439049720764160e-01
8.885012865066528320e-01 2.680450975894927979e-01 7.389202713966369629e-01
8.933497071266174316e-01 2.629191875457763672e-01 7.397841215133666992e-01
8.935559391975402832e-01 2.693409621715545654e-01 7.390243411064147949e-01
9.674093127250671387e-01 6.655338406562805176e-01 7.565180063247680664e-01
9.670642018318176270e-01 6.697112917900085449e-01 7.556746602058410645e-01
9.709972143173217773e-01 6.657894849777221680e-01 7.563253045082092285e-01
9.704219698905944824e-01 6.700268387794494629e-01 7.555035352706909180e-01
9.057797193527221680e-01 4.923643171787261963e-01 7.413243055343627930e-01
9.075118899345397949e-01 4.982230067253112793e-01 7.407442927360534668e-01
9.108268618583679199e-01 4.934827089309692383e-01 7.400070428848266602e-01
9.123441576957702637e-01 4.990147650241851807e-01 7.395047545433044434e-01
9.907446503639221191e-01 3.475705087184906006e-01 7.444677352905273438e-01
9.892098307609558105e-01 3.508197665214538574e-01 7.452498078346252441e-01
9.941793680191040039e-01 3.497848808765411377e-01 7.443694472312927246e-01
9.922107458114624023e-01 3.533432185649871826e-01 7.450891137123107910e-01
8.504320383071899414e-01 2.850326001644134521e-01 7.656416296958923340e-01
8.495648503303527832e-01 2.893320024013519287e-01 7.657531499862670898e-01
8.547929525375366211e-01 2.865657210350036621e-01 7.671552300453186035e-01
8.537930250167846680e-01 2.907872796058654785e-01 7.672590017318725586e-01
9.110286831855773926e-01 5.457595586776733398e-01 7.633284330368041992e-01
9.107787609100341797e-01 5.505957007408142090e-01 7.634685039520263672e-01
9.153336882591247559e-01 5.483402013778686523e-01 7.626194357872009277e-01
9.150343537330627441e-01 5.531654953956604004e-01 7.627558112144470215e-01
1.000417828559875488e+00 4.834952652454376221e-01 7.499867081642150879e-01
1.000228404998779297e+00 4.875181019306182861e-01 7.499132752418518066e-01
1.003606557846069336e+00 4.853751659393310547e-01 7.512050867080688477e-01
1.004152894020080566e+00 4.891996383666992188e-01 7.503567337989807129e-01
1.014546751976013184e+00 3.488233387470245361e-01 7.441648840904235840e-01
1.013558268547058105e+00 3.528116643428802490e-01 7.440996766090393066e-01
1.017876744270324707e+00 3.489773869514465332e-01 7.444589138031005859e-01
1.016933917999267578e+00 3.530638217926025391e-01 7.445344924926757812e-01
1.023803591728210449e+00 6.117148995399475098e-01 7.454815506935119629e-01
1.023467063903808594e+00 6.160124540328979492e-01 7.450516223907470703e-01
1.028360724449157715e+00 6.110123395919799805e-01 7.454557418823242188e-01
1.028048157691955566e+00 6.153259277343750000e-01 7.450740933418273926e-01
1.001482725143432617e+00 2.407503277063369751e-01 7.431830167770385742e-01
1.001052975654602051e+00 2.442290037870407104e-01 7.431414127349853516e-01
1.004182934761047363e+00 2.417863905429840088e-01 7.431403994560241699e-01
1.004048109054565430e+00 2.452485412359237671e-01 7.430738806724548340e-01
9.629650712013244629e-01 4.531494677066802979e-01 7.461435198783874512e-01
9.638965129852294922e-01 4.569906592369079590e-01 7.466032505035400391e-01
9.660702347755432129e-01 4.545231163501739502e-01 7.458554506301879883e-01
9.669231176376342773e-01 4.582613110542297363e-01 7.463342547416687012e-01
8.667972683906555176e-01 5.303094983100891113e-01 7.607597708702087402e-01
8.673996925354003906e-01 5.344130396842956543e-01 7.604158520698547363e-01
8.724147677421569824e-01 5.323355793952941895e-01 7.597922086715698242e-01
8.727338910102844238e-01 5.364859104156494141e-01 7.597678303718566895e-01
1.004771590232849121e+00 5.927478671073913574e-01 7.448490858078002930e-01
1.004595041275024414e+00 5.961392521858215332e-01 7.441086173057556152e-01
1.007123112678527832e+00 5.923097133636474609e-01 7.456936836242675781e-01
1.006796121597290039e+00 5.957531332969665527e-01 7.449522614479064941e-01
8.573740720748901367e-01 6.168507337570190430e-01 7.627992630004882812e-01
8.568856716156005859e-01 6.218553781509399414e-01 7.630053758621215820e-01
8.613781332969665527e-01 6.175351142883300781e-01 7.621338963508605957e-01
8.609650135040283203e-01 6.224558353424072266e-01 7.622750401496887207e-01
9.432919025421142578e-01 2.744991779327392578e-01 7.442674636840820312e-01
9.426429867744445801e-01 2.785904705524444580e-01 7.441176772117614746e-01
9.465859532356262207e-01 2.747141122817993164e-01 7.435685396194458008e-01
9.462340474128723145e-01 2.791068851947784424e-01 7.434409856796264648e-01
9.018455147743225098e-01 3.287525773048400879e-01 7.530261278152465820e-01
9.006931185722351074e-01 3.337529599666595459e-01 7.532737851142883301e-01
9.052881002426147461e-01 3.292753994464874268e-01 7.523488998413085938e-01
9.038555622100830078e-01 3.342056870460510254e-01 7.526810169219970703e-01
9.950807094573974609e-01 2.981176972389221191e-01 7.484609484672546387e-01
9.944418668746948242e-01 3.019523322582244873e-01 7.486960887908935547e-01
9.991506338119506836e-01 2.999469339847564697e-01 7.483929991722106934e-01
9.982764124870300293e-01 3.039124608039855957e-01 7.490264773368835449e-01
8.646794557571411133e-01 5.217987895011901855e-01 7.611736059188842773e-01
8.661080598831176758e-01 5.254688262939453125e-01 7.606483697891235352e-01
8.700303435325622559e-01 5.228635072708129883e-01 7.597947716712951660e-01
8.717971444129943848e-01 5.263803005218505859e-01 7.594393491744995117e-01
9.880359768867492676e-01 5.592668056488037109e-01 7.491897940635681152e-01
9.884710907936096191e-01 5.636144280433654785e-01 7.489045858383178711e-01
9.919584989547729492e-01 5.621786117553710938e-01 7.481086850166320801e-01
9.922503829002380371e-01 5.662921071052551270e-01 7.481268048286437988e-01
8.478308916091918945e-01 2.955141961574554443e-01 7.650414109230041504e-01
8.470275402069091797e-01 3.002020418643951416e-01 7.647414207458496094e-01
8.516830205917358398e-01 2.959857881069183350e-01 7.665712833404541016e-01
8.508159518241882324e-01 3.002481460571289062e-01 7.663882374763488770e-01
8.736947178840637207e-01 7.050816416740417480e-01 7.594518065452575684e-01
8.739413022994995117e-01 7.082085013389587402e-01 7.597361207008361816e-01
8.799949288368225098e-01 7.039299607276916504e-01 7.609597444534301758e-01
8.798939585685729980e-01 7.068946361541748047e-01 7.612586021423339844e-01
9.857410788536071777e-01 2.298417091369628906e-01 7.521514892578125000e-01
9.840288162231445312e-01 2.314827144145965576e-01 7.539145946502685547e-01
9.879586696624755859e-01 2.317273169755935669e-01 7.529554963111877441e-01
9.862114787101745605e-01 2.333065718412399292e-01 7.547374963760375977e-01
1.006302237510681152e+00 6.418616771697998047e-01 7.473563551902770996e-01
1.005426883697509766e+00 6.466221809387207031e-01 7.475644946098327637e-01
1.010828495025634766e+00 6.430865526199340820e-01 7.468430995941162109e-01
1.010074615478515625e+00 6.479543447494506836e-01 7.470188736915588379e-01
9.056717753410339355e-01 5.799878835678100586e-01 7.524688839912414551e-01
9.052603244781494141e-01 5.837123990058898926e-01 7.524827718734741211e-01
9.101378321647644043e-01 5.806306600570678711e-01 7.526105046272277832e-01
9.098325371742248535e-01 5.845882296562194824e-01 7.526257038116455078e-01
1.018013715744018555e+00 6.848958134651184082e-01 7.454472184181213379e-01
1.016595125198364258e+00 6.904385685920715332e-01 7.457684278488159180e-01
1.022189259529113770e+00 6.852584481239318848e-01 7.458328008651733398e-01
1.020874142646789551e+00 6.908694505691528320e-01 7.461134195327758789e-01
8.243980407714843750e-01 5.503467321395874023e-01 7.625225186347961426e-01
8.249503374099731445e-01 5.549123883247375488e-01 7.629712820053100586e-01
8.274118304252624512e-01 5.507765412330627441e-01 7.637058496475219727e-01
8.278706669807434082e-01 5.555085539817810059e-01 7.641664743423461914e-01
8.755752444267272949e-01 2.849678695201873779e-01 7.608520388603210449e-01
8.739752769470214844e-01 2.886309027671813965e-01 7.609860301017761230e-01
8.797047138214111328e-01 2.865450978279113770e-01 7.604820728302001953e-01
8.789904117584228516e-01 2.900293469429016113e-01 7.605270743370056152e-01
9.798635244369506836e-01 4.855169951915740967e-01 7.459909915924072266e-01
9.803590774536132812e-01 4.896249175071716309e-01 7.454506754875183105e-01
9.834021925926208496e-01 4.858679473400115967e-01 7.464674711227416992e-01
9.838813543319702148e-01 4.898754060268402100e-01 7.461643815040588379e-01
9.217493534088134766e-01 5.857197046279907227e-01 7.432093024253845215e-01
9.202724695205688477e-01 5.920183658599853516e-01 7.428677082061767578e-01
9.261924624443054199e-01 5.866383910179138184e-01 7.436673045158386230e-01
9.254331588745117188e-01 5.925208330154418945e-01 7.433736920356750488e-01
9.203304052352905273e-01 2.803175747394561768e-01 7.591952681541442871e-01
9.207502603530883789e-01 2.843025922775268555e-01 7.591223716735839844e-01
9.242479205131530762e-01 2.803376913070678711e-01 7.590044736862182617e-01
9.247147440910339355e-01 2.840321362018585205e-01 7.589351534843444824e-01
9.252178072929382324e-01 2.898654937744140625e-01 7.564132809638977051e-01
9.249008297920227051e-01 2.937085032463073730e-01 7.560504078865051270e-01
9.301290512084960938e-01 2.912848889827728271e-01 7.549644708633422852e-01
9.306400418281555176e-01 2.948100864887237549e-01 7.547591924667358398e-01
8.309503793716430664e-01 6.583014130592346191e-01 7.542811036109924316e-01
8.308137059211730957e-01 6.627601385116577148e-01 7.539539337158203125e-01
8.326891660690307617e-01 6.585453748703002930e-01 7.560017108917236328e-01
8.326164484024047852e-01 6.628408432006835938e-01 7.555352449417114258e-01
9.102922081947326660e-01 2.552260160446166992e-01 7.402575016021728516e-01
9.102567434310913086e-01 2.611362636089324951e-01 7.400291562080383301e-01
9.154501557350158691e-01 2.581011354923248291e-01 7.397277951240539551e-01
9.150244593620300293e-01 2.640199661254882812e-01 7.395933866500854492e-01
8.060634136199951172e-01 3.929383158683776855e-01 7.411351203918457031e-01
8.080525994300842285e-01 3.992829620838165283e-01 7.411134243011474609e-01
8.067985773086547852e-01 3.946422636508941650e-01 7.427181005477905273e-01
8.095992207527160645e-01 4.010121822357177734e-01 7.425283789634704590e-01
9.103853106498718262e-01 3.117869794368743896e-01 7.514370679855346680e-01
9.104325175285339355e-01 3.150639832019805908e-01 7.515918612480163574e-01
9.133630990982055664e-01 3.125292062759399414e-01 7.516158223152160645e-01
9.133445620536804199e-01 3.157832026481628418e-01 7.517971992492675781e-01
1.000600218772888184e+00 5.976947546005249023e-01 7.428591847419738770e-01
1.000745058059692383e+00 6.006384491920471191e-01 7.427638173103332520e-01
1.002995610237121582e+00 5.973161458969116211e-01 7.439922094345092773e-01
1.003015160560607910e+00 6.004057526588439941e-01 7.435402870178222656e-01
9.418785572052001953e-01 2.214905917644500732e-01 7.419049143791198730e-01
9.400755167007446289e-01 2.255194783210754395e-01 7.435158491134643555e-01
9.472979903221130371e-01 2.237300723791122437e-01 7.418942451477050781e-01
9.458678960800170898e-01 2.278995215892791748e-01 7.435851097106933594e-01
8.575403690338134766e-01 2.289632707834243774e-01 7.690773606300354004e-01
8.547543287277221680e-01 2.324203103780746460e-01 7.710351943969726562e-01
8.620105385780334473e-01 2.317550629377365112e-01 7.684553861618041992e-01
8.595818281173706055e-01 2.351532727479934692e-01 7.703761458396911621e-01
8.932765126228332520e-01 6.439560055732727051e-01 7.537658214569091797e-01
8.911753296852111816e-01 6.467020511627197266e-01 7.544876337051391602e-01
8.958069682121276855e-01 6.442062854766845703e-01 7.527961134910583496e-01
8.940942883491516113e-01 6.469277143478393555e-01 7.533602714538574219e-01
9.081642627716064453e-01 6.762218475341796875e-01 7.612162232398986816e-01
9.079152941703796387e-01 6.803994178771972656e-01 7.613449692726135254e-01
9.130504727363586426e-01 6.776300668716430664e-01 7.601657509803771973e-01
9.128242135047912598e-01 6.817469000816345215e-01 7.602155804634094238e-01
1.034115672111511230e+00 4.901818633079528809e-01 7.468423843383789062e-01
1.034156322479248047e+00 4.951538741588592529e-01 7.471632361412048340e-01
1.038891792297363281e+00 4.909668266773223877e-01 7.468378543853759766e-01
1.039034128189086914e+00 4.960830211639404297e-01 7.472446560859680176e-01
8.629016280174255371e-01 4.079767167568206787e-01 7.567731142044067383e-01
8.616147637367248535e-01 4.128963351249694824e-01 7.566179037094116211e-01
8.660184741020202637e-01 4.094242155551910400e-01 7.569476366043090820e-01
8.646160960197448730e-01 4.144215881824493408e-01 7.566789388656616211e-01
8.926880359649658203e-01 3.256079852581024170e-01 7.398747801780700684e-01
8.933839797973632812e-01 3.325910568237304688e-01 7.396692633628845215e-01
8.980371356010437012e-01 3.277371227741241455e-01 7.395081520080566406e-01
8.991038203239440918e-01 3.345805406570434570e-01 7.393268942832946777e-01
8.902838826179504395e-01 5.058038830757141113e-01 7.651597857475280762e-01
8.895631432533264160e-01 5.116022825241088867e-01 7.652919292449951172e-01
8.946440219879150391e-01 5.094283819198608398e-01 7.642788887023925781e-01
8.940843939781188965e-01 5.149751901626586914e-01 7.644124031066894531e-01
9.412198066711425781e-01 5.793250203132629395e-01 7.442119717597961426e-01
9.406050443649291992e-01 5.845637321472167969e-01 7.438386082649230957e-01
9.457930922508239746e-01 5.807092785835266113e-01 7.436346411705017090e-01
9.448314905166625977e-01 5.860193371772766113e-01 7.435576915740966797e-01
1.032720446586608887e+00 2.513815760612487793e-01 7.452953457832336426e-01
1.032249689102172852e+00 2.568845450878143311e-01 7.465077638626098633e-01
1.036724090576171875e+00 2.539111673831939697e-01 7.453640699386596680e-01
1.036278009414672852e+00 2.595692276954650879e-01 7.463589310646057129e-01
8.759710788726806641e-01 2.124601155519485474e-01 7.543526887893676758e-01
8.752914071083068848e-01 2.167479544878005981e-01 7.562880516052246094e-01
8.804073929786682129e-01 2.143536359071731567e-01 7.564985752105712891e-01
8.796360492706298828e-01 2.186139672994613647e-01 7.584626078605651855e-01
9.611729979515075684e-01 6.768980622291564941e-01 7.601789832115173340e-01
9.611100554466247559e-01 6.805608868598937988e-01 7.588354945182800293e-01
9.654250741004943848e-01 6.755856871604919434e-01 7.603988647460937500e-01
9.651612043380737305e-01 6.794095039367675781e-01 7.592348456382751465e-01
9.121801853179931641e-01 3.809764683246612549e-01 7.436533570289611816e-01
9.106987118721008301e-01 3.859493136405944824e-01 7.442564964294433594e-01
9.154435992240905762e-01 3.819250464439392090e-01 7.423231601715087891e-01
9.143508672714233398e-01 3.859370648860931396e-01 7.426348924636840820e-01
9.650969505310058594e-01 5.737212896347045898e-01 7.549476623535156250e-01
9.624207019805908203e-01 5.771722197532653809e-01 7.576811909675598145e-01
9.707921743392944336e-01 5.754864811897277832e-01 7.552504539489746094e-01
9.683016538619995117e-01 5.788977146148681641e-01 7.577009201049804688e-01
8.223708868026733398e-01 6.389129161834716797e-01 7.641591429710388184e-01
8.226417303085327148e-01 6.433417797088623047e-01 7.642720937728881836e-01
8.258656859397888184e-01 6.403297185897827148e-01 7.645559310913085938e-01
8.264262676239013672e-01 6.445983052253723145e-01 7.644720077514648438e-01
9.163637161254882812e-01 6.510863304138183594e-01 7.579248547554016113e-01
9.158852696418762207e-01 6.549870371818542480e-01 7.581499218940734863e-01
9.195653200149536133e-01 6.515305638313293457e-01 7.574182152748107910e-01
9.189019799232482910e-01 6.555814743041992188e-01 7.575582265853881836e-01
9.392700791358947754e-01 2.846376001834869385e-01 7.561852335929870605e-01
9.388460516929626465e-01 2.882620394229888916e-01 7.560269236564636230e-01
9.434854984283447266e-01 2.864933311939239502e-01 7.541465163230895996e-01
9.429625868797302246e-01 2.908625602722167969e-01 7.538932561874389648e-01
9.687176346778869629e-01 6.454529166221618652e-01 7.436062693595886230e-01
9.685337543487548828e-01 6.489799022674560547e-01 7.438198328018188477e-01
9.723916649818420410e-01 6.459889411926269531e-01 7.440033555030822754e-01
9.719069600105285645e-01 6.499590873718261719e-01 7.442116737365722656e-01
9.083431959152221680e-01 4.178634285926818848e-01 7.595285773277282715e-01
9.067934751510620117e-01 4.224441945552825928e-01 7.596353888511657715e-01
9.133221507072448730e-01 4.183001816272735596e-01 7.574873566627502441e-01
9.121249914169311523e-01 4.230517148971557617e-01 7.575120329856872559e-01
8.166000843048095703e-01 4.813228249549865723e-01 7.636998295783996582e-01
8.170458078384399414e-01 4.875029027462005615e-01 7.644265294075012207e-01
8.188272118568420410e-01 4.827608764171600342e-01 7.692021131515502930e-01
8.193822503089904785e-01 4.887000322341918945e-01 7.694137692451477051e-01
9.575960040092468262e-01 3.454104065895080566e-01 7.467909455299377441e-01
9.577283859252929688e-01 3.488602042198181152e-01 7.470254302024841309e-01
9.602826237678527832e-01 3.467290103435516357e-01 7.468174695968627930e-01
9.604986310005187988e-01 3.500833511352539062e-01 7.470626831054687500e-01
1.043918848037719727e+00 4.499057829380035400e-01 7.470481395721435547e-01
1.042381525039672852e+00 4.569299817085266113e-01 7.475254535675048828e-01
1.047970533370971680e+00 4.508389532566070557e-01 7.468457818031311035e-01
1.046410918235778809e+00 4.578123986721038818e-01 7.472626566886901855e-01
8.505067229270935059e-01 7.022735476493835449e-01 7.644320726394653320e-01
8.506287932395935059e-01 7.066419124603271484e-01 7.624940872192382812e-01
8.537849187850952148e-01 7.008593678474426270e-01 7.662585377693176270e-01
8.537549376487731934e-01 7.053880095481872559e-01 7.645051479339599609e-01
8.295862078666687012e-01 3.120035827159881592e-01 7.388886809349060059e-01
8.299925923347473145e-01 3.166495263576507568e-01 7.390166521072387695e-01
8.301416635513305664e-01 3.122991919517517090e-01 7.419915199279785156e-01
8.305445909500122070e-01 3.169679045677185059e-01 7.420773506164550781e-01
9.951895475387573242e-01 2.154969125986099243e-01 7.440399527549743652e-01
9.940608143806457520e-01 2.181358635425567627e-01 7.452825307846069336e-01
9.990064501762390137e-01 2.160535901784896851e-01 7.448484301567077637e-01
9.979482889175415039e-01 2.188468277454376221e-01 7.459830045700073242e-01
8.922989964485168457e-01 3.270073533058166504e-01 7.591833472251892090e-01
8.916144967079162598e-01 3.314551115036010742e-01 7.591857910156250000e-01
8.970906734466552734e-01 3.287087082862854004e-01 7.573912739753723145e-01
8.963843584060668945e-01 3.336146175861358643e-01 7.576053142547607422e-01
9.574310779571533203e-01 5.184154510498046875e-01 7.465819716453552246e-01
9.568363428115844727e-01 5.217497348785400391e-01 7.461783289909362793e-01
9.607551097869873047e-01 5.183234810829162598e-01 7.468781471252441406e-01
9.602113366127014160e-01 5.215079784393310547e-01 7.464599013328552246e-01
8.540523052215576172e-01 5.529522299766540527e-01 7.380929589271545410e-01
8.540604114532470703e-01 5.591685175895690918e-01 7.377185225486755371e-01
8.614787459373474121e-01 5.535089373588562012e-01 7.382565736770629883e-01
8.614788651466369629e-01 5.598349571228027344e-01 7.379296422004699707e-01
9.374961256980895996e-01 5.764144062995910645e-01 7.491186261177062988e-01
9.369198083877563477e-01 5.814440250396728516e-01 7.486250996589660645e-01
9.413861036300659180e-01 5.772247910499572754e-01 7.490407228469848633e-01
9.407396316528320312e-01 5.823835134506225586e-01 7.485766410827636719e-01
8.298712372779846191e-01 6.326190829277038574e-01 7.385667562484741211e-01
8.303177952766418457e-01 6.373890042304992676e-01 7.396180629730224609e-01
8.310125470161437988e-01 6.347541809082031250e-01 7.415847182273864746e-01
8.313466906547546387e-01 6.396344304084777832e-01 7.425761222839355469e-01
9.367713928222656250e-01 2.633187770843505859e-01 7.580580115318298340e-01
9.343102574348449707e-01 2.671598792076110840e-01 7.585396766662597656e-01
9.392180442810058594e-01 2.645419538021087646e-01 7.576414346694946289e-01
9.372195601463317871e-01 2.685794532299041748e-01 7.578565478324890137e-01
9.176484942436218262e-01 4.441134929656982422e-01 7.602233290672302246e-01
9.164159893989562988e-01 4.484160542488098145e-01 7.605143189430236816e-01
9.220508933067321777e-01 4.446337819099426270e-01 7.612912058830261230e-01
9.208712577819824219e-01 4.484108090400695801e-01 7.617892622947692871e-01
9.961068034172058105e-01 5.058822631835937500e-01 7.492032051086425781e-01
9.957949519157409668e-01 5.089011192321777344e-01 7.494992613792419434e-01
9.998458623886108398e-01 5.068660378456115723e-01 7.487835884094238281e-01
9.991840124130249023e-01 5.098547339439392090e-01 7.490549683570861816e-01
8.891885280609130859e-01 2.884194850921630859e-01 7.568432092666625977e-01
8.900636434555053711e-01 2.927171587944030762e-01 7.570018172264099121e-01
8.937678337097167969e-01 2.904327809810638428e-01 7.549611330032348633e-01
8.943224549293518066e-01 2.948109507560729980e-01 7.552977204322814941e-01
9.576661586761474609e-01 6.268531680107116699e-01 7.573483586311340332e-01
9.570459127426147461e-01 6.313915252685546875e-01 7.573969364166259766e-01
9.619677066802978516e-01 6.287470459938049316e-01 7.570675015449523926e-01
9.609760046005249023e-01 6.333134174346923828e-01 7.572329640388488770e-01
8.886998891830444336e-01 6.160452365875244141e-01 7.553250789642333984e-01
8.883244991302490234e-01 6.210461854934692383e-01 7.549592852592468262e-01
8.930985927581787109e-01 6.169960498809814453e-01 7.552188038825988770e-01
8.927967548370361328e-01 6.218975782394409180e-01 7.549117803573608398e-01
8.214921951293945312e-01 6.476109623908996582e-01 7.632179260253906250e-01
8.221791982650756836e-01 6.518822908401489258e-01 7.631039619445800781e-01
8.252514600753784180e-01 6.483833193778991699e-01 7.645131349563598633e-01
8.262013196945190430e-01 6.522378921508789062e-01 7.639198899269104004e-01
8.331852555274963379e-01 4.001708328723907471e-01 7.640425562858581543e-01
8.335161209106445312e-01 4.035768508911132812e-01 7.646683454513549805e-01
8.342337012290954590e-01 4.011240005493164062e-01 7.671225070953369141e-01
8.345284461975097656e-01 4.045185446739196777e-01 7.677569985389709473e-01
9.832003116607666016e-01 3.447720706462860107e-01 7.564108967781066895e-01
9.808985590934753418e-01 3.491088747978210449e-01 7.569742798805236816e-01
9.880477786064147949e-01 3.482351899147033691e-01 7.540573477745056152e-01
9.858297109603881836e-01 3.519382476806640625e-01 7.549036145210266113e-01
9.403953552246093750e-01 6.413426995277404785e-01 7.482775449752807617e-01
9.407513737678527832e-01 6.461241841316223145e-01 7.477442622184753418e-01
9.439594149589538574e-01 6.427825689315795898e-01 7.486734986305236816e-01
9.442207813262939453e-01 6.471114754676818848e-01 7.483785748481750488e-01
9.557636380195617676e-01 5.911614298820495605e-01 7.452574372291564941e-01
9.546728134155273438e-01 5.965188741683959961e-01 7.460734844207763672e-01
9.595232605934143066e-01 5.924763679504394531e-01 7.455300688743591309e-01
9.585005044937133789e-01 5.974630117416381836e-01 7.463719248771667480e-01
8.337129950523376465e-01 4.112969338893890381e-01 7.549405694007873535e-01
8.333035111427307129e-01 4.153608381748199463e-01 7.555398344993591309e-01
8.350033760070800781e-01 4.114897847175598145e-01 7.594321370124816895e-01
8.347337245941162109e-01 4.154901802539825439e-01 7.599972486495971680e-01
9.507724642753601074e-01 6.465487480163574219e-01 7.602380514144897461e-01
9.509447216987609863e-01 6.511728167533874512e-01 7.602304816246032715e-01
9.550392031669616699e-01 6.479950547218322754e-01 7.611842751502990723e-01
9.551405310630798340e-01 6.526936292648315430e-01 7.612504959106445312e-01
8.967198133468627930e-01 3.942813575267791748e-01 7.547833919525146484e-01
8.954620957374572754e-01 3.988066911697387695e-01 7.549611926078796387e-01
9.013256430625915527e-01 3.948441445827484131e-01 7.541712522506713867e-01
8.996648788452148438e-01 3.993693590164184570e-01 7.544174790382385254e-01
8.305031657218933105e-01 5.634791254997253418e-01 7.591656446456909180e-01
8.301614522933959961e-01 5.672757029533386230e-01 7.595253586769104004e-01
8.341030478477478027e-01 5.636975765228271484e-01 7.598252892494201660e-01
8.337815403938293457e-01 5.675908923149108887e-01 7.602189183235168457e-01
1.056093454360961914e+00 3.142503201961517334e-01 7.460442781448364258e-01
1.056146502494812012e+00 3.186023831367492676e-01 7.463074326515197754e-01
1.059714317321777344e+00 3.149746060371398926e-01 7.462573647499084473e-01
1.059692502021789551e+00 3.197100162506103516e-01 7.465202212333679199e-01
8.328388333320617676e-01 3.955243527889251709e-01 7.595343589782714844e-01
8.332028388977050781e-01 3.988710641860961914e-01 7.602611184120178223e-01
8.336483240127563477e-01 3.964590430259704590e-01 7.624713182449340820e-01
8.338308930397033691e-01 3.998168408870697021e-01 7.631664872169494629e-01
1.004002332687377930e+00 5.950220227241516113e-01 7.429288029670715332e-01
1.003979444503784180e+00 5.982178449630737305e-01 7.423496246337890625e-01
1.006392121315002441e+00 5.943350195884704590e-01 7.441112399101257324e-01
1.006153225898742676e+00 5.977495312690734863e-01 7.433687448501586914e-01
9.416821002960205078e-01 3.702552020549774170e-01 7.605071663856506348e-01
9.398251771926879883e-01 3.740815818309783936e-01 7.605546712875366211e-01
9.461486935615539551e-01 3.699169456958770752e-01 7.594680786132812500e-01
9.454065561294555664e-01 3.738528788089752197e-01 7.591166496276855469e-01
9.887266159057617188e-01 3.209005594253540039e-01 7.512810826301574707e-01
9.889731407165527344e-01 3.246099352836608887e-01 7.504861354827880859e-01
9.899059534072875977e-01 3.209859430789947510e-01 7.528131604194641113e-01
9.901524782180786133e-01 3.246953189373016357e-01 7.520182132720947266e-01
1.002488255500793457e+00 2.673643231391906738e-01 7.492922544479370117e-01
1.002392411231994629e+00 2.711806297302246094e-01 7.489871382713317871e-01
1.006343960762023926e+00 2.678507566452026367e-01 7.499388456344604492e-01
1.006211280822753906e+00 2.716405391693115234e-01 7.497608661651611328e-01
9.709967374801635742e-01 4.698264300823211670e-01 7.422362565994262695e-01
9.702549576759338379e-01 4.736862480640411377e-01 7.420644164085388184e-01
9.739096760749816895e-01 4.709061384201049805e-01 7.422351837158203125e-01
9.735314846038818359e-01 4.746206402778625488e-01 7.422963380813598633e-01
9.212055206298828125e-01 5.603732466697692871e-01 7.567442655563354492e-01
9.214608669281005859e-01 5.646715164184570312e-01 7.562407851219177246e-01
9.223653078079223633e-01 5.615557432174682617e-01 7.577254176139831543e-01
9.224100112915039062e-01 5.659018754959106445e-01 7.570902109146118164e-01
9.714859724044799805e-01 3.588112592697143555e-01 7.443464994430541992e-01
9.699492454528808594e-01 3.638903498649597168e-01 7.443984150886535645e-01
9.747846126556396484e-01 3.602267205715179443e-01 7.442588210105895996e-01
9.737725853919982910e-01 3.651725053787231445e-01 7.447711229324340820e-01
9.811263680458068848e-01 2.284543663263320923e-01 7.434379458427429199e-01
9.795060753822326660e-01 2.301891297101974487e-01 7.460033297538757324e-01
9.832884669303894043e-01 2.298210561275482178e-01 7.449997663497924805e-01
9.817219376564025879e-01 2.316434979438781738e-01 7.474368810653686523e-01
8.464937806129455566e-01 3.690070211887359619e-01 7.625449299812316895e-01
8.464670777320861816e-01 3.733237385749816895e-01 7.630558609962463379e-01
8.507136702537536621e-01 3.695142865180969238e-01 7.618339061737060547e-01
8.503557443618774414e-01 3.739712834358215332e-01 7.623978853225708008e-01
8.629504442214965820e-01 6.077489852905273438e-01 7.563803791999816895e-01
8.621304631233215332e-01 6.123747825622558594e-01 7.564867138862609863e-01
8.674388527870178223e-01 6.071147322654724121e-01 7.565634250640869141e-01
8.665608167648315430e-01 6.115353703498840332e-01 7.564530968666076660e-01
8.883523344993591309e-01 4.703521728515625000e-01 7.395058870315551758e-01
8.887382149696350098e-01 4.761626720428466797e-01 7.387979626655578613e-01
8.935611844062805176e-01 4.716325104236602783e-01 7.395710945129394531e-01
8.941802382469177246e-01 4.773597121238708496e-01 7.387038469314575195e-01
1.001001119613647461e+00 6.099081039428710938e-01 7.433577179908752441e-01
1.000319123268127441e+00 6.137623786926269531e-01 7.435035705566406250e-01
1.004815697669982910e+00 6.095139980316162109e-01 7.432323098182678223e-01
1.003999590873718262e+00 6.132509112358093262e-01 7.433359026908874512e-01
8.579093813896179199e-01 4.821154177188873291e-01 7.569030523300170898e-01
8.562761545181274414e-01 4.862409830093383789e-01 7.571384310722351074e-01
8.614796400070190430e-01 4.819241762161254883e-01 7.567624449729919434e-01
8.601045608520507812e-01 4.859668612480163574e-01 7.569327950477600098e-01
1.054967999458312988e+00 2.947978377342224121e-01 7.469191551208496094e-01
1.054956555366516113e+00 2.996471822261810303e-01 7.466452121734619141e-01
1.058851838111877441e+00 2.956579625606536865e-01 7.467502355575561523e-01
1.059129595756530762e+00 3.008804023265838623e-01 7.463762760162353516e-01
9.552468657493591309e-01 5.740379691123962402e-01 7.479916214942932129e-01
9.539811611175537109e-01 5.782008767127990723e-01 7.481746077537536621e-01
9.600306153297424316e-01 5.748941302299499512e-01 7.473562359809875488e-01
9.588600397109985352e-01 5.787346363067626953e-01 7.476559281349182129e-01
9.570787549018859863e-01 5.825790762901306152e-01 7.432522177696228027e-01
9.556080102920532227e-01 5.872132182121276855e-01 7.438716292381286621e-01
9.613136649131774902e-01 5.831821560859680176e-01 7.433192729949951172e-01
9.602308869361877441e-01 5.870705246925354004e-01 7.440274357795715332e-01
8.311018347740173340e-01 3.271921873092651367e-01 7.496234774589538574e-01
8.317416906356811523e-01 3.311594724655151367e-01 7.498617172241210938e-01
8.315524458885192871e-01 3.280431032180786133e-01 7.521983385086059570e-01
8.320841193199157715e-01 3.315373361110687256e-01 7.524497509002685547e-01
9.551561474800109863e-01 2.394825369119644165e-01 7.429279685020446777e-01
9.541972279548645020e-01 2.428303360939025879e-01 7.444085478782653809e-01
9.586840867996215820e-01 2.415547221899032593e-01 7.429656982421875000e-01
9.572524428367614746e-01 2.446808964014053345e-01 7.449517250061035156e-01
9.021070599555969238e-01 6.374382376670837402e-01 7.526266574859619141e-01
9.013012647628784180e-01 6.406999230384826660e-01 7.523230314254760742e-01
9.049420952796936035e-01 6.374870538711547852e-01 7.520660161972045898e-01
9.043678641319274902e-01 6.406241059303283691e-01 7.517310976982116699e-01
9.925705194473266602e-01 2.280160486698150635e-01 7.497226595878601074e-01
9.908220171928405762e-01 2.296843975782394409e-01 7.515655755996704102e-01
9.948701262474060059e-01 2.293508648872375488e-01 7.508670687675476074e-01
9.931216239929199219e-01 2.310192137956619263e-01 7.527099847793579102e-01
9.071855545043945312e-01 4.740561246871948242e-01 7.398202419281005859e-01
9.077687859535217285e-01 4.796029329299926758e-01 7.393043041229248047e-01
9.117048382759094238e-01 4.751023650169372559e-01 7.401764392852783203e-01
9.121915102005004883e-01 4.806836545467376709e-01 7.397723793983459473e-01
9.250746965408325195e-01 3.119729161262512207e-01 7.427480816841125488e-01
9.252364039421081543e-01 3.155940473079681396e-01 7.430801391601562500e-01
9.287094473838806152e-01 3.120901882648468018e-01 7.425464391708374023e-01
9.287829995155334473e-01 3.160758912563323975e-01 7.428343296051025391e-01
8.753642439842224121e-01 5.233668684959411621e-01 7.606213688850402832e-01
8.769975900650024414e-01 5.273179411888122559e-01 7.604858279228210449e-01
8.809106945991516113e-01 5.256562232971191406e-01 7.594791054725646973e-01
8.818809986114501953e-01 5.301151871681213379e-01 7.597150206565856934e-01
8.338934779167175293e-01 5.358954071998596191e-01 7.646237611770629883e-01
8.336459398269653320e-01 5.401487946510314941e-01 7.647853493690490723e-01
8.374264240264892578e-01 5.368524193763732910e-01 7.637580633163452148e-01
8.369258642196655273e-01 5.410469174385070801e-01 7.640671730041503906e-01
9.459331035614013672e-01 4.830878674983978271e-01 7.557129263877868652e-01
9.460250735282897949e-01 4.868069291114807129e-01 7.557021379470825195e-01
9.500462412834167480e-01 4.840489327907562256e-01 7.553354501724243164e-01
9.503110051155090332e-01 4.878043830394744873e-01 7.553486227989196777e-01
8.324093818664550781e-01 5.165172815322875977e-01 7.617304921150207520e-01
8.321334123611450195e-01 5.204649567604064941e-01 7.622302770614624023e-01
8.358629345893859863e-01 5.184299349784851074e-01 7.624815106391906738e-01
8.359225988388061523e-01 5.221018195152282715e-01 7.627417445182800293e-01
9.454987645149230957e-01 2.297453433275222778e-01 7.605183124542236328e-01
9.450026750564575195e-01 2.333473265171051025e-01 7.621949315071105957e-01
9.481494426727294922e-01 2.330797463655471802e-01 7.611274719238281250e-01
