8.652370000000000339e-01 3.786700000000000066e-01 7.380219999999999558e-01
8.429229999999999778e-01 3.751010000000000177e-01 7.372880000000000544e-01
9.840600000000000458e-01 5.402299999999999880e-01 7.419289999999999496e-01
1.005838000000000010e+00 2.734570000000000056e-01 7.487139999999999906e-01
9.798470000000000235e-01 4.029030000000000111e-01 7.450280000000000236e-01
9.512990000000000057e-01 4.461820000000000230e-01 7.477270000000000305e-01
1.018010999999999999e+00 3.592549999999999910e-01 7.425979999999999803e-01
8.989209999999999701e-01 2.281640000000000057e-01 7.603320000000000078e-01
9.484569999999999945e-01 3.537649999999999961e-01 7.548249999999999682e-01
8.685100000000000042e-01 3.651449999999999974e-01 7.625819999999999821e-01
9.289809999999999457e-01 5.349439999999999751e-01 7.498359999999999470e-01
9.301960000000000228e-01 4.899839999999999751e-01 7.497209999999999708e-01
9.280319999999999681e-01 4.440040000000000098e-01 7.400870000000000504e-01
9.354320000000000412e-01 6.718060000000000143e-01 7.594729999999999537e-01
8.264989999999999837e-01 4.076049999999999951e-01 7.385770000000000390e-01
8.629670000000000396e-01 5.315649999999999542e-01 7.560759999999999703e-01
8.448919999999999764e-01 3.941990000000000216e-01 7.577850000000000419e-01
1.043334999999999901e+00 2.800219999999999931e-01 7.426009999999999556e-01
8.056189999999999740e-01 6.739450000000000163e-01 7.426150000000000251e-01
8.877209999999999823e-01 5.156920000000000393e-01 7.537359999999999616e-01
8.995659999999999767e-01 4.652160000000000184e-01 7.665499999999999536e-01
1.013621000000000105e+00 6.225530000000000230e-01 7.455469999999999597e-01
9.290690000000000337e-01 2.799130000000000229e-01 7.559000000000000163e-01
8.390039999999999720e-01 2.564179999999999793e-01 7.583419999999999606e-01
9.470220000000000304e-01 4.144809999999999883e-01 7.481309999999999905e-01
9.058009999999999673e-01 4.436970000000000081e-01 7.520280000000000298e-01
1.030205000000000037e+00 2.226299999999999946e-01 7.486120000000000552e-01
8.301230000000000553e-01 6.280879999999999797e-01 7.369480000000000475e-01
9.322589999999999488e-01 6.334640000000000271e-01 7.495270000000000543e-01
8.556920000000000082e-01 2.747269999999999990e-01 7.377080000000000304e-01
9.714230000000000365e-01 4.403670000000000084e-01 7.458249999999999602e-01
8.483129999999999837e-01 5.204999999999999627e-01 7.374650000000000372e-01
8.347280000000000255e-01 3.096079999999999943e-01 7.370179999999999509e-01
8.491269999999999651e-01 3.356689999999999952e-01 7.573849999999999749e-01
1.005764000000000102e+00 5.376330000000000275e-01 7.479379999999999917e-01
8.514119999999999466e-01 3.083870000000000222e-01 7.666859999999999786e-01
8.718810000000000171e-01 6.474429999999999907e-01 7.628880000000000106e-01
1.048677000000000081e+00 2.491029999999999911e-01 7.426070000000000171e-01
1.062049000000000021e+00 4.089110000000000245e-01 7.425810000000000466e-01
9.921649999999999636e-01 5.180280000000000440e-01 7.515180000000000193e-01
8.591990000000000460e-01 4.709519999999999817e-01 7.628009999999999513e-01
9.342679999999999874e-01 7.071589999999999820e-01 7.478639999999999732e-01
8.332530000000000214e-01 2.611999999999999877e-01 7.659620000000000317e-01
8.687780000000000502e-01 6.274039999999999617e-01 7.631809999999999983e-01
8.405120000000000369e-01 2.549609999999999932e-01 7.658530000000000060e-01
1.018858999999999959e+00 3.728090000000000015e-01 7.485910000000000064e-01
9.977209999999999690e-01 5.235739999999999839e-01 7.509919999999999929e-01
8.825629999999999864e-01 3.158719999999999861e-01 7.542240000000000055e-01
8.396360000000000490e-01 6.704430000000000112e-01 7.371799999999999464e-01
8.656770000000000298e-01 4.692169999999999952e-01 7.558200000000000474e-01
9.654239999999999489e-01 4.128410000000000135e-01 7.604229999999999601e-01
1.031228999999999951e+00 2.698090000000000210e-01 7.426059999999999883e-01
8.443220000000000169e-01 4.507760000000000100e-01 7.373340000000000449e-01
9.980050000000000310e-01 5.121499999999999941e-01 7.423870000000000191e-01
8.373159999999999492e-01 2.894240000000000146e-01 7.585009999999999808e-01
8.565970000000000528e-01 4.572879999999999723e-01 7.707110000000000349e-01
8.477940000000000476e-01 4.741270000000000207e-01 7.579789999999999583e-01
8.314099999999999824e-01 2.788280000000000203e-01 7.502360000000000140e-01
9.862670000000000048e-01 5.540070000000000272e-01 7.420010000000000217e-01
9.198990000000000222e-01 4.107239999999999780e-01 7.398190000000000044e-01
8.205059999999999576e-01 5.340709999999999624e-01 7.645650000000000501e-01
9.815439999999999721e-01 6.490709999999999535e-01 7.448679999999999746e-01
9.341559999999999864e-01 5.117319999999999647e-01 7.402879999999999461e-01
9.189810000000000478e-01 2.315280000000000116e-01 7.397890000000000299e-01
8.771820000000000173e-01 5.181620000000000115e-01 7.623870000000000369e-01
8.761999999999999789e-01 5.362679999999999669e-01 7.548259999999999970e-01
8.804910000000000236e-01 5.326340000000000519e-01 7.385230000000000405e-01
8.554709999999999814e-01 3.246640000000000081e-01 7.377000000000000224e-01
1.035622000000000043e+00 4.982150000000000190e-01 7.481299999999999617e-01
1.059860999999999942e+00 3.638989999999999725e-01 7.467629999999999546e-01
8.082840000000000025e-01 5.481669999999999598e-01 7.631350000000000078e-01
8.877369999999999983e-01 2.969319999999999737e-01 7.553689999999999571e-01
9.720569999999999489e-01 3.378809999999999869e-01 7.457650000000000112e-01
8.523950000000000138e-01 4.396289999999999920e-01 7.666749999999999954e-01
9.329429999999999668e-01 3.567279999999999895e-01 7.634940000000000060e-01
9.807979999999999476e-01 2.303429999999999922e-01 7.520400000000000418e-01
8.227929999999999966e-01 3.589319999999999733e-01 7.390579999999999927e-01
1.051546000000000092e+00 3.081539999999999835e-01 7.425960000000000338e-01
9.815099999999999936e-01 5.071849999999999969e-01 7.448709999999999498e-01
9.772359999999999935e-01 5.219120000000000426e-01 7.452750000000000208e-01
1.048076999999999925e+00 4.714820000000000122e-01 7.472389999999999866e-01
8.623060000000000169e-01 5.981570000000000498e-01 7.701710000000000500e-01
8.417419999999999902e-01 3.414010000000000100e-01 7.657359999999999722e-01
9.099840000000000151e-01 6.761840000000000073e-01 7.394929999999999559e-01
8.935670000000000002e-01 5.624390000000000223e-01 7.531839999999999646e-01
9.076149999999999496e-01 6.085559999999999858e-01 7.394150000000000444e-01
8.270129999999999981e-01 6.375380000000000491e-01 7.637199999999999545e-01
8.846469999999999612e-01 3.712489999999999957e-01 7.386599999999999833e-01
8.365270000000000206e-01 3.898960000000000203e-01 7.370769999999999822e-01
1.039986999999999995e+00 3.578580000000000094e-01 7.425890000000000546e-01
9.999519999999999520e-01 3.152440000000000242e-01 7.507819999999999494e-01
8.928559999999999830e-01 4.320220000000000171e-01 7.532510000000000039e-01
8.970510000000000428e-01 3.694029999999999814e-01 7.528550000000000519e-01
9.112139999999999684e-01 6.268289999999999695e-01 7.639160000000000394e-01
9.019420000000000215e-01 5.014110000000000511e-01 7.523919999999999497e-01
8.264810000000000212e-01 2.611589999999999745e-01 7.480339999999999767e-01
9.077009999999999801e-01 5.253379999999999717e-01 7.578460000000000196e-01
9.397060000000000413e-01 4.439589999999999925e-01 7.404699999999999616e-01
9.533099999999999907e-01 3.770899999999999808e-01 7.543680000000000385e-01
9.252029999999999976e-01 4.249839999999999729e-01 7.501929999999999987e-01
8.966619999999999591e-01 4.245610000000000217e-01 7.669240000000000501e-01
1.066303999999999919e+00 2.977270000000000194e-01 7.425979999999999803e-01
1.049406000000000061e+00 3.117039999999999811e-01 7.425960000000000338e-01
9.947740000000000471e-01 6.996679999999999566e-01 7.436169999999999725e-01
9.163069999999999826e-01 3.445829999999999727e-01 7.643210000000000282e-01
9.031670000000000531e-01 2.913350000000000106e-01 7.392689999999999539e-01
9.640959999999999530e-01 5.629999999999999449e-01 7.540259999999999740e-01
8.831609999999999738e-01 3.237050000000000205e-01 7.386110000000000175e-01
8.565679999999999961e-01 7.018990000000000506e-01 7.377369999999999761e-01
9.445120000000000182e-01 3.480139999999999900e-01 7.483680000000000332e-01
8.935159999999999769e-01 5.315659999999999830e-01 7.590930000000000177e-01
9.633530000000000149e-01 2.929700000000000082e-01 7.549529999999999852e-01
8.982369999999999521e-01 6.835609999999999742e-01 7.667749999999999844e-01
9.073569999999999691e-01 5.132240000000000135e-01 7.394070000000000364e-01
1.022480000000000055e+00 4.405830000000000024e-01 7.485810000000000519e-01
8.316799999999999748e-01 3.205489999999999728e-01 7.522269999999999790e-01
1.005411999999999972e+00 2.986150000000000193e-01 7.430930000000000035e-01
9.554820000000000535e-01 6.670080000000000453e-01 7.473309999999999675e-01
9.487679999999999447e-01 3.221609999999999752e-01 7.540259999999999740e-01
8.506230000000000180e-01 5.390319999999999556e-01 7.375410000000000021e-01
9.719889999999999919e-01 4.453039999999999776e-01 7.457709999999999617e-01
8.273000000000000353e-01 2.786299999999999888e-01 7.384730000000000461e-01
8.664100000000000135e-01 6.751139999999999919e-01 7.557509999999999506e-01
1.019627999999999979e+00 6.596509999999999874e-01 7.455380000000000340e-01
9.176480000000000192e-01 5.525900000000000256e-01 7.649399999999999533e-01
1.047290999999999972e+00 4.933589999999999920e-01 7.425690000000000346e-01
1.047104000000000035e+00 2.864869999999999917e-01 7.479339999999999877e-01
1.057444000000000051e+00 3.275440000000000018e-01 7.425929999999999476e-01
9.764319999999999666e-01 6.164159999999999640e-01 7.453509999999999858e-01
9.230810000000000404e-01 3.849409999999999776e-01 7.503940000000000055e-01
9.769440000000000346e-01 3.217360000000000220e-01 7.453020000000000200e-01
9.568100000000000493e-01 2.354420000000000124e-01 7.472050000000000081e-01
8.500699999999999923e-01 4.923629999999999951e-01 7.641879999999999784e-01
9.278180000000000316e-01 2.644889999999999741e-01 7.499460000000000015e-01
9.874000000000000554e-01 2.565769999999999995e-01 7.546070000000000277e-01
1.001230000000000064e+00 2.598190000000000222e-01 7.506610000000000227e-01
8.881170000000000453e-01 6.480709999999999527e-01 7.548179999999999890e-01
8.967460000000000431e-01 5.844190000000000218e-01 7.528839999999999977e-01
9.086090000000000000e-01 5.727539999999999853e-01 7.571299999999999697e-01
9.071900000000000519e-01 6.434950000000000392e-01 7.612189999999999790e-01
9.284040000000000070e-01 2.424759999999999971e-01 7.400989999999999513e-01
8.831080000000000041e-01 2.263819999999999999e-01 7.541729999999999823e-01
9.559379999999999544e-01 3.808489999999999931e-01 7.410039999999999960e-01
9.796340000000000048e-01 4.709659999999999958e-01 7.417829999999999702e-01
9.699729999999999741e-01 4.499070000000000014e-01 7.414659999999999584e-01
9.221449999999999925e-01 6.362879999999999647e-01 7.624940000000000051e-01
9.660790000000000211e-01 2.659360000000000057e-01 7.463290000000000202e-01
9.493939999999999602e-01 6.749420000000000419e-01 7.534990000000000299e-01
1.016102000000000061e+00 4.527680000000000038e-01 7.485789999999999944e-01
9.898470000000000324e-01 2.288179999999999936e-01 7.440830000000000499e-01
9.248570000000000402e-01 4.085770000000000235e-01 7.502259999999999485e-01
9.828310000000000102e-01 2.574810000000000154e-01 7.447460000000000191e-01
9.491530000000000244e-01 4.267549999999999955e-01 7.530569999999999764e-01
8.066109999999999669e-01 5.462160000000000348e-01 7.502579999999999805e-01
9.947409999999999863e-01 5.765550000000000397e-01 7.512739999999999974e-01
9.258079999999999643e-01 2.790469999999999895e-01 7.501360000000000250e-01
8.060800000000000187e-01 4.736190000000000122e-01 7.461699999999999999e-01
9.614780000000000548e-01 3.637929999999999775e-01 7.467639999999999834e-01
8.292329999999999979e-01 6.439150000000000151e-01 7.382220000000000448e-01
9.358149999999999524e-01 5.226530000000000342e-01 7.491900000000000226e-01
8.400339999999999474e-01 2.380269999999999886e-01 7.582440000000000291e-01
9.727259999999999796e-01 6.088160000000000238e-01 7.415559999999999929e-01
8.776859999999999662e-01 3.368979999999999753e-01 7.384309999999999485e-01
8.795899999999999830e-01 6.676609999999999490e-01 7.621590000000000309e-01
9.557470000000000132e-01 2.591289999999999982e-01 7.409980000000000455e-01
9.081770000000000120e-01 4.395809999999999995e-01 7.394340000000000357e-01
8.244960000000000067e-01 6.238380000000000036e-01 7.388369999999999660e-01
8.375070000000000014e-01 5.760819999999999830e-01 7.371100000000000430e-01
9.550549999999999873e-01 3.432299999999999796e-01 7.473710000000000075e-01
8.319119999999999848e-01 3.165950000000000153e-01 7.630829999999999558e-01
9.826960000000000139e-01 2.464409999999999934e-01 7.447589999999999488e-01
9.224200000000000177e-01 5.107230000000000381e-01 7.399019999999999486e-01
8.477630000000000443e-01 4.721830000000000194e-01 7.576530000000000209e-01
8.317480000000000429e-01 4.910760000000000125e-01 7.524619999999999642e-01
8.806049999999999711e-01 2.254730000000000067e-01 7.544089999999999963e-01
9.850269999999999859e-01 4.480029999999999846e-01 7.445380000000000331e-01
9.912919999999999510e-01 6.900920000000000387e-01 7.421670000000000211e-01
9.269849999999999479e-01 4.814840000000000231e-01 7.500250000000000528e-01
9.653009999999999646e-01 3.843110000000000137e-01 7.604349999999999721e-01
8.949939999999999563e-01 3.506949999999999790e-01 7.389999999999999902e-01
1.012291999999999970e+00 2.623759999999999981e-01 7.486059999999999937e-01
8.076689999999999703e-01 4.633650000000000269e-01 7.583999999999999631e-01
1.014289999999999914e+00 2.937230000000000119e-01 7.426120000000000498e-01
8.304909999999999792e-01 2.507530000000000037e-01 7.434469999999999690e-01
9.626430000000000264e-01 2.788149999999999795e-01 7.466540000000000399e-01
9.283169999999999478e-01 2.586229999999999918e-01 7.498989999999999823e-01
9.113949999999999552e-01 4.314790000000000014e-01 7.395389999999999464e-01
9.081310000000000215e-01 3.785789999999999988e-01 7.575800000000000312e-01
8.495080000000000409e-01 3.129810000000000092e-01 7.375040000000000484e-01
1.065541000000000071e+00 3.144230000000000080e-01 7.425950000000000051e-01
9.675350000000000339e-01 5.005600000000000049e-01 7.413859999999999895e-01
8.330389999999999739e-01 4.528249999999999775e-01 7.624039999999999706e-01
9.007389999999999564e-01 5.802549999999999653e-01 7.391889999999999850e-01
9.784730000000000372e-01 5.977679999999999660e-01 7.451579999999999870e-01
9.034809999999999786e-01 3.280199999999999783e-01 7.392790000000000195e-01
8.319450000000000456e-01 6.778659999999999686e-01 7.541849999999999943e-01
8.590630000000000210e-01 2.834030000000000160e-01 7.564459999999999518e-01
1.039446000000000092e+00 2.673139999999999961e-01 7.485800000000000232e-01
9.401380000000000292e-01 4.980970000000000120e-01 7.487819999999999476e-01
9.955060000000000020e-01 5.982340000000000435e-01 7.423049999999999926e-01
8.684279999999999777e-01 3.403820000000000179e-01 7.568559999999999732e-01
8.700459999999999861e-01 5.418340000000000378e-01 7.554070000000000507e-01
1.037701999999999902e+00 2.161899999999999933e-01 7.462159999999999904e-01
9.260739999999999528e-01 3.968180000000000041e-01 7.641430000000000167e-01
8.480100000000000415e-01 4.161150000000000126e-01 7.624959999999999516e-01
1.001320999999999906e+00 6.482350000000000056e-01 7.424960000000000448e-01
9.772250000000000103e-01 4.158330000000000082e-01 7.417040000000000299e-01
8.874319999999999986e-01 6.581749999999999545e-01 7.537639999999999896e-01
9.580920000000000547e-01 2.212540000000000062e-01 7.470849999999999991e-01
8.327409999999999535e-01 3.178460000000000174e-01 7.605499999999999483e-01
8.055879999999999708e-01 5.686130000000000351e-01 7.423840000000000439e-01
8.066659999999999942e-01 6.326690000000000369e-01 7.506779999999999564e-01
8.970000000000000195e-01 3.529109999999999747e-01 7.625960000000000516e-01
9.625620000000000287e-01 5.194010000000000016e-01 7.466620000000000479e-01
8.691809999999999814e-01 3.862309999999999910e-01 7.570510000000000295e-01
8.425920000000000076e-01 4.340789999999999926e-01 7.580029999999999824e-01
8.875079999999999636e-01 4.299299999999999788e-01 7.387540000000000218e-01
8.486080000000000290e-01 5.248709999999999765e-01 7.374749999999999917e-01
8.598780000000000312e-01 4.502439999999999776e-01 7.378449999999999731e-01
9.586869999999999559e-01 4.076040000000000219e-01 7.470280000000000253e-01
9.332150000000000167e-01 4.473400000000000154e-01 7.570940000000000447e-01
9.218020000000000103e-01 4.486999999999999877e-01 7.505150000000000432e-01
9.730849999999999778e-01 4.381450000000000067e-01 7.456669999999999687e-01
1.016607999999999956e+00 3.748850000000000238e-01 7.485899999999999777e-01
9.227779999999999871e-01 2.818990000000000107e-01 7.604769999999999586e-01
9.243050000000000432e-01 3.058969999999999745e-01 7.502780000000000005e-01
9.122379999999999933e-01 5.478269999999999529e-01 7.514189999999999481e-01
8.388769999999999838e-01 7.014399999999999524e-01 7.371550000000000047e-01
8.364359999999999573e-01 2.381359999999999866e-01 7.370740000000000069e-01
8.382899999999999796e-01 2.853189999999999893e-01 7.584089999999999998e-01
9.572559999999999958e-01 4.483900000000000108e-01 7.471630000000000216e-01
9.623749999999999805e-01 6.875890000000000057e-01 7.466800000000000104e-01
8.304770000000000207e-01 6.034950000000000037e-01 7.433400000000000007e-01
1.030745999999999940e+00 5.254010000000000069e-01 7.482250000000000290e-01
9.316649999999999654e-01 3.516170000000000129e-01 7.636150000000000437e-01
9.858240000000000336e-01 4.402960000000000207e-01 7.419869999999999521e-01
9.295130000000000337e-01 6.840889999999999471e-01 7.497859999999999525e-01
9.945770000000000444e-01 5.523310000000000164e-01 7.512900000000000134e-01
1.027331999999999912e+00 6.238989999999999814e-01 7.455270000000000508e-01
1.031104000000000021e+00 5.739670000000000050e-01 7.425610000000000266e-01
8.628099999999999659e-01 5.161590000000000344e-01 7.379419999999999868e-01
9.627879999999999772e-01 6.178919999999999968e-01 7.606730000000000436e-01
9.109800000000000120e-01 6.298589999999999467e-01 7.515380000000000393e-01
8.551410000000000400e-01 5.767349999999999977e-01 7.568160000000000442e-01
8.871700000000000141e-01 3.800390000000000157e-01 7.387430000000000385e-01
9.781130000000000102e-01 2.161770000000000080e-01 7.447160000000000446e-01
1.030561999999999978e+00 4.554799999999999960e-01 7.485760000000000192e-01
8.702499999999999680e-01 4.326249999999999818e-01 7.630419999999999980e-01
9.437400000000000233e-01 4.987119999999999886e-01 7.624729999999999563e-01
9.681340000000000501e-01 3.567560000000000175e-01 7.525690000000000435e-01
9.278049999999999908e-01 2.332130000000000036e-01 7.499470000000000303e-01
8.659419999999999895e-01 4.348719999999999808e-01 7.682350000000000012e-01
9.497100000000000541e-01 7.071589999999999820e-01 7.479550000000000365e-01
1.018232999999999944e+00 6.578340000000000298e-01 7.425540000000000473e-01
9.966810000000000391e-01 2.895639999999999881e-01 7.423440000000000039e-01
9.198490000000000277e-01 4.528179999999999983e-01 7.507000000000000339e-01
9.178600000000000092e-01 2.161770000000000080e-01 7.460419999999999829e-01
8.948700000000000543e-01 3.426679999999999726e-01 7.670930000000000248e-01
8.786610000000000253e-01 4.651219999999999799e-01 7.384629999999999805e-01
9.328959999999999475e-01 6.435560000000000169e-01 7.402459999999999596e-01
9.902039999999999731e-01 5.624419999999999975e-01 7.421309999999999851e-01
9.463759999999999950e-01 3.518589999999999773e-01 7.601170000000000426e-01
1.016294000000000031e+00 3.680350000000000010e-01 7.485910000000000064e-01
8.759299999999999864e-01 3.719230000000000036e-01 7.383729999999999460e-01
1.046586999999999934e+00 5.540669999999999762e-01 7.425629999999999731e-01
8.801790000000000447e-01 5.799279999999999990e-01 7.621029999999999749e-01
9.468910000000000382e-01 6.753489999999999771e-01 7.481440000000000312e-01
8.299809999999999688e-01 5.674970000000000292e-01 7.396840000000000082e-01
1.005449999999999955e+00 3.694009999999999794e-01 7.446310000000000429e-01
9.054029999999999578e-01 4.306229999999999780e-01 7.594819999999999904e-01
9.653110000000000301e-01 4.554119999999999835e-01 7.464020000000000099e-01
9.305769999999999875e-01 3.817710000000000270e-01 7.496850000000000458e-01
9.520979999999999999e-01 6.763559999999999572e-01 7.408780000000000365e-01
8.404890000000000416e-01 2.473509999999999875e-01 7.658549999999999525e-01
9.818200000000000260e-01 5.217840000000000256e-01 7.448420000000000041e-01
8.646540000000000337e-01 5.956460000000000088e-01 7.380020000000000469e-01
8.995389999999999775e-01 7.071589999999999820e-01 7.578819999999999446e-01
1.001686000000000076e+00 2.161770000000000080e-01 7.431999999999999718e-01
8.718900000000000539e-01 4.443159999999999887e-01 7.628869999999999818e-01
9.160730000000000262e-01 2.514489999999999781e-01 7.396930000000000449e-01
8.635239999999999583e-01 4.614480000000000248e-01 7.379649999999999821e-01
8.614899999999999780e-01 3.211809999999999943e-01 7.702480000000000437e-01
9.211319999999999508e-01 2.778550000000000186e-01 7.605100000000000193e-01
9.580039999999999667e-01 5.663169999999999593e-01 7.606819999999999693e-01
9.968169999999999531e-01 4.580319999999999947e-01 7.510780000000000234e-01
9.154010000000000202e-01 3.047000000000000264e-01 7.396709999999999674e-01
9.179979999999999807e-01 2.538590000000000013e-01 7.508749999999999591e-01
9.299420000000000464e-01 5.205650000000000555e-01 7.497460000000000235e-01
9.706090000000000551e-01 2.575799999999999756e-01 7.459010000000000362e-01
8.648900000000000476e-01 5.709720000000000351e-01 7.380100000000000549e-01
9.265989999999999505e-01 5.574789999999999468e-01 7.615830000000000100e-01
9.155510000000000037e-01 2.989120000000000110e-01 7.511050000000000226e-01
8.664690000000000447e-01 5.962570000000000370e-01 7.557460000000000289e-01
8.116790000000000393e-01 3.277450000000000085e-01 7.405009999999999648e-01
8.887049999999999672e-01 6.451529999999999765e-01 7.536439999999999806e-01
9.201240000000000530e-01 6.990169999999999995e-01 7.506739999999999524e-01
1.047616000000000103e+00 2.333349999999999869e-01 7.475549999999999695e-01
8.531809999999999672e-01 4.404230000000000089e-01 7.376249999999999751e-01
1.034948999999999897e+00 6.236019999999999897e-01 7.425570000000000226e-01
9.648440000000000349e-01 5.616870000000000474e-01 7.467310000000000336e-01
9.834789999999999921e-01 3.125760000000000205e-01 7.419099999999999584e-01
8.840379999999999905e-01 3.675610000000000266e-01 7.386399999999999633e-01
1.020686999999999900e+00 6.008550000000000280e-01 7.478569999999999940e-01
9.098100000000000076e-01 5.875240000000000462e-01 7.605790000000000051e-01
8.727840000000000042e-01 2.798410000000000064e-01 7.628030000000000088e-01
9.407780000000000031e-01 5.174410000000000398e-01 7.627530000000000143e-01
9.300030000000000241e-01 6.306699999999999529e-01 7.580900000000000416e-01
9.767320000000000446e-01 2.235910000000000120e-01 7.416880000000000139e-01
8.936129999999999907e-01 4.767689999999999984e-01 7.389550000000000285e-01
9.990099999999999536e-01 5.715810000000000057e-01 7.424199999999999688e-01
9.546799999999999731e-01 6.751589999999999536e-01 7.554370000000000251e-01
9.251840000000000064e-01 3.855560000000000098e-01 7.501949999999999452e-01
8.302749999999999853e-01 3.685649999999999760e-01 7.411240000000000050e-01
9.833730000000000526e-01 3.096400000000000263e-01 7.446949999999999958e-01
1.005052999999999974e+00 5.101550000000000251e-01 7.502999999999999670e-01
9.995110000000000383e-01 5.067080000000000473e-01 7.424370000000000136e-01
8.678090000000000526e-01 5.061649999999999761e-01 7.556190000000000406e-01
9.532490000000000130e-01 6.214129999999999932e-01 7.409160000000000190e-01
9.468860000000000054e-01 4.091469999999999829e-01 7.481440000000000312e-01
9.144099999999999451e-01 5.421300000000000008e-01 7.512140000000000484e-01
8.392359999999999820e-01 6.879300000000000415e-01 7.583199999999999941e-01
9.758569999999999744e-01 3.417529999999999735e-01 7.416589999999999572e-01
9.440770000000000550e-01 3.582690000000000041e-01 7.406139999999999946e-01
9.122139999999999693e-01 5.033830000000000249e-01 7.590649999999999897e-01
8.306609999999999827e-01 2.678719999999999990e-01 7.440980000000000372e-01
9.486759999999999637e-01 2.543759999999999910e-01 7.553969999999999851e-01
1.048041000000000000e+00 5.375809999999999755e-01 7.425640000000000018e-01
9.286140000000000505e-01 6.641040000000000276e-01 7.559719999999999773e-01
9.275130000000000319e-01 5.469739999999999602e-01 7.499759999999999760e-01
9.605479999999999574e-01 4.179189999999999849e-01 7.563309999999999755e-01
8.059469999999999690e-01 6.341620000000000035e-01 7.451419999999999710e-01
9.827700000000000324e-01 2.337170000000000081e-01 7.587840000000000140e-01
8.596530000000000005e-01 5.118369999999999864e-01 7.563900000000000068e-01
8.732490000000000530e-01 2.944320000000000270e-01 7.382849999999999691e-01
8.242819999999999592e-01 3.551079999999999792e-01 7.640749999999999487e-01
9.870060000000000500e-01 6.785130000000000328e-01 7.566169999999999840e-01
9.925669999999999771e-01 2.890460000000000251e-01 7.514800000000000368e-01
9.735219999999999985e-01 5.062609999999999610e-01 7.523050000000000015e-01
1.023311999999999999e+00 6.888750000000000151e-01 7.431569999999999565e-01
8.622980000000000089e-01 3.508899999999999797e-01 7.561400000000000343e-01
9.774399999999999755e-01 5.644639999999999658e-01 7.555880000000000374e-01
8.313180000000000014e-01 3.572949999999999737e-01 7.491520000000000401e-01
1.005495999999999945e+00 3.444349999999999912e-01 7.450470000000000148e-01
9.000230000000000175e-01 2.564119999999999733e-01 7.525730000000000475e-01
9.956559999999999855e-01 4.690409999999999857e-01 7.435340000000000282e-01
1.001684999999999937e+00 3.409460000000000268e-01 7.506180000000000074e-01
9.223510000000000320e-01 6.842030000000000056e-01 7.504629999999999912e-01
8.516909999999999759e-01 3.289819999999999967e-01 7.571419999999999817e-01
9.186619999999999786e-01 5.797449999999999548e-01 7.508120000000000349e-01
1.045979999999999910e+00 5.484149999999999858e-01 7.425629999999999731e-01
9.083029999999999715e-01 3.024399999999999866e-01 7.394380000000000397e-01
1.060934000000000044e+00 3.117770000000000263e-01 7.425960000000000338e-01
8.306999999999999940e-01 4.508170000000000233e-01 7.443999999999999506e-01
8.514519999999999866e-01 5.031849999999999934e-01 7.571649999999999769e-01
9.268539999999999557e-01 3.751499999999999835e-01 7.625239999999999796e-01
9.515479999999999494e-01 3.857499999999999818e-01 7.477030000000000065e-01
9.992429999999999923e-01 6.195979999999999821e-01 7.431950000000000500e-01
8.320670000000000011e-01 6.462930000000000064e-01 7.549190000000000067e-01
1.030006999999999895e+00 5.084530000000000438e-01 7.425680000000000058e-01
9.054830000000000378e-01 2.689610000000000056e-01 7.593499999999999694e-01
8.455899999999999528e-01 4.505190000000000028e-01 7.653729999999999700e-01
8.187370000000000481e-01 6.069069999999999743e-01 7.395850000000000479e-01
8.895809999999999551e-01 6.857469999999999954e-01 7.535610000000000364e-01
9.671009999999999884e-01 4.461579999999999990e-01 7.554959999999999454e-01
9.562709999999999821e-01 3.999750000000000250e-01 7.472569999999999490e-01
8.330990000000000339e-01 3.039950000000000152e-01 7.628639999999999866e-01
9.275679999999999481e-01 4.000020000000000242e-01 7.499700000000000255e-01
8.124989999999999712e-01 2.713269999999999849e-01 7.656039999999999512e-01
9.415000000000000036e-01 2.589770000000000127e-01 7.486530000000000129e-01
8.997340000000000337e-01 5.282860000000000333e-01 7.391560000000000352e-01
9.585479999999999556e-01 2.320599999999999885e-01 7.470409999999999551e-01
9.443190000000000195e-01 4.480069999999999886e-01 7.576650000000000329e-01
8.142059999999999853e-01 3.316169999999999951e-01 7.653830000000000355e-01
8.696430000000000549e-01 3.852300000000000169e-01 7.381659999999999888e-01
9.286280000000000090e-01 6.422980000000000356e-01 7.498700000000000365e-01
1.031188999999999911e+00 3.309460000000000179e-01 7.485960000000000392e-01
9.405869999999999509e-01 5.504050000000000331e-01 7.563929999999999820e-01
9.792619999999999658e-01 5.506440000000000223e-01 7.450830000000000508e-01
8.483020000000000005e-01 4.067830000000000057e-01 7.633229999999999738e-01
8.726570000000000160e-01 5.316880000000000495e-01 7.551609999999999712e-01
8.074069999999999858e-01 6.823360000000000536e-01 7.563860000000000028e-01
8.075719999999999565e-01 4.254709999999999881e-01 7.576549999999999674e-01
1.033439999999999914e+00 2.704489999999999950e-01 7.486049999999999649e-01
8.647449999999999859e-01 2.447560000000000013e-01 7.380050000000000221e-01
1.068631000000000109e+00 3.435679999999999845e-01 7.453819999999999890e-01
9.486400000000000388e-01 4.633860000000000201e-01 7.549129999999999452e-01
8.549999999999999822e-01 2.802459999999999951e-01 7.568300000000000027e-01
1.013177999999999912e+00 6.743069999999999897e-01 7.425530000000000186e-01
8.701160000000000005e-01 5.836329999999999574e-01 7.601550000000000251e-01
8.237250000000000405e-01 3.140890000000000071e-01 7.641470000000000207e-01
1.018145999999999995e+00 3.315250000000000141e-01 7.426030000000000131e-01
9.054119999999999946e-01 2.692660000000000053e-01 7.520639999999999548e-01
9.091609999999999969e-01 5.023729999999999585e-01 7.517099999999999893e-01
9.652720000000000189e-01 5.556529999999999525e-01 7.413110000000000532e-01
8.331239999999999757e-01 3.211080000000000045e-01 7.646020000000000039e-01
9.980679999999999552e-01 7.015949999999999687e-01 7.423889999999999656e-01
9.415820000000000300e-01 5.069639999999999702e-01 7.486450000000000049e-01
1.057798999999999934e+00 3.395989999999999842e-01 7.469930000000000181e-01
9.730649999999999578e-01 2.925249999999999795e-01 7.456690000000000262e-01
1.008167000000000035e+00 6.074899999999999745e-01 7.430240000000000178e-01
8.913410000000000499e-01 6.018959999999999866e-01 7.533940000000000081e-01
8.936469999999999692e-01 2.548030000000000017e-01 7.531769999999999854e-01
8.330210000000000115e-01 5.528870000000000173e-01 7.635070000000000467e-01
8.801060000000000549e-01 5.822330000000000005e-01 7.544560000000000155e-01
8.888909999999999867e-01 3.369099999999999873e-01 7.536260000000000181e-01
9.217549999999999910e-01 4.079800000000000093e-01 7.398799999999999821e-01
9.033660000000000023e-01 6.031549999999999967e-01 7.528890000000000304e-01
8.065820000000000212e-01 4.721569999999999934e-01 7.500329999999999497e-01
9.645390000000000352e-01 3.836269999999999958e-01 7.464749999999999996e-01
9.030890000000000306e-01 3.132809999999999762e-01 7.392659999999999787e-01
8.954490000000000505e-01 3.619729999999999892e-01 7.390149999999999775e-01
9.083660000000000068e-01 4.146159999999999846e-01 7.517850000000000366e-01
9.318049999999999944e-01 3.402850000000000041e-01 7.636020000000000030e-01
1.044019999999999948e+00 3.378599999999999937e-01 7.483319999999999972e-01
9.996939999999999715e-01 5.342400000000000482e-01 7.424429999999999641e-01
9.046710000000000029e-01 3.117779999999999996e-01 7.521339999999999693e-01
8.079290000000000083e-01 6.027660000000000240e-01 7.409879999999999800e-01
9.670630000000000059e-01 5.399279999999999635e-01 7.538899999999999491e-01
8.855760000000000298e-01 7.071589999999999820e-01 7.424690000000000456e-01
9.682089999999999863e-01 5.301540000000000141e-01 7.461280000000000134e-01
9.904969999999999608e-01 3.763679999999999803e-01 7.516749999999999821e-01
8.694319999999999826e-01 3.702400000000000135e-01 7.597049999999999637e-01
1.023584000000000049e+00 4.345200000000000173e-01 7.485819999999999697e-01
9.425449999999999662e-01 5.710619999999999585e-01 7.405640000000000001e-01
9.356130000000000280e-01 4.690349999999999797e-01 7.492090000000000138e-01
9.309110000000000440e-01 4.606569999999999832e-01 7.619129999999999514e-01
8.613119999999999665e-01 4.615540000000000198e-01 7.562330000000000441e-01
9.464489999999999847e-01 2.376010000000000066e-01 7.622170000000000334e-01
1.013015999999999917e+00 2.479699999999999960e-01 7.486080000000000512e-01
1.028799000000000019e+00 2.516780000000000128e-01 7.486080000000000512e-01
9.750630000000000130e-01 2.932600000000000207e-01 7.454800000000000315e-01
8.536690000000000111e-01 6.736569999999999503e-01 7.376409999999999911e-01
9.494099999999999762e-01 6.098639999999999617e-01 7.479050000000000420e-01
8.152660000000000462e-01 5.675059999999999549e-01 7.400349999999999984e-01
9.682880000000000376e-01 4.566219999999999724e-01 7.461210000000000342e-01
9.890579999999999927e-01 2.321169999999999900e-01 7.476279999999999593e-01
9.368670000000000053e-01 4.961389999999999967e-01 7.490909999999999513e-01
9.965030000000000276e-01 6.722650000000000015e-01 7.423380000000000534e-01
1.003238000000000074e+00 3.798489999999999922e-01 7.425599999999999978e-01
8.638630000000000475e-01 3.623140000000000249e-01 7.654900000000000038e-01
9.129429999999999490e-01 6.344220000000000415e-01 7.395899999999999697e-01
9.376849999999999907e-01 5.297340000000000382e-01 7.490139999999999576e-01
8.852299999999999613e-01 2.887460000000000027e-01 7.386789999999999745e-01
8.840449999999999697e-01 4.501609999999999778e-01 7.617380000000000262e-01
8.968990000000000018e-01 6.039670000000000316e-01 7.605229999999999491e-01
8.856990000000000141e-01 4.251360000000000139e-01 7.386939999999999618e-01
9.047830000000000039e-01 6.611799999999999899e-01 7.521240000000000148e-01
8.249319999999999986e-01 5.735959999999999948e-01 7.639899999999999469e-01
8.796599999999999975e-01 3.195540000000000047e-01 7.621529999999999694e-01
1.053954999999999975e+00 3.594780000000000197e-01 7.425880000000000258e-01
8.060990000000000100e-01 3.826709999999999834e-01 7.463159999999999794e-01
1.030018000000000100e+00 2.745409999999999795e-01 7.486049999999999649e-01
8.466540000000000177e-01 5.037199999999999456e-01 7.576190000000000424e-01
8.633680000000000243e-01 5.502449999999999841e-01 7.700709999999999500e-01
8.823900000000000077e-01 6.457960000000000367e-01 7.618939999999999602e-01
9.639780000000000015e-01 3.191459999999999853e-01 7.598740000000000494e-01
9.693910000000000027e-01 2.635660000000000225e-01 7.460170000000000412e-01
9.110409999999999897e-01 2.380899999999999961e-01 7.641130000000000422e-01
8.095869999999999456e-01 4.957329999999999792e-01 7.659829999999999695e-01
8.212270000000000403e-01 6.092159999999999798e-01 7.392609999999999459e-01
8.378189999999999804e-01 2.728809999999999847e-01 7.661069999999999824e-01
9.764530000000000154e-01 5.557800000000000518e-01 7.453490000000000393e-01
9.831220000000000514e-01 4.158149999999999902e-01 7.418979999999999464e-01
1.009984999999999911e+00 3.896160000000000179e-01 7.485880000000000312e-01
9.214890000000000025e-01 5.162219999999999587e-01 7.398709999999999454e-01
8.792919999999999625e-01 5.422850000000000170e-01 7.384840000000000293e-01
9.725489999999999968e-01 3.731260000000000132e-01 7.594710000000000072e-01
8.739689999999999959e-01 6.435480000000000089e-01 7.383089999999999931e-01
9.458990000000000453e-01 3.590389999999999970e-01 7.482370000000000410e-01
9.550260000000000415e-01 6.002610000000000445e-01 7.550280000000000324e-01
8.892160000000000064e-01 5.750070000000000459e-01 7.617350000000000509e-01
9.133059999999999512e-01 4.757700000000000262e-01 7.513180000000000414e-01
9.604179999999999939e-01 2.836549999999999905e-01 7.411510000000000042e-01
8.391060000000000185e-01 5.865460000000000118e-01 7.659859999999999447e-01
8.505730000000000235e-01 2.809929999999999928e-01 7.707709999999999839e-01
9.651509999999999811e-01 6.181069999999999620e-01 7.602889999999999926e-01
8.460530000000000550e-01 6.580690000000000150e-01 7.373910000000000187e-01
8.807030000000000136e-01 6.260440000000000449e-01 7.543999999999999595e-01
9.766610000000000014e-01 3.084589999999999832e-01 7.453290000000000193e-01
8.994609999999999550e-01 6.168609999999999927e-01 7.653839999999999533e-01
9.832579999999999654e-01 3.669290000000000052e-01 7.447049999999999503e-01
1.004580000000000028e+00 5.690079999999999583e-01 7.426899999999999613e-01
9.550349999999999673e-01 3.950130000000000030e-01 7.473739999999999828e-01
1.005716999999999972e+00 2.938479999999999981e-01 7.474370000000000180e-01
9.973360000000000003e-01 6.655200000000000005e-01 7.423650000000000526e-01
8.544119999999999493e-01 5.154670000000000085e-01 7.686150000000000482e-01
9.172799999999999843e-01 6.338240000000000540e-01 7.509419999999999984e-01
9.092430000000000234e-01 5.898090000000000277e-01 7.394690000000000429e-01
1.021524000000000099e+00 6.453879999999999617e-01 7.425549999999999651e-01
9.604390000000000427e-01 2.433039999999999925e-01 7.468630000000000546e-01
8.662969999999999837e-01 5.218490000000000073e-01 7.557620000000000449e-01
8.914090000000000069e-01 3.727269999999999750e-01 7.619219999999999882e-01
9.025680000000000369e-01 6.036909999999999776e-01 7.392490000000000450e-01
8.085719999999999574e-01 6.396819999999999729e-01 7.653569999999999540e-01
8.637599999999999723e-01 2.470120000000000093e-01 7.647650000000000281e-01
9.309880000000000377e-01 3.915910000000000224e-01 7.618369999999999864e-01
1.006879000000000079e+00 2.176289999999999891e-01 7.486129999999999729e-01
9.255470000000000086e-01 3.967510000000000203e-01 7.501609999999999667e-01
9.511870000000000047e-01 4.294959999999999889e-01 7.590209999999999457e-01
8.466120000000000312e-01 3.486529999999999907e-01 7.652759999999999563e-01
9.842260000000000453e-01 5.313649999999999762e-01 7.509569999999999856e-01
8.645249999999999879e-01 4.824339999999999740e-01 7.559289999999999621e-01
8.313979999999999704e-01 3.377539999999999987e-01 7.501440000000000330e-01
9.400549999999999740e-01 6.023039999999999505e-01 7.487899999999999556e-01
9.514369999999999772e-01 4.408690000000000109e-01 7.477139999999999898e-01
9.964300000000000379e-01 5.943389999999999507e-01 7.434610000000000385e-01
9.545799999999999841e-01 2.726419999999999955e-01 7.558989999999999876e-01
9.543970000000000509e-01 2.925150000000000250e-01 7.565570000000000350e-01
9.170230000000000325e-01 6.340959999999999930e-01 7.509670000000000512e-01
9.846260000000000012e-01 6.387340000000000240e-01 7.419470000000000232e-01
9.060110000000000108e-01 5.545010000000000217e-01 7.648819999999999508e-01
1.002712999999999965e+00 3.211689999999999823e-01 7.425420000000000353e-01
8.895110000000000516e-01 5.188009999999999566e-01 7.535669999999999868e-01
8.897639999999999993e-01 6.987919999999999687e-01 7.388280000000000403e-01
1.029369999999999896e+00 2.351350000000000107e-01 7.426129999999999676e-01
8.301840000000000330e-01 2.218690000000000107e-01 7.411820000000000075e-01
8.652189999999999603e-01 3.101519999999999833e-01 7.380210000000000381e-01
8.598770000000000024e-01 6.759570000000000300e-01 7.563689999999999580e-01
1.003352999999999939e+00 3.447520000000000029e-01 7.504600000000000160e-01
8.829360000000000541e-01 5.557090000000000085e-01 7.541889999999999983e-01
8.403789999999999871e-01 6.673090000000000410e-01 7.582119999999999971e-01
9.861910000000000398e-01 2.577999999999999736e-01 7.581860000000000266e-01
8.948960000000000248e-01 3.932320000000000260e-01 7.389970000000000150e-01
8.596479999999999677e-01 6.423229999999999773e-01 7.640439999999999454e-01
8.622610000000000552e-01 5.731279999999999708e-01 7.561430000000000096e-01
1.055487000000000064e+00 2.205370000000000108e-01 7.466890000000000471e-01
8.560410000000000519e-01 5.092550000000000132e-01 7.689319999999999489e-01
8.362319999999999753e-01 2.385490000000000110e-01 7.586039999999999450e-01
9.983910000000000284e-01 2.572729999999999739e-01 7.423999999999999488e-01
9.308260000000000423e-01 4.605440000000000089e-01 7.401780000000000026e-01
1.065398000000000067e+00 3.274630000000000041e-01 7.462480000000000224e-01
9.202399999999999469e-01 6.327840000000000131e-01 7.398299999999999876e-01
1.034194000000000058e+00 3.829929999999999723e-01 7.425859999999999683e-01
9.654610000000000136e-01 2.286829999999999974e-01 7.540419999999999900e-01
9.510260000000000380e-01 5.266570000000000418e-01 7.593750000000000222e-01
8.078800000000000425e-01 6.482580000000000009e-01 7.409940000000000415e-01
9.893549999999999844e-01 6.290599999999999525e-01 7.461980000000000279e-01
9.631709999999999994e-01 4.324779999999999736e-01 7.412419999999999565e-01
9.681079999999999686e-01 4.647859999999999769e-01 7.461379999999999679e-01
9.948000000000000176e-01 3.109160000000000257e-01 7.512689999999999646e-01
9.151110000000000078e-01 3.221310000000000007e-01 7.599930000000000296e-01
1.031042999999999932e+00 5.837130000000000374e-01 7.425599999999999978e-01
9.879940000000000389e-01 3.337740000000000151e-01 7.572229999999999794e-01
1.020637000000000016e+00 3.255469999999999753e-01 7.485979999999999857e-01
8.323749999999999760e-01 6.221700000000000008e-01 7.630230000000000068e-01
9.043790000000000440e-01 5.366049999999999986e-01 7.598160000000000469e-01
9.826380000000000114e-01 6.162499999999999645e-01 7.447639999999999816e-01
9.418929999999999803e-01 6.716950000000000420e-01 7.405420000000000336e-01
8.500640000000000418e-01 4.888330000000000175e-01 7.680630000000000512e-01
1.005384999999999973e+00 4.068330000000000002e-01 7.439440000000000497e-01
8.326379999999999892e-01 5.854899999999999549e-01 7.629890000000000283e-01
9.627109999999999834e-01 3.467480000000000007e-01 7.466479999999999784e-01
8.777909999999999879e-01 4.670500000000000207e-01 7.546749999999999847e-01
8.693739999999999801e-01 3.753850000000000242e-01 7.590909999999999602e-01
9.742060000000000164e-01 5.655829999999999469e-01 7.580019999999999536e-01
9.197130000000000027e-01 6.275060000000000082e-01 7.398130000000000539e-01
9.701689999999999481e-01 4.727160000000000251e-01 7.538529999999999953e-01
9.726040000000000241e-01 5.713770000000000238e-01 7.457129999999999592e-01
8.303369999999999918e-01 3.679230000000000000e-01 7.423100000000000254e-01
8.737700000000000466e-01 5.248660000000000547e-01 7.550550000000000317e-01
8.593960000000000488e-01 3.443189999999999862e-01 7.564140000000000308e-01
9.557839999999999669e-01 2.670109999999999983e-01 7.473030000000000506e-01
8.214399999999999480e-01 5.390559999999999796e-01 7.392339999999999467e-01
1.066899000000000042e+00 3.771169999999999800e-01 7.460339999999999749e-01
8.160650000000000404e-01 3.723810000000000175e-01 7.399320000000000341e-01
8.924339999999999495e-01 3.819500000000000117e-01 7.532910000000000439e-01
8.162810000000000343e-01 6.973979999999999624e-01 7.399040000000000061e-01
9.234269999999999978e-01 3.176160000000000094e-01 7.503609999999999447e-01
8.191270000000000495e-01 3.854850000000000221e-01 7.395340000000000247e-01
8.307989999999999542e-01 3.617349999999999732e-01 7.369480000000000475e-01
9.028049999999999686e-01 4.110059999999999825e-01 7.523109999999999520e-01
8.567529999999999868e-01 5.088850000000000318e-01 7.697910000000000030e-01
9.286950000000000482e-01 5.469359999999999777e-01 7.551250000000000462e-01
9.409840000000000426e-01 2.315810000000000091e-01 7.606119999999999548e-01
8.689040000000000097e-01 4.078330000000000011e-01 7.555150000000000476e-01
9.255339999999999678e-01 4.046569999999999889e-01 7.501619999999999955e-01
1.000825000000000076e+00 3.411730000000000040e-01 7.424800000000000288e-01
8.997319999999999762e-01 4.629269999999999774e-01 7.391560000000000352e-01
8.798169999999999602e-01 3.723250000000000171e-01 7.385009999999999630e-01
9.250760000000000094e-01 2.513270000000000226e-01 7.399890000000000079e-01
9.449480000000000102e-01 2.715679999999999761e-01 7.406430000000000513e-01
9.704110000000000236e-01 4.149809999999999888e-01 7.414800000000000280e-01
8.798460000000000170e-01 4.277599999999999736e-01 7.385019999999999918e-01
9.898190000000000044e-01 6.365260000000000362e-01 7.511069999999999691e-01
9.538050000000000139e-01 3.506409999999999805e-01 7.615220000000000322e-01
8.577479999999999549e-01 3.497580000000000133e-01 7.644490000000000451e-01
9.529830000000000245e-01 5.127859999999999641e-01 7.475680000000000103e-01
9.739799999999999569e-01 6.908079999999999776e-01 7.455829999999999957e-01
8.522180000000000311e-01 3.641380000000000172e-01 7.375930000000000542e-01
9.164259999999999629e-01 6.416969999999999619e-01 7.650550000000000406e-01
8.313009999999999566e-01 7.006980000000000430e-01 7.490210000000000479e-01
9.419279999999999875e-01 3.016460000000000252e-01 7.601050000000000306e-01
8.987439999999999873e-01 3.505030000000000090e-01 7.526939999999999742e-01
8.487770000000000037e-01 3.337950000000000084e-01 7.650719999999999743e-01
9.561929999999999596e-01 3.687389999999999834e-01 7.472640000000000393e-01
8.798740000000000450e-01 5.343759999999999621e-01 7.385030000000000205e-01
9.137330000000000174e-01 4.375149999999999872e-01 7.396160000000000512e-01
9.668879999999999697e-01 2.996719999999999939e-01 7.462530000000000552e-01
9.328159999999999785e-01 5.794700000000000406e-01 7.494739999999999736e-01
9.143299999999999761e-01 6.767379999999999507e-01 7.621120000000000116e-01
1.054189999999999960e+00 3.713580000000000214e-01 7.425859999999999683e-01
8.557730000000000059e-01 5.450730000000000297e-01 7.377099999999999769e-01
8.792090000000000183e-01 4.144530000000000158e-01 7.621949999999999559e-01
8.878599999999999826e-01 3.656909999999999883e-01 7.566659999999999497e-01
8.299980000000000135e-01 2.867569999999999841e-01 7.389909999999999535e-01
9.689489999999999492e-01 6.525760000000000449e-01 7.460579999999999989e-01
9.127159999999999718e-01 2.838479999999999892e-01 7.513739999999999863e-01
9.477020000000000444e-01 3.043210000000000082e-01 7.407329999999999748e-01
9.665599999999999747e-01 4.732180000000000275e-01 7.593029999999999502e-01
1.046340000000000048e+00 3.563160000000000216e-01 7.480919999999999792e-01
9.028800000000000159e-01 3.105530000000000235e-01 7.392589999999999995e-01
1.005384999999999973e+00 3.381469999999999754e-01 7.439449999999999674e-01
1.004296000000000078e+00 4.340109999999999801e-01 7.427169999999999606e-01
9.165410000000000501e-01 3.438579999999999970e-01 7.626680000000000126e-01
8.679559999999999498e-01 3.885750000000000037e-01 7.556049999999999711e-01
9.809240000000000181e-01 4.807509999999999839e-01 7.536070000000000269e-01
9.219850000000000545e-01 3.179890000000000216e-01 7.398879999999999901e-01
9.406379999999999741e-01 6.315990000000000215e-01 7.487350000000000394e-01
9.264909999999999535e-01 2.679579999999999740e-01 7.613670000000000160e-01
9.125280000000000058e-01 3.593729999999999980e-01 7.611120000000000108e-01
9.210810000000000386e-01 6.889499999999999513e-01 7.646150000000000446e-01
8.299370000000000358e-01 4.035790000000000211e-01 7.385260000000000158e-01
8.571609999999999507e-01 4.262599999999999723e-01 7.566260000000000208e-01
9.641309999999999603e-01 6.827860000000000040e-01 7.412739999999999885e-01
8.781700000000000061e-01 5.210930000000000284e-01 7.546399999999999775e-01
9.246419999999999639e-01 6.982169999999999765e-01 7.579000000000000181e-01
9.051960000000000006e-01 5.598159999999999803e-01 7.618289999999999784e-01
9.437299999999999578e-01 3.612529999999999908e-01 7.624750000000000139e-01
8.486559999999999659e-01 6.587830000000000075e-01 7.650829999999999576e-01
9.431009999999999671e-01 2.533429999999999849e-01 7.405819999999999625e-01
8.621929999999999872e-01 4.501350000000000073e-01 7.577890000000000459e-01
1.052796000000000065e+00 4.917239999999999944e-01 7.425690000000000346e-01
9.424320000000000475e-01 2.499319999999999875e-01 7.485650000000000359e-01
8.683640000000000247e-01 4.422090000000000187e-01 7.555659999999999599e-01
8.068419999999999481e-01 5.225290000000000212e-01 7.520369999999999555e-01
8.335069999999999979e-01 5.170609999999999928e-01 7.588610000000000078e-01
8.885300000000000420e-01 6.854700000000000237e-01 7.591919999999999780e-01
8.402460000000000484e-01 6.393750000000000266e-01 7.658779999999999477e-01
8.359280000000000044e-01 5.952840000000000353e-01 7.370579999999999909e-01
9.786759999999999904e-01 6.727929999999999744e-01 7.451389999999999958e-01
