-4.060420036315917969e+00 4.723515510559082031e+00 2.373409271240234375e+00
-4.066087245941162109e+00 4.836849212646484375e+00 2.385205984115600586e+00
-4.050068378448486328e+00 4.735781669616699219e+00 2.506707191467285156e+00
-4.055851936340332031e+00 4.849718093872070312e+00 2.518344402313232422e+00
-2.200873136520385742e+00 4.503718852996826172e+00 3.454297542572021484e+00
-2.199162244796752930e+00 4.605188846588134766e+00 3.464775085449218750e+00
-2.179896354675292969e+00 4.542709350585937500e+00 3.529401779174804688e+00
-2.179937362670898438e+00 4.647051811218261719e+00 3.536733388900756836e+00
1.479195237159729004e+00 5.156583786010742188e+00 1.352799296379089355e+00
1.451302409172058105e+00 5.266802310943603516e+00 1.391674637794494629e+00
1.559743762016296387e+00 5.181301593780517578e+00 1.355586171150207520e+00
1.531735777854919434e+00 5.285373687744140625e+00 1.400165319442749023e+00
2.079212069511413574e-01 3.767718791961669922e+00 1.114200353622436523e+00
1.972508728504180908e-01 3.898007154464721680e+00 1.114049315452575684e+00
3.101418018341064453e-01 3.780096769332885742e+00 1.103088498115539551e+00
3.016093969345092773e-01 3.908951282501220703e+00 1.103958487510681152e+00
4.515127182006835938e+00 3.549271345138549805e+00 1.053981184959411621e+00
4.512316703796386719e+00 3.706489801406860352e+00 1.058944821357727051e+00
4.631361007690429688e+00 3.559808492660522461e+00 1.050910592079162598e+00
4.626095294952392578e+00 3.710201263427734375e+00 1.050022244453430176e+00
-2.571320533752441406e+00 5.216772556304931641e+00 3.526689767837524414e+00
-2.515027523040771484e+00 5.293086051940917969e+00 3.489396095275878906e+00
-2.460397005081176758e+00 5.221358776092529297e+00 3.614983081817626953e+00
-2.381064414978027344e+00 5.273036003112792969e+00 3.570010662078857422e+00
6.164566993713378906e+00 3.467410802841186523e+00 1.392808318138122559e+00
6.143221855163574219e+00 3.582144498825073242e+00 1.379723310470581055e+00
6.304085254669189453e+00 3.453826189041137695e+00 1.372956037521362305e+00
6.277551651000976562e+00 3.583702802658081055e+00 1.365275740623474121e+00
8.774221420288085938e+00 2.773832559585571289e+00 9.360338449478149414e-01
8.643476486206054688e+00 2.786296844482421875e+00 1.043232679367065430e+00
8.882536888122558594e+00 2.833952903747558594e+00 1.014447569847106934e+00
8.752630233764648438e+00 2.846650362014770508e+00 1.123579740524291992e+00
-5.822831392288208008e-01 2.888395786285400391e+00 6.049892902374267578e-01
-5.386489033699035645e-01 2.980044841766357422e+00 6.504162549972534180e-01
-4.386810064315795898e-01 2.918061494827270508e+00 6.958543062210083008e-01
-4.334737360477447510e-01 3.000342607498168945e+00 7.751761078834533691e-01
-4.196667671203613281e+00 4.306633472442626953e+00 8.948026895523071289e-01
-4.194201946258544922e+00 4.393211841583251953e+00 9.011428952217102051e-01
-4.157140254974365234e+00 4.341442108154296875e+00 9.648259282112121582e-01
-4.153122901916503906e+00 4.423779487609863281e+00 9.714558124542236328e-01
1.116891670227050781e+01 5.550480365753173828e+00 2.146468400955200195e+00
1.106649589538574219e+01 5.535287857055664062e+00 2.263530492782592773e+00
1.125819778442382812e+01 5.563767433166503906e+00 2.231191873550415039e+00
1.115627098083496094e+01 5.550074577331542969e+00 2.342199087142944336e+00
-2.215905666351318359e+00 3.647795677185058594e+00 2.201851606369018555e+00
-2.217379093170166016e+00 3.771542072296142578e+00 2.235803842544555664e+00
-2.235862731933593750e+00 3.672971010208129883e+00 2.358061790466308594e+00
-2.229822874069213867e+00 3.796135902404785156e+00 2.380806446075439453e+00
-3.964561462402343750e+00 5.057855129241943359e+00 9.891893267631530762e-01
-3.922248840332031250e+00 5.179261207580566406e+00 9.642094373703002930e-01
-3.906802415847778320e+00 5.040882110595703125e+00 1.057143211364746094e+00
-3.876758813858032227e+00 5.156207561492919922e+00 1.035963654518127441e+00
4.952260494232177734e+00 5.372194290161132812e+00 1.262896776199340820e+00
4.930901050567626953e+00 5.444469451904296875e+00 1.335770130157470703e+00
5.082547187805175781e+00 5.444926738739013672e+00 1.350987315177917480e+00
5.056313514709472656e+00 5.517503261566162109e+00 1.427036881446838379e+00
7.313120841979980469e+00 3.168827772140502930e+00 1.293946862220764160e+00
7.278500080108642578e+00 3.278354644775390625e+00 1.334362626075744629e+00
7.391964435577392578e+00 3.218426942825317383e+00 1.317969202995300293e+00
7.345853805541992188e+00 3.327993631362915039e+00 1.369973063468933105e+00
-3.871496438980102539e+00 4.104809284210205078e+00 3.158946037292480469e-01
-3.871987581253051758e+00 4.288867950439453125e+00 3.320262432098388672e-01
-3.753198385238647461e+00 4.174446105957031250e+00 2.992807030677795410e-01
-3.765603542327880859e+00 4.354271411895751953e+00 3.249436616897583008e-01
-2.243168354034423828e+00 3.897036790847778320e+00 1.083803296089172363e+00
-2.258940696716308594e+00 4.033587455749511719e+00 1.086019158363342285e+00
-2.147188663482666016e+00 3.921987056732177734e+00 1.110945820808410645e+00
-2.162119150161743164e+00 4.062685489654541016e+00 1.113249778747558594e+00
9.604796022176742554e-02 4.418630599975585938e+00 3.754981160163879395e-01
7.653160393238067627e-02 4.529888629913330078e+00 3.777680695056915283e-01
1.992850154638290405e-01 4.428466796875000000e+00 3.805387318134307861e-01
1.763025373220443726e-01 4.541777133941650391e+00 3.857343494892120361e-01
1.012503814697265625e+01 4.945097923278808594e+00 5.602349042892456055e-01
1.009625911712646484e+01 5.009018421173095703e+00 6.766155958175659180e-01
1.025508689880371094e+01 4.978078842163085938e+00 6.470271944999694824e-01
1.021592807769775391e+01 5.048024654388427734e+00 7.483214139938354492e-01
-2.262982845306396484e+00 4.876422882080078125e+00 2.819641351699829102e+00
-2.248917579650878906e+00 4.977222442626953125e+00 2.784671068191528320e+00
-2.202912569046020508e+00 4.834992885589599609e+00 2.874395132064819336e+00
-2.192583322525024414e+00 4.940594673156738281e+00 2.844361782073974609e+00
1.053298759460449219e+01 2.920830249786376953e+00 3.200763702392578125e+00
1.036927795410156250e+01 2.912156343460083008e+00 3.335642099380493164e+00
1.067111968994140625e+01 2.948099851608276367e+00 3.323747634887695312e+00
1.052050685882568359e+01 2.936530351638793945e+00 3.461097955703735352e+00
7.026325225830078125e+00 3.355062246322631836e+00 1.370700001716613770e+00
7.022062301635742188e+00 3.451171398162841797e+00 1.365865230560302734e+00
7.142919540405273438e+00 3.375354528427124023e+00 1.398466706275939941e+00
7.135904788970947266e+00 3.477567195892333984e+00 1.398193836212158203e+00
-2.214847087860107422e+00 3.487757921218872070e+00 1.769756674766540527e+00
-2.230511665344238281e+00 3.573002815246582031e+00 1.819434881210327148e+00
-2.216734409332275391e+00 3.514741182327270508e+00 1.897765874862670898e+00
-2.243736267089843750e+00 3.584101438522338867e+00 1.958348393440246582e+00
1.188096332550048828e+01 3.508110761642456055e+00 1.351880788803100586e+00
1.187215328216552734e+01 3.620869874954223633e+00 1.350543975830078125e+00
1.196645355224609375e+01 3.514385938644409180e+00 1.367718100547790527e+00
1.194557952880859375e+01 3.629089832305908203e+00 1.365033149719238281e+00
-3.279269456863403320e+00 5.414814949035644531e+00 5.528405904769897461e-01
-3.400223970413208008e+00 5.455386161804199219e+00 6.218840479850769043e-01
-3.163321495056152344e+00 5.376567840576171875e+00 6.082774996757507324e-01
-3.293708562850952148e+00 5.423778057098388672e+00 6.604188084602355957e-01
5.765724182128906250e+00 5.551430702209472656e+00 3.080018281936645508e+00
5.578412532806396484e+00 5.514225006103515625e+00 3.237026929855346680e+00
5.935557365417480469e+00 5.568380832672119141e+00 3.258811712265014648e+00
5.751667976379394531e+00 5.531394004821777344e+00 3.418961048126220703e+00
1.157090663909912109e+01 2.997256517410278320e+00 1.364937663078308105e+00
1.161274814605712891e+01 3.086559057235717773e+00 1.324764370918273926e+00
1.160789203643798828e+01 2.977639198303222656e+00 1.464301109313964844e+00
1.166915035247802734e+01 3.069047451019287109e+00 1.425539135932922363e+00
2.052456140518188477e+00 3.222552299499511719e+00 7.417544126510620117e-01
1.966892242431640625e+00 3.279116868972778320e+00 8.116887807846069336e-01
2.157624721527099609e+00 3.263327360153198242e+00 8.294113278388977051e-01
2.093414783477783203e+00 3.326959371566772461e+00 9.045026898384094238e-01
-2.149789810180664062e+00 3.242931604385375977e+00 3.511540412902832031e+00
-2.190855026245117188e+00 3.346690177917480469e+00 3.536740064620971680e+00
-2.073249816894531250e+00 3.277093887329101562e+00 3.570141077041625977e+00
-2.108914852142333984e+00 3.385680913925170898e+00 3.598404645919799805e+00
1.077264976501464844e+01 3.077028036117553711e+00 6.170802116394042969e-01
1.084534263610839844e+01 3.188313961029052734e+00 5.877270102500915527e-01
1.084517383575439453e+01 3.121699571609497070e+00 7.385446429252624512e-01
1.091665649414062500e+01 3.233551740646362305e+00 7.094479203224182129e-01
2.851248979568481445e+00 3.419745445251464844e+00 4.436600208282470703e+00
2.858124256134033203e+00 3.559557914733886719e+00 4.465880870819091797e+00
3.046358585357666016e+00 3.447806358337402344e+00 4.441213130950927734e+00
3.061013936996459961e+00 3.595900535583496094e+00 4.461518764495849609e+00
1.053596019744873047e+01 4.561598300933837891e+00 4.464501380920410156e+00
1.055238819122314453e+01 4.701947689056396484e+00 4.462253093719482422e+00
1.068223476409912109e+01 4.553599357604980469e+00 4.448017120361328125e+00
1.070673465728759766e+01 4.693709373474121094e+00 4.442789554595947266e+00
7.902034282684326172e+00 3.528307676315307617e+00 1.402496457099914551e+00
7.872631549835205078e+00 3.643997669219970703e+00 1.428499579429626465e+00
8.036951065063476562e+00 3.562865018844604492e+00 1.412842035293579102e+00
8.007170677185058594e+00 3.684749603271484375e+00 1.439274787902832031e+00
-2.179844856262207031e+00 5.348145484924316406e+00 1.618798851966857910e+00
-2.097701549530029297e+00 5.403244495391845703e+00 1.603091239929199219e+00
-2.132664680480957031e+00 5.370253562927246094e+00 1.701159715652465820e+00
-2.020548105239868164e+00 5.398917675018310547e+00 1.678681492805480957e+00
8.883859634399414062e+00 4.028886318206787109e+00 6.955926418304443359e-01
8.867012023925781250e+00 4.173511028289794922e+00 7.100861072540283203e-01
9.008809089660644531e+00 4.023151874542236328e+00 6.816943883895874023e-01
8.998399734497070312e+00 4.168014049530029297e+00 6.948695778846740723e-01
4.701790809631347656e+00 5.558595657348632812e+00 4.070199489593505859e+00
4.745288372039794922e+00 5.579801082611083984e+00 4.053656101226806641e+00
4.835717201232910156e+00 5.522371292114257812e+00 4.154181003570556641e+00
4.935750007629394531e+00 5.548830986022949219e+00 4.087599754333496094e+00
1.764529943466186523e+00 5.543019771575927734e+00 2.686521291732788086e+00
1.665437340736389160e+00 5.527343750000000000e+00 2.866408348083496094e+00
1.882839918136596680e+00 5.566077232360839844e+00 2.825645685195922852e+00
1.769705295562744141e+00 5.551745891571044922e+00 3.000580072402954102e+00
-6.213718056678771973e-01 2.856645345687866211e+00 4.139085292816162109e+00
-6.587330698966979980e-01 2.962848663330078125e+00 4.227591037750244141e+00
-5.841471552848815918e-01 2.876903772354125977e+00 4.262748718261718750e+00
-6.218548417091369629e-01 2.973932504653930664e+00 4.359890460968017578e+00
-2.607913732528686523e+00 4.377906322479248047e+00 1.434762716293334961e+00
-2.632001638412475586e+00 4.507853507995605469e+00 1.433048725128173828e+00
-2.506542444229125977e+00 4.353147506713867188e+00 1.450479269027709961e+00
-2.538702011108398438e+00 4.474828720092773438e+00 1.448626160621643066e+00
1.174479198455810547e+01 4.935729503631591797e+00 1.872883439064025879e+00
1.177150917053222656e+01 5.084115028381347656e+00 1.909857988357543945e+00
1.177993869781494141e+01 4.950459957122802734e+00 2.050317525863647461e+00
1.178306770324707031e+01 5.087317943572998047e+00 2.068248987197875977e+00
-2.874850988388061523e+00 4.213318347930908203e+00 1.392721533775329590e+00
-2.900847911834716797e+00 4.332407951354980469e+00 1.392488360404968262e+00
-2.772253990173339844e+00 4.192796707153320312e+00 1.404839992523193359e+00
-2.795627593994140625e+00 4.314229488372802734e+00 1.405530691146850586e+00
1.183977007865905762e+00 3.363835096359252930e+00 7.066721916198730469e-01
1.098780393600463867e+00 3.397716999053955078e+00 8.092957735061645508e-01
1.254066705703735352e+00 3.376311779022216797e+00 7.574286460876464844e-01
1.164555907249450684e+00 3.407469511032104492e+00 8.699781298637390137e-01
-2.009627580642700195e+00 4.275154590606689453e+00 3.388746976852416992e-01
-1.965068936347961426e+00 4.427702903747558594e+00 3.210215568542480469e-01
-1.837656378746032715e+00 4.321976661682128906e+00 3.213600516319274902e-01
-1.795222520828247070e+00 4.472847938537597656e+00 3.113115727901458740e-01
3.616310656070709229e-01 4.347280502319335938e+00 4.464995861053466797e+00
3.435595631599426270e-01 4.499896049499511719e+00 4.469392776489257812e+00
5.379119515419006348e-01 4.341446399688720703e+00 4.461317539215087891e+00
5.254477858543395996e-01 4.486591815948486328e+00 4.462601184844970703e+00
9.434764862060546875e+00 4.255389213562011719e+00 4.472965240478515625e+00
9.477707862854003906e+00 4.431450366973876953e+00 4.462249279022216797e+00
9.629797935485839844e+00 4.287429809570312500e+00 4.454200744628906250e+00
9.676411628723144531e+00 4.452856063842773438e+00 4.437442302703857422e+00
9.706647872924804688e+00 2.853151559829711914e+00 4.377748489379882812e+00
9.684013366699218750e+00 2.949055910110473633e+00 4.425320148468017578e+00
9.844381332397460938e+00 2.868102073669433594e+00 4.376344680786132812e+00
9.820923805236816406e+00 2.941335201263427734e+00 4.434453010559082031e+00
4.943951129913330078e+00 5.163627624511718750e+00 4.481769084930419922e+00
5.011585235595703125e+00 5.303310871124267578e+00 4.439084529876708984e+00
5.152666568756103516e+00 5.204234600067138672e+00 4.465128898620605469e+00
5.215584278106689453e+00 5.329463481903076172e+00 4.434432983398437500e+00
4.705705165863037109e+00 2.934794187545776367e+00 3.810806274414062500e+00
4.665466308593750000e+00 2.914086818695068359e+00 3.954863071441650391e+00
4.827924251556396484e+00 2.964538335800170898e+00 3.946187973022460938e+00
4.787271976470947266e+00 2.944644451141357422e+00 4.090516567230224609e+00
9.143065452575683594e+00 2.920653581619262695e+00 1.413296818733215332e+00
9.148069381713867188e+00 2.992964267730712891e+00 1.404917120933532715e+00
9.258486747741699219e+00 2.913086891174316406e+00 1.456550836563110352e+00
9.233273506164550781e+00 2.966813325881958008e+00 1.486434459686279297e+00
-2.526220321655273438e+00 4.927201747894287109e+00 1.360059857368469238e+00
-2.530950546264648438e+00 5.020637989044189453e+00 1.347430467605590820e+00
-2.420037746429443359e+00 4.915248394012451172e+00 1.394520521163940430e+00
-2.424688816070556641e+00 5.017112731933593750e+00 1.387407541275024414e+00
-1.159717798233032227e+00 4.875010490417480469e+00 3.280154466629028320e-01
-1.188804149627685547e+00 4.980954170227050781e+00 3.513408303260803223e-01
-1.023799538612365723e+00 4.866464138031005859e+00 3.583683669567108154e-01
-1.049794793128967285e+00 4.978930473327636719e+00 3.754406273365020752e-01
-2.218133449554443359e+00 4.116642951965332031e+00 1.192462682723999023e+00
-2.239286899566650391e+00 4.260273456573486328e+00 1.192460179328918457e+00
-2.139516353607177734e+00 4.130929470062255859e+00 1.231029152870178223e+00
-2.158095359802246094e+00 4.274110317230224609e+00 1.230424642562866211e+00
6.296954631805419922e+00 3.797405958175659180e+00 1.409402370452880859e+00
6.299801349639892578e+00 3.930414676666259766e+00 1.414014577865600586e+00
6.448356151580810547e+00 3.816163778305053711e+00 1.415880441665649414e+00
6.443329811096191406e+00 3.946684837341308594e+00 1.421887636184692383e+00
1.101430988311767578e+01 2.834434270858764648e+00 4.096027851104736328e+00
1.097855472564697266e+01 2.902324438095092773e+00 4.189704895019531250e+00
1.112572383880615234e+01 2.874235630035400391e+00 4.124675273895263672e+00
1.108467674255371094e+01 2.947026252746582031e+00 4.227336406707763672e+00
-4.240677356719970703e+00 4.332412719726562500e+00 7.670906782150268555e-01
-4.235942840576171875e+00 4.446058750152587891e+00 7.502110004425048828e-01
-4.206815242767333984e+00 4.359476089477539062e+00 8.259004354476928711e-01
-4.204156398773193359e+00 4.461818218231201172e+00 8.173983097076416016e-01
1.033575344085693359e+01 3.987718105316162109e+00 7.109555006027221680e-01
1.035894012451171875e+01 4.136003494262695312e+00 7.115848660469055176e-01
1.048287200927734375e+01 4.019100189208984375e+00 7.286930680274963379e-01
1.050649929046630859e+01 4.166394710540771484e+00 7.270973324775695801e-01
-3.233830451965332031e+00 5.343566894531250000e+00 1.376683473587036133e+00
-3.251237869262695312e+00 5.406979084014892578e+00 1.412922024726867676e+00
-3.120871543884277344e+00 5.359860420227050781e+00 1.423796296119689941e+00
-3.149524688720703125e+00 5.425300121307373047e+00 1.463591575622558594e+00
-3.030233144760131836e+00 3.633380413055419922e+00 3.301228284835815430e+00
-2.999656677246093750e+00 3.811424493789672852e+00 3.320669412612915039e+00
-2.917966604232788086e+00 3.703076362609863281e+00 3.349654197692871094e+00
-2.888736963272094727e+00 3.885383605957031250e+00 3.368804454803466797e+00
-2.774408817291259766e+00 3.624503135681152344e+00 1.384710073471069336e+00
-2.771753549575805664e+00 3.746272563934326172e+00 1.391044616699218750e+00
-2.664968967437744141e+00 3.668523788452148438e+00 1.381938934326171875e+00
-2.660996913909912109e+00 3.787442922592163086e+00 1.390337228775024414e+00
-2.463281393051147461e+00 3.613418579101562500e+00 3.522244215011596680e+00
-2.462095975875854492e+00 3.737461805343627930e+00 3.538609743118286133e+00
-2.358661651611328125e+00 3.645012378692626953e+00 3.581749200820922852e+00
-2.367922306060791016e+00 3.756851434707641602e+00 3.596210241317749023e+00
1.066038322448730469e+01 5.507676124572753906e+00 1.553924679756164551e+00
1.057729530334472656e+01 5.556535720825195312e+00 1.659119129180908203e+00
1.072368240356445312e+01 5.543807029724121094e+00 1.619938731193542480e+00
1.063716983795166016e+01 5.575872898101806641e+00 1.739056229591369629e+00
1.164231777191162109e+00 5.058230400085449219e+00 4.474385261535644531e+00
1.130975246429443359e+00 5.200853347778320312e+00 4.462385654449462891e+00
1.327082514762878418e+00 5.059943675994873047e+00 4.520556449890136719e+00
1.293055534362792969e+00 5.204299926757812500e+00 4.516578197479248047e+00
1.377869486808776855e+00 4.237497806549072266e+00 1.394642710685729980e+00
1.351844787597656250e+00 4.403353214263916016e+00 1.404522895812988281e+00
1.556880831718444824e+00 4.308999538421630859e+00 1.369825243949890137e+00
1.520214438438415527e+00 4.476766586303710938e+00 1.388364791870117188e+00
-3.933584213256835938e+00 4.926150798797607422e+00 2.996643543243408203e+00
-3.938869714736938477e+00 5.027420520782470703e+00 2.971702098846435547e+00
-3.834594488143920898e+00 4.929124832153320312e+00 3.044139623641967773e+00
-3.841142654418945312e+00 5.030802249908447266e+00 3.019936800003051758e+00
1.020194053649902344e+00 4.516689300537109375e+00 1.358457684516906738e+00
1.017121315002441406e+00 4.630548000335693359e+00 1.355253458023071289e+00
1.177435874938964844e+00 4.551613330841064453e+00 1.354113578796386719e+00
1.172904610633850098e+00 4.668064117431640625e+00 1.340530633926391602e+00
3.214610576629638672e+00 3.256804466247558594e+00 4.432035446166992188e+00
3.170979976654052734e+00 3.341258287429809570e+00 4.477862834930419922e+00
3.357635498046875000e+00 3.295771837234497070e+00 4.457035541534423828e+00
3.308586597442626953e+00 3.373544454574584961e+00 4.504518032073974609e+00
4.045224666595458984e+00 3.165753126144409180e+00 1.085748076438903809e+00
4.049609661102294922e+00 3.304035663604736328e+00 1.095025062561035156e+00
4.153089046478271484e+00 3.194665670394897461e+00 1.089971780776977539e+00
4.157853603363037109e+00 3.335300922393798828e+00 1.108240246772766113e+00
1.191155910491943359e+01 4.185497283935546875e+00 4.402904033660888672e+00
1.183967494964599609e+01 4.339208602905273438e+00 4.412722587585449219e+00
1.199043464660644531e+01 4.211895465850830078e+00 4.418099403381347656e+00
1.192269515991210938e+01 4.367832183837890625e+00 4.424010753631591797e+00
-3.725328445434570312e-01 5.219311237335205078e+00 -7.530597969889640808e-03
-4.541017413139343262e-01 5.328148365020751953e+00 8.689343929290771484e-02
-2.158077806234359741e-01 5.275344371795654297e+00 6.018894910812377930e-02
-2.968824803829193115e-01 5.383761405944824219e+00 1.543888747692108154e-01
-2.274917125701904297e+00 5.362655639648437500e+00 3.229687452316284180e+00
-2.178477287292480469e+00 5.394997119903564453e+00 3.192976713180541992e+00
-2.189490079879760742e+00 5.367266178131103516e+00 3.305462837219238281e+00
-2.101069211959838867e+00 5.403094768524169922e+00 3.255793571472167969e+00
7.891171455383300781e+00 5.450410366058349609e+00 1.208050370216369629e+00
7.774543285369873047e+00 5.511139392852783203e+00 1.287825345993041992e+00
8.022789001464843750e+00 5.473236083984375000e+00 1.260654568672180176e+00
7.915999412536621094e+00 5.530815124511718750e+00 1.342426776885986328e+00
4.217867374420166016e+00 2.916772365570068359e+00 3.924332857131958008e+00
4.158607959747314453e+00 2.906985998153686523e+00 4.082256793975830078e+00
4.327107429504394531e+00 2.959519386291503906e+00 4.024818897247314453e+00
4.271252632141113281e+00 2.950084447860717773e+00 4.178636074066162109e+00
1.964129686355590820e+00 4.195387363433837891e+00 1.405636787414550781e+00
1.937239170074462891e+00 4.355412960052490234e+00 1.395170688629150391e+00
2.117914915084838867e+00 4.244464397430419922e+00 1.374037265777587891e+00
2.101780176162719727e+00 4.392610549926757812e+00 1.362852931022644043e+00
-3.772038698196411133e+00 3.642190933227539062e+00 2.972178459167480469e+00
-3.750793695449829102e+00 3.711259841918945312e+00 2.972949028015136719e+00
-3.700311899185180664e+00 3.666947364807128906e+00 2.977007150650024414e+00
-3.680466651916503906e+00 3.738251209259033203e+00 2.977205753326416016e+00
7.787641525268554688e+00 5.067085266113281250e+00 1.200433492660522461e+00
7.662114620208740234e+00 5.172730445861816406e+00 1.250980377197265625e+00
7.932429790496826172e+00 5.065503120422363281e+00 1.195165157318115234e+00
7.797366619110107422e+00 5.165524005889892578e+00 1.249562978744506836e+00
-6.466406583786010742e-01 3.441445589065551758e+00 3.375412225723266602e+00
-6.280931830406188965e-01 3.609079837799072266e+00 3.402938604354858398e+00
-6.527280807495117188e-01 3.480457067489624023e+00 3.535327672958374023e+00
-6.349897384643554688e-01 3.647664546966552734e+00 3.561623334884643555e+00
9.612691998481750488e-01 4.283555984497070312e+00 1.240775465965270996e+00
9.532187581062316895e-01 4.402842521667480469e+00 1.233368635177612305e+00
1.088500499725341797e+00 4.260899543762207031e+00 1.258014082908630371e+00
1.085180759429931641e+00 4.404622077941894531e+00 1.251548051834106445e+00
6.217084884643554688e+00 3.353221178054809570e+00 1.074873208999633789e+00
6.185907840728759766e+00 3.504507303237915039e+00 1.048012256622314453e+00
6.330964088439941406e+00 3.396511793136596680e+00 1.099454879760742188e+00
6.300177097320556641e+00 3.551616668701171875e+00 1.082190990447998047e+00
-3.260485172271728516e+00 2.976430892944335938e+00 1.428799867630004883e+00
-3.277173042297363281e+00 3.085516214370727539e+00 1.439435243606567383e+00
-3.132669448852539062e+00 3.017323493957519531e+00 1.449526548385620117e+00
-3.138042211532592773e+00 3.137435913085937500e+00 1.465544700622558594e+00
-6.436471343040466309e-01 3.905846118927001953e+00 1.819972515106201172e+00
-6.295260190963745117e-01 4.026396751403808594e+00 1.829598188400268555e+00
-6.417879462242126465e-01 3.932254076004028320e+00 1.969048976898193359e+00
-6.330487132072448730e-01 4.065955638885498047e+00 1.978807568550109863e+00
1.070924854278564453e+01 3.738237619400024414e+00 1.418205499649047852e+00
1.069043159484863281e+01 3.846278667449951172e+00 1.411549568176269531e+00
1.086015510559082031e+01 3.738814830780029297e+00 1.427796363830566406e+00
1.083578968048095703e+01 3.847266674041748047e+00 1.421599507331848145e+00
1.178450202941894531e+01 4.125696182250976562e+00 3.649048566818237305e+00
1.180500698089599609e+01 4.277992725372314453e+00 3.650305509567260742e+00
1.177335166931152344e+01 4.166934967041015625e+00 3.791683912277221680e+00
1.179253578186035156e+01 4.324316024780273438e+00 3.792159557342529297e+00
1.046392560005187988e+00 2.927634954452514648e+00 4.000830650329589844e+00
9.799078702926635742e-01 2.904267787933349609e+00 4.135765552520751953e+00
1.142300963401794434e+00 2.927892684936523438e+00 4.093130111694335938e+00
1.087839484214782715e+00 2.933973312377929688e+00 4.204333782196044922e+00
8.031447410583496094e+00 2.933527946472167969e+00 3.372272014617919922e+00
7.925217628479003906e+00 2.904951333999633789e+00 3.530012845993041992e+00
8.144374847412109375e+00 2.943873882293701172e+00 3.491310119628906250e+00
8.054750442504882812e+00 2.921293973922729492e+00 3.635708093643188477e+00
1.470321893692016602e+00 3.235849142074584961e+00 4.422963142395019531e+00
1.472316503524780273e+00 3.358899116516113281e+00 4.459099769592285156e+00
1.623936057090759277e+00 3.278503417968750000e+00 4.432997703552246094e+00
1.609743118286132812e+00 3.396556377410888672e+00 4.471323966979980469e+00
-6.468309760093688965e-01 5.009205818176269531e+00 2.241489887237548828e+00
-6.301873922348022461e-01 5.196491718292236328e+00 2.271010875701904297e+00
-6.381879448890686035e-01 5.115066528320312500e+00 2.391838788986206055e+00
-6.197134256362915039e-01 5.302772045135498047e+00 2.417927980422973633e+00
4.898764610290527344e+00 2.928952693939208984e+00 2.268872976303100586e+00
4.799720764160156250e+00 2.911491155624389648e+00 2.434853315353393555e+00
4.982417106628417969e+00 2.940173864364624023e+00 2.376593589782714844e+00
4.886319160461425781e+00 2.929217815399169922e+00 2.533952951431274414e+00
5.135604381561279297e+00 3.055745840072631836e+00 1.424545645713806152e+00
5.156168937683105469e+00 3.164640426635742188e+00 1.389232873916625977e+00
5.268438339233398438e+00 3.055436134338378906e+00 1.434502959251403809e+00
5.278182029724121094e+00 3.167751789093017578e+00 1.403918981552124023e+00
-1.604343652725219727e-01 3.127080917358398438e+00 4.365849018096923828e+00
-2.465172708034515381e-01 3.163381338119506836e+00 4.472105026245117188e+00
-2.596373297274112701e-02 3.122827768325805664e+00 4.384548664093017578e+00
-1.099936068058013916e-01 3.162383317947387695e+00 4.482454299926757812e+00
4.119335174560546875e+00 2.927650213241577148e+00 2.512662410736083984e+00
3.980681896209716797e+00 2.913432836532592773e+00 2.652461767196655273e+00
4.257380008697509766e+00 2.940893650054931641e+00 2.653106927871704102e+00
4.116204261779785156e+00 2.928404331207275391e+00 2.789918899536132812e+00
3.829759836196899414e+00 4.412062644958496094e+00 4.451845169067382812e+00
3.849281311035156250e+00 4.577280044555664062e+00 4.454210758209228516e+00
4.001693248748779297e+00 4.429461002349853516e+00 4.455739021301269531e+00
4.015751838684082031e+00 4.594936847686767578e+00 4.460090637207031250e+00
-3.421935796737670898e+00 5.353407382965087891e+00 1.447155475616455078e+00
-3.479876756668090820e+00 5.394438743591308594e+00 1.508930802345275879e+00
-3.308960914611816406e+00 5.379203319549560547e+00 1.525315284729003906e+00
-3.388779163360595703e+00 5.406527519226074219e+00 1.592860102653503418e+00
6.660022258758544922e+00 5.556646823883056641e+00 2.495312213897705078e+00
6.505251407623291016e+00 5.540795326232910156e+00 2.637082815170288086e+00
6.802299976348876953e+00 5.559288978576660156e+00 2.636294126510620117e+00
6.650473117828369141e+00 5.543317794799804688e+00 2.773719787597656250e+00
5.623847007751464844e+00 3.557739973068237305e+00 4.462325572967529297e+00
5.599632740020751953e+00 3.694870233535766602e+00 4.466684818267822266e+00
5.776691913604736328e+00 3.548831224441528320e+00 4.440623760223388672e+00
5.754952907562255859e+00 3.687304258346557617e+00 4.449515342712402344e+00
6.256702899932861328e+00 5.463929176330566406e+00 4.474260330200195312e+00
6.252785205841064453e+00 5.551986694335937500e+00 4.397616863250732422e+00
6.418428897857666016e+00 5.441093921661376953e+00 4.546295166015625000e+00
6.407592296600341797e+00 5.525099754333496094e+00 4.475827693939208984e+00
-1.848625779151916504e+00 3.336674690246582031e+00 2.967875719070434570e+00
-1.794542908668518066e+00 3.453368186950683594e+00 2.978758811950683594e+00
-1.760483503341674805e+00 3.371827363967895508e+00 3.015100002288818359e+00
-1.702950000762939453e+00 3.488546609878540039e+00 3.023968458175659180e+00
6.405772686004638672e+00 5.532477378845214844e+00 1.862888336181640625e+00
6.270505905151367188e+00 5.545854568481445312e+00 1.993467450141906738e+00
6.524727344512939453e+00 5.563532352447509766e+00 1.974845886230468750e+00
6.382984638214111328e+00 5.568217754364013672e+00 2.117622375488281250e+00
1.078819370269775391e+01 2.933623790740966797e+00 1.742538690567016602e+00
1.071505069732666016e+01 2.914502143859863281e+00 1.873134851455688477e+00
1.089815998077392578e+01 2.929586648941040039e+00 1.851638913154602051e+00
1.081105422973632812e+01 2.903155803680419922e+00 2.008322477340698242e+00
3.337358832359313965e-01 5.541494369506835938e+00 4.355031490325927734e+00
4.033095240592956543e-01 5.585926532745361328e+00 4.243304729461669922e+00
4.585239291191101074e-01 5.509044170379638672e+00 4.377283096313476562e+00
5.333375930786132812e-01 5.554795742034912109e+00 4.266331672668457031e+00
5.068699359893798828e+00 3.578176021575927734e+00 4.443313121795654297e+00
5.032988548278808594e+00 3.710582971572875977e+00 4.469528675079345703e+00
5.256041526794433594e+00 3.607741355895996094e+00 4.436820507049560547e+00
5.221916675567626953e+00 3.737770318984985352e+00 4.461290359497070312e+00
-3.127437114715576172e+00 2.756622552871704102e+00 1.323271274566650391e+00
-3.143733978271484375e+00 2.871164560317993164e+00 1.331727862358093262e+00
-3.027575731277465820e+00 2.794347286224365234e+00 1.378135204315185547e+00
-3.040442228317260742e+00 2.913954973220825195e+00 1.384904384613037109e+00
6.161878585815429688e+00 4.568113327026367188e+00 4.461688041687011719e+00
6.130629062652587891e+00 4.685577869415283203e+00 4.451771736145019531e+00
6.304275035858154297e+00 4.516356945037841797e+00 4.458471775054931641e+00
6.270575046539306641e+00 4.642297267913818359e+00 4.447891712188720703e+00
2.308455705642700195e+00 3.672348976135253906e+00 1.412377357482910156e+00
2.286270141601562500e+00 3.816838741302490234e+00 1.413271903991699219e+00
2.438509225845336914e+00 3.695249795913696289e+00 1.404045224189758301e+00
2.419233083724975586e+00 3.834685564041137695e+00 1.406532526016235352e+00
-2.477540731430053711e+00 3.522953510284423828e+00 1.381102561950683594e+00
-2.486384153366088867e+00 3.655482769012451172e+00 1.384685516357421875e+00
-2.387911796569824219e+00 3.562994480133056641e+00 1.365966916084289551e+00
-2.397112846374511719e+00 3.691998720169067383e+00 1.364997267723083496e+00
-2.765522599220275879e-01 2.890328407287597656e+00 4.217669963836669922e+00
-3.491280376911163330e-01 2.949909210205078125e+00 4.328969478607177734e+00
-1.719837635755538940e-01 2.922245264053344727e+00 4.258623600006103516e+00
-2.632287740707397461e-01 2.954965353012084961e+00 4.373349189758300781e+00
7.036963105201721191e-01 3.964653730392456055e+00 1.165455460548400879e+00
6.835541129112243652e-01 4.071563720703125000e+00 1.158442020416259766e+00
8.206953406333923340e-01 3.983204364776611328e+00 1.185568213462829590e+00
8.025050759315490723e-01 4.091107845306396484e+00 1.178303241729736328e+00
1.077943897247314453e+01 3.001580238342285156e+00 4.437541961669921875e+00
1.077224445343017578e+01 3.126229286193847656e+00 4.466150760650634766e+00
1.090681838989257812e+01 3.042317628860473633e+00 4.430759429931640625e+00
1.089867210388183594e+01 3.166050434112548828e+00 4.462092399597167969e+00
-3.252437114715576172e+00 5.199678897857666016e+00 1.377475976943969727e+00
-3.263619661331176758e+00 5.263295173645019531e+00 1.413984298706054688e+00
-3.153909444808959961e+00 5.213676452636718750e+00 1.422480583190917969e+00
-3.163117885589599609e+00 5.280192852020263672e+00 1.457886815071105957e+00
7.119626998901367188e+00 4.843155860900878906e+00 4.458014011383056641e+00
7.137438774108886719e+00 4.998386383056640625e+00 4.457185745239257812e+00
7.284360408782958984e+00 4.846812725067138672e+00 4.478485584259033203e+00
7.313762187957763672e+00 4.994390010833740234e+00 4.467919349670410156e+00
1.029624223709106445e+00 5.001963138580322266e+00 1.397944331169128418e+00
1.030616283416748047e+00 5.094897747039794922e+00 1.394014716148376465e+00
1.135866045951843262e+00 5.017013549804687500e+00 1.410701155662536621e+00
1.136657238006591797e+00 5.110725879669189453e+00 1.405543923377990723e+00
1.256810307502746582e+00 4.892908573150634766e+00 3.339920938014984131e-01
1.224848389625549316e+00 4.953734874725341797e+00 3.871993422508239746e-01
1.331909537315368652e+00 4.932447910308837891e+00 3.590554893016815186e-01
1.275659441947937012e+00 4.968749046325683594e+00 4.318030476570129395e-01
-2.326369762420654297e+00 2.736856937408447266e+00 4.755006134510040283e-01
-2.354983091354370117e+00 2.804883480072021484e+00 5.405212640762329102e-01
-2.241791486740112305e+00 2.774969339370727539e+00 5.849524140357971191e-01
-2.280021190643310547e+00 2.832977771759033203e+00 6.583645939826965332e-01
5.276994228363037109e+00 3.563918590545654297e+00 1.051351785659790039e+00
5.267134666442871094e+00 3.687222480773925781e+00 1.047197818756103516e+00
5.388873577117919922e+00 3.566594362258911133e+00 1.054401636123657227e+00
5.377074718475341797e+00 3.697518348693847656e+00 1.052671790122985840e+00
1.116532611846923828e+01 3.237510204315185547e+00 1.123374700546264648e+00
1.119319057464599609e+01 3.324431657791137695e+00 1.112470149993896484e+00
1.131097602844238281e+01 3.181073188781738281e+00 1.167857766151428223e+00
1.133759784698486328e+01 3.264457464218139648e+00 1.152861595153808594e+00
-2.429558038711547852e+00 5.083729267120361328e+00 1.346896648406982422e+00
-2.430713176727294922e+00 5.178622722625732422e+00 1.339431643486022949e+00
-2.350705385208129883e+00 5.073513984680175781e+00 1.413004994392395020e+00
-2.346055746078491211e+00 5.173948764801025391e+00 1.402726531028747559e+00
3.927888154983520508e+00 5.528111457824707031e+00 4.135774135589599609e+00
3.823457002639770508e+00 5.523963928222656250e+00 4.243310928344726562e+00
4.031461238861083984e+00 5.517700195312500000e+00 4.259354114532470703e+00
3.983262777328491211e+00 5.538512229919433594e+00 4.304139137268066406e+00
3.715290784835815430e+00 5.109382629394531250e+00 1.337229609489440918e+00
3.647644281387329102e+00 5.216588497161865234e+00 1.377249479293823242e+00
3.835090160369873047e+00 5.135073184967041016e+00 1.337415456771850586e+00
3.772063016891479492e+00 5.243454456329345703e+00 1.376325964927673340e+00
1.115642547607421875e+01 2.940961122512817383e+00 2.747738122940063477e+00
1.106700515747070312e+01 2.922988176345825195e+00 2.873002767562866211e+00
1.123222827911376953e+01 2.948461055755615234e+00 2.847346544265747070e+00
1.115916442871093750e+01 2.930287122726440430e+00 2.961164236068725586e+00
-6.681119799613952637e-01 3.964771509170532227e+00 8.607815504074096680e-01
-6.739505529403686523e-01 4.078299999237060547e+00 8.571720719337463379e-01
-5.625292062759399414e-01 3.968843936920166016e+00 8.590368032455444336e-01
-5.694471001625061035e-01 4.083331584930419922e+00 8.532428145408630371e-01
-2.035861492156982422e+00 3.615730285644531250e+00 2.995788574218750000e+00
-2.044054746627807617e+00 3.739064216613769531e+00 3.000087499618530273e+00
-1.946803092956542969e+00 3.618494510650634766e+00 2.996742248535156250e+00
-1.954047203063964844e+00 3.743265867233276367e+00 2.999360322952270508e+00
-8.218991756439208984e-02 5.507152557373046875e+00 2.123355627059936523e+00
-1.698069870471954346e-01 5.559548377990722656e+00 2.262188434600830078e+00
7.963247597217559814e-03 5.561011791229248047e+00 2.270436048507690430e+00
-1.107674613595008850e-01 5.587065219879150391e+00 2.430075645446777344e+00
9.104122161865234375e+00 5.318814754486083984e+00 8.440446108579635620e-02
9.047709465026855469e+00 5.421846389770507812e+00 1.442298442125320435e-01
9.273054122924804688e+00 5.310191631317138672e+00 1.904555261135101318e-01
9.214940071105957031e+00 5.396305561065673828e+00 2.590932548046112061e-01
-4.012145042419433594e+00 4.142844200134277344e+00 1.665866732597351074e+00
-4.030601501464843750e+00 4.275271892547607422e+00 1.646080732345581055e+00
-4.015571117401123047e+00 4.170087337493896484e+00 1.753602385520935059e+00
-4.017009258270263672e+00 4.318314075469970703e+00 1.727560043334960938e+00
1.387874841690063477e+00 4.561432838439941406e+00 8.573822379112243652e-01
1.440646648406982422e+00 4.636060714721679688e+00 8.080727458000183105e-01
1.505571603775024414e+00 4.503857612609863281e+00 9.242652654647827148e-01
1.521181464195251465e+00 4.601270675659179688e+00 8.937615156173706055e-01
-4.941934347152709961e-01 2.864842891693115234e+00 3.407713651657104492e+00
-5.497916936874389648e-01 2.972688913345336914e+00 3.464936733245849609e+00
-4.780322313308715820e-01 2.860907077789306641e+00 3.521333217620849609e+00
-5.495567321777343750e-01 2.966780900955200195e+00 3.568541288375854492e+00
-4.562925398349761963e-01 2.899446487426757812e+00 2.780615091323852539e+00
-5.312209129333496094e-01 2.958456516265869141e+00 2.858904361724853516e+00
-4.046389460563659668e-01 2.903386831283569336e+00 2.896491527557373047e+00
-4.796508550643920898e-01 2.949730396270751953e+00 2.982330799102783203e+00
-6.281889677047729492e-01 3.149850606918334961e+00 3.905889272689819336e+00
-6.631689071655273438e-01 3.300309896469116211e+00 3.922293663024902344e+00
-6.344910264015197754e-01 3.170245885848999023e+00 4.046811103820800781e+00
-6.567801237106323242e-01 3.317637681961059570e+00 4.069355010986328125e+00
8.420992851257324219e+00 4.158225059509277344e+00 1.409584164619445801e+00
8.403197288513183594e+00 4.359791278839111328e+00 1.424811363220214844e+00
8.590623855590820312e+00 4.175871849060058594e+00 1.399929046630859375e+00
8.573554992675781250e+00 4.374052524566650391e+00 1.414785385131835938e+00
4.062255859375000000e+00 2.945304155349731445e+00 2.271294832229614258e+00
3.945677042007446289e+00 2.920495748519897461e+00 2.404746294021606445e+00
4.202264308929443359e+00 2.949604749679565430e+00 2.400550842285156250e+00
4.063277244567871094e+00 2.933980226516723633e+00 2.539186239242553711e+00
1.591766119003295898e+00 5.540692806243896484e+00 1.985697031021118164e+00
1.511307597160339355e+00 5.537830352783203125e+00 2.113149166107177734e+00
1.723514199256896973e+00 5.564208984375000000e+00 2.097830533981323242e+00
1.640984296798706055e+00 5.553519725799560547e+00 2.243062257766723633e+00
7.672987937927246094e+00 2.932206153869628906e+00 3.045102119445800781e+00
7.551701545715332031e+00 2.902513742446899414e+00 3.214772224426269531e+00
7.801726341247558594e+00 2.955813884735107422e+00 3.168069362640380859e+00
7.684828758239746094e+00 2.927307605743408203e+00 3.336822986602783203e+00
1.039664554595947266e+01 2.907830715179443359e+00 3.956828355789184570e+00
1.031931400299072266e+01 2.899037122726440430e+00 4.079779624938964844e+00
1.052769851684570312e+01 2.943680763244628906e+00 4.049095153808593750e+00
1.045152568817138672e+01 2.935239553451538086e+00 4.170295238494873047e+00
6.976256847381591797e+00 5.559687137603759766e+00 3.012337684631347656e+00
6.829569339752197266e+00 5.532827854156494141e+00 3.148374080657958984e+00
7.131994724273681641e+00 5.569285392761230469e+00 3.145511150360107422e+00
6.986252307891845703e+00 5.539598941802978516e+00 3.289668798446655273e+00
-1.765239000320434570e+00 4.873644351959228516e+00 3.480995655059814453e+00
-1.782336592674255371e+00 5.026624679565429688e+00 3.536073684692382812e+00
-1.649342060089111328e+00 4.918863296508789062e+00 3.508023500442504883e+00
-1.665559411048889160e+00 5.072984695434570312e+00 3.559870481491088867e+00
-3.584848880767822266e+00 4.595930099487304688e+00 3.022820711135864258e+00
-3.574883460998535156e+00 4.691893100738525391e+00 3.014419317245483398e+00
-3.492070674896240234e+00 4.614521503448486328e+00 3.074022531509399414e+00
-3.488465070724487305e+00 4.718725681304931641e+00 3.066573143005371094e+00
1.020289134979248047e+01 3.578928232192993164e+00 7.020028233528137207e-01
1.026064586639404297e+01 3.726669788360595703e+00 6.765926480293273926e-01
1.040160655975341797e+01 3.543919563293457031e+00 7.278781533241271973e-01
1.045250797271728516e+01 3.698969125747680664e+00 7.060639262199401855e-01
-3.839860439300537109e+00 5.144288539886474609e+00 1.008310198783874512e+00
-3.802083969116210938e+00 5.252819061279296875e+00 9.811241626739501953e-01
-3.787805557250976562e+00 5.080159664154052734e+00 1.075406551361083984e+00
-3.750100612640380859e+00 5.187995910644531250e+00 1.044649720191955566e+00
5.245183944702148438e+00 5.236345767974853516e+00 8.396573662757873535e-01
5.240579128265380859e+00 5.339827060699462891e+00 8.579406738281250000e-01
5.406628131866455078e+00 5.267753601074218750e+00 8.816563487052917480e-01
5.426016807556152344e+00 5.383114337921142578e+00 8.800038695335388184e-01
-4.222883701324462891e+00 5.253955364227294922e+00 2.374732941389083862e-01
-4.211662292480468750e+00 5.361664295196533203e+00 2.265725284814834595e-01
-4.233029842376708984e+00 5.247417926788330078e+00 3.448092043399810791e-01
-4.221139430999755859e+00 5.356251239776611328e+00 3.343665897846221924e-01
6.928905963897705078e+00 5.512238025665283203e+00 1.634587407112121582e+00
6.812264442443847656e+00 5.529865741729736328e+00 1.764235496520996094e+00
7.069306850433349609e+00 5.546695709228515625e+00 1.715195536613464355e+00
6.950839996337890625e+00 5.550280570983886719e+00 1.850347399711608887e+00
-5.839980840682983398e-01 5.472916603088378906e+00 2.069044828414916992e+00
-5.296719074249267578e-01 5.648195743560791016e+00 2.097098827362060547e+00
-5.687756538391113281e-01 5.571683883666992188e+00 2.218048810958862305e+00
-5.220488309860229492e-01 5.751809120178222656e+00 2.246061086654663086e+00
-8.035946488380432129e-01 3.983064889907836914e+00 3.209213018417358398e-01
-8.201955556869506836e-01 4.085505962371826172e+00 3.201856911182403564e-01
-7.000956535339355469e-01 4.006083488464355469e+00 3.297883570194244385e-01
-7.144291400909423828e-01 4.110646247863769531e+00 3.340486586093902588e-01
-3.746674776077270508e+00 4.580452919006347656e+00 2.982327699661254883e+00
-3.734177112579345703e+00 4.676510810852050781e+00 2.966107368469238281e+00
-3.673655748367309570e+00 4.590896606445312500e+00 3.014132261276245117e+00
-3.661691427230834961e+00 4.688958168029785156e+00 3.000574111938476562e+00
1.393402934074401855e+00 2.916525125503540039e+00 1.658995985984802246e+00
1.329387068748474121e+00 2.902115345001220703e+00 1.783034205436706543e+00
1.524326562881469727e+00 2.948088645935058594e+00 1.750163435935974121e+00
1.436354041099548340e+00 2.922288417816162109e+00 1.910589098930358887e+00
9.334966659545898438e+00 5.026957511901855469e+00 6.587940454483032227e-01
9.303974151611328125e+00 5.056145668029785156e+00 7.921214103698730469e-01
9.410676956176757812e+00 5.042918682098388672e+00 7.446271181106567383e-01
9.388733863830566406e+00 5.076468467712402344e+00 8.691775798797607422e-01
-2.680220127105712891e+00 5.162248611450195312e+00 1.349594116210937500e+00
-2.673196315765380859e+00 5.265447139739990234e+00 1.352037191390991211e+00
-2.579685211181640625e+00 5.179591178894042969e+00 1.369879484176635742e+00
-2.569788455963134766e+00 5.283934116363525391e+00 1.367147564888000488e+00
-3.530998945236206055e+00 3.048838376998901367e+00 2.828955888748168945e+00
-3.592768907546997070e+00 3.077313423156738281e+00 2.946517705917358398e+00
-3.437671899795532227e+00 3.085029125213623047e+00 2.931026697158813477e+00
-3.497659206390380859e+00 3.119427204132080078e+00 3.041940212249755859e+00
1.948668837547302246e+00 4.847396373748779297e+00 9.493554830551147461e-01
1.878693580627441406e+00 4.909187316894531250e+00 1.021237134933471680e+00
2.043453931808471680e+00 4.860698699951171875e+00 1.006441950798034668e+00
1.986026048660278320e+00 4.936593532562255859e+00 1.068080067634582520e+00
-4.109036922454833984e+00 4.046245098114013672e+00 9.679036736488342285e-01
-4.133284091949462891e+00 4.134579181671142578e+00 9.892089962959289551e-01
-4.050211906433105469e+00 4.077685356140136719e+00 1.005750656127929688e+00
-4.075604915618896484e+00 4.169828891754150391e+00 1.027111887931823730e+00
1.385081768035888672e+00 3.443046569824218750e+00 4.447222709655761719e+00
1.390102148056030273e+00 3.574414491653442383e+00 4.468372821807861328e+00
1.558110833168029785e+00 3.475830078125000000e+00 4.453859806060791016e+00
1.563130617141723633e+00 3.612846851348876953e+00 4.473578453063964844e+00
8.665793418884277344e+00 2.939020633697509766e+00 8.072782307863235474e-03
8.657813072204589844e+00 3.009903907775878906e+00 7.167458534240722656e-02
8.876720428466796875e+00 2.936779499053955078e+00 9.819941222667694092e-02
8.816345214843750000e+00 3.001463413238525391e+00 1.912433058023452759e-01
-4.081233024597167969e+00 4.121514320373535156e+00 2.338513612747192383e+00
-4.065955162048339844e+00 4.256168365478515625e+00 2.318329095840454102e+00
-4.078348636627197266e+00 4.144764900207519531e+00 2.466617822647094727e+00
-4.062352180480957031e+00 4.273061275482177734e+00 2.452717065811157227e+00
-2.254885673522949219e+00 3.053268194198608398e+00 3.416577100753784180e+00
-2.334823608398437500e+00 3.129165887832641602e+00 3.439015388488769531e+00
-2.193537473678588867e+00 3.036197900772094727e+00 3.501563549041748047e+00
-2.265216350555419922e+00 3.120402812957763672e+00 3.523937702178955078e+00
-5.879860520362854004e-01 3.452409029006958008e+00 1.394952535629272461e+00
-6.113994121551513672e-01 3.575252056121826172e+00 1.424554347991943359e+00
-6.360230445861816406e-01 3.485587835311889648e+00 1.494566321372985840e+00
-6.596598625183105469e-01 3.608728885650634766e+00 1.525662064552307129e+00
-2.138837814331054688e+00 3.063827753067016602e+00 1.539559841156005859e+00
-2.211238145828247070e+00 3.080938577651977539e+00 1.642690181732177734e+00
-2.088572978973388672e+00 3.099242210388183594e+00 1.629651665687561035e+00
-2.169380426406860352e+00 3.103655099868774414e+00 1.752539157867431641e+00
-2.096231460571289062e+00 3.079916954040527344e+00 2.287537813186645508e+00
-2.183469295501708984e+00 3.074330806732177734e+00 2.394130945205688477e+00
-1.995474457740783691e+00 3.100711584091186523e+00 2.376257658004760742e+00
-2.078142404556274414e+00 3.091885566711425781e+00 2.479818582534790039e+00
-1.366420984268188477e+00 5.158058643341064453e+00 2.267182916402816772e-01
-1.405945658683776855e+00 5.202023506164550781e+00 2.960002422332763672e-01
-1.230306625366210938e+00 5.176001071929931641e+00 2.956857085227966309e-01
-1.275231838226318359e+00 5.231464862823486328e+00 3.601756989955902100e-01
1.558349251747131348e+00 2.918794155120849609e+00 3.737422227859497070e+00
1.471385598182678223e+00 2.892972946166992188e+00 3.881400823593139648e+00
1.659794807434082031e+00 2.945914268493652344e+00 3.825040102005004883e+00
1.577661037445068359e+00 2.919099092483520508e+00 3.971751928329467773e+00
5.460540294647216797e+00 5.284600257873535156e+00 1.291694402694702148e+00
5.449816703796386719e+00 5.373732089996337891e+00 1.351359248161315918e+00
5.555700302124023438e+00 5.299661636352539062e+00 1.343230843544006348e+00
5.549949169158935547e+00 5.396955966949462891e+00 1.418504714965820312e+00
