-5.409254074096679688e+00 -2.242500066757202148e+00 3.615326404571533203e+00
-3.838248729705810547e+00 2.845352649688720703e+00 3.649839639663696289e+00
-3.834759712219238281e+00 2.974835872650146484e+00 3.640193223953247070e+00
-3.691014766693115234e+00 2.839719533920288086e+00 3.671074867248535156e+00
-3.691471576690673828e+00 2.971067905426025391e+00 3.660194635391235352e+00
-6.140439510345458984e+00 -6.009885787963867188e+00 5.828605294227600098e-01
-6.106521606445312500e+00 -5.879030704498291016e+00 5.759388804435729980e-01
-5.997900485992431641e+00 -5.988944053649902344e+00 5.813136696815490723e-01
-5.967608451843261719e+00 -5.853156089782714844e+00 5.782361030578613281e-01
-3.224489927291870117e+00 -2.334733724594116211e+00 8.636526465415954590e-01
-3.209705352783203125e+00 -2.206506967544555664e+00 8.359758257865905762e-01
-3.181704282760620117e+00 -2.305745601654052734e+00 9.338817596435546875e-01
-3.167269468307495117e+00 -2.175155639648437500e+00 9.047096967697143555e-01
-3.256423473358154297e+00 -2.302610397338867188e+00 1.909937143325805664e+00
-3.232940435409545898e+00 -2.192951202392578125e+00 1.925498604774475098e+00
-3.256684064865112305e+00 -2.261815071105957031e+00 2.027468919754028320e+00
-3.232347488403320312e+00 -2.150850296020507812e+00 2.042786359786987305e+00
-4.807307243347167969e+00 1.952128529548645020e+00 2.963413238525390625e+00
-4.771412849426269531e+00 2.068745851516723633e+00 2.968209266662597656e+00
-4.791469097137451172e+00 2.035149812698364258e+00 3.065711021423339844e+00
-4.759960174560546875e+00 2.149527311325073242e+00 3.073534965515136719e+00
-5.067790031433105469e+00 -6.303432941436767578e+00 5.728070139884948730e-01
-5.054801464080810547e+00 -6.158126354217529297e+00 5.730705857276916504e-01
-4.936689853668212891e+00 -6.271930217742919922e+00 5.822516679763793945e-01
-4.928325653076171875e+00 -6.131539821624755859e+00 5.839323401451110840e-01
-5.560422897338867188e+00 -1.292330980300903320e+00 2.588314294815063477e+00
-5.528844356536865234e+00 -1.167513847351074219e+00 2.597488164901733398e+00
-5.550260066986083984e+00 -1.225080251693725586e+00 2.671322584152221680e+00
-5.517443656921386719e+00 -1.099465131759643555e+00 2.678674936294555664e+00
-1.802799224853515625e+00 6.539902687072753906e+00 3.279825925827026367e+00
-1.824352025985717773e+00 6.580790042877197266e+00 3.230401277542114258e+00
-1.738953709602355957e+00 6.469130516052246094e+00 3.329493999481201172e+00
-1.732453942298889160e+00 6.515173435211181641e+00 3.262171745300292969e+00
-2.464903831481933594e+00 2.304344177246093750e+00 2.771160006523132324e-01
-2.426202774047851562e+00 2.365011453628540039e+00 2.519619762897491455e-01
-2.444185972213745117e+00 2.339170217514038086e+00 3.222035467624664307e-01
-2.406944274902343750e+00 2.401580810546875000e+00 2.972862422466278076e-01
-3.984443902969360352e+00 -3.381808757781982422e+00 5.605905652046203613e-01
-3.992260456085205078e+00 -3.284987211227416992e+00 5.560331344604492188e-01
-3.906815290451049805e+00 -3.366790771484375000e+00 5.673640966415405273e-01
-3.905727386474609375e+00 -3.273283958435058594e+00 5.561641454696655273e-01
-4.417105674743652344e+00 -1.492698192596435547e+00 3.717024087905883789e+00
-4.406710147857666016e+00 -1.416056871414184570e+00 3.715511560440063477e+00
-4.328214645385742188e+00 -1.469056248664855957e+00 3.727921962738037109e+00
-4.315219879150390625e+00 -1.389743089675903320e+00 3.732144594192504883e+00
-1.988932728767395020e+00 2.653809309005737305e+00 1.438727974891662598e+00
-1.954408288002014160e+00 2.788456201553344727e+00 1.396504521369934082e+00
-1.975103974342346191e+00 2.620568037033081055e+00 1.567997097969055176e+00
-1.940460205078125000e+00 2.754592895507812500e+00 1.532699823379516602e+00
-6.244194507598876953e+00 -5.371699333190917969e+00 3.493971824645996094e+00
-6.233130455017089844e+00 -5.281920909881591797e+00 3.496335506439208984e+00
-6.155595302581787109e+00 -5.356700897216796875e+00 3.530298709869384766e+00
-6.142928123474121094e+00 -5.269565582275390625e+00 3.535672426223754883e+00
-2.951104640960693359e+00 -7.599664330482482910e-01 3.298149585723876953e+00
-2.919466018676757812e+00 -6.398268342018127441e-01 3.306795597076416016e+00
-3.004441499710083008e+00 -6.763107180595397949e-01 3.394762992858886719e+00
-2.970943450927734375e+00 -5.567236542701721191e-01 3.399142742156982422e+00
-4.760463714599609375e+00 2.244978666305541992e+00 3.211903333663940430e+00
-4.721498489379882812e+00 2.366521835327148438e+00 3.199897766113281250e+00
-4.661016941070556641e+00 2.278648853302001953e+00 3.287344694137573242e+00
-4.612301826477050781e+00 2.404677867889404297e+00 3.273357152938842773e+00
-3.950001001358032227e+00 5.573080539703369141e+00 1.713851690292358398e+00
-3.916568279266357422e+00 5.717172145843505859e+00 1.691794991493225098e+00
-3.927370548248291016e+00 5.615450382232666016e+00 1.849487066268920898e+00
-3.894227266311645508e+00 5.762934684753417969e+00 1.816379904747009277e+00
-1.827215433120727539e+00 3.271213769912719727e+00 2.211361408233642578e+00
-1.793295383453369141e+00 3.385048389434814453e+00 2.227737903594970703e+00
-1.819359421730041504e+00 3.337022781372070312e+00 2.322857141494750977e+00
-1.788717389106750488e+00 3.449322223663330078e+00 2.340771198272705078e+00
-2.601628065109252930e+00 1.972891092300415039e+00 3.565807580947875977e+00
-2.608726501464843750e+00 2.068334102630615234e+00 3.593161344528198242e+00
-2.502041816711425781e+00 2.008210897445678711e+00 3.523050785064697266e+00
-2.508246183395385742e+00 2.104241132736206055e+00 3.548124074935913086e+00
-5.072772502899169922e+00 8.683669567108154297e-01 1.076119303703308105e+00
-5.038813114166259766e+00 1.001946210861206055e+00 1.078186750411987305e+00
-5.081277370452880859e+00 9.568431377410888672e-01 1.179828166961669922e+00
-5.042747497558593750e+00 1.088497877120971680e+00 1.178264975547790527e+00
-4.985898017883300781e+00 -7.154944419860839844e+00 2.150691270828247070e+00
-5.061685085296630859e+00 -7.154889583587646484e+00 2.294004678726196289e+00
-4.904994487762451172e+00 -7.128847122192382812e+00 2.246046066284179688e+00
-4.963235378265380859e+00 -7.127281188964843750e+00 2.382122755050659180e+00
-1.558337330818176270e+00 4.906319618225097656e+00 3.291150093078613281e+00
-1.523024678230285645e+00 5.039245128631591797e+00 3.304659366607666016e+00
-1.576929926872253418e+00 4.969821453094482422e+00 3.402208805084228516e+00
-1.545133352279663086e+00 5.102039337158203125e+00 3.422004222869873047e+00
-3.340212583541870117e+00 -2.277642250061035156e+00 5.580062270164489746e-01
-3.326406240463256836e+00 -2.183713436126708984e+00 5.608475208282470703e-01
-3.283154249191284180e+00 -2.270450830459594727e+00 6.087036728858947754e-01
-3.268940925598144531e+00 -2.171491384506225586e+00 6.050344109535217285e-01
-4.905521869659423828e+00 1.562803387641906738e+00 2.677302837371826172e+00
-4.878371238708496094e+00 1.673344373703002930e+00 2.683291912078857422e+00
-4.909723758697509766e+00 1.606748819351196289e+00 2.796328783035278320e+00
-4.882515907287597656e+00 1.718395709991455078e+00 2.803565502166748047e+00
-3.753540992736816406e+00 6.088189601898193359e+00 1.124324917793273926e+00
-3.735160112380981445e+00 6.163516998291015625e+00 1.184420466423034668e+00
-3.760096549987792969e+00 6.131342887878417969e+00 1.241897940635681152e+00
-3.739679098129272461e+00 6.207202911376953125e+00 1.299170136451721191e+00
-6.805316925048828125e+00 -6.603925228118896484e+00 3.022690057754516602e+00
-6.865134239196777344e+00 -6.531502723693847656e+00 3.069203615188598633e+00
-6.753736972808837891e+00 -6.640975475311279297e+00 3.109380722045898438e+00
-6.804000377655029297e+00 -6.553190708160400391e+00 3.157510757446289062e+00
-1.691585540771484375e+00 3.843901634216308594e+00 1.515370488166809082e+00
-1.667735457420349121e+00 3.954334497451782227e+00 1.534004926681518555e+00
-1.677187919616699219e+00 3.899736166000366211e+00 1.646916747093200684e+00
-1.657443881034851074e+00 4.012821197509765625e+00 1.657808303833007812e+00
-4.512593746185302734e+00 2.864700794219970703e+00 3.265299558639526367e+00
-4.492058277130126953e+00 2.992643594741821289e+00 3.273302793502807617e+00
-4.416539192199707031e+00 2.855282306671142578e+00 3.358992338180541992e+00
-4.391770362854003906e+00 2.990275144577026367e+00 3.365001916885375977e+00
-3.560433626174926758e+00 3.885503053665161133e+00 5.814384222030639648e-01
-3.556981086730957031e+00 3.979549646377563477e+00 5.782155394554138184e-01
-3.459751129150390625e+00 3.890254974365234375e+00 5.841695666313171387e-01
-3.454323530197143555e+00 3.986570358276367188e+00 5.834471583366394043e-01
-5.628736972808837891e+00 -7.117894649505615234e+00 3.303263902664184570e+00
-5.692822456359863281e+00 -7.088948249816894531e+00 3.371440887451171875e+00
-5.547111988067626953e+00 -7.134609222412109375e+00 3.338799715042114258e+00
-5.598934650421142578e+00 -7.095985412597656250e+00 3.410895109176635742e+00
-1.482809185981750488e+00 4.675946235656738281e+00 1.525909900665283203e+00
-1.471917867660522461e+00 4.785654544830322266e+00 1.475968480110168457e+00
-1.468335151672363281e+00 4.669720649719238281e+00 1.645597457885742188e+00
-1.452472567558288574e+00 4.778398990631103516e+00 1.603358268737792969e+00
-2.584184408187866211e+00 2.359462738037109375e+00 5.525491833686828613e-01
-2.569612264633178711e+00 2.440384387969970703e+00 5.473827719688415527e-01
-2.523787260055541992e+00 2.394225835800170898e+00 5.961186289787292480e-01
-2.501807689666748047e+00 2.467514753341674805e+00 5.860459804534912109e-01
-2.453931570053100586e+00 4.072769641876220703e+00 5.362277626991271973e-01
-2.516361713409423828e+00 4.139160633087158203e+00 5.902293324470520020e-01
-2.372301340103149414e+00 4.107575416564941406e+00 5.409214496612548828e-01
-2.433618068695068359e+00 4.174847602844238281e+00 5.924594402313232422e-01
-5.656788349151611328e+00 -2.495987415313720703e+00 7.636957615613937378e-02
-5.646948337554931641e+00 -2.407009601593017578e+00 9.679396450519561768e-02
-5.651781082153320312e+00 -2.463638305664062500e+00 1.478101909160614014e-01
-5.639021873474121094e+00 -2.377160310745239258e+00 1.699649393558502197e-01
-5.126531124114990234e+00 -4.065923213958740234e+00 1.699096709489822388e-01
-5.137971401214599609e+00 -3.936605215072631836e+00 1.535129398107528687e-01
-4.985867500305175781e+00 -4.080596446990966797e+00 1.648806780576705933e-01
-4.994670867919921875e+00 -3.955158233642578125e+00 1.464148312807083130e-01
-3.048396348953247070e+00 -1.672667980194091797e+00 1.559211492538452148e+00
-3.021488189697265625e+00 -1.567434549331665039e+00 1.561523675918579102e+00
-3.043653011322021484e+00 -1.647197127342224121e+00 1.675854206085205078e+00
-3.020327806472778320e+00 -1.546854257583618164e+00 1.678410530090332031e+00
-3.907843589782714844e+00 5.589668273925781250e+00 3.179531574249267578e+00
-3.904447317123413086e+00 5.709205627441406250e+00 3.166118860244750977e+00
-3.850715875625610352e+00 5.600464820861816406e+00 3.268586635589599609e+00
-3.847455739974975586e+00 5.717720508575439453e+00 3.255515098571777344e+00
-4.503699302673339844e+00 -6.974300861358642578e+00 4.667943418025970459e-01
-4.465754985809326172e+00 -6.878163814544677734e+00 4.185266792774200439e-01
-4.483299732208251953e+00 -6.958489894866943359e+00 5.656408667564392090e-01
-4.446592330932617188e+00 -6.861879825592041016e+00 5.177158117294311523e-01
-3.910893440246582031e+00 5.630530834197998047e+00 2.922432899475097656e+00
-3.901606798171997070e+00 5.751495361328125000e+00 2.918254137039184570e+00
-3.875796556472778320e+00 5.655474662780761719e+00 2.998307943344116211e+00
-3.866636037826538086e+00 5.779234886169433594e+00 2.989211797714233398e+00
-3.127132177352905273e+00 2.237211465835571289e+00 5.799810886383056641e-01
-3.126883983612060547e+00 2.334611177444458008e+00 5.804968476295471191e-01
-3.047841787338256836e+00 2.244635343551635742e+00 5.737787485122680664e-01
-3.045067071914672852e+00 2.339923620223999023e+00 5.739574432373046875e-01
-5.004684925079345703e+00 1.152516126632690430e+00 1.356028914451599121e+00
-4.981588840484619141e+00 1.244311213493347168e+00 1.376853227615356445e+00
-4.988999366760253906e+00 1.182068586349487305e+00 1.458615779876708984e+00
-4.967384338378906250e+00 1.269232273101806641e+00 1.480025529861450195e+00
-5.233624458312988281e+00 -7.006230354309082031e+00 5.595483779907226562e-01
-5.252424240112304688e+00 -6.941783428192138672e+00 5.786784291267395020e-01
-5.136816501617431641e+00 -6.995709896087646484e+00 5.911741256713867188e-01
-5.130053043365478516e+00 -6.933804512023925781e+00 6.006458997726440430e-01
-3.559313535690307617e+00 3.862153053283691406e+00 5.807411670684814453e-01
-3.560747861862182617e+00 3.954906225204467773e+00 5.783489942550659180e-01
-3.457308769226074219e+00 3.861823558807373047e+00 5.829865932464599609e-01
-3.454817056655883789e+00 3.956639766693115234e+00 5.831333398818969727e-01
-2.936730384826660156e+00 -9.196382164955139160e-01 6.273409724235534668e-01
-2.907916784286499023e+00 -7.938033938407897949e-01 6.189633011817932129e-01
-2.915106058120727539e+00 -9.251094460487365723e-01 7.157515287399291992e-01
-2.882883071899414062e+00 -8.032271862030029297e-01 7.067167162895202637e-01
-1.689503073692321777e+00 5.493009090423583984e+00 5.650944113731384277e-01
-1.686857700347900391e+00 5.609498023986816406e+00 5.573798418045043945e-01
-1.665740013122558594e+00 5.483835220336914062e+00 6.352122426033020020e-01
-1.657932400703430176e+00 5.596304893493652344e+00 6.273744702339172363e-01
-2.136369705200195312e+00 4.158419609069824219e+00 5.457276701927185059e-01
-2.175024747848510742e+00 4.235474586486816406e+00 5.761211514472961426e-01
-2.055288314819335938e+00 4.160913944244384766e+00 5.598607063293457031e-01
-2.061109781265258789e+00 4.244943141937255859e+00 5.649237036705017090e-01
-5.071522235870361328e+00 -4.630974769592285156e+00 5.143796205520629883e-01
-5.079790115356445312e+00 -4.562206268310546875e+00 5.074934959411621094e-01
-4.971885681152343750e+00 -4.645834922790527344e+00 5.038347840309143066e-01
-4.979133129119873047e+00 -4.574872970581054688e+00 4.965438544750213623e-01
-3.422111511230468750e+00 -1.786036491394042969e+00 3.001820743083953857e-01
-3.402003526687622070e+00 -1.670074701309204102e+00 3.140755891799926758e-01
-3.338459253311157227e+00 -1.749494791030883789e+00 3.503305912017822266e-01
-3.317071199417114258e+00 -1.638873577117919922e+00 3.574207127094268799e-01
-3.565462589263916016e+00 -9.719420075416564941e-01 3.613748788833618164e+00
-3.565566539764404297e+00 -8.311343193054199219e-01 3.624773263931274414e+00
-3.455080986022949219e+00 -9.484440088272094727e-01 3.579653978347778320e+00
-3.450659751892089844e+00 -8.062958121299743652e-01 3.596213102340698242e+00
-4.209758758544921875e+00 4.413515567779541016e+00 8.496040105819702148e-01
-4.195100307464599609e+00 4.549150466918945312e+00 8.657595515251159668e-01
-4.225064277648925781e+00 4.437221050262451172e+00 9.374961256980895996e-01
-4.206736564636230469e+00 4.578005313873291016e+00 9.551227092742919922e-01
-3.043324708938598633e+00 2.994228363037109375e+00 5.718477368354797363e-01
-3.038622140884399414e+00 3.112270355224609375e+00 5.783723592758178711e-01
-2.925968647003173828e+00 3.005205869674682617e+00 5.778462290763854980e-01
-2.925220489501953125e+00 3.132232666015625000e+00 5.871416330337524414e-01
-2.266662120819091797e+00 3.505544424057006836e+00 5.239798426628112793e-01
-2.248781919479370117e+00 3.609243869781494141e+00 5.406502485275268555e-01
-2.202946424484252930e+00 3.506373882293701172e+00 5.875602960586547852e-01
-2.185847997665405273e+00 3.609954833984375000e+00 6.042354702949523926e-01
-2.012332201004028320e+00 3.812755107879638672e+00 3.028229176998138428e-01
-1.958261132240295410e+00 3.908815622329711914e+00 2.769957184791564941e-01
-1.981173992156982422e+00 3.885944128036499023e+00 3.622044026851654053e-01
-1.930641531944274902e+00 3.979827642440795898e+00 3.362090289592742920e-01
-6.835170745849609375e+00 -6.178957939147949219e+00 3.667826354503631592e-01
-6.808914184570312500e+00 -6.065579414367675781e+00 3.676981925964355469e-01
-6.845234870910644531e+00 -6.181977748870849609e+00 4.681926965713500977e-01
-6.818498611450195312e+00 -6.071915626525878906e+00 4.720361530780792236e-01
-3.259528398513793945e+00 -2.665885210037231445e+00 3.000633955001831055e+00
-3.262102603912353516e+00 -2.545062780380249023e+00 3.001305580139160156e+00
-3.297415256500244141e+00 -2.625739097595214844e+00 3.098171949386596680e+00
-3.302277326583862305e+00 -2.505261182785034180e+00 3.103715658187866211e+00
-3.927630901336669922e+00 -5.245896339416503906e+00 1.171842336654663086e+00
-3.895947217941284180e+00 -5.140278816223144531e+00 1.177163720130920410e+00
-3.913182258605957031e+00 -5.192641735076904297e+00 1.285309672355651855e+00
-3.883228540420532227e+00 -5.084734916687011719e+00 1.289282083511352539e+00
-1.893117189407348633e+00 3.187959909439086914e+00 1.893042087554931641e+00
-1.851678490638732910e+00 3.302398920059204102e+00 1.909955620765686035e+00
-1.889849543571472168e+00 3.241641044616699219e+00 2.008562564849853516e+00
-1.849374413490295410e+00 3.355309486389160156e+00 2.026201963424682617e+00
-3.103375911712646484e+00 3.076733112335205078e+00 3.714395761489868164e+00
-3.102291107177734375e+00 3.197650671005249023e+00 3.713284254074096680e+00
-2.957435607910156250e+00 3.083892583847045898e+00 3.706847429275512695e+00
-2.959809541702270508e+00 3.202899694442749023e+00 3.706570148468017578e+00
-4.978643417358398438e+00 -3.496135234832763672e+00 5.886024832725524902e-01
-4.956982612609863281e+00 -3.406280994415283203e+00 5.839105844497680664e-01
-4.872954845428466797e+00 -3.470812559127807617e+00 5.852791666984558105e-01
-4.853912830352783203e+00 -3.382412195205688477e+00 5.828336477279663086e-01
-4.467744827270507812e+00 3.558938264846801758e+00 3.090640783309936523e+00
-4.445979595184326172e+00 3.645476579666137695e+00 3.069754362106323242e+00
-4.430833816528320312e+00 3.556117773056030273e+00 3.183309316635131836e+00
-4.409715175628662109e+00 3.644111394882202148e+00 3.163854122161865234e+00
-2.777469158172607422e+00 1.483021378517150879e-01 3.669202327728271484e-01
-2.754615545272827148e+00 2.676206231117248535e-01 3.672054111957550049e-01
-2.709148645401000977e+00 1.568475663661956787e-01 4.192014038562774658e-01
-2.685768127441406250e+00 2.720656096935272217e-01 4.215814471244812012e-01
-4.722253322601318359e+00 2.372117280960083008e+00 1.332233786582946777e+00
-4.680701255798339844e+00 2.491178035736083984e+00 1.340816736221313477e+00
-4.723439216613769531e+00 2.402015686035156250e+00 1.459604859352111816e+00
-4.679585456848144531e+00 2.522325992584228516e+00 1.467246651649475098e+00
-4.263999462127685547e+00 -6.284224987030029297e+00 2.126236915588378906e+00
-4.218716621398925781e+00 -6.152822494506835938e+00 2.119004487991333008e+00
-4.265142917633056641e+00 -6.269757747650146484e+00 2.243260860443115234e+00
-4.216753482818603516e+00 -6.143510818481445312e+00 2.238509893417358398e+00
-4.183925151824951172e+00 4.270118713378906250e+00 2.233066320419311523e+00
-4.145191192626953125e+00 4.377969264984130859e+00 2.250552654266357422e+00
-4.186399459838867188e+00 4.295394420623779297e+00 2.343865394592285156e+00
-4.151815414428710938e+00 4.395705699920654297e+00 2.366325139999389648e+00
-4.040227413177490234e+00 -1.297564268112182617e+00 3.738570928573608398e+00
-4.046013355255126953e+00 -1.186282753944396973e+00 3.739625930786132812e+00
-3.920346736907958984e+00 -1.287430524826049805e+00 3.751321554183959961e+00
-3.927288055419921875e+00 -1.175907969474792480e+00 3.753422737121582031e+00
-6.740380287170410156e+00 -5.923669815063476562e+00 3.589040040969848633e-01
-6.709651947021484375e+00 -5.827903747558593750e+00 3.611360788345336914e-01
-6.718218326568603516e+00 -5.918776035308837891e+00 4.550152420997619629e-01
-6.685224056243896484e+00 -5.825768470764160156e+00 4.552684426307678223e-01
-1.391100287437438965e+00 5.292710781097412109e+00 5.011976361274719238e-01
-1.366379022598266602e+00 5.397774219512939453e+00 4.984601140022277832e-01
-1.397279739379882812e+00 5.306190967559814453e+00 5.997563600540161133e-01
-1.374552130699157715e+00 5.414666175842285156e+00 5.999675393104553223e-01
-5.490516662597656250e+00 -3.281579017639160156e+00 1.672771722078323364e-01
-5.493570327758789062e+00 -3.161833286285400391e+00 1.730334460735321045e-01
-5.400413990020751953e+00 -3.284173488616943359e+00 1.618255227804183960e-01
-5.405639171600341797e+00 -3.165160179138183594e+00 1.687092930078506470e-01
-4.605625629425048828e+00 1.756282925605773926e+00 5.048408508300781250e-01
-4.628048419952392578e+00 1.846191883087158203e+00 5.205583572387695312e-01
-4.535667419433593750e+00 1.768219113349914551e+00 5.513700842857360840e-01
-4.555169105529785156e+00 1.861570000648498535e+00 5.621568560600280762e-01
-5.649309635162353516e+00 -1.657282352447509766e+00 3.516386747360229492e-01
-5.640387058258056641e+00 -1.525796890258789062e+00 3.630229830741882324e-01
-5.605978012084960938e+00 -1.674217700958251953e+00 4.255520701408386230e-01
-5.600172519683837891e+00 -1.542158126831054688e+00 4.374087154865264893e-01
-2.989757537841796875e+00 -1.312268853187561035e+00 2.319594621658325195e+00
-2.961429357528686523e+00 -1.186840772628784180e+00 2.298940420150756836e+00
-2.989437580108642578e+00 -1.273308992385864258e+00 2.430482864379882812e+00
-2.960487127304077148e+00 -1.156164526939392090e+00 2.435203552246093750e+00
-1.354989409446716309e+00 6.314928054809570312e+00 9.933369159698486328e-01
-1.439079999923706055e+00 6.363976001739501953e+00 1.063017249107360840e+00
-1.298336625099182129e+00 6.295455932617187500e+00 1.072973370552062988e+00
-1.390091061592102051e+00 6.348044395446777344e+00 1.136247515678405762e+00
-1.992520332336425781e+00 5.246915340423583984e+00 3.575561523437500000e+00
-1.983619928359985352e+00 5.386620044708251953e+00 3.612601518630981445e+00
-1.844797730445861816e+00 5.278158187866210938e+00 3.547778129577636719e+00
-1.831972599029541016e+00 5.420650005340576172e+00 3.583441495895385742e+00
-4.609985351562500000e+00 2.802678585052490234e+00 9.577223658561706543e-01
-4.579194545745849609e+00 2.913159370422363281e+00 9.595038294792175293e-01
-4.611893177032470703e+00 2.828651189804077148e+00 1.064777016639709473e+00
-4.578925132751464844e+00 2.942126274108886719e+00 1.069870948791503906e+00
-3.740129232406616211e+00 1.023200273513793945e+00 3.723049402236938477e+00
-3.742795228958129883e+00 1.145928859710693359e+00 3.715215921401977539e+00
-3.634195089340209961e+00 1.008714079856872559e+00 3.719016313552856445e+00
-3.634837865829467773e+00 1.131631851196289062e+00 3.709450244903564453e+00
-3.096049785614013672e+00 4.579913616180419922e+00 5.722125768661499023e-01
-3.103238582611083984e+00 4.693740367889404297e+00 5.856535434722900391e-01
-2.977167844772338867e+00 4.589149951934814453e+00 5.706579089164733887e-01
-2.976258039474487305e+00 4.703516960144042969e+00 5.859915018081665039e-01
-6.444255828857421875e+00 -4.800047874450683594e+00 1.725357770919799805e+00
-6.415801525115966797e+00 -4.681761264801025391e+00 1.740091562271118164e+00
-6.432683467864990234e+00 -4.754988193511962891e+00 1.866900920867919922e+00
-6.403800487518310547e+00 -4.635529994964599609e+00 1.879683494567871094e+00
-4.095457553863525391e+00 -5.880971908569335938e+00 9.890600442886352539e-01
-4.059880733489990234e+00 -5.728682994842529297e+00 9.564849138259887695e-01
-4.069336414337158203e+00 -5.820962905883789062e+00 1.055144667625427246e+00
-4.032551765441894531e+00 -5.673067092895507812e+00 1.031434535980224609e+00
-5.579314231872558594e+00 -1.040148258209228516e+00 1.791358232498168945e+00
-5.531433105468750000e+00 -8.955168724060058594e-01 1.809191107749938965e+00
-5.536155223846435547e+00 -9.465394020080566406e-01 1.927831292152404785e+00
-5.504188060760498047e+00 -8.160959482192993164e-01 1.937479257583618164e+00
-4.634671688079833984e+00 7.834491729736328125e-01 2.253796905279159546e-01
-4.690969467163085938e+00 8.520815968513488770e-01 2.722435295581817627e-01
-4.518144130706787109e+00 7.850112318992614746e-01 2.728965282440185547e-01
-4.570873260498046875e+00 8.538358807563781738e-01 3.210648298263549805e-01
-3.341511726379394531e+00 -2.936456203460693359e+00 2.272530078887939453e+00
-3.319427728652954102e+00 -2.824935436248779297e+00 2.282656908035278320e+00
-3.339226007461547852e+00 -2.904688358306884766e+00 2.348678350448608398e+00
-3.319241285324096680e+00 -2.794160842895507812e+00 2.354057312011718750e+00
-3.323361873626708984e+00 -8.668899536132812500e-01 5.605756044387817383e-01
-3.337714672088623047e+00 -7.150364518165588379e-01 5.606064200401306152e-01
-3.251147985458374023e+00 -8.630400300025939941e-01 6.027894616127014160e-01
-3.264327049255371094e+00 -7.146607637405395508e-01 6.003859043121337891e-01
-2.543855190277099609e+00 6.792336940765380859e+00 7.284542918205261230e-01
-2.625526428222656250e+00 6.799204826354980469e+00 8.007657527923583984e-01
-2.458020925521850586e+00 6.791110515594482422e+00 8.084316253662109375e-01
-2.538294076919555664e+00 6.797244548797607422e+00 8.779756426811218262e-01
-3.964766979217529297e+00 5.373436927795410156e+00 2.268448591232299805e+00
-3.930556535720825195e+00 5.496864318847656250e+00 2.254414558410644531e+00
-3.959835052490234375e+00 5.383532524108886719e+00 2.379113912582397461e+00
-3.928938388824462891e+00 5.489438056945800781e+00 2.371695041656494141e+00
-4.899715900421142578e+00 -3.022475957870483398e+00 3.705872297286987305e+00
-4.885509490966796875e+00 -2.928345441818237305e+00 3.714094638824462891e+00
-4.795007705688476562e+00 -2.995346784591674805e+00 3.716523408889770508e+00
-4.780737876892089844e+00 -2.908093690872192383e+00 3.723785877227783203e+00
-6.805961132049560547e+00 -6.568165779113769531e+00 2.516793489456176758e+00
-6.874958038330078125e+00 -6.514357566833496094e+00 2.554035425186157227e+00
-6.810876369476318359e+00 -6.599008560180664062e+00 2.597665786743164062e+00
-6.881194114685058594e+00 -6.544646739959716797e+00 2.634666681289672852e+00
-6.102125167846679688e+00 -7.030342102050781250e+00 1.943293452262878418e+00
-6.199561119079589844e+00 -6.995192050933837891e+00 1.983623743057250977e+00
-5.999128818511962891e+00 -7.052002906799316406e+00 2.018800020217895508e+00
-6.093890190124511719e+00 -7.014753341674804688e+00 2.059403181076049805e+00
-3.590853452682495117e+00 2.873486280441284180e+00 5.819911956787109375e-01
-3.578395128250122070e+00 2.962914943695068359e+00 5.805695652961730957e-01
-3.486987829208374023e+00 2.888020038604736328e+00 5.825058221817016602e-01
-3.472998142242431641e+00 2.979852437973022461e+00 5.827710032463073730e-01
-5.021543502807617188e+00 -7.415616512298583984e-01 2.544026970863342285e-01
-5.001149177551269531e+00 -6.228094696998596191e-01 2.343938201665878296e-01
-4.904297828674316406e+00 -7.597152590751647949e-01 2.963269650936126709e-01
-4.874986648559570312e+00 -6.397299766540527344e-01 2.705477774143218994e-01
-5.592706203460693359e+00 -3.697879314422607422e+00 3.699517726898193359e+00
-5.584004402160644531e+00 -3.612634181976318359e+00 3.693430900573730469e+00
-5.500610828399658203e+00 -3.675906896591186523e+00 3.744331359863281250e+00
-5.491223812103271484e+00 -3.592549562454223633e+00 3.742186784744262695e+00
-3.047964572906494141e+00 8.438831567764282227e-02 3.502135753631591797e+00
-3.046221971511840820e+00 2.218301296234130859e-01 3.514316797256469727e+00
-2.985900163650512695e+00 1.394602954387664795e-01 3.487781524658203125e+00
-2.982517480850219727e+00 2.777384519577026367e-01 3.498930931091308594e+00
-1.328709125518798828e+00 6.251279830932617188e+00 1.756596446037292480e+00
-1.410143733024597168e+00 6.294422626495361328e+00 1.769233822822570801e+00
-1.269825220108032227e+00 6.219888210296630859e+00 1.817280530929565430e+00
-1.347668647766113281e+00 6.264267444610595703e+00 1.833972215652465820e+00
-4.995862483978271484e+00 -4.394817352294921875e+00 3.777000188827514648e+00
-4.988057613372802734e+00 -4.294810771942138672e+00 3.782135009765625000e+00
-4.907747268676757812e+00 -4.369996070861816406e+00 3.769302845001220703e+00
-4.898825645446777344e+00 -4.269433021545410156e+00 3.774362564086914062e+00
-1.239401221275329590e+00 5.790842056274414062e+00 1.531757831573486328e+00
-1.239076733589172363e+00 5.910962581634521484e+00 1.523767113685607910e+00
-1.224417209625244141e+00 5.784281253814697266e+00 1.640651226043701172e+00
-1.224820733070373535e+00 5.908602237701416016e+00 1.631671667098999023e+00
-5.002710819244384766e+00 -7.657110691070556641e-01 2.603760957717895508e-01
-4.966374874114990234e+00 -6.462976932525634766e-01 2.360263019800186157e-01
-4.893480300903320312e+00 -7.708112597465515137e-01 2.966973185539245605e-01
-4.864169120788574219e+00 -6.508259773254394531e-01 2.709181308746337891e-01
-1.185081958770751953e+00 5.681787014007568359e+00 2.665696382522583008e+00
-1.163163900375366211e+00 5.802769184112548828e+00 2.683220624923706055e+00
-1.199948191642761230e+00 5.740673065185546875e+00 2.789598703384399414e+00
-1.175940155982971191e+00 5.863862037658691406e+00 2.806828737258911133e+00
-2.520426750183105469e+00 6.800726890563964844e+00 1.571945071220397949e+00
-2.609888076782226562e+00 6.800405502319335938e+00 1.639429330825805664e+00
-2.435351371765136719e+00 6.789194583892822266e+00 1.663614034652709961e+00
-2.536040544509887695e+00 6.795009136199951172e+00 1.727228045463562012e+00
-4.847852706909179688e+00 -7.612129449844360352e-01 2.594507634639739990e-01
-4.816016674041748047e+00 -6.386382579803466797e-01 2.342964708805084229e-01
-4.731783866882324219e+00 -7.594688534736633301e-01 3.069066107273101807e-01
-4.704751491546630859e+00 -6.389142870903015137e-01 2.825929820537567139e-01
-4.930426120758056641e+00 -7.247231006622314453e+00 1.681282520294189453e+00
-5.017242908477783203e+00 -7.238959789276123047e+00 1.823415040969848633e+00
-4.863712787628173828e+00 -7.210702419281005859e+00 1.783727288246154785e+00
-4.946493625640869141e+00 -7.201627254486083984e+00 1.923948764801025391e+00
-4.226227283477783203e+00 -4.580184936523437500e+00 1.497832387685775757e-01
-4.236265182495117188e+00 -4.504042148590087891e+00 1.545085757970809937e-01
-4.165256500244140625e+00 -4.575774192810058594e+00 1.683720052242279053e-01
-4.175664901733398438e+00 -4.499014377593994141e+00 1.758406013250350952e-01
-2.326477766036987305e+00 5.674469470977783203e+00 5.888544917106628418e-01
-2.343778371810913086e+00 5.808801174163818359e+00 5.886511802673339844e-01
-2.175460577011108398e+00 5.659005165100097656e+00 5.858535766601562500e-01
-2.196644306182861328e+00 5.796128273010253906e+00 5.847219228744506836e-01
-4.976055145263671875e+00 1.302916288375854492e+00 2.690218210220336914e+00
-4.942917823791503906e+00 1.432294368743896484e+00 2.702232599258422852e+00
-4.972480297088623047e+00 1.385515570640563965e+00 2.838158130645751953e+00
-4.944143295288085938e+00 1.507157802581787109e+00 2.851035833358764648e+00
-1.797275185585021973e+00 3.718819856643676758e+00 2.328717231750488281e+00
-1.768820881843566895e+00 3.842128038406372070e+00 2.348208904266357422e+00
-1.780461907386779785e+00 3.762544155120849609e+00 2.474191427230834961e+00
-1.747393608093261719e+00 3.878435373306274414e+00 2.493721008300781250e+00
-4.417241573333740234e+00 1.099498629570007324e+00 3.971279859542846680e-01
-4.500877857208251953e+00 1.169172167778015137e+00 4.370095133781433105e-01
-4.287655353546142578e+00 1.086894035339355469e+00 3.932154774665832520e-01
-4.381763458251953125e+00 1.150990962982177734e+00 4.324874579906463623e-01
-1.463979482650756836e+00 4.806590080261230469e+00 1.491769790649414062e+00
-1.449889063835144043e+00 4.919310569763183594e+00 1.449572443962097168e+00
-1.444878578186035156e+00 4.800190448760986328e+00 1.622574210166931152e+00
-1.429375886917114258e+00 4.914836406707763672e+00 1.586058497428894043e+00
-3.687448501586914062e+00 -4.285019397735595703e+00 2.941701650619506836e+00
-3.661625862121582031e+00 -4.188842296600341797e+00 2.946853160858154297e+00
-3.705819368362426758e+00 -4.271464824676513672e+00 3.036402463912963867e+00
-3.678871393203735352e+00 -4.178073406219482422e+00 3.043273687362670898e+00
-5.592700958251953125e+00 -2.122083902359008789e+00 4.158356189727783203e-01
-5.565145969390869141e+00 -2.031845331192016602e+00 4.277797639369964600e-01
-5.562834262847900391e+00 -2.097915410995483398e+00 5.019896030426025391e-01
-5.539661407470703125e+00 -2.005057573318481445e+00 5.083785057067871094e-01
-3.377649307250976562e+00 1.610153436660766602e+00 3.708541870117187500e+00
-3.392892599105834961e+00 1.744715452194213867e+00 3.712128639221191406e+00
-3.250191211700439453e+00 1.598461270332336426e+00 3.706443548202514648e+00
-3.263314247131347656e+00 1.732109546661376953e+00 3.713393926620483398e+00
-4.300702095031738281e+00 2.513517439365386963e-01 5.768419504165649414e-01
-4.301104545593261719e+00 3.798569142818450928e-01 5.760922431945800781e-01
-4.188807964324951172e+00 2.387213855981826782e-01 5.821318626403808594e-01
-4.194118976593017578e+00 3.616004586219787598e-01 5.785501599311828613e-01
-3.477044820785522461e+00 -2.082288265228271484e-01 5.813798308372497559e-01
-3.497263669967651367e+00 -6.900449842214584351e-02 5.826689600944519043e-01
-3.364305973052978516e+00 -1.988091468811035156e-01 5.854526162147521973e-01
-3.387564182281494141e+00 -6.520218402147293091e-02 5.853188633918762207e-01
-4.976015090942382812e+00 1.545869946479797363e+00 4.108303785324096680e-01
-4.942774295806884766e+00 1.647227525711059570e+00 4.041008353233337402e-01
-4.887821197509765625e+00 1.594931244850158691e+00 4.352563619613647461e-01
-4.859559059143066406e+00 1.695008635520935059e+00 4.326331317424774170e-01
-1.299838304519653320e+00 5.652314662933349609e+00 1.133474469184875488e+00
-1.290964961051940918e+00 5.764274597167968750e+00 1.132235527038574219e+00
-1.292637944221496582e+00 5.632747650146484375e+00 1.267244815826416016e+00
-1.288161635398864746e+00 5.755085468292236328e+00 1.264521002769470215e+00
-4.388033390045166016e+00 3.517556905746459961e+00 2.574264526367187500e+00
-4.354113578796386719e+00 3.640616416931152344e+00 2.535961151123046875e+00
-4.387928485870361328e+00 3.535487890243530273e+00 2.681713819503784180e+00
-4.356829643249511719e+00 3.650198698043823242e+00 2.646822214126586914e+00
-4.271173000335693359e+00 4.158214569091796875e+00 1.235321760177612305e+00
-4.225010395050048828e+00 4.312368869781494141e+00 1.260115861892700195e+00
-4.258290767669677734e+00 4.252436161041259766e+00 1.348328709602355957e+00
-4.212304115295410156e+00 4.407822132110595703e+00 1.371517419815063477e+00
-5.241431713104248047e+00 -1.954600214958190918e+00 3.579791069030761719e+00
-5.247843742370605469e+00 -1.875812649726867676e+00 3.579046487808227539e+00
-5.168393611907958984e+00 -1.966689944267272949e+00 3.629972696304321289e+00
-5.172249317169189453e+00 -1.884281873703002930e+00 3.627721786499023438e+00
-2.811154842376708984e+00 2.019923448562622070e+00 3.664762735366821289e+00
-2.819296360015869141e+00 2.123519420623779297e+00 3.690966129302978516e+00
-2.703687667846679688e+00 2.057262897491455078e+00 3.618191480636596680e+00
-2.713030338287353516e+00 2.151143550872802734e+00 3.645303487777709961e+00
-5.099554061889648438e+00 8.865796923637390137e-01 3.201250314712524414e+00
-5.061216354370117188e+00 9.917806386947631836e-01 3.201571226119995117e+00
-4.993228912353515625e+00 8.763382434844970703e-01 3.296926736831665039e+00
-4.961905002593994141e+00 9.736112356185913086e-01 3.288512229919433594e+00
-5.714234828948974609e+00 -7.015275955200195312e+00 3.403175115585327148e+00
-5.752916812896728516e+00 -6.958137989044189453e+00 3.477225303649902344e+00
-5.624030113220214844e+00 -7.013846397399902344e+00 3.438244581222534180e+00
-5.659192562103271484e+00 -6.953135013580322266e+00 3.516451597213745117e+00
-6.087138652801513672e+00 -2.995031356811523438e+00 2.983534574508666992e+00
-6.065711498260498047e+00 -2.868060350418090820e+00 2.991482496261596680e+00
-6.037739753723144531e+00 -3.020746707916259766e+00 3.116382122039794922e+00
-6.024999141693115234e+00 -2.890955448150634766e+00 3.105863332748413086e+00
-1.735199451446533203e+00 6.175405502319335938e+00 3.519533634185791016e+00
-1.704658389091491699e+00 6.263368606567382812e+00 3.479052543640136719e+00
-1.658394455909729004e+00 6.131240844726562500e+00 3.521688938140869141e+00
-1.626646399497985840e+00 6.219340324401855469e+00 3.482305526733398438e+00
-4.941965579986572266e+00 -2.356352806091308594e+00 5.444548726081848145e-01
-4.931603431701660156e+00 -2.238760709762573242e+00 5.269041061401367188e-01
-4.849412441253662109e+00 -2.361248493194580078e+00 5.600678920745849609e-01
-4.842333793640136719e+00 -2.245361804962158203e+00 5.441845059394836426e-01
-5.822182655334472656e+00 -3.521299839019775391e+00 5.352818965911865234e-01
-5.832367420196533203e+00 -3.415970325469970703e+00 5.413140654563903809e-01
-5.770168304443359375e+00 -3.498812913894653320e+00 5.910708308219909668e-01
-5.784950256347656250e+00 -3.394559383392333984e+00 5.965085029602050781e-01
-3.548887729644775391e+00 6.771206855773925781e+00 8.135822415351867676e-01
-3.421033859252929688e+00 6.821156501770019531e+00 7.727269530296325684e-01
-3.492402553558349609e+00 6.827983856201171875e+00 9.118014574050903320e-01
-3.345532894134521484e+00 6.866251468658447266e+00 8.657149672508239746e-01
-4.616884231567382812e+00 -6.811404705047607422e+00 4.940944612026214600e-01
-4.577927589416503906e+00 -6.706614494323730469e+00 4.599288105964660645e-01
-4.617379188537597656e+00 -6.761225700378417969e+00 6.447222232818603516e-01
-4.575118064880371094e+00 -6.655394077301025391e+00 6.212643980979919434e-01
-4.051260948181152344e+00 5.074749469757080078e+00 3.806782066822052002e-01
-4.010553836822509766e+00 5.161098957061767578e+00 3.664326965808868408e-01
-4.052951812744140625e+00 5.101979732513427734e+00 4.672383069992065430e-01
-4.016013622283935547e+00 5.191233158111572266e+00 4.544123411178588867e-01
-2.390196800231933594e+00 2.311239004135131836e+00 4.651600122451782227e-01
-2.364908456802368164e+00 2.364205598831176758e+00 4.535280466079711914e-01
-2.358536005020141602e+00 2.340249061584472656e+00 5.148546695709228516e-01
-2.335525751113891602e+00 2.393438577651977539e+00 5.047383904457092285e-01
-4.500874042510986328e+00 -6.914604663848876953e+00 5.418860316276550293e-01
-4.464878082275390625e+00 -6.821594238281250000e+00 5.011003613471984863e-01
-4.484221935272216797e+00 -6.881982803344726562e+00 6.604319214820861816e-01
-4.451951503753662109e+00 -6.787630081176757812e+00 6.278712749481201172e-01
-5.764526367187500000e+00 -2.116780996322631836e+00 1.902763247489929199e+00
-5.720357894897460938e+00 -1.980867266654968262e+00 1.902073144912719727e+00
-5.752690792083740234e+00 -2.075982570648193359e+00 2.019908428192138672e+00
-5.705060005187988281e+00 -1.940934658050537109e+00 2.033812046051025391e+00
-5.548959255218505859e+00 -6.785105228424072266e+00 3.629384279251098633e+00
-5.546834945678710938e+00 -6.669898986816406250e+00 3.684273719787597656e+00
-5.447715759277343750e+00 -6.691580295562744141e+00 3.660809516906738281e+00
-5.448919296264648438e+00 -6.565212726593017578e+00 3.705376625061035156e+00
-2.641404628753662109e+00 2.191752195358276367e+00 1.446001529693603516e-01
-2.615725994110107422e+00 2.280384302139282227e+00 1.096087992191314697e-01
-2.581350564956665039e+00 2.203746557235717773e+00 1.686035096645355225e-01
-2.552042961120605469e+00 2.287686824798583984e+00 1.359115988016128540e-01
-5.731803417205810547e+00 -1.597058534622192383e+00 1.662183046340942383e+00
-5.690057754516601562e+00 -1.485522747039794922e+00 1.708980917930603027e+00
-5.702191352844238281e+00 -1.565462231636047363e+00 1.821122765541076660e+00
-5.662394046783447266e+00 -1.455564856529235840e+00 1.876045227050781250e+00
-1.122542500495910645e+00 6.088189125061035156e+00 2.188222646713256836e+00
-1.141273856163024902e+00 6.159463405609130859e+00 2.195569515228271484e+00
-1.119955539703369141e+00 6.098724365234375000e+00 2.262706995010375977e+00
-1.135741472244262695e+00 6.172096252441406250e+00 2.268368482589721680e+00
-2.376262187957763672e+00 9.904291629791259766e-01 1.842116475105285645e+00
-2.351036787033081055e+00 1.108765006065368652e+00 1.875705480575561523e+00
-2.377458572387695312e+00 1.040589332580566406e+00 1.993533134460449219e+00
-2.351662158966064453e+00 1.154516935348510742e+00 2.023365736007690430e+00
-1.494001626968383789e+00 6.289548873901367188e+00 4.889441430568695068e-01
-1.546274900436401367e+00 6.341705799102783203e+00 5.354452729225158691e-01
-1.439401388168334961e+00 6.322665214538574219e+00 5.316478013992309570e-01
-1.499889373779296875e+00 6.364159584045410156e+00 5.800911188125610352e-01
-2.702724456787109375e+00 -4.904951900243759155e-02 1.437111973762512207e+00
-2.676092863082885742e+00 7.968844473361968994e-02 1.410147309303283691e+00
-2.701928377151489258e+00 6.693001836538314819e-03 1.537795662879943848e+00
-2.668991088867187500e+00 1.403628289699554443e-01 1.511019587516784668e+00
-3.669338464736938477e+00 -4.348063468933105469e+00 3.057851791381835938e+00
-3.644084453582763672e+00 -4.254692554473876953e+00 3.065304994583129883e+00
-3.691505193710327148e+00 -4.315320968627929688e+00 3.151596546173095703e+00
-3.663412809371948242e+00 -4.224869251251220703e+00 3.157654047012329102e+00
-3.147305250167846680e+00 -1.805117845535278320e+00 2.584070682525634766e+00
-3.120445728302001953e+00 -1.698496937751770020e+00 2.579877853393554688e+00
-3.140492677688598633e+00 -1.777441501617431641e+00 2.720458269119262695e+00
-3.113563776016235352e+00 -1.673121094703674316e+00 2.716629266738891602e+00
-2.718470096588134766e+00 3.971164226531982422e+00 3.696233510971069336e+00
-2.718723773956298828e+00 4.058917045593261719e+00 3.699271678924560547e+00
-2.637305498123168945e+00 3.984166145324707031e+00 3.693805456161499023e+00
-2.641166448593139648e+00 4.073274135589599609e+00 3.700809717178344727e+00
-5.005732059478759766e+00 -7.161285877227783203e+00 1.888199806213378906e+00
-5.091298580169677734e+00 -7.151272773742675781e+00 2.029124021530151367e+00
-4.924112319946289062e+00 -7.120274066925048828e+00 2.003265857696533203e+00
-5.010244846343994141e+00 -7.116981506347656250e+00 2.149148702621459961e+00
-5.881987094879150391e+00 -5.229272842407226562e+00 5.876588821411132812e-01
-5.901826858520507812e+00 -5.091031074523925781e+00 5.917049646377563477e-01
-5.759449005126953125e+00 -5.218490123748779297e+00 5.941801071166992188e-01
-5.785377025604248047e+00 -5.078009605407714844e+00 5.935247540473937988e-01
-6.344789981842041016e+00 -4.006024837493896484e+00 3.053935289382934570e+00
-6.307306289672851562e+00 -3.884420394897460938e+00 3.036036729812622070e+00
-6.272752761840820312e+00 -3.980474472045898438e+00 3.171385049819946289e+00
-6.235482215881347656e+00 -3.863064050674438477e+00 3.153486728668212891e+00
-3.141541481018066406e+00 4.450695037841796875e+00 3.705720186233520508e+00
-3.114902019500732422e+00 4.574833393096923828e+00 3.711466312408447266e+00
-3.022475004196166992e+00 4.475944995880126953e+00 3.707435607910156250e+00
-2.998543024063110352e+00 4.606576442718505859e+00 3.716212511062622070e+00
-3.828246593475341797e+00 -3.677974700927734375e+00 3.284791111946105957e-01
-3.800399541854858398e+00 -3.575947523117065430e+00 3.074167668819427490e-01
-3.815646886825561523e+00 -3.646420717239379883e+00 3.841016590595245361e-01
-3.788658857345581055e+00 -3.541140317916870117e+00 3.655308485031127930e-01
-4.939510345458984375e+00 -7.171880245208740234e+00 1.675779342651367188e+00
-5.025612831115722656e+00 -7.163009643554687500e+00 1.817232608795166016e+00
-4.857126235961914062e+00 -7.135157108306884766e+00 1.787402510643005371e+00
-4.940196514129638672e+00 -7.125185012817382812e+00 1.928233385086059570e+00
-6.040982723236083984e+00 -4.003168582916259766e+00 4.403806328773498535e-01
-6.023204326629638672e+00 -3.909255504608154297e+00 4.327032864093780518e-01
-6.016036510467529297e+00 -3.987944126129150391e+00 5.042196512222290039e-01
-5.999710559844970703e+00 -3.895437002182006836e+00 4.963890016078948975e-01
-2.465713977813720703e+00 3.845632791519165039e+00 3.689345598220825195e+00
-2.467099666595458984e+00 3.939843416213989258e+00 3.706364870071411133e+00
-2.376945018768310547e+00 3.878265619277954102e+00 3.665612220764160156e+00
-2.374811172485351562e+00 3.973881959915161133e+00 3.688961982727050781e+00
-6.758415222167968750e+00 -6.351343631744384766e+00 2.235660552978515625e+00
-6.768433570861816406e+00 -6.243833065032958984e+00 2.262502670288085938e+00
-6.779413223266601562e+00 -6.329496383666992188e+00 2.357943296432495117e+00
-6.792918205261230469e+00 -6.226185321807861328e+00 2.387373685836791992e+00
-4.714040279388427734e+00 2.439781904220581055e+00 2.891637563705444336e+00
-4.689567565917968750e+00 2.544772624969482422e+00 2.905174493789672852e+00
-4.688946247100830078e+00 2.501609325408935547e+00 2.996838092803955078e+00
-4.662045478820800781e+00 2.605570554733276367e+00 3.005351305007934570e+00
-2.402993202209472656e+00 2.332614421844482422e+00 4.520651400089263916e-01
-2.377762317657470703e+00 2.387248039245605469e+00 4.397631883621215820e-01
-2.371582269668579102e+00 2.362540006637573242e+00 5.011726617813110352e-01
-2.348075628280639648e+00 2.415632963180541992e+00 4.893179535865783691e-01
-1.308330416679382324e+00 6.255608081817626953e+00 3.092279195785522461e+00
-1.214959263801574707e+00 6.351623535156250000e+00 3.056406259536743164e+00
-1.265878915786743164e+00 6.301437377929687500e+00 3.191438674926757812e+00
-1.171340823173522949e+00 6.397003173828125000e+00 3.154466390609741211e+00
-1.267095565795898438e+00 5.729388236999511719e+00 1.586819410324096680e+00
-1.257849931716918945e+00 5.861347675323486328e+00 1.575799822807312012e+00
-1.274955749511718750e+00 5.727008819580078125e+00 1.713542580604553223e+00
-1.264954447746276855e+00 5.863241195678710938e+00 1.700185298919677734e+00
-2.323214292526245117e+00 6.743036270141601562e+00 3.177428483963012695e+00
-2.462906122207641602e+00 6.748530387878417969e+00 3.247592687606811523e+00
-2.228546380996704102e+00 6.705851078033447266e+00 3.275343418121337891e+00
-2.371585607528686523e+00 6.719966411590576172e+00 3.341889619827270508e+00
-5.392343997955322266e+00 -5.949202179908752441e-01 3.239815711975097656e+00
-5.385339736938476562e+00 -4.784313142299652100e-01 3.235700607299804688e+00
-5.355253219604492188e+00 -6.166052222251892090e-01 3.349133253097534180e+00
-5.343021869659423828e+00 -4.983657896518707275e-01 3.341710567474365234e+00
-4.542139530181884766e+00 2.840734243392944336e+00 2.394876956939697266e+00
-4.508283138275146484e+00 2.940817832946777344e+00 2.401928901672363281e+00
-4.540983676910400391e+00 2.901645183563232422e+00 2.485788345336914062e+00
-4.507802963256835938e+00 3.002998352050781250e+00 2.490556240081787109e+00
-6.608041763305664062e+00 -5.387248992919921875e+00 8.727368712425231934e-01
-6.582978248596191406e+00 -5.260001182556152344e+00 8.905592560768127441e-01
-6.611696720123291016e+00 -5.325269222259521484e+00 9.732406735420227051e-01
-6.590672969818115234e+00 -5.194846153259277344e+00 9.925705194473266602e-01
-2.616412639617919922e+00 6.727757453918457031e+00 2.185598134994506836e+00
-2.659478187561035156e+00 6.731664180755615234e+00 2.257659196853637695e+00
-2.539888858795166016e+00 6.734573841094970703e+00 2.258633136749267578e+00
-2.583993196487426758e+00 6.740177154541015625e+00 2.332887649536132812e+00
-5.932494640350341797e+00 -2.709092140197753906e+00 2.116730213165283203e+00
-5.881255149841308594e+00 -2.572717189788818359e+00 2.124381542205810547e+00
-5.918853759765625000e+00 -2.713791847229003906e+00 2.264562368392944336e+00
-5.866132736206054688e+00 -2.577125072479248047e+00 2.272855758666992188e+00
-3.738491058349609375e+00 6.555624961853027344e+00 3.065715730190277100e-01
-3.634600400924682617e+00 6.633472442626953125e+00 2.879205644130706787e-01
