4.089516067504882812e+01 2.454881668090820312e+01 1.051441952586174011e-02
4.142813873291015625e+01 2.423949432373046875e+01 3.515551611781120300e-02
4.148370742797851562e+01 2.465394210815429688e+01 2.721094340085983276e-02
4.220454025268554688e+01 5.565233230590820312e+01 2.331608772277832031e+00
4.252252960205078125e+01 5.591868591308593750e+01 2.184920072555541992e+00
4.245618820190429688e+01 5.581128311157226562e+01 2.705978155136108398e+00
4.272077178955078125e+01 5.604581451416015625e+01 2.523751974105834961e+00
5.940413284301757812e+01 5.250809478759765625e+01 1.080616354942321777e+00
5.917021560668945312e+01 5.292679214477539062e+01 1.078671693801879883e+00
5.957497787475585938e+01 5.242988967895507812e+01 1.389412283897399902e+00
5.932920455932617188e+01 5.289095687866210938e+01 1.356780290603637695e+00
5.536976623535156250e+01 4.697546386718750000e+01 3.867478847503662109e+00
5.547449493408203125e+01 4.748082351684570312e+01 3.866725206375122070e+00
5.594424057006835938e+01 4.706523895263671875e+01 3.910014390945434570e+00
5.602511596679687500e+01 4.762954711914062500e+01 3.918567895889282227e+00
4.415395355224609375e+01 3.029400253295898438e+01 2.469038218259811401e-02
4.414508438110351562e+01 3.068422126770019531e+01 9.879657998681068420e-03
4.468957901000976562e+01 3.032774353027343750e+01 2.816870436072349548e-02
4.468708801269531250e+01 3.070041465759277344e+01 2.021012641489505768e-02
5.383956909179687500e+01 3.677206802368164062e+01 2.965873479843139648e-02
5.397150421142578125e+01 3.724884796142578125e+01 4.591129720211029053e-03
5.438749694824218750e+01 3.696113967895507812e+01 2.281650900840759277e-02
5.445308685302734375e+01 3.741879272460937500e+01 -3.539136610925197601e-03
3.990983581542968750e+01 4.577209472656250000e+01 3.835718393325805664e+00
3.989606475830078125e+01 4.628650283813476562e+01 3.900269031524658203e+00
4.030070114135742188e+01 4.576119232177734375e+01 3.823461771011352539e+00
4.032323455810546875e+01 4.628162765502929688e+01 3.852452993392944336e+00
4.197444534301757812e+01 3.424959564208984375e+01 3.187346935272216797e+00
4.197386169433593750e+01 3.468723678588867188e+01 3.187875986099243164e+00
4.211832427978515625e+01 3.429516220092773438e+01 3.592674970626831055e+00
4.208802413940429688e+01 3.474983596801757812e+01 3.585092544555664062e+00
4.452950286865234375e+01 5.166394042968750000e+01 -2.137051708996295929e-02
4.452779006958007812e+01 5.221456146240234375e+01 3.840003907680511475e-02
4.500166320800781250e+01 5.174884796142578125e+01 -6.742216646671295166e-05
4.501653671264648438e+01 5.227129745483398438e+01 5.744786188006401062e-02
5.944826126098632812e+01 2.194514656066894531e+01 3.893093347549438477e+00
5.948466491699218750e+01 2.224451255798339844e+01 3.885499715805053711e+00
5.984330368041992188e+01 2.201357650756835938e+01 3.893530368804931641e+00
5.987717437744140625e+01 2.231895446777343750e+01 3.891947031021118164e+00
3.987155151367187500e+01 4.979244613647460938e+01 1.886764541268348694e-02
4.004911422729492188e+01 5.029332733154296875e+01 -4.023591428995132446e-02
3.993103408813476562e+01 4.998275756835937500e+01 1.376821398735046387e-01
4.012691497802734375e+01 5.048360443115234375e+01 7.730278372764587402e-02
4.022031021118164062e+01 2.964717483520507812e+01 3.904562711715698242e+00
4.016532897949218750e+01 3.002248764038085938e+01 3.875224351882934570e+00
4.080232238769531250e+01 2.956976318359375000e+01 3.919717788696289062e+00
4.075843811035156250e+01 2.994503021240234375e+01 3.891052722930908203e+00
5.566799163818359375e+01 2.861656379699707031e+01 3.906486272811889648e+00
5.573382186889648438e+01 2.912573814392089844e+01 3.873832702636718750e+00
5.608130645751953125e+01 2.872381210327148438e+01 3.889231204986572266e+00
5.616212844848632812e+01 2.922081184387207031e+01 3.868811845779418945e+00
4.879204177856445312e+01 8.370065307617187500e+01 6.046712398529052734e+00
4.878759002685546875e+01 8.412664794921875000e+01 6.042254447937011719e+00
4.914626312255859375e+01 8.354689788818359375e+01 6.240219116210937500e+00
4.909932708740234375e+01 8.397812652587890625e+01 6.259832859039306641e+00
4.078783035278320312e+01 1.955519866943359375e+01 3.927508354187011719e+00
4.065888977050781250e+01 1.990271568298339844e+01 3.954639911651611328e+00
4.107258224487304688e+01 1.958771896362304688e+01 3.939306259155273438e+00
4.101963806152343750e+01 1.994004249572753906e+01 3.973628520965576172e+00
4.964410400390625000e+01 7.930070495605468750e+01 1.877995371818542480e+00
4.971034622192382812e+01 7.972734069824218750e+01 1.968798637390136719e+00
5.000607681274414062e+01 7.941336822509765625e+01 1.974222421646118164e+00
5.006744003295898438e+01 7.984275054931640625e+01 2.065865278244018555e+00
4.219720458984375000e+01 5.360615921020507812e+01 3.896360635757446289e+00
4.233318328857421875e+01 5.396720886230468750e+01 3.884735584259033203e+00
4.271800231933593750e+01 5.371932601928710938e+01 3.902401924133300781e+00
4.287665176391601562e+01 5.407764816284179688e+01 3.887394666671752930e+00
5.539696884155273438e+01 3.499107742309570312e+01 3.794269084930419922e+00
5.523677444458007812e+01 3.538661193847656250e+01 3.865417718887329102e+00
5.575402832031250000e+01 3.493083953857421875e+01 3.855621576309204102e+00
5.553572845458984375e+01 3.527105712890625000e+01 3.949505329132080078e+00
4.774533843994140625e+01 7.202105712890625000e+01 4.186654090881347656e+00
4.779694747924804688e+01 7.258627319335937500e+01 4.214163780212402344e+00
4.797831726074218750e+01 7.189983367919921875e+01 4.635007381439208984e+00
4.799663162231445312e+01 7.246089935302734375e+01 4.671772480010986328e+00
4.925827026367187500e+01 4.150962448120117188e+01 4.812986850738525391e+00
4.916357803344726562e+01 4.199416351318359375e+01 4.819895744323730469e+00
4.977755355834960938e+01 4.148752212524414062e+01 4.819061756134033203e+00
4.967081832885742188e+01 4.196755218505859375e+01 4.849428653717041016e+00
4.490523529052734375e+01 4.130724334716796875e+01 3.870801210403442383e+00
4.498057174682617188e+01 4.179605865478515625e+01 3.937105655670166016e+00
4.552085113525390625e+01 4.147070693969726562e+01 3.923459053039550781e+00
4.560467529296875000e+01 4.195892715454101562e+01 3.984180688858032227e+00
5.204310226440429688e+01 4.768428802490234375e+01 4.006230831146240234e+00
5.185358428955078125e+01 4.817665100097656250e+01 4.166506290435791016e+00
5.239578628540039062e+01 4.774238204956054688e+01 3.871584653854370117e+00
5.225537109375000000e+01 4.821906280517578125e+01 4.002074241638183594e+00
4.249976730346679688e+01 5.589679336547851562e+01 1.467208027839660645e+00
4.289376068115234375e+01 5.611628723144531250e+01 1.371457457542419434e+00
4.272542190551757812e+01 5.606139755249023438e+01 1.832640409469604492e+00
4.312242507934570312e+01 5.626632308959960938e+01 1.737834572792053223e+00
4.399600982666015625e+01 2.661299133300781250e+01 3.906354188919067383e+00
4.402043533325195312e+01 2.717500495910644531e+01 3.923267602920532227e+00
4.457030868530273438e+01 2.679319572448730469e+01 3.939277172088623047e+00
4.457789993286132812e+01 2.734357643127441406e+01 3.950516939163208008e+00
4.491867446899414062e+01 5.037885665893554688e+01 3.950017690658569336e+00
4.496111297607421875e+01 5.086904144287109375e+01 3.916989326477050781e+00
4.536605072021484375e+01 5.039162445068359375e+01 3.872203111648559570e+00
4.540150070190429688e+01 5.087293624877929688e+01 3.846114635467529297e+00
5.350717163085937500e+01 3.994070053100585938e+01 1.735218241810798645e-02
5.349177551269531250e+01 4.044090270996093750e+01 3.787832334637641907e-02
5.398887634277343750e+01 3.995404052734375000e+01 -5.741541832685470581e-02
5.399592590332031250e+01 4.043188858032226562e+01 -5.838456004858016968e-02
5.268203735351562500e+01 4.702849578857421875e+01 3.922721147537231445e+00
5.259673309326171875e+01 4.750162124633789062e+01 4.004221439361572266e+00
5.309860992431640625e+01 4.702430343627929688e+01 3.823749780654907227e+00
5.310147094726562500e+01 4.749462127685546875e+01 3.851664066314697266e+00
6.115321350097656250e+01 3.030380630493164062e+01 3.476289987564086914e+00
6.127311325073242188e+01 3.073833274841308594e+01 3.418681859970092773e+00
6.107161712646484375e+01 3.046387672424316406e+01 3.866713523864746094e+00
6.120917892456054688e+01 3.090843391418457031e+01 3.791710138320922852e+00
5.132947921752929688e+01 4.259443283081054688e+01 6.696985661983489990e-02
5.124326705932617188e+01 4.316080856323242188e+01 5.996920913457870483e-02
5.191470718383789062e+01 4.259692382812500000e+01 1.812868379056453705e-02
5.178713226318359375e+01 4.314690017700195312e+01 2.966815419495105743e-02
4.795112991333007812e+01 6.727356719970703125e+01 4.630442619323730469e+00
4.784090423583984375e+01 6.785976409912109375e+01 4.710715293884277344e+00
4.810887527465820312e+01 6.721579742431640625e+01 4.903758049011230469e+00
4.800035095214843750e+01 6.781583404541015625e+01 4.977067947387695312e+00
5.049971771240234375e+01 5.809804916381835938e+01 4.820527076721191406e+00
5.044259262084960938e+01 5.861190032958984375e+01 4.801115036010742188e+00
5.090216064453125000e+01 5.814939117431640625e+01 4.759675502777099609e+00
5.086444854736328125e+01 5.862680053710937500e+01 4.749091625213623047e+00
6.106621932983398438e+01 3.050203132629394531e+01 3.078486919403076172e-01
6.109222412109375000e+01 3.091853523254394531e+01 4.864377677440643311e-01
6.123144149780273438e+01 3.056017684936523438e+01 6.576145291328430176e-01
6.127938461303710938e+01 3.097860908508300781e+01 7.441918849945068359e-01
4.107831954956054688e+01 3.050440788269042969e+01 3.928784608840942383e+00
4.116985321044921875e+01 3.089179611206054688e+01 3.905932426452636719e+00
4.152870178222656250e+01 3.056930351257324219e+01 3.922571420669555664e+00
4.161662292480468750e+01 3.098012733459472656e+01 3.912962436676025391e+00
5.111830139160156250e+01 7.269482421875000000e+01 4.065621376037597656e+00
5.114072799682617188e+01 7.323459625244140625e+01 4.073919296264648438e+00
5.106289291381835938e+01 7.283296203613281250e+01 4.492494583129882812e+00
5.108506393432617188e+01 7.338230895996093750e+01 4.473013401031494141e+00
4.333703613281250000e+01 1.718301773071289062e+01 6.330775260925292969e+00
4.335530471801757812e+01 1.763729667663574219e+01 6.329002857208251953e+00
4.381463241577148438e+01 1.728939628601074219e+01 6.331452369689941406e+00
4.383546447753906250e+01 1.774544906616210938e+01 6.322235584259033203e+00
5.483703994750976562e+01 4.197912216186523438e+01 3.905742406845092773e+00
5.487505340576171875e+01 4.248401641845703125e+01 3.910591840744018555e+00
5.535079193115234375e+01 4.212329101562500000e+01 3.917891502380371094e+00
5.539026260375976562e+01 4.262201309204101562e+01 3.929974317550659180e+00
4.869743347167968750e+01 8.629065704345703125e+01 3.398745298385620117e+00
4.915544509887695312e+01 8.654620361328125000e+01 3.275213718414306641e+00
4.885179138183593750e+01 8.642564392089843750e+01 3.760815382003784180e+00
4.924995422363281250e+01 8.667639160156250000e+01 3.662006139755249023e+00
5.219281768798828125e+01 4.423958206176757812e+01 3.996383666992187500e+00
5.214071273803710938e+01 4.481017303466796875e+01 4.045559406280517578e+00
5.270065307617187500e+01 4.434102249145507812e+01 3.805355787277221680e+00
5.262484359741210938e+01 4.490296554565429688e+01 3.865482091903686523e+00
4.502041625976562500e+01 4.642526626586914062e+01 1.758241653442382812e-02
4.501617050170898438e+01 4.697702789306640625e+01 -1.040137186646461487e-02
4.549318313598632812e+01 4.650937652587890625e+01 -6.754342466592788696e-03
4.548953247070312500e+01 4.705077362060546875e+01 -3.796629980206489563e-02
4.010058593750000000e+01 4.377345275878906250e+01 -1.590815931558609009e-02
4.013517761230468750e+01 4.426473236083984375e+01 -2.979100681841373444e-02
4.026548385620117188e+01 4.391543197631835938e+01 4.644145071506500244e-02
4.030396270751953125e+01 4.439982986450195312e+01 3.533602505922317505e-02
5.547892761230468750e+01 2.006157493591308594e+01 3.896772384643554688e+00
5.558786392211914062e+01 2.067311668395996094e+01 3.936108827590942383e+00
5.608781051635742188e+01 2.020241928100585938e+01 3.931323766708374023e+00
5.624190521240234375e+01 2.081925582885742188e+01 3.963203907012939453e+00
5.696814346313476562e+01 3.981496810913085938e+01 4.126132726669311523e-01
5.702673339843750000e+01 4.023482131958007812e+01 3.716762065887451172e-01
5.716515350341796875e+01 3.992167663574218750e+01 6.338716745376586914e-01
5.722193527221679688e+01 4.036146163940429688e+01 5.728704333305358887e-01
4.332946777343750000e+01 4.774779891967773438e+01 3.208394721150398254e-02
4.330133056640625000e+01 4.819508743286132812e+01 5.782244261354207993e-03
4.379397201538085938e+01 4.776700973510742188e+01 3.730386495590209961e-02
4.377293395996093750e+01 4.820413589477539062e+01 -3.607589751482009888e-04
4.714077758789062500e+01 1.612911605834960938e+01 3.824354648590087891e+00
4.697222518920898438e+01 1.648088455200195312e+01 3.789396524429321289e+00
4.744965362548828125e+01 1.599870872497558594e+01 3.880593299865722656e+00
4.728649520874023438e+01 1.635547065734863281e+01 3.845941781997680664e+00
4.889284515380859375e+01 7.617224884033203125e+01 3.296997785568237305e+00
4.893635177612304688e+01 7.649490356445312500e+01 3.248178958892822266e+00
4.917552566528320312e+01 7.615090179443359375e+01 3.439393520355224609e+00
4.921377944946289062e+01 7.647668457031250000e+01 3.390038728713989258e+00
5.369374084472656250e+01 4.232838821411132812e+01 3.901614904403686523e+00
5.372751998901367188e+01 4.288821411132812500e+01 3.933282613754272461e+00
5.422915267944335938e+01 4.245040512084960938e+01 3.888377428054809570e+00
5.428500366210937500e+01 4.301579284667968750e+01 3.913143634796142578e+00
5.080860519409179688e+01 8.181458282470703125e+01 5.420654773712158203e+00
5.048202133178710938e+01 8.208712768554687500e+01 5.761263847351074219e+00
5.089928817749023438e+01 8.209527587890625000e+01 5.755406856536865234e+00
5.056974411010742188e+01 8.236428833007812500e+01 6.090295791625976562e+00
4.029083633422851562e+01 1.943018531799316406e+01 4.240671545267105103e-02
4.026120758056640625e+01 1.987987709045410156e+01 3.999918326735496521e-02
4.076636886596679688e+01 1.947589492797851562e+01 3.594200313091278076e-02
4.071281433105468750e+01 1.991165351867675781e+01 3.269717469811439514e-02
4.469107437133789062e+01 1.562453937530517578e+01 4.598919302225112915e-03
4.464723968505859375e+01 1.612691307067871094e+01 -1.500774547457695007e-02
4.517518234252929688e+01 1.579601478576660156e+01 6.732739508152008057e-02
4.513322448730468750e+01 1.629121208190917969e+01 4.985882341861724854e-02
5.139649581909179688e+01 6.251123428344726562e+01 2.995722532272338867e+00
5.143508148193359375e+01 6.284349822998046875e+01 3.031363964080810547e+00
5.140189743041992188e+01 6.251337432861328125e+01 3.326467752456665039e+00
5.143701934814453125e+01 6.284968566894531250e+01 3.367112398147583008e+00
4.909889602661132812e+01 5.967086791992187500e+01 2.639368057250976562e+00
4.905229187011718750e+01 6.008241653442382812e+01 2.620858192443847656e+00
4.947645568847656250e+01 5.971399688720703125e+01 2.615867614746093750e+00
4.951620864868164062e+01 6.013407135009765625e+01 2.567093849182128906e+00
5.949459457397460938e+01 4.460505676269531250e+01 2.686285257339477539e+00
5.953801727294921875e+01 4.506254196166992188e+01 2.712395668029785156e+00
5.946577835083007812e+01 4.466445922851562500e+01 3.066241264343261719e+00
5.948358154296875000e+01 4.510171508789062500e+01 3.086902379989624023e+00
6.015595626831054688e+01 1.641886138916015625e+01 1.213365316390991211e+00
6.042353820800781250e+01 1.672328186035156250e+01 1.128476262092590332e+00
6.030502319335937500e+01 1.649933242797851562e+01 1.543327927589416504e+00
6.053654098510742188e+01 1.680660438537597656e+01 1.473933577537536621e+00
4.122541809082031250e+01 4.135464477539062500e+01 3.758982896804809570e+00
4.113161087036132812e+01 4.179040527343750000e+01 3.883884191513061523e+00
4.161206436157226562e+01 4.139153671264648438e+01 3.787249565124511719e+00
4.152227020263671875e+01 4.183023071289062500e+01 3.905692338943481445e+00
4.590158081054687500e+01 1.295465946197509766e+01 1.737394928932189941e-01
4.550014877319335938e+01 1.300103187561035156e+01 4.898011982440948486e-01
4.633023071289062500e+01 1.278322219848632812e+01 4.219856262207031250e-01
4.593812179565429688e+01 1.284936523437500000e+01 7.151619791984558105e-01
4.392085266113281250e+01 1.756310081481933594e+01 -2.577426470816135406e-02
4.386439132690429688e+01 1.797705268859863281e+01 -1.310741528868675232e-02
4.440127944946289062e+01 1.764335632324218750e+01 2.304729819297790527e-02
4.434782028198242188e+01 1.806719017028808594e+01 2.978302724659442902e-02
5.188212203979492188e+01 1.282252120971679688e+01 -1.547556817531585693e-01
5.230147552490234375e+01 1.300373268127441406e+01 -2.713230848312377930e-01
5.230725097656250000e+01 1.288193798065185547e+01 8.722993731498718262e-02
5.274011993408203125e+01 1.306903743743896484e+01 -2.737731300294399261e-02
5.682612991333007812e+01 5.549475479125976562e+01 1.827062010765075684e+00
5.647529983520507812e+01 5.569246673583984375e+01 1.941590189933776855e+00
5.717271423339843750e+01 5.526715087890625000e+01 2.029402732849121094e+00
5.683257675170898438e+01 5.546228790283203125e+01 2.135160684585571289e+00
5.118703460693359375e+01 2.110513877868652344e+01 9.984804317355155945e-03
5.119160079956054688e+01 2.156038284301757812e+01 -3.522838931530714035e-03
5.175980758666992188e+01 2.106838226318359375e+01 1.865959167480468750e-02
5.176561355590820312e+01 2.151879119873046875e+01 -3.292446024715900421e-03
3.679570388793945312e+01 2.496171188354492188e+01 2.198018312454223633e+00
3.694347381591796875e+01 2.552612304687500000e+01 2.322035789489746094e+00
3.684722900390625000e+01 2.508000946044921875e+01 2.649378299713134766e+00
3.700226593017578125e+01 2.563602638244628906e+01 2.768914937973022461e+00
5.514278411865234375e+01 1.561039352416992188e+01 3.947438001632690430e+00
5.526582336425781250e+01 1.613789367675781250e+01 3.918787240982055664e+00
5.559406280517578125e+01 1.572429656982421875e+01 3.900571823120117188e+00
5.575361251831054688e+01 1.625375175476074219e+01 3.870083570480346680e+00
4.058134078979492188e+01 1.606901741027832031e+01 6.276881217956542969e+00
4.057641601562500000e+01 1.654313850402832031e+01 6.337357044219970703e+00
4.094002532958984375e+01 1.620170974731445312e+01 6.294985771179199219e+00
4.094210052490234375e+01 1.667108154296875000e+01 6.354225635528564453e+00
5.052800369262695312e+01 1.798754882812500000e+01 4.020952701568603516e+00
5.034926223754882812e+01 1.843338203430175781e+01 4.146547317504882812e+00
5.095831298828125000e+01 1.817338752746582031e+01 3.865606069564819336e+00
5.085229110717773438e+01 1.864784049987792969e+01 3.934262990951538086e+00
5.247951507568359375e+01 3.901122283935546875e+01 6.847483105957508087e-03
5.243597412109375000e+01 3.950119018554687500e+01 2.917086891829967499e-02
5.291691589355468750e+01 3.900183868408203125e+01 -6.744262762367725372e-03
5.288919830322265625e+01 3.948775863647460938e+01 1.676180399954319000e-02
4.500506973266601562e+01 3.048648834228515625e+01 9.963128715753555298e-03
4.501491165161132812e+01 3.085863685607910156e+01 2.509408630430698395e-03
4.548049926757812500e+01 3.051654434204101562e+01 1.309146918356418610e-02
4.549292755126953125e+01 3.088505172729492188e+01 2.464120276272296906e-03
5.778342056274414062e+01 3.095122909545898438e+01 -3.307722508907318115e-02
5.773955154418945312e+01 3.132737350463867188e+01 8.046101778745651245e-03
5.814173507690429688e+01 3.100260925292968750e+01 2.574657276272773743e-02
5.807623291015625000e+01 3.136401748657226562e+01 7.753366231918334961e-02
3.987334823608398438e+01 1.852133750915527344e+01 7.468400895595550537e-02
3.987869262695312500e+01 1.899897384643554688e+01 6.827101856470108032e-02
4.033605194091796875e+01 1.860812377929687500e+01 5.378392711281776428e-02
4.031188201904296875e+01 1.907726478576660156e+01 5.617457628250122070e-02
5.568992614746093750e+01 2.037869071960449219e+01 3.018666803836822510e-02
5.562897872924804688e+01 2.093237686157226562e+01 3.137736767530441284e-02
5.607250213623046875e+01 2.040917778015136719e+01 -1.528555341064929962e-02
5.602735519409179688e+01 2.092979431152343750e+01 -1.682784035801887512e-02
4.973239517211914062e+01 1.257914257049560547e+01 3.115413904190063477e+00
4.961042785644531250e+01 1.263591861724853516e+01 3.498434543609619141e+00
5.009532928466796875e+01 1.265044212341308594e+01 3.354074954986572266e+00
4.997013473510742188e+01 1.272126865386962891e+01 3.753745079040527344e+00
6.016892623901367188e+01 2.706159782409667969e+01 3.895989418029785156e+00
6.017398834228515625e+01 2.750505256652832031e+01 3.900750398635864258e+00
6.058098983764648438e+01 2.718403244018554688e+01 3.850517988204956055e+00
6.056206893920898438e+01 2.762763404846191406e+01 3.863773345947265625e+00
4.848806762695312500e+01 7.575800323486328125e+01 2.101371288299560547e+00
4.851605987548828125e+01 7.622940826416015625e+01 2.017596483230590820e+00
4.891787719726562500e+01 7.581227874755859375e+01 1.948252320289611816e+00
4.900374221801757812e+01 7.625548553466796875e+01 1.879912972450256348e+00
5.718437576293945312e+01 2.354050636291503906e+01 2.238477393984794617e-02
5.715972518920898438e+01 2.403851890563964844e+01 2.226813510060310364e-02
5.760908889770507812e+01 2.361567878723144531e+01 1.709278672933578491e-03
5.756596374511718750e+01 2.413126945495605469e+01 7.560428231954574585e-03
5.676884841918945312e+01 2.776066398620605469e+01 3.896012067794799805e+00
5.693705749511718750e+01 2.826001548767089844e+01 3.899703741073608398e+00
5.731401062011718750e+01 2.792594146728515625e+01 3.894788742065429688e+00
5.744768905639648438e+01 2.842867088317871094e+01 3.894826173782348633e+00
6.006562805175781250e+01 4.806029129028320312e+01 3.318320989608764648e+00
6.014419937133789062e+01 4.847586059570312500e+01 3.364046096801757812e+00
5.997856140136718750e+01 4.812045669555664062e+01 3.814238071441650391e+00
6.004116058349609375e+01 4.850863265991210938e+01 3.837856769561767578e+00
5.289321517944335938e+01 5.697910308837890625e+01 4.770628213882446289e-01
5.254621887207031250e+01 5.704282379150390625e+01 7.493737936019897461e-01
5.333086776733398438e+01 5.695818710327148438e+01 7.197321057319641113e-01
5.295341491699218750e+01 5.698210144042968750e+01 9.906576275825500488e-01
3.770604705810546875e+01 3.188919067382812500e+01 1.156282544136047363e+00
3.824028396606445312e+01 3.208827972412109375e+01 1.058132886886596680e+00
3.798119354248046875e+01 3.207034683227539062e+01 1.435351729393005371e+00
3.855268859863281250e+01 3.229306793212890625e+01 1.321789979934692383e+00
4.030650329589843750e+01 5.350720596313476562e+01 1.472903847694396973e+00
4.059033966064453125e+01 5.395708847045898438e+01 1.368988871574401855e+00
4.032151031494140625e+01 5.369132614135742188e+01 1.973413348197937012e+00
4.056343841552734375e+01 5.413097763061523438e+01 1.851351261138916016e+00
4.787620544433593750e+01 7.124013519287109375e+01 2.547084331512451172e+00
4.800188064575195312e+01 7.180815124511718750e+01 2.543175220489501953e+00
4.784884643554687500e+01 7.130467987060546875e+01 2.912328720092773438e+00
4.799893569946289062e+01 7.188845062255859375e+01 2.891897201538085938e+00
5.861579895019531250e+01 1.691887283325195312e+01 3.934888839721679688e+00
5.861833953857421875e+01 1.744126510620117188e+01 3.905610322952270508e+00
5.910708618164062500e+01 1.701807975769042969e+01 3.977506637573242188e+00
5.916311645507812500e+01 1.752600479125976562e+01 3.955102920532226562e+00
4.916697692871093750e+01 8.199671173095703125e+01 2.341303348541259766e+00
4.871959686279296875e+01 8.210729217529296875e+01 2.516772985458374023e+00
4.935569763183593750e+01 8.189698791503906250e+01 2.423717975616455078e+00
4.892731475830078125e+01 8.201288604736328125e+01 2.579534292221069336e+00
4.422051239013671875e+01 1.919404029846191406e+01 3.982942342758178711e+00
4.407848739624023438e+01 1.954349708557128906e+01 4.063326358795166016e+00
4.452678680419921875e+01 1.920020294189453125e+01 4.047540664672851562e+00
4.440345001220703125e+01 1.959949684143066406e+01 4.081245422363281250e+00
5.284616088867187500e+01 5.145120620727539062e+01 4.311363399028778076e-02
5.296239471435546875e+01 5.185145187377929688e+01 3.526384755969047546e-02
5.333959579467773438e+01 5.161675643920898438e+01 3.614033386111259460e-02
5.345671463012695312e+01 5.202649307250976562e+01 3.591578826308250427e-02
3.834169006347656250e+01 3.217132568359375000e+01 3.729439258575439453e+00
3.799334335327148438e+01 3.221509170532226562e+01 3.992122411727905273e+00
3.875093078613281250e+01 3.215240097045898438e+01 4.122582435607910156e+00
3.841760635375976562e+01 3.218754577636718750e+01 4.406819343566894531e+00
5.111138153076171875e+01 3.246458816528320312e+01 5.080127716064453125e+00
5.090540695190429688e+01 3.258295822143554688e+01 5.342573642730712891e+00
5.130080032348632812e+01 3.255807495117187500e+01 5.388721942901611328e+00
5.115705871582031250e+01 3.263645935058593750e+01 5.667950153350830078e+00
4.886195755004882812e+01 1.755125427246093750e+01 5.192535400390625000e+00
4.877599334716796875e+01 1.798336601257324219e+01 5.216660499572753906e+00
4.897865676879882812e+01 1.757741355895996094e+01 5.484974861145019531e+00
4.888422775268554688e+01 1.801591873168945312e+01 5.505588531494140625e+00
4.116224288940429688e+01 4.130398941040039062e+01 7.196620851755142212e-02
4.123055267333984375e+01 4.175023651123046875e+01 -7.715696468949317932e-03
4.158315658569335938e+01 4.135738372802734375e+01 9.909811615943908691e-02
4.164879608154296875e+01 4.181070327758789062e+01 1.565924100577831268e-02
3.771444320678710938e+01 3.096840095520019531e+01 3.551164150238037109e+00
3.751352691650390625e+01 3.119516563415527344e+01 3.706193208694458008e+00
3.804023742675781250e+01 3.078450012207031250e+01 4.005288124084472656e+00
3.784156799316406250e+01 3.100785446166992188e+01 4.159307003021240234e+00
4.189712142944335938e+01 4.758790588378906250e+01 3.924238681793212891e+00
4.183407592773437500e+01 4.802668762207031250e+01 3.919781923294067383e+00
4.238565444946289062e+01 4.754312896728515625e+01 3.897966384887695312e+00
4.231743621826171875e+01 4.798645019531250000e+01 3.896405935287475586e+00
4.677758407592773438e+01 1.339434146881103516e+01 3.825415372848510742e+00
4.693917465209960938e+01 1.364095592498779297e+01 3.812856912612915039e+00
4.709113311767578125e+01 1.348811912536621094e+01 3.853468894958496094e+00
4.730675506591796875e+01 1.372099113464355469e+01 3.822525739669799805e+00
5.878350448608398438e+01 4.550112915039062500e+01 3.912637710571289062e+00
5.870169067382812500e+01 4.597584533691406250e+01 3.938884973526000977e+00
5.919995880126953125e+01 4.558971786499023438e+01 3.817409753799438477e+00
5.912495040893554688e+01 4.605724716186523438e+01 3.856691360473632812e+00
5.584659957885742188e+01 5.433861541748046875e+01 3.885466814041137695e+00
5.583567047119140625e+01 5.472805404663085938e+01 3.912657737731933594e+00
5.626491546630859375e+01 5.432378005981445312e+01 3.878186702728271484e+00
5.624640655517578125e+01 5.469887924194335938e+01 3.910007953643798828e+00
4.862080001831054688e+01 8.138806915283203125e+01 4.145505905151367188e+00
4.836818695068359375e+01 8.161585235595703125e+01 4.363845348358154297e+00
4.872875976562500000e+01 8.143729400634765625e+01 4.419946193695068359e+00
4.850822067260742188e+01 8.169165802001953125e+01 4.594430446624755859e+00
5.100416564941406250e+01 3.166021156311035156e+01 3.992475941777229309e-02
5.108849334716796875e+01 3.221804809570312500e+01 7.629066705703735352e-02
5.159550857543945312e+01 3.184528350830078125e+01 7.378484308719635010e-02
5.167200851440429688e+01 3.238579559326171875e+01 1.054809838533401489e-01
5.122580718994140625e+01 2.834565353393554688e+01 3.380967676639556885e-02
5.136387634277343750e+01 2.888489341735839844e+01 3.368920460343360901e-02
5.176000213623046875e+01 2.845543479919433594e+01 -2.897747419774532318e-02
5.186013793945312500e+01 2.897881126403808594e+01 -3.618002310395240784e-02
4.978502273559570312e+01 1.293057537078857422e+01 5.061433315277099609e+00
4.963083267211914062e+01 1.317333698272705078e+01 5.358743190765380859e+00
5.006954956054687500e+01 1.309766101837158203e+01 5.279274940490722656e+00
4.987754058837890625e+01 1.336234378814697266e+01 5.614473342895507812e+00
4.684674072265625000e+01 4.610808563232421875e+01 4.748682975769042969e+00
4.691181564331054688e+01 4.647606277465820312e+01 4.743011951446533203e+00
4.723313140869140625e+01 4.614387512207031250e+01 4.817781448364257812e+00
4.731004714965820312e+01 4.651024246215820312e+01 4.809819698333740234e+00
4.860739898681640625e+01 1.889229011535644531e+01 5.079437732696533203e+00
4.860923767089843750e+01 1.926900482177734375e+01 5.216883182525634766e+00
4.872696685791015625e+01 1.896368217468261719e+01 5.376917839050292969e+00
4.872021484375000000e+01 1.933482933044433594e+01 5.525293827056884766e+00
3.913472366333007812e+01 1.587279415130615234e+01 5.349956035614013672e+00
3.895288848876953125e+01 1.615645980834960938e+01 5.564631938934326172e+00
3.936834335327148438e+01 1.576430034637451172e+01 5.618061065673828125e+00
3.924209976196289062e+01 1.610838890075683594e+01 5.776853561401367188e+00
5.728332901000976562e+01 4.057693099975585938e+01 5.482277274131774902e-02
5.730987167358398438e+01 4.101412200927734375e+01 4.696350544691085815e-03
5.754014587402343750e+01 4.059676361083984375e+01 2.426152527332305908e-01
5.759369659423828125e+01 4.103175354003906250e+01 1.672143787145614624e-01
5.335078048706054688e+01 5.150581741333007812e+01 4.112514108419418335e-02
5.346952056884765625e+01 5.192110824584960938e+01 3.954952582716941833e-02
5.386916732788085938e+01 5.171094894409179688e+01 4.235692322254180908e-02
5.395536804199218750e+01 5.216011428833007812e+01 6.508402526378631592e-02
5.138950347900390625e+01 7.912783050537109375e+01 2.729899883270263672e+00
5.139200592041015625e+01 7.953305053710937500e+01 2.769638299942016602e+00
5.160102844238281250e+01 7.915312957763671875e+01 2.972955465316772461e+00
5.161119461059570312e+01 7.956002044677734375e+01 3.007889270782470703e+00
5.055219650268554688e+01 3.251480102539062500e+01 1.884748227894306183e-03
5.066098785400390625e+01 3.314152526855468750e+01 2.686529047787189484e-02
5.112366104125976562e+01 3.275289916992187500e+01 1.924548670649528503e-02
5.123979949951171875e+01 3.336441802978515625e+01 4.401361942291259766e-02
5.107822799682617188e+01 1.251706314086914062e+01 3.745639324188232422e-01
5.143527221679687500e+01 1.271027660369873047e+01 2.413105666637420654e-01
5.139432907104492188e+01 1.251080799102783203e+01 6.721941232681274414e-01
5.180553817749023438e+01 1.266789913177490234e+01 5.056250691413879395e-01
5.913257980346679688e+01 5.303884124755859375e+01 5.569079518318176270e-01
5.892753219604492188e+01 5.338824844360351562e+01 6.036218404769897461e-01
5.928971481323242188e+01 5.295884704589843750e+01 8.650910258293151855e-01
5.907074356079101562e+01 5.334909439086914062e+01 8.898108601570129395e-01
4.174840927124023438e+01 5.518750762939453125e+01 2.098204374313354492e+00
4.209193801879882812e+01 5.553032684326171875e+01 1.946728229522705078e+00
4.193259429931640625e+01 5.540614318847656250e+01 2.525604009628295898e+00
4.221716690063476562e+01 5.572585296630859375e+01 2.346885681152343750e+00
6.066333770751953125e+01 1.899639129638671875e+01 3.893498659133911133e+00
6.063378143310546875e+01 1.942080116271972656e+01 3.946227550506591797e+00
6.104081726074218750e+01 1.909521484375000000e+01 3.871993064880371094e+00
6.107248306274414062e+01 1.952008819580078125e+01 3.908426284790039062e+00
5.068275451660156250e+01 1.254890918731689453e+01 3.297235965728759766e+00
5.054489517211914062e+01 1.262675380706787109e+01 3.687498569488525391e+00
5.106163406372070312e+01 1.265524959564208984e+01 3.459972620010375977e+00
5.092465209960937500e+01 1.273173904418945312e+01 3.835224628448486328e+00
4.454728317260742188e+01 4.516154861450195312e+01 5.995096638798713684e-03
4.460994720458984375e+01 4.565499114990234375e+01 -8.702654391527175903e-03
4.512733840942382812e+01 4.509865570068359375e+01 -1.052651647478342056e-02
4.510757827758789062e+01 4.559947586059570312e+01 -3.658362850546836853e-02
4.116370391845703125e+01 1.458665561676025391e+01 3.267451286315917969e+00
4.077513504028320312e+01 1.479398632049560547e+01 3.534936428070068359e+00
4.142359924316406250e+01 1.442646789550781250e+01 3.609568119049072266e+00
4.107032775878906250e+01 1.462122631072998047e+01 3.884960651397705078e+00
4.530614852905273438e+01 1.306735038757324219e+01 -2.972525954246520996e-01
4.500899505615234375e+01 1.321524620056152344e+01 -7.458055019378662109e-02
4.582424926757812500e+01 1.297352409362792969e+01 -1.294741779565811157e-01
4.545908737182617188e+01 1.304911327362060547e+01 1.528115719556808472e-01
4.116573715209960938e+01 5.480246734619140625e+01 2.266211360692977905e-01
4.156570816040039062e+01 5.511441421508789062e+01 1.324715018272399902e-01
4.131366729736328125e+01 5.505782699584960938e+01 5.628005266189575195e-01
4.174332427978515625e+01 5.536668395996093750e+01 4.679034650325775146e-01
5.107949447631835938e+01 5.856895446777343750e+01 2.437095642089843750e+00
5.099048614501953125e+01 5.889245986938476562e+01 2.466871500015258789e+00
5.118460083007812500e+01 5.849314498901367188e+01 2.717857599258422852e+00
5.110988998413085938e+01 5.883214950561523438e+01 2.753829002380371094e+00
5.441534042358398438e+01 3.143237495422363281e+01 3.870384931564331055e+00
5.441319274902343750e+01 3.181191253662109375e+01 3.883665323257446289e+00
5.490229034423828125e+01 3.150985717773437500e+01 3.862336874008178711e+00
5.490094757080078125e+01 3.191082954406738281e+01 3.876331090927124023e+00
4.894365692138671875e+01 8.179927062988281250e+01 3.719706058502197266e+00
4.865105438232421875e+01 8.200801086425781250e+01 3.986555576324462891e+00
4.907463073730468750e+01 8.184058380126953125e+01 4.057094573974609375e+00
4.880440902709960938e+01 8.206093597412109375e+01 4.297616004943847656e+00
3.752883911132812500e+01 1.829585647583007812e+01 2.370369434356689453e+00
3.740528488159179688e+01 1.862490844726562500e+01 2.562245845794677734e+00
3.768759536743164062e+01 1.817664337158203125e+01 2.786294698715209961e+00
3.756710815429687500e+01 1.851885223388671875e+01 3.004176616668701172e+00
4.812831115722656250e+01 2.579167747497558594e+01 3.856172323226928711e+00
4.823550033569335938e+01 2.614585876464843750e+01 3.763077735900878906e+00
4.859347152709960938e+01 2.577956199645996094e+01 4.068475246429443359e+00
4.867076110839843750e+01 2.618320274353027344e+01 4.004433631896972656e+00
5.940946960449218750e+01 5.132910156250000000e+01 -2.571480870246887207e-01
5.932761383056640625e+01 5.174266815185546875e+01 -1.947400271892547607e-01
5.957384872436523438e+01 5.128241348266601562e+01 3.323015198111534119e-02
5.950971984863281250e+01 5.172080612182617188e+01 1.050551682710647583e-01
4.220098114013671875e+01 3.797611236572265625e+01 2.731730699539184570e+00
4.222370147705078125e+01 3.834658050537109375e+01 2.758049964904785156e+00
4.225966262817382812e+01 3.806150054931640625e+01 3.096607208251953125e+00
4.228993606567382812e+01 3.841779327392578125e+01 3.091831445693969727e+00
5.151328277587890625e+01 5.579235076904296875e+01 4.767165660858154297e+00
5.157998657226562500e+01 5.614583206176757812e+01 4.650694847106933594e+00
5.192338943481445312e+01 5.577630615234375000e+01 4.660489082336425781e+00
5.204132461547851562e+01 5.609181594848632812e+01 4.503903388977050781e+00
4.586108779907226562e+01 3.584056854248046875e+01 3.909053325653076172e+00
4.585371398925781250e+01 3.635088729858398438e+01 3.883746385574340820e+00
4.637280654907226562e+01 3.586243438720703125e+01 3.879502773284912109e+00
4.638383102416992188e+01 3.637958526611328125e+01 3.863771677017211914e+00
4.693702697753906250e+01 2.025631904602050781e+01 2.776110731065273285e-02
4.685198593139648438e+01 2.074397468566894531e+01 4.809951782226562500e-02
4.741423034667968750e+01 2.025872802734375000e+01 1.516175735741853714e-02
4.731650161743164062e+01 2.072965049743652344e+01 2.623134478926658630e-02
4.774179077148437500e+01 4.446452331542968750e+01 4.788148880004882812e+00
4.774696731567382812e+01 4.490453338623046875e+01 4.817112445831298828e+00
4.816808319091796875e+01 4.455456542968750000e+01 4.829679965972900391e+00
4.816979598999023438e+01 4.500196075439453125e+01 4.858063697814941406e+00
4.156109237670898438e+01 4.860740280151367188e+01 4.415431618690490723e-02
4.152101898193359375e+01 4.904460525512695312e+01 2.872504293918609619e-03
4.201585006713867188e+01 4.866900253295898438e+01 7.301658391952514648e-03
4.198944473266601562e+01 4.908247756958007812e+01 -3.263247758150100708e-02
4.668424606323242188e+01 5.728868484497070312e+01 9.072164297103881836e-01
4.687970352172851562e+01 5.732333755493164062e+01 1.156741619110107422e+00
4.698687744140625000e+01 5.740596771240234375e+01 1.230491161346435547e+00
4.720937728881835938e+01 5.744358062744140625e+01 1.467904210090637207e+00
5.876308441162109375e+01 5.271617507934570312e+01 -2.062415927648544312e-01
5.855574798583984375e+01 5.303535461425781250e+01 -1.741558760404586792e-01
5.896330642700195312e+01 5.263430786132812500e+01 7.338792085647583008e-02
5.875436782836914062e+01 5.295097732543945312e+01 1.079606562852859497e-01
4.822740554809570312e+01 3.144593429565429688e+01 8.664432913064956665e-02
4.820477294921875000e+01 3.197525787353515625e+01 3.211416304111480713e-02
4.873656082153320312e+01 3.154029655456542969e+01 3.557699546217918396e-02
4.872725677490234375e+01 3.207047271728515625e+01 -1.341976411640644073e-02
5.093478775024414062e+01 3.595452499389648438e+01 3.870887041091918945e+00
5.094498443603515625e+01 3.642603683471679688e+01 3.879019737243652344e+00
5.146737289428710938e+01 3.610351562500000000e+01 3.918929100036621094e+00
5.147798919677734375e+01 3.659303665161132812e+01 3.922397375106811523e+00
4.863988113403320312e+01 4.711318588256835938e+01 4.809485912322998047e+00
4.860598754882812500e+01 4.758050537109375000e+01 4.829236507415771484e+00
4.903901672363281250e+01 4.709918975830078125e+01 4.805633068084716797e+00
4.896927642822265625e+01 4.764118957519531250e+01 4.841642379760742188e+00
4.304124832153320312e+01 1.554582309722900391e+01 6.318606376647949219e+00
4.299646759033203125e+01 1.593651866912841797e+01 6.306714534759521484e+00
4.346737670898437500e+01 1.556406307220458984e+01 6.308024406433105469e+00
4.342309188842773438e+01 1.595653438568115234e+01 6.297121524810791016e+00
5.789585876464843750e+01 4.091433715820312500e+01 1.999876379966735840e+00
5.834629058837890625e+01 4.118685531616210938e+01 1.957340002059936523e+00
5.802380752563476562e+01 4.107972717285156250e+01 2.405189037322998047e+00
5.853852081298828125e+01 4.132304000854492188e+01 2.356141567230224609e+00
5.263214492797851562e+01 5.668909454345703125e+01 3.846702814102172852e+00
5.247851562500000000e+01 5.692348480224609375e+01 3.782856941223144531e+00
5.294369506835937500e+01 5.650915908813476562e+01 4.005796432495117188e+00
5.274979019165039062e+01 5.674110412597656250e+01 3.962024450302124023e+00
3.921031951904296875e+01 1.595815086364746094e+01 1.231266736984252930e+00
3.898564147949218750e+01 1.622277069091796875e+01 1.516765356063842773e+00
3.929237747192382812e+01 1.587786293029785156e+01 1.680968165397644043e+00
3.908621597290039062e+01 1.615169525146484375e+01 1.971603631973266602e+00
5.836180114746093750e+01 3.223110580444335938e+01 1.429140329360961914e+00
5.806720352172851562e+01 3.256546401977539062e+01 1.531241297721862793e+00
5.859623336791992188e+01 3.211554718017578125e+01 1.667795538902282715e+00
5.827157592773437500e+01 3.243437194824218750e+01 1.798730254173278809e+00
4.834128570556640625e+01 7.703043365478515625e+01 4.746139049530029297e+00
4.824147033691406250e+01 7.737202453613281250e+01 4.756166458129882812e+00
4.849006652832031250e+01 7.711439514160156250e+01 5.012661457061767578e+00
4.840850830078125000e+01 7.745173645019531250e+01 5.035021781921386719e+00
5.392589187622070312e+01 1.807668685913085938e+01 3.322161734104156494e-02
5.388530349731445312e+01 1.867157363891601562e+01 9.668730199337005615e-03
5.448228073120117188e+01 1.806516075134277344e+01 -5.728314444422721863e-02
5.444996261596679688e+01 1.862508964538574219e+01 -8.711876720190048218e-02
6.207704162597656250e+01 2.545922851562500000e+01 2.438848018646240234e+00
6.191604614257812500e+01 2.583590507507324219e+01 2.603889465332031250e+00
6.201976394653320312e+01 2.544967460632324219e+01 2.790452480316162109e+00
6.185391616821289062e+01 2.581827545166015625e+01 2.953814029693603516e+00
4.819212341308593750e+01 8.364299011230468750e+01 1.953070282936096191e+00
4.796960830688476562e+01 8.408992767333984375e+01 2.084103107452392578e+00
4.853811264038085938e+01 8.380326080322265625e+01 1.984038829803466797e+00
4.833703613281250000e+01 8.420812988281250000e+01 2.126287221908569336e+00
5.718035888671875000e+01 4.713218688964843750e+01 5.856737494468688965e-02
5.731347274780273438e+01 4.769121170043945312e+01 4.845049604773521423e-02
5.785986328125000000e+01 4.737329483032226562e+01 8.217256516218185425e-02
5.795632171630859375e+01 4.791101074218750000e+01 6.548516452312469482e-02
5.450249481201171875e+01 4.759107971191406250e+01 3.894250154495239258e+00
5.461961364746093750e+01 4.805894470214843750e+01 3.891563415527343750e+00
5.501715087890625000e+01 4.775678253173828125e+01 3.887732505798339844e+00
5.511765289306640625e+01 4.828366851806640625e+01 3.891453027725219727e+00
6.087894821166992188e+01 2.977867507934570312e+01 9.111117124557495117e-01
6.095383834838867188e+01 3.025781440734863281e+01 8.905897140502929688e-01
6.096518707275390625e+01 2.975633430480957031e+01 1.283567786216735840e+00
6.104007339477539062e+01 3.022167205810546875e+01 1.230608224868774414e+00
5.335601425170898438e+01 8.152955627441406250e+01 2.907130479812622070e+00
5.325698089599609375e+01 8.188684082031250000e+01 3.021352291107177734e+00
5.386822891235351562e+01 8.164906311035156250e+01 2.923650741577148438e+00
5.373213577270507812e+01 8.197444152832031250e+01 3.052231550216674805e+00
5.168492889404296875e+01 3.538535690307617188e+01 6.330936402082443237e-02
5.178982162475585938e+01 3.591480255126953125e+01 3.185961022973060608e-02
5.219623565673828125e+01 3.542918395996093750e+01 4.154473543167114258e-02
5.229896163940429688e+01 3.595400238037109375e+01 1.467331778258085251e-02
5.272868347167968750e+01 2.935955429077148438e+01 3.926567077636718750e+00
5.274706649780273438e+01 2.977127838134765625e+01 3.907520771026611328e+00
5.317645263671875000e+01 2.941815567016601562e+01 3.935544967651367188e+00
5.319892120361328125e+01 2.982589149475097656e+01 3.904133558273315430e+00
5.145002365112304688e+01 6.060284805297851562e+01 2.752762794494628906e+00
5.146106338500976562e+01 6.086590576171875000e+01 2.782222509384155273e+00
5.153022384643554688e+01 6.063540649414062500e+01 3.027519941329956055e+00
5.153348159790039062e+01 6.089269256591796875e+01 3.052233695983886719e+00
5.587795639038085938e+01 4.831901550292968750e+01 9.429760277271270752e-03
5.604093551635742188e+01 4.884331893920898438e+01 -9.175693616271018982e-03
5.663509368896484375e+01 4.841325378417968750e+01 -2.007489837706089020e-02
5.675164031982421875e+01 4.894909286499023438e+01 -2.493665553629398346e-02
5.522933578491210938e+01 4.840952301025390625e+01 1.117268949747085571e-02
5.541062927246093750e+01 4.891626739501953125e+01 3.334086388349533081e-03
5.592396926879882812e+01 4.845882034301757812e+01 -4.421398043632507324e-04
5.608778381347656250e+01 4.897732543945312500e+01 -1.596895977854728699e-02
4.861973190307617188e+01 7.525635528564453125e+01 4.572495937347412109e+00
4.874544525146484375e+01 7.570934295654296875e+01 4.479553699493408203e+00
4.887996673583984375e+01 7.526560974121093750e+01 4.841363906860351562e+00
4.895518493652343750e+01 7.574567413330078125e+01 4.774861812591552734e+00
4.733678054809570312e+01 3.261378097534179688e+01 1.891644299030303955e-02
4.723261260986328125e+01 3.314129638671875000e+01 -4.151497036218643188e-03
4.782389450073242188e+01 3.254557418823242188e+01 -1.987711712718009949e-02
4.771228027343750000e+01 3.310628509521484375e+01 -3.457049652934074402e-02
5.810521316528320312e+01 1.865867996215820312e+01 3.585482761263847351e-02
5.822881317138671875e+01 1.911799240112304688e+01 2.358889952301979065e-02
5.864013290405273438e+01 1.865565681457519531e+01 7.443871349096298218e-03
5.876583099365234375e+01 1.910102272033691406e+01 -9.076862595975399017e-03
5.255738830566406250e+01 2.973936843872070312e+01 2.062152139842510223e-02
5.257023239135742188e+01 3.017767906188964844e+01 1.877935603260993958e-03
5.303517150878906250e+01 2.977570533752441406e+01 9.122522547841072083e-03
5.303866577148437500e+01 3.020409774780273438e+01 -1.262670289725065231e-02
5.664892578125000000e+01 1.678879737854003906e+01 3.911519765853881836e+00
5.660880279541015625e+01 1.734849548339843750e+01 3.896740198135375977e+00
5.712792968750000000e+01 1.676069259643554688e+01 3.876071691513061523e+00
5.704455947875976562e+01 1.731852340698242188e+01 3.870937824249267578e+00
4.105425643920898438e+01 4.741700363159179688e+01 4.411552846431732178e-02
4.097506332397460938e+01 4.792341232299804688e+01 -3.166840644553303719e-03
4.157252883911132812e+01 4.742424392700195312e+01 3.852415829896926880e-02
4.148804473876953125e+01 4.791476821899414062e+01 -8.003934286534786224e-03
4.855468750000000000e+01 3.527780914306640625e+01 3.948779344558715820e+00
4.860891723632812500e+01 3.582273864746093750e+01 3.921398401260375977e+00
4.908187866210937500e+01 3.532677841186523438e+01 3.889376878738403320e+00
4.911103820800781250e+01 3.583234024047851562e+01 3.863674163818359375e+00
5.127906799316406250e+01 5.748517227172851562e+01 3.798161745071411133e+00
5.127696609497070312e+01 5.770965194702148438e+01 3.760244607925415039e+00
5.149431991577148438e+01 5.738286972045898438e+01 3.975054502487182617e+00
5.152485275268554688e+01 5.760977935791015625e+01 3.893248558044433594e+00
5.998157119750976562e+01 5.102980422973632812e+01 2.697277545928955078e+00
5.988542556762695312e+01 5.144311523437500000e+01 2.796655178070068359e+00
5.992300796508789062e+01 5.112050247192382812e+01 3.102028608322143555e+00
5.979474258422851562e+01 5.155654525756835938e+01 3.197091817855834961e+00
4.713437271118164062e+01 3.093863487243652344e+01 3.861791610717773438e+00
4.717257690429687500e+01 3.152860832214355469e+01 4.025619983673095703e+00
4.772872924804687500e+01 3.116159629821777344e+01 3.863658666610717773e+00
4.774540710449218750e+01 3.173197174072265625e+01 4.004299640655517578e+00
5.098442840576171875e+01 7.475508880615234375e+01 2.117489337921142578e+00
5.106479644775390625e+01 7.518419647216796875e+01 2.076178789138793945e+00
5.127188873291015625e+01 7.476408386230468750e+01 2.393599271774291992e+00
5.136706924438476562e+01 7.519638061523437500e+01 2.380279064178466797e+00
4.134587860107421875e+01 3.333521652221679688e+01 3.165222167968750000e+00
4.144623184204101562e+01 3.372734451293945312e+01 3.050575494766235352e+00
4.162125778198242188e+01 3.322940826416015625e+01 3.471766710281372070e+00
4.164303207397460938e+01 3.363742065429687500e+01 3.405546903610229492e+00
4.806383895874023438e+01 4.251500320434570312e+01 2.599551901221275330e-02
4.805352783203125000e+01 4.299171447753906250e+01 -3.580431453883647919e-03
4.874105453491210938e+01 4.252638626098632812e+01 4.884158447384834290e-02
4.871636962890625000e+01 4.300896835327148438e+01 2.853449806571006775e-02
4.026257705688476562e+01 4.180135726928710938e+01 3.763076305389404297e+00
4.020698165893554688e+01 4.223479461669921875e+01 3.878897666931152344e+00
4.045944213867187500e+01 4.191965484619140625e+01 3.892874956130981445e+00
4.043685531616210938e+01 4.235923767089843750e+01 3.976471900939941406e+00
