-0.181664 0.126326 -0.415366 0.000945983
-0.178552 0.113616 -0.407026 0.00312431
-0.180064 0.12901 -0.401797 0.00186679
-0.07939 0.3616 -0.429354 0.00223843
-0.0703623 0.369142 -0.431372 0.00122793
-0.072147 0.369837 -0.420287 0.000321808
-0.0632778 0.377575 -0.421774 0.00318372
0.0681136 0.607001 0.513078 0.000881132
0.0643999 0.616493 0.517569 0.0052981
0.0607115 0.606586 0.525638 0.00177191
0.0555057 0.614867 0.53 0.0054093
0.0522406 -0.583421 -0.626878 0.00205812
0.0560269 -0.57613 -0.63144 0.000428528
0.0612633 -0.584303 -0.6249 0.00193491
0.065447 -0.576993 -0.629329 0.000475696
-0.04297 0.0866715 0.262175 0.0011699
-0.0490155 0.0953946 0.264836 0.00100109
-0.035924 0.0853751 0.269546 0.00162046
-0.0424087 0.0935296 0.271852 0.000233267
-0.187288 0.208813 -0.390318 0.0013025
-0.184687 0.226703 -0.392637 0.000851614
-0.186015 0.21434 -0.381219 0.00131382
-0.183218 0.232843 -0.383609 0.0015339
-0.0152502 0.110991 -0.486248 0.00598129
-0.00648636 0.118254 -0.487461 0.00261711
-0.0128916 0.11375 -0.475866 0.00375415
-0.00431209 0.119191 -0.478498 0.000451931
0.182571 0.0688041 0.0558756 0.000938938
0.187842 0.0836925 0.0544454 0.00127114
0.181878 0.0686265 0.0695962 0.00115372
0.186421 0.0831192 0.0690597 0.000205401
-0.0279136 0.214784 -0.627391 0.0103222
-0.027648 0.227143 -0.624098 0.00474552
-0.0169458 0.223916 -0.623592 0.00306802
-0.0184985 0.236006 -0.620755 0.00505584
0.091229 0.0826672 0.209481 0.0011891
0.0906241 0.0929522 0.216917 9.58497e-05
0.0919567 0.0905092 0.216741 0.00147871
0.0933408 0.101223 0.22179 0.00117623
-0.0302884 0.507752 0.644574 0.001371
-0.0354582 0.514922 0.647816 0.000779617
-0.0258296 0.507697 0.651611 0.00387
-0.0308147 0.514715 0.654572 0.00233308
-0.0665493 0.376244 -0.403459 0.00169511
-0.0583467 0.383287 -0.403753 0.00100851
-0.0590254 0.384419 -0.39585 0.000624806
-0.0507109 0.391591 -0.396154 0.00160589
-0.0975058 -0.606214 -0.625961 0.00019995
-0.0960241 -0.596926 -0.629456 0.000637188
-0.0902321 -0.609411 -0.620033 0.000505147
-0.0886141 -0.60059 -0.623262 0.00025667
-0.163285 -0.0331193 -0.528344 0.00146004
-0.166933 -0.0169743 -0.525784 0.000643689
-0.166604 -0.0300754 -0.517362 0.000803447
-0.171108 -0.0147232 -0.513992 0.00104446
-0.186306 0.220029 -0.0449226 0.000923775
-0.182681 0.236328 -0.0493143 0.00200439
-0.180234 0.22329 -0.0297333 0.00182071
-0.176697 0.238872 -0.0332733 0.00106752
0.0101402 0.352203 -0.524674 7.90799e-06
0.00301591 0.35858 -0.517416 0.000462041
0.0201042 0.357442 -0.517775 0.00354198
0.0131299 0.363884 -0.511083 0.00270366
0.0296299 0.0314635 0.210319 0.00144487
0.022872 0.0417598 0.22318 0.00029451
0.0414154 0.0379937 0.214095 0.00239168
0.0341496 0.048617 0.22708 0.00157224
0.0693049 0.0183145 -0.447778 0.000273943
0.06117 0.0322413 -0.447902 0.00400445
0.0810892 0.011235 -0.437879 0.00122739
0.0733639 0.0250907 -0.437043 0.000441768
-0.171827 -0.00830068 -0.489498 0.0005889
-0.176227 0.0048799 -0.487003 0.00239596
-0.169947 -0.00872259 -0.479096 0.00171074
-0.174474 0.00348757 -0.475359 0.00105643
-0.0661831 -0.125171 -0.525436 0.00104555
-0.0711395 -0.118038 -0.517176 0.00236661
-0.0600489 -0.119457 -0.522998 0.00307683
-0.0635014 -0.111242 -0.516495 0.00126379
-0.0327118 -0.203481 -0.649292 0.000322587
-0.0276532 -0.189993 -0.649274 0.00489876
-0.0358462 -0.197912 -0.639045 0.0029854
-0.0311324 -0.183909 -0.639004 0.00136753
-0.0619572 0.0602097 -0.621738 6.44798e-07
-0.0599488 0.0755118 -0.622124 0.000672604
-0.0476045 0.0618455 -0.619742 0.000201135
-0.0462963 0.0772093 -0.62037 0.000307499
-0.0720593 0.355995 0.152935 0.00129425
-0.0681184 0.366395 0.148717 0.000500412
-0.0634147 0.359317 0.161357 0.00134422
-0.0597436 0.369502 0.1563 0.000226843
0.139587 0.0447536 -0.311219 0.00255377
0.146872 0.0570909 -0.314781 0.00220993
0.145379 0.0449935 -0.298152 0.000713867
0.152417 0.0569706 -0.301727 0.000213921
0.092012 -0.109073 0.00317809 0.00137468
0.0917666 -0.0977628 0.00315819 0.0010568
0.0981143 -0.109868 0.00363928 0.000138448
0.0972608 -0.0980277 0.00486108 0.000784938
0.176443 0.0832501 -0.42863 0.000519465
0.180019 0.0972893 -0.427412 0.000738878
0.172662 0.0903011 -0.416314 0.000821342
0.176429 0.104163 -0.415207 0.000945493
0.115691 -0.0222158 -0.1902 0.0026194
0.123214 -0.0119177 -0.193541 0.00122422
0.123154 -0.016477 -0.18178 0.000561123
0.130021 -0.00616521 -0.185224 0.00294524
0.0713138 0.134773 0.261864 0.00193462
0.0782207 0.147488 0.258832 0.00149348
0.0738753 0.138907 0.269806 0.000784689
0.0802383 0.151463 0.267558 0.0014372
0.16168 -0.743758 0.110566 0.000558229
0.159654 -0.735582 0.110162 0.00368499
0.169291 -0.745549 0.119612 0.00440054
0.166581 -0.73702 0.119525 0.000257834
0.0689727 -0.547035 0.0135071 0.00516908
0.0649439 -0.528071 0.00982647 0.00428871
0.0764561 -0.556046 0.0211712 0.00119277
0.0725777 -0.537037 0.0173289 0.00221196
-0.0499504 0.15048 -0.617486 0.00557109
-0.0491853 0.162258 -0.615321 0.00642109
-0.0386983 0.151302 -0.618809 0.0023856
-0.0381557 0.16288 -0.617187 0.00348973
-0.105699 0.029837 -0.610586 0.00204925
-0.101742 0.0451306 -0.610019 3.25235e-05
-0.102435 0.0391376 -0.609752 2.59512e-06
-0.0991848 0.0545002 -0.609392 0.00186563
0.0751739 -0.308389 -0.00431632 0.00216835
0.0822599 -0.297118 -0.00560031 0.00613444
0.0751331 -0.302083 0.0057839 0.00392132
0.0822424 -0.291933 0.00457364 0.000288435
-0.216264 0.193411 -0.207554 0.000886054
-0.213718 0.207722 -0.208117 0.00147926
-0.218399 0.196215 -0.197091 0.000841799
-0.216222 0.210774 -0.197654 0.000511392
-0.171019 0.0910562 0.114871 0.00196973
-0.170548 0.104482 0.114297 0.00142788
-0.165733 0.0952428 0.124287 0.00259719
-0.165399 0.108311 0.123619 0.000633897
0.210422 0.12149 -0.200948 0.00031255
0.214628 0.134621 -0.201683 0.00085575
0.212788 0.129634 -0.189681 0.00137951
0.216943 0.14291 -0.190272 0.00104509
0.0598458 0.542776 0.624648 0.00335071
0.057167 0.5537 0.625324 0.000488331
0.0554054 0.542574 0.635982 0.000486242
0.0525738 0.553369 0.637332 0.00177607
-0.164916 0.250198 0.11149 0.00153125
-0.159494 0.263585 0.108792 0.000478505
-0.16157 0.253409 0.123831 0.00188893
-0.156547 0.265943 0.121581 0.000647588
0.186583 0.193288 -0.284311 0.000139391
0.188313 0.206487 -0.2839 0.00162691
0.191193 0.193536 -0.272409 0.00251761
0.193066 0.206162 -0.271939 0.000630536
0.103004 0.471753 -0.183129 0.00058328
0.0972555 0.481778 -0.177414 0.000802414
0.100094 0.470765 -0.171386 0.000338881
0.0936975 0.480211 -0.165388 0.000841995
-0.0390394 -0.173233 -0.604825 0.000683643
-0.0355928 -0.160574 -0.602126 0.00114721
-0.0435945 -0.167493 -0.589969 0.000833478
-0.0397388 -0.154891 -0.587331 0.00126654
-0.193668 0.0872248 -0.0670063 2.02865e-05
-0.198367 0.101414 -0.0692963 0.000562558
-0.187231 0.078122 -0.0527297 0.00057215
-0.192558 0.0927131 -0.0536974 0.00105591
-0.117278 0.332234 0.059411 0.000444104
-0.111083 0.343729 0.0579286 0.001191
-0.114055 0.339146 0.0699398 0.00105021
-0.107645 0.350333 0.0688348 0.000609071
0.103811 -0.681663 -0.588196 0.000785324
0.10421 -0.67303 -0.595438 0.0033158
0.106227 -0.696294 -0.581707 0.00182315
0.106018 -0.687347 -0.587252 9.17003e-05
-0.0332394 0.116552 -0.609782 0.00648185
-0.0351997 0.13105 -0.609675 0.00821292
-0.0226645 0.116583 -0.606035 0.00187501
-0.0239896 0.130196 -0.605909 0.00401896
0.0627799 -0.578403 -0.629614 0.000165928
0.0668283 -0.57084 -0.634198 0.00159698
0.0718002 -0.578716 -0.627877 0.00169501
0.0757224 -0.570932 -0.632488 0.00127745
-0.0480313 0.181831 -0.617291 0.000511965
-0.0480636 0.194605 -0.614326 0.000194294
-0.0357515 0.190751 -0.617547 0.000421231
-0.03533 0.20319 -0.614868 0.000733788
-0.0161681 -0.0102962 -0.564295 0.00235493
-0.0175287 0.003009 -0.563127 7.48267e-05
-0.0159231 -0.0103854 -0.551918 0.00687846
-0.0171434 0.00394203 -0.550291 0.00490292
-0.050265 0.0638912 -0.398132 0.00559843
-0.043777 0.0739796 -0.405266 0.00203648
-0.0483868 0.0651221 -0.391108 0.00050592
-0.0417714 0.0750752 -0.400984 0.0021544
0.131739 0.0548421 0.162589 0.00023437
0.137602 0.0670063 0.162593 0.0022404
0.129066 0.0610119 0.172887 0.000151971
0.13537 0.0733608 0.172164 0.00137535
0.13252 0.0469074 0.149505 0.000561295
0.139077 0.0595653 0.148881 0.00261706
0.130518 0.055024 0.159471 0.00187678
0.13638 0.0671881 0.159476 0.000215739
-0.21312 0.162249 -0.229028 7.05154e-05
-0.211693 0.174758 -0.228881 0.00197037
-0.216568 0.163892 -0.217087 0.000605746
-0.215458 0.177052 -0.216512 0.000821708
0.0446918 -0.135767 0.0291802 0.00284557
0.0449611 -0.122361 0.031002 0.00153263
0.0396677 -0.12929 0.0386923 0.000679615
0.0398736 -0.115987 0.0400812 0.00181806
0.120906 0.426517 -0.174596 0.00141443
0.116977 0.441315 -0.17398 0.00107656
0.118547 0.423534 -0.158358 0.000811371
0.114294 0.438296 -0.158068 0.00166975
-0.109982 -0.688314 0.0213466 0.00927913
-0.10491 -0.674021 0.0168753 0.000939468
-0.0971258 -0.690817 0.0268257 0.00196131
-0.0921123 -0.676231 0.0222844 0.00723231
0.0687562 -0.681395 -0.587923 0.00166322
0.0725076 -0.669351 -0.594529 0.00628954
0.0723029 -0.687225 -0.57864 0.00676726
0.0767943 -0.675652 -0.58553 0.000817736
-0.0448106 -0.252905 -0.628576 0.000903544
-0.0440122 -0.239679 -0.626499 0.00252962
-0.0459449 -0.24741 -0.619349 0.00240332
-0.0425484 -0.233973 -0.618667 0.00164106
-0.0278247 0.650662 0.486004 0.000491574
-0.0166144 0.654 0.480804 0.00236027
-0.0188577 0.652227 0.495424 0.000160595
-0.00781438 0.655723 0.489985 0.00267448
0.119135 0.275505 0.19235 0.000723386
0.109745 0.283663 0.195632 1.54956e-05
0.117175 0.266725 0.203806 0.00104563
0.108045 0.274985 0.207104 0.00105948
0.131015 -0.746206 -0.557274 0.00223493
0.126978 -0.739511 -0.55223 0.00288473
0.139381 -0.744191 -0.550318 0.000365058
0.135666 -0.737274 -0.546054 0.000440658
0.0834875 -0.0142821 0.135798 0.0010823
0.0825775 -0.00486398 0.146083 0.000260917
0.0971747 -0.00664422 0.136598 0.00110893
0.0957793 0.00240116 0.146789 0.00190918
-0.0835108 0.215902 0.312715 0.000685348
-0.0804094 0.228383 0.311152 0.000978568
-0.0833448 0.217526 0.327772 0.00241207
-0.0820783 0.230072 0.328159 0.00121167
-0.036803 0.523623 0.631477 0.00265313
-0.0419514 0.531095 0.636058 0.00222774
-0.0345432 0.523646 0.639174 0.000275834
-0.0393167 0.531095 0.642462 0.0044165
0.137412 0.0179025 0.110154 0.000449182
0.144363 0.0324966 0.109523 0.000700091
0.134688 0.028391 0.121414 0.00112404
0.141685 0.0424395 0.121191 0.000134335
0.216214 0.161118 -0.209848 0.000105643
0.218773 0.173281 -0.209208 0.00229166
0.21822 0.166843 -0.1991 0.000892584
0.220983 0.179236 -0.198168 0.00338352
0.0438978 0.292226 -0.571986 0.000444457
0.0396742 0.302647 -0.564196 7.55987e-05
0.0577862 0.292893 -0.565999 0.00190127
0.0526776 0.303082 -0.559208 0.00179293
0.0800843 -0.747923 0.12971 0.00134762
0.0700726 -0.742928 0.143516 0.00304083
0.0943899 -0.745331 0.143486 0.000472085
0.0829281 -0.740661 0.157391 0.00599394
-0.1295 0.372292 -0.111414 0.000462494
-0.122771 0.384182 -0.113114 0.000833921
-0.124007 0.379141 -0.10207 0.000996784
-0.117096 0.391277 -0.104263 0.000480267
0.0537372 -0.731117 0.0172755 0.00237509
0.0494182 -0.721648 0.0220351 0.00280623
0.0540629 -0.726311 0.0249096 0.00393147
0.0488648 -0.717158 0.0308002 0.00275089
-0.0129808 0.56123 -0.182978 0.00260875
-0.00172153 0.565574 -0.191179 0.00265182
-0.00305232 0.56063 -0.173882 0.000668996
0.00620599 0.564886 -0.181884 0.000565527
-0.0769937 0.225402 -0.595788 0.00279401
-0.0785367 0.239281 -0.58777 0.00092543
-0.0630061 0.230655 -0.597332 0.000353816
-0.0646065 0.244556 -0.589234 0.00195059
0.134886 -0.742289 -0.55054 0.000556628
0.130829 -0.734847 -0.546053 0.00335936
0.142253 -0.740087 -0.543508 0.00337565
0.139941 -0.732111 -0.540504 0.000628151
-0.101851 -0.147863 -0.623855 0.00240304
-0.1033 -0.132369 -0.619745 0.000122413
-0.1064 -0.14237 -0.613116 0.000439414
-0.108606 -0.12802 -0.609392 0.0014804
0.0375313 -0.662023 0.0578404 0.00273098
0.0344599 -0.651217 0.0605279 0.00122978
0.0389065 -0.668153 0.0687423 0.00153067
0.0360458 -0.656296 0.069976 0.00460934
0.129164 0.181507 -0.572867 0.000834764
0.12841 0.196553 -0.571579 0.00153637
0.142415 0.177271 -0.56116 0.00154697
0.140688 0.192872 -0.560705 0.000975093
0.0832319 -0.637015 -0.668013 0.00155058
0.0831767 -0.621888 -0.67013 0.00202804
0.0948617 -0.643185 -0.667639 6.25907e-06
0.0940709 -0.627808 -0.669665 0.000366232
0.148325 0.0251705 -0.254937 0.000840183
0.154144 0.0342857 -0.258555 0.000306832
0.151417 0.0268298 -0.24535 0.000453438
0.157815 0.0359491 -0.248371 0.000979377
-0.17555 0.203671 -0.498654 0.000262534
-0.1719 0.215826 -0.497853 0.000762452
-0.177382 0.213801 -0.489657 0.00152509
-0.173636 0.225797 -0.489029 0.000766507
-0.169184 0.267665 -0.319834 0.000408697
-0.162761 0.284706 -0.318454 0.000764954
-0.164672 0.280073 -0.310274 0.0010293
-0.158558 0.296845 -0.309192 0.00194952
0.0100605 0.307285 0.324218 2.19306e-05
0.00848825 0.314105 0.332669 0.00106639
0.0188326 0.313061 0.330474 0.000891269
0.0171404 0.319711 0.338461 2.39844e-05
-0.0548299 -0.746987 0.0464441 0.00391858
-0.0417674 -0.738799 0.0431068 0.00111789
-0.0464145 -0.744922 0.0575211 0.00273371
-0.0355891 -0.736542 0.0545895 0.00386019
0.0113519 -0.0241423 -0.293919 0.00421628
0.0178745 -0.0171139 -0.301989 0.00226147
0.022982 -0.0261238 -0.285583 0.00161631
0.029633 -0.0191435 -0.293495 0.000178326
-0.0586962 0.118429 0.284427 0.000796057
-0.0643155 0.126041 0.285697 0.00223038
-0.0516583 0.115805 0.293371 0.00021563
-0.0573362 0.123446 0.294507 5.15791e-05
0.120393 0.0112311 -0.284181 0.00171873
0.12774 0.0213672 -0.28906 0.000424609
0.126463 0.0138832 -0.275623 0.000541839
0.1335 0.0235971 -0.279991 0.000786858
0.0152934 0.441272 0.066983 0.00184186
0.00422906 0.443232 0.0719276 0.00145982
0.0254586 0.440174 0.0784674 0.000481298
0.0146271 0.444293 0.082285 0.0016574
-0.120141 -0.635952 -0.626623 0.00186705
-0.116327 -0.623965 -0.630315 0.000274363
-0.114659 -0.635961 -0.619172 0.00130585
-0.111157 -0.624484 -0.622809 0.000333277
0.152445 0.351949 -0.158673 0.000766092
0.147122 0.362069 -0.15325 4.21981e-05
0.152446 0.349928 -0.142828 0.000258802
0.146958 0.360155 -0.137726 0.00183974
0.00816325 -0.37005 -0.703989 0.00753067
0.0128126 -0.35873 -0.706017 0.00300335
0.00916458 -0.364576 -0.691733 0.000955089
0.0147754 -0.353321 -0.6945 0.00564626
0.170435 -0.0208035 -0.493449 0.000265959
0.174834 -0.00675552 -0.493652 0.00227663
0.170326 -0.0161297 -0.482759 0.00042009
0.174 -0.00214038 -0.482455 0.000543694
-0.0336218 -0.266038 -0.664185 0.00583316
-0.0318738 -0.250659 -0.661944 0.00280279
-0.0285342 -0.266529 -0.66127 0.000568776
-0.0267862 -0.25115 -0.659029 0.00282984
-0.0950937 0.378811 -0.00331221 1.53437e-05
-0.0869763 0.391044 -0.00517635 0.000684329
-0.0879135 0.385374 0.00877436 0.00285419
-0.0795382 0.397938 0.00486052 0.000940217
0.121966 0.360858 -0.0711308 0.000666271
0.116193 0.368314 -0.0665494 0.00126932
0.117975 0.35753 -0.0599864 0.000594849
0.112291 0.365032 -0.0558645 4.19051e-05
-0.11512 -0.620742 -0.632121 0.000408194
-0.110499 -0.608856 -0.635766 0.000344561
-0.109037 -0.622544 -0.623962 0.000667153
-0.105512 -0.611449 -0.627563 0.000791115
0.184656 0.140265 0.060833 0.00127185
0.184393 0.155245 0.0598827 0.00124883
0.184728 0.147749 0.0704268 1.17791e-05
0.184337 0.161361 0.0706983 0.00222891
-0.176774 0.195232 0.100493 0.000946454
-0.172694 0.209487 0.101707 0.00100828
-0.173283 0.198835 0.115973 0.00101462
-0.169449 0.213355 0.116654 0.000926188
-0.0104943 -0.00618956 -0.577061 0.00348229
-0.0114148 0.00550082 -0.57557 0.0018675
-0.00939019 -0.00438955 -0.566656 0.00715602
-0.0106727 0.00880771 -0.565689 0.00467211
-0.0663691 -0.744479 0.0876478 0.000670611
-0.0656345 -0.740572 0.0913404 0.00462948
-0.0604718 -0.745027 0.0982548 0.000125113
-0.0592852 -0.739973 0.100676 0.00484512
0.109386 0.337567 -0.461599 0.000617519
0.0994076 0.345669 -0.45501 0.000224336
0.115171 0.337654 -0.451887 0.00135606
0.105482 0.345485 -0.445723 0.000738134
-0.0532865 -0.472181 -0.658849 0.00718901
-0.0573196 -0.457251 -0.65605 0.00295796
-0.054386 -0.470429 -0.650798 0.000705788
-0.0585731 -0.455576 -0.647959 0.00535474
-0.203741 0.260147 -0.218829 0.00134368
-0.196399 0.274027 -0.222082 0.000143106
-0.202462 0.265452 -0.203495 0.000699144
-0.19536 0.279291 -0.206418 0.000260929
0.196698 0.0770296 -0.185578 0.000620091
0.201893 0.0889633 -0.185158 0.000260694
0.201355 0.0853377 -0.174222 0.000112856
0.206063 0.0979663 -0.173626 0.000252393
-0.0439267 -0.14105 -0.574945 0.00131341
-0.0400554 -0.128935 -0.572607 0.000320347
-0.0496058 -0.137034 -0.559877 0.000928119
-0.0478137 -0.126332 -0.556107 0.000616498
-0.0404879 0.204357 0.426707 2.81931e-05
-0.049251 0.215053 0.425363 0.000956985
-0.029394 0.201806 0.435401 0.00117793
-0.0376449 0.212467 0.434503 0.00211679
-0.094217 0.353992 -0.429624 0.00171266
-0.0847789 0.361344 -0.431233 0.000388177
-0.0870081 0.361453 -0.419651 0.000975713
-0.0782625 0.368573 -0.421109 0.00131183
-0.0910517 0.297109 -0.537448 0.000143959
-0.0928357 0.305249 -0.529428 0.000950743
-0.0829692 0.310577 -0.527826 0.000938921
-0.0908081 0.317859 -0.514536 6.23135e-06
0.180754 0.161237 0.0658891 0.00125122
0.180654 0.175968 0.0651511 0.00162378
0.180247 0.168073 0.0745473 0.000527624
0.18003 0.181121 0.0762215 0.00153307
0.0988792 0.491236 -0.256145 0.000266097
0.0952704 0.502594 -0.253726 0.00232841
0.101469 0.488421 -0.243639 0.000612032
0.0967616 0.498768 -0.241473 0.000967565
-0.0413389 0.122462 0.327237 0.00134005
-0.0494018 0.132837 0.327 3.84784e-05
-0.0331262 0.122396 0.33503 0.000765523
-0.0416964 0.133062 0.334634 0.00233297
-0.0317976 0.385339 0.16502 0.00152583
-0.0274992 0.392256 0.157909 0.000131461
-0.0172322 0.381883 0.170407 0.000371002
-0.0133548 0.388419 0.162049 0.00257424
-0.172199 0.177057 -0.303255 0.0017563
-0.172217 0.193224 -0.299723 0.00364078
-0.175664 0.182458 -0.289265 0.00670034
-0.174217 0.199696 -0.286624 0.00899333
0.0322847 -0.581043 -0.00459768 0.00901599
0.036499 -0.566069 -0.00398768 0.0027801
0.0386844 -0.584861 0.00540606 0.00169165
0.0431445 -0.569929 0.00602217 0.00802257
-0.0178017 0.21518 0.459442 0.00195737
-0.0193692 0.225282 0.462212 0.000443425
-0.0100329 0.215828 0.460793 0.000624194
-0.0093665 0.225927 0.466039 0.000209708
-0.10724 -0.0179101 -0.0561061 0.000931704
-0.118968 -0.010222 -0.0551505 0.000253513
-0.0982342 -0.0218502 -0.0465896 0.000114228
-0.109425 -0.0147221 -0.0447496 9.93305e-05
-0.133689 -0.710651 -0.584415 0.00706139
-0.131709 -0.700915 -0.586127 0.00110074
-0.132938 -0.709648 -0.574742 0.00280832
-0.128333 -0.700166 -0.577669 0.00295462
0.060004 -0.0666406 0.110753 0.00150716
0.0520277 -0.0546555 0.109557 0.00172375
0.0683 -0.0675568 0.117361 0.00344277
0.0617487 -0.0558195 0.118025 0.00418098
-0.158071 0.0335699 0.0127982 0.00283869
-0.163593 0.0448924 0.0184264 7.46334e-05
-0.160073 0.0344052 0.0250763 0.00112746
-0.165956 0.0462283 0.0306517 0.0050281
-0.185958 0.125193 0.0969301 0.00132569
-0.182959 0.139777 0.097422 0.000330831
-0.182511 0.127752 0.106412 0.00206026
-0.179806 0.141965 0.10687 0.000337017
-0.17341 0.260193 -0.298484 0.000928037
-0.169969 0.275666 -0.296013 9.37307e-05
-0.171039 0.273464 -0.288277 0.00269595
-0.166802 0.288401 -0.286115 0.00328214
-0.0890482 -0.629107 0.0449872 0.00473391
-0.0865199 -0.613866 0.0445908 0.000446681
-0.0871071 -0.629737 0.052636 0.00075106
-0.0849839 -0.613481 0.0519059 0.00509353
0.172947 0.0808304 -0.283174 0.000366407
0.177705 0.0931297 -0.28345 0.000127194
0.179665 0.0875883 -0.271881 0.0012254
0.184078 0.100051 -0.271882 0.000800039
-0.131196 0.0778779 -0.34882 0.000174068
-0.137377 0.0855324 -0.346842 0.00096749
-0.13469 0.0730985 -0.340783 0.000358521
-0.141 0.0809511 -0.338758 0.00112997
-0.168023 0.0379956 -0.229465 0.00189472
-0.175637 0.0508851 -0.223536 0.000538173
-0.16716 0.0351907 -0.217191 0.000268957
-0.174807 0.048013 -0.211196 0.00212971
-0.0873352 -0.0665288 0.00592632 0.00378883
-0.0895026 -0.0566786 0.00848455 0.00125642
-0.0832737 -0.0650737 0.0105411 0.000764492
-0.0862252 -0.0557225 0.0141186 0.00410344
-0.0355411 -0.221712 -0.64669 0.00305036
-0.0308027 -0.20814 -0.646422 0.00147027
-0.0372093 -0.215468 -0.634583 0.00287926
-0.0316635 -0.201773 -0.635055 0.00219509
0.17146 0.310856 -0.257569 9.32218e-05
0.168112 0.322431 -0.253234 0.00110659
0.174293 0.311302 -0.244009 0.000506132
0.170776 0.323065 -0.239766 0.000672589
0.0461193 0.430459 -0.043269 0.000674785
0.0331594 0.434319 -0.0401188 0.00223573
0.0499932 0.423271 -0.0337602 0.00039759
0.037538 0.42722 -0.0309058 0.00113922
-0.166855 -0.747669 -0.575803 0.00210131
-0.175217 -0.73959 -0.566333 0.00300209
-0.157982 -0.749011 -0.55825 0.00212085
-0.167608 -0.740511 -0.542724 0.00626271
-0.188589 0.177859 -0.457741 6.60917e-05
-0.184838 0.196033 -0.460436 0.000993865
-0.190022 0.180516 -0.445451 0.000282747
-0.187072 0.198752 -0.447668 0.000335886
-0.0931373 0.443188 -0.11516 0.000653855
-0.0873562 0.456473 -0.124537 0.00122881
-0.0857901 0.448719 -0.107303 0.000599063
-0.0797639 0.461834 -0.11563 0.000917593
0.017389 0.54469 0.352022 0.000115228
0.0180876 0.560841 0.35018 0.000232619
0.0263805 0.544608 0.356442 6.42217e-05
0.0270845 0.560947 0.35463 0.00012544
-0.113689 0.350181 0.00434576 0.000547662
-0.10756 0.360503 0.00303857 0.000309408
-0.109722 0.356507 0.0181264 0.000122233
-0.103586 0.367631 0.015691 6.43839e-05
-0.0087722 -0.0411532 0.0395395 0.00296717
-0.00418028 -0.0368888 0.0345636 0.000302379
-0.00466839 -0.0434792 0.0508822 0.00310423
-0.0010925 -0.039469 0.0465808 0.00025384
-0.0310056 0.518318 0.632298 0.00767597
-0.0362802 0.525898 0.636735 0.00151464
-0.0270245 0.518128 0.640543 0.00506
-0.0319846 0.525567 0.644102 0.000634616
0.037388 -0.120455 -0.646838 0.00178776
0.036166 -0.1084 -0.644208 0.00343397
0.0466984 -0.116214 -0.645069 0.00186026
0.0455649 -0.104403 -0.643211 7.80108e-05
-0.0337737 -0.575559 0.0108114 0.00263864
-0.0306582 -0.563978 0.0113956 0.0018097
-0.0265378 -0.573555 0.0202837 0.00174515
-0.0239764 -0.561257 0.0204512 0.00336327
-0.114239 -0.708455 -0.646678 0.00507653
-0.116449 -0.699539 -0.642311 0.0076434
-0.108531 -0.708215 -0.641401 0.00123128
-0.109907 -0.699018 -0.637034 0.000934002
0.0945951 -0.0525813 -0.455282 0.00204167
0.091965 -0.0406239 -0.448549 0.00341082
0.10631 -0.0495512 -0.453845 0.00283991
0.103524 -0.0374347 -0.445717 0.000376615
-0.0972014 0.349676 0.10605 0.000990387
-0.0901196 0.360373 0.10565 0.000655452
-0.0892333 0.356661 0.119655 0.000237892
-0.0822103 0.367734 0.118735 0.00112659
-0.128833 -0.633576 -0.655508 0.00644148
-0.120413 -0.621904 -0.658758 0.00313625
-0.123087 -0.631708 -0.649554 0.00106952
-0.114822 -0.620035 -0.652955 0.00421017
0.0312742 -0.0692084 -0.553309 8.35732e-05
0.0294173 -0.054307 -0.553207 0.000859368
0.0367659 -0.0651868 -0.539021 0.000592888
0.0336823 -0.0490717 -0.540884 0.000294328
-0.0506687 0.539899 0.551793 0.00386851
-0.0496517 0.55062 0.550001 0.00210954
-0.0514382 0.540681 0.561643 0.00362712
-0.0502063 0.551731 0.559953 0.00276766
-0.0455962 -0.0874208 0.0464508 0.00256258
-0.0428904 -0.0747714 0.0439525 0.00036488
-0.0429831 -0.0825783 0.0541514 0.000245477
-0.0404066 -0.0705054 0.0517995 0.00132795
-0.0242901 0.564089 -0.257023 0.00133728
-0.0182461 0.569588 -0.254662 0.00130532
-0.0160266 0.569794 -0.246787 0.000383868
-0.00924001 0.574224 -0.24503 0.00309579
-0.0125749 0.352835 -0.522279 0.00033828
-0.0196984 0.359417 -0.513511 0.00264191
-0.00166977 0.359209 -0.514 0.00215295
-0.00881131 0.365835 -0.506521 0.000809142
0.153256 0.311938 -0.310475 0.000635894
0.150139 0.322759 -0.303162 0.000500974
0.154569 0.312862 -0.296753 0.00205893
0.151547 0.324003 -0.290596 0.0012184
0.0532806 -0.147881 -0.550732 0.00216963
0.0508652 -0.136765 -0.542102 0.00511252
0.0639211 -0.145416 -0.543083 0.00271314
0.0612713 -0.133793 -0.533772 0.0004492
-0.0605438 0.190802 -0.6112 0.000527091
-0.0614121 0.204691 -0.607334 0.000702923
-0.0484449 0.196366 -0.613165 0.000745197
-0.0491238 0.209759 -0.609571 0.000186114
0.188869 0.123482 0.0628275 0.000496344
0.189838 0.136489 0.0629847 0.00308505
0.186289 0.127146 0.0748314 0.0018834
0.187304 0.138955 0.0762715 0.00098033
-0.190574 0.170324 -0.430295 0.000372871
-0.189423 0.186665 -0.429463 0.000428961
-0.190866 0.173399 -0.417796 0.00121343
-0.189608 0.190003 -0.417604 0.000373148
0.140023 0.385018 -0.222582 0.00028034
0.136455 0.397759 -0.217115 0.000936732
0.138798 0.386465 -0.208458 0.000902275
0.134876 0.398766 -0.203106 0.000698034
0.0564059 0.521967 -0.146427 0.00115814
0.0472353 0.526315 -0.143022 0.000110301
0.0565116 0.515816 -0.137446 0.00128124
0.0476164 0.519714 -0.134356 0.000206102
-0.0524005 -0.215773 -0.00213805 0.0021088
-0.0517324 -0.203082 -0.00265535 0.00026942
-0.0453483 -0.214316 0.0071305 0.00166922
-0.0447978 -0.201588 0.00681906 0.000300357
0.0788251 -0.543006 -0.651366 0.00516129
0.0771219 -0.525964 -0.65361 0.00289414
0.084243 -0.544065 -0.646774 0.00128093
0.0823713 -0.527177 -0.648755 0.0038063
0.0920029 0.343063 0.138434 0.000425872
0.0828438 0.349954 0.142061 0.000620724
0.0934848 0.335601 0.147515 0.000223808
0.0839855 0.342284 0.150948 0.00108721
0.112791 -0.00259067 -0.263706 0.00103228
0.121326 0.00737707 -0.267647 0.000499818
0.119903 9.4607e-05 -0.255115 0.000478319
0.128156 0.00990376 -0.258943 0.000795637
0.138246 -0.120863 0.0591319 0.000467141
0.139501 -0.106076 0.0587893 0.00161843
0.135717 -0.115291 0.0688555 0.000662026
0.137393 -0.101612 0.0693314 0.00223343
-0.139345 -0.0715783 -0.48517 0.00386242
-0.148519 -0.0603326 -0.478087 0.000309243
-0.131436 -0.0751436 -0.477177 0.00114092
-0.140259 -0.0638771 -0.469729 0.00134668
-0.0244835 -0.41848 -0.715018 5.27669e-05
-0.0192027 -0.406062 -0.718336 0.000327029
-0.0192155 -0.419758 -0.708203 0.00101299
-0.0142756 -0.40752 -0.71175 0.00340649
-0.0466841 0.273757 0.291015 0.00211758
-0.0353453 0.282919 0.285023 0.00278434
-0.0420113 0.281264 0.302119 0.0010432
-0.0305689 0.289203 0.298313 0.00319568
0.183017 0.145907 0.0867072 0.000615312
0.18333 0.156688 0.0886325 0.00162154
0.178817 0.146529 0.0996692 0.00185495
0.178592 0.15735 0.102497 0.000349689
0.163596 0.0160073 -0.149956 0.00097101
0.170602 0.0280477 -0.152533 0.000346682
0.168254 0.02201 -0.138311 0.000284247
0.175515 0.034796 -0.140765 0.0006247
0.0543815 0.577203 0.598008 0.00096547
0.0499425 0.586579 0.598823 0.00257474
0.0525262 0.574799 0.610577 0.000980057
0.047971 0.584088 0.611595 0.000300843
-0.0212178 -0.386926 -0.713104 0.00489919
-0.0178674 -0.374733 -0.716203 0.00177701
-0.0189804 -0.386349 -0.702423 0.00171927
-0.0153448 -0.374328 -0.705566 0.00125429
-0.0246535 0.358554 0.50129 0.000494147
-0.0246967 0.371787 0.500621 0.000361655
-0.0159411 0.36047 0.503919 0.000196534
-0.0160881 0.373828 0.503869 0.000183906
-0.179364 -0.744232 0.136633 0.00995431
-0.16575 -0.737849 0.135222 0.00297216
-0.167816 -0.746897 0.151761 0.00736934
-0.154605 -0.740688 0.150585 0.001025
-0.116087 -0.180844 0.0185832 0.000515812
-0.120607 -0.169584 0.0210935 0.000704724
-0.120266 -0.177768 0.0264418 0.000346067
-0.123916 -0.166206 0.0284412 0.000176133
-0.129237 0.314925 0.0244934 0.000191415
-0.123336 0.32638 0.0227375 0.00112015
-0.124541 0.324099 0.0356593 0.000355795
-0.119136 0.335442 0.0336952 0.000472805
-0.0794647 0.14962 -0.615545 0.001219
-0.078268 0.162257 -0.612181 0.000188686
-0.0709354 0.157206 -0.617566 0.000918337
-0.0700906 0.169746 -0.614424 0.000580201
0.160033 0.183968 0.156115 0.00132952
0.158926 0.195336 0.160219 0.000703262
0.155309 0.187801 0.167869 0.000256687
0.154987 0.198852 0.172283 0.000870401
0.0110133 -0.000212002 -0.584288 0.00170415
0.00985736 0.0108219 -0.583926 0.00218212
0.0137395 0.00103992 -0.573362 0.000247987
0.0128944 0.0126672 -0.5739 0.000348638
-0.0346156 -0.164495 -0.631358 0.00196742
-0.0323105 -0.149639 -0.62918 0.00157849
-0.0334241 -0.159499 -0.623044 0.00106819
-0.0301413 -0.145961 -0.620803 0.000387093
-0.00655085 0.17387 0.42585 0.00153284
-0.0109442 0.183291 0.430673 0.000313828
0.00393342 0.174369 0.426043 0.000669126
0.00202712 0.182835 0.433179 0.000519172
-0.0564415 0.0312404 -0.469267 0.000735817
-0.0534385 0.044883 -0.467009 0.00191705
-0.0609786 0.0415586 -0.458381 0.00077889
-0.058516 0.054854 -0.455629 0.000439472
-0.0451849 0.47118 0.448516 0.00954104
-0.0517718 0.479336 0.452881 0.00161625
-0.0449264 0.469193 0.456396 0.00737871
-0.0514423 0.477598 0.460764 8.79168e-05
0.0656683 -0.676165 -0.651295 0.00157714
0.0666257 -0.661816 -0.654881 0.00155293
0.0738074 -0.684226 -0.650717 0.00260134
0.075517 -0.669932 -0.654105 0.00453326
-0.189823 0.180752 -0.437007 0.000262261
-0.187281 0.198507 -0.438712 0.00103168
-0.191243 0.183295 -0.424246 0.00110173
-0.189113 0.200363 -0.425171 0.000582877
0.178711 0.103398 -0.4913 0.00178507
0.181741 0.120725 -0.493338 0.000402545
0.182204 0.107779 -0.475922 0.000988607
0.185196 0.123923 -0.476806 0.000156228
0.0463555 -0.177759 -0.583619 0.00102556
0.042676 -0.16648 -0.580277 0.00333207
0.0539362 -0.177356 -0.5747 0.00166174
0.0502041 -0.1658 -0.571151 0.000413596
0.0519191 -0.103794 -0.528273 0.0013161
0.0478408 -0.0902137 -0.526642 0.00172106
0.0621523 -0.102175 -0.517198 0.0017257
0.0576533 -0.0883246 -0.515565 0.00121324
0.0213739 0.152471 0.394436 0.00307607
0.0149294 0.160036 0.404741 0.000567008
0.0329093 0.158083 0.397306 0.00630219
0.0276538 0.166157 0.406607 0.00278889
-0.0264372 0.395384 0.15805 0.00204832
-0.0206472 0.402354 0.151267 0.000511828
-0.0128965 0.391901 0.162883 0.000311679
-0.00824161 0.39869 0.154459 0.00188391
-0.0783675 -0.177466 -0.551348 0.00108747
-0.0807246 -0.167539 -0.544507 2.23512e-05
-0.0712416 -0.174089 -0.548017 0.00323536
-0.0728268 -0.164109 -0.540642 0.00263283
-0.116371 0.357127 -0.327214 0.00238618
-0.1099 0.369337 -0.327049 0.000149634
-0.116204 0.365493 -0.313949 0.00230638
-0.110796 0.377182 -0.311994 0.00184147
-0.178067 0.0518766 -0.468905 0.000169968
-0.178852 0.0640727 -0.470079 0.000135999
-0.178985 0.0492051 -0.457451 0.00179022
-0.180206 0.060503 -0.458938 0.0016204
-0.0623535 0.347252 0.456 6.10769e-05
-0.0612318 0.360732 0.454546 0.000645501
-0.0561535 0.348417 0.467869 0.00103973
-0.054611 0.361485 0.46639 0.00287773
-0.0490567 -0.417979 0.0278433 0.00306153
-0.0523035 -0.403185 0.0326329 0.000619017
-0.042882 -0.417825 0.0313486 0.002389
-0.0461444 -0.403349 0.0360124 0.000945266
-0.103919 -0.647905 -0.664099 0.00047335
-0.0977127 -0.636655 -0.667629 0.000234959
-0.0948778 -0.645517 -0.661227 0.00592182
-0.0893597 -0.634091 -0.664947 0.00462862
0.0524805 -0.440675 -0.708776 0.000523982
0.0529625 -0.423933 -0.712629 0.000611168
0.0566632 -0.445474 -0.700692 0.00382826
0.0578086 -0.429849 -0.703855 0.00260255
0.0202181 0.0215054 -0.351487 0.00108067
0.0289838 0.033124 -0.360897 0.00186298
0.0362534 0.0208331 -0.3475 0.0010131
0.0452509 0.0323456 -0.356656 0.00228305
-0.0691837 -0.497514 -0.669549 0.0126197
-0.07459 -0.482852 -0.664918 0.00300058
-0.0767466 -0.498833 -0.655013 0.00139155
-0.0811577 -0.483794 -0.651466 0.00992156
-0.0540873 0.353469 0.39812 0.00450068
-0.0519499 0.370447 0.398387 0.00398873
-0.0618319 0.362291 0.410243 0.00157027
-0.0606924 0.379495 0.411087 0.00185748
-0.0262938 0.508979 -0.0973503 0.00501118
-0.0233535 0.514926 -0.107275 0.00124756
-0.0132709 0.500991 -0.092253 0.000913781
-0.0105884 0.507074 -0.102681 0.00482969
-0.146485 0.297674 -0.0307517 4.90348e-05
-0.139932 0.309627 -0.0316392 0.000149087
-0.142312 0.301549 -0.0201662 0.00111921
-0.135353 0.313056 -0.0215559 0.000331734
-0.0199626 0.389445 0.366174 0.00272288
-0.0187788 0.404073 0.364481 0.0050068
-0.0152266 0.391531 0.370422 0.00249478
-0.0143637 0.406086 0.368458 0.000134774
0.182777 0.14955 0.0870558 0.000233703
0.183094 0.160236 0.0889291 0.00196542
0.179233 0.151781 0.09791 0.00150405
0.178582 0.162845 0.101222 0.000124613
0.184051 0.191516 -0.0304783 0.000910443
0.182884 0.203943 -0.0266161 0.00155889
0.177844 0.195964 -0.0185064 9.38519e-05
0.176594 0.209012 -0.0155379 0.0026697
0.137508 -0.0086564 -0.172727 0.00190958
0.144201 0.00184652 -0.175977 0.00155128
0.143612 -0.00296698 -0.16417 0.000547797
0.150465 0.0077727 -0.16763 0.00195929
-0.0579653 0.504328 0.429789 0.00039256
-0.064203 0.511265 0.433265 0.000397717
-0.0609 0.501512 0.438561 0.00176172
-0.0667517 0.508604 0.441977 0.000323216
0.0798068 0.401379 0.0410121 0.000260664
0.0733064 0.408931 0.045402 0.000210288
0.0798774 0.396227 0.0532773 0.00136108
0.0734335 0.403922 0.0574623 0.000902968
0.0529479 0.454146 0.405659 0.00102528
0.0537926 0.46722 0.405741 0.00061088
0.055378 0.458542 0.414774 0.000549482
0.0562067 0.47105 0.414661 6.63502e-05
0.129975 0.307259 0.0614888 0.00153081
0.125108 0.316268 0.0674728 0.000587124
0.129721 0.3074 0.0754399 0.000416566
0.124381 0.317447 0.0818941 0.00062712
0.165854 0.0204116 -0.435202 0.00204377
0.16891 0.0337575 -0.4337 0.00150829
0.161642 0.0273966 -0.42327 0.00380497
0.164675 0.0401598 -0.421175 0.00376633
0.023817 0.653012 0.443786 0.00389258
0.0102928 0.653777 0.451762 0.00321185
0.0334628 0.645656 0.454487 0.00380021
0.0198007 0.648545 0.461254 0.00190531
0.116085 -0.75105 0.0708321 0.00549332
0.127596 -0.74325 0.0663361 0.00113631
0.123086 -0.745639 0.0812482 0.000384117
0.13675 -0.73889 0.0755364 0.00447062
0.157055 0.0852652 -0.557085 0.000968183
0.155114 0.0988447 -0.561205 0.000164554
0.163337 0.0862499 -0.546327 2.99071e-05
0.162018 0.100154 -0.549994 0.000233866
-0.20344 0.133405 -0.249225 0.00197046
-0.2024 0.147802 -0.248448 0.00181422
-0.208798 0.135163 -0.235636 0.00170901
-0.208344 0.148467 -0.23478 0.000952574
-0.00760392 0.0348334 -0.570462 0.0037918
-0.00761334 0.0433317 -0.569893 0.0030871
-0.00758572 0.0376915 -0.561039 0.00558135
-0.00742598 0.0472337 -0.560878 0.00458729
-0.0123354 -0.44829 -0.000390398 0.000576815
-0.0162398 -0.434361 -0.000947314 0.00876429
-0.00123039 -0.445253 -0.000167742 0.0095831
-0.00514737 -0.431712 0.000296221 1.73869e-05
-0.0595398 -0.558911 0.0311154 0.0053146
-0.0571821 -0.544861 0.0310984 0.00279645
-0.0535821 -0.557148 0.041058 0.00269894
-0.0517914 -0.542433 0.0412625 0.00567602
0.123535 0.0907585 -0.380791 0.00349718
0.134109 0.102238 -0.385082 0.00524955
0.123241 0.0956204 -0.367691 0.00400206
0.13287 0.106842 -0.371703 0.00136217
0.154809 0.299161 -0.397265 0.0010758
0.147924 0.310412 -0.394366 0.00140352
0.158044 0.29785 -0.384913 0.00134308
0.151752 0.308768 -0.381245 0.000621918
-0.0608174 -0.407711 -0.0236277 0.000733112
-0.0645321 -0.391837 -0.0208159 0.00226936
-0.059643 -0.408635 -0.0158719 0.00479142
-0.0632745 -0.393054 -0.0127651 0.00322577
-0.0866562 -0.56434 -0.681784 0.00338934
-0.0818906 -0.5473 -0.683384 0.00225346
-0.075154 -0.560766 -0.677991 0.00412735
-0.071448 -0.544497 -0.679152 0.00546594
0.204059 0.09654 -0.123393 2.58351e-05
0.208496 0.11305 -0.125002 0.000214262
0.204676 0.105132 -0.111662 5.32447e-05
0.20905 0.121468 -0.113166 0.000197663
0.179555 0.289868 -0.10206 0.000762374
0.173681 0.300024 -0.0991833 0.000513884
0.176713 0.288623 -0.092403 0.00082027
0.170994 0.299053 -0.0897627 0.000649697
0.0412464 -0.0379183 0.11054 0.000259092
0.031745 -0.0265248 0.109374 0.00615569
0.0502866 -0.0391537 0.116293 0.00116392
0.0406828 -0.0279402 0.115547 0.00176869
-0.0620085 -0.0360931 -0.0359939 0.00120485
-0.0715182 -0.0349859 -0.0252697 0.0027089
-0.055273 -0.0354916 -0.0249763 6.82338e-05
-0.0620206 -0.0356331 -0.0153828 0.00455549
0.0956158 0.380244 -0.0148576 0.00140953
0.0880288 0.389398 -0.0115447 0.000246728
0.095036 0.375981 -0.00430805 0.00136858
0.0879799 0.384568 -0.000462541 0.00265497
-0.0667165 -0.414752 -0.00432251 0.00212659
-0.0702427 -0.399612 -0.000646492 0.000313047
-0.0678039 -0.417873 0.00424394 0.000214366
-0.0711359 -0.402622 0.00826406 0.00187142
0.157779 0.224075 0.157219 0.000669064
0.152418 0.234688 0.161413 4.27974e-05
0.151739 0.223404 0.170033 0.000542237
0.145932 0.234174 0.174341 0.00141272
-0.0353255 0.505096 0.497831 0.00113558
-0.04475 0.514447 0.502827 0.00322606
-0.0273949 0.505011 0.503532 0.00174274
-0.037034 0.51424 0.509171 0.000395042
-0.0384112 0.099584 0.290248 0.000816515
-0.0446035 0.106905 0.293093 0.000471923
-0.0312102 0.0994902 0.296627 7.41178e-05
-0.0375788 0.106252 0.300492 0.000284609
-0.0712042 0.250927 0.27454 0.00147841
-0.0640937 0.263313 0.270484 0.00150453
-0.068275 0.253839 0.289114 0.00205377
-0.0603989 0.265564 0.284553 0.00051215
0.10383 0.0863738 -0.606828 0.00247289
0.103867 0.0976652 -0.606772 0.00161255
0.115052 0.0883759 -0.602408 5.74284e-05
0.114722 0.0997361 -0.602639 0.000698049
0.169726 0.311677 -0.260827 4.94069e-05
0.16629 0.323514 -0.256683 0.000738378
0.172455 0.314221 -0.246121 0.000341166
0.168764 0.326103 -0.241922 0.000720621
-0.147904 -0.724302 -0.569047 0.0101587
-0.154986 -0.716941 -0.559596 0.000530465
-0.142103 -0.721823 -0.554764 0.00276211
-0.148693 -0.715222 -0.541129 0.00533361
-0.0388469 0.00115028 -0.518157 0.00135179
-0.0364751 0.0154782 -0.515397 0.000392183
-0.0431056 0.00891674 -0.50597 0.000892545
-0.040436 0.0233087 -0.502915 0.00107281
0.113777 0.347349 -0.00136653 0.000453689
0.108681 0.356463 0.00296348 0.000521579
0.113762 0.344531 0.0102372 0.000887993
0.108857 0.353169 0.0153335 0.00149617
-0.218717 0.186358 -0.182325 5.14842e-05
-0.217102 0.201524 -0.182434 0.000159311
-0.2184 0.18887 -0.170729 9.9902e-05
-0.217129 0.204195 -0.169971 0.00063942
-0.0105451 -0.0473357 0.0793821 0.00468291
-0.0171053 -0.0437183 0.0921322 0.00408185
0.00169841 -0.0432458 0.0857672 0.000440997
-0.00517178 -0.0396928 0.0986172 0.00229827
0.20055 0.264768 -0.143212 0.000729228
0.195141 0.276883 -0.136941 0.000246961
0.196218 0.266401 -0.127813 0.00205832
0.190978 0.278521 -0.12125 0.000764156
-0.109166 -0.148942 0.00169366 0.00162048
-0.107989 -0.136422 0.00376839 0.000635777
-0.106279 -0.142088 0.00173089 0.000673721
-0.105438 -0.129201 0.0035833 0.00170976
-0.0867315 -0.578358 0.00565238 0.00537115
-0.0814314 -0.566738 0.00501071 0.00381858
-0.0826852 -0.576014 0.0166156 0.00138699
-0.0775484 -0.564307 0.0159867 0.00219617
-0.00900052 0.0898822 0.297757 0.000762405
-0.016778 0.0948736 0.304457 0.00147818
0.00117283 0.0910533 0.302791 0.000635786
-0.00715835 0.0958149 0.310398 0.000968568
-0.0707768 0.392793 0.100974 0.00188611
-0.0611492 0.405421 0.0969252 0.00120855
-0.0605455 0.397512 0.112422 0.000617581
-0.0509139 0.408297 0.106778 0.00143655
0.122271 0.354259 -0.0630955 0.000191577
0.116754 0.36185 -0.0589506 0.000936248
0.118431 0.351072 -0.0514469 0.000733482
0.112717 0.359019 -0.0477263 0.000459817
-0.117977 0.0697799 -0.402967 0.00550121
-0.123438 0.0813965 -0.397735 0.00334056
-0.111636 0.0695045 -0.39758 0.000627866
-0.116811 0.079814 -0.393145 0.0022995
-0.0910581 -0.567618 -0.643013 0.00132759
-0.0873325 -0.553564 -0.6459 0.00129505
-0.0829694 -0.567408 -0.641778 0.0023307
-0.0801045 -0.554164 -0.644477 0.00206678
-0.0510976 0.549959 0.634881 0.00379974
-0.0544025 0.556567 0.638511 0.00113405
-0.0491737 0.548908 0.645478 0.00152614
-0.0524654 0.555596 0.648527 0.00447677
0.0263673 0.298414 0.32057 0.00178344
0.0243425 0.304992 0.329245 0.00248364
0.036242 0.303333 0.327143 0.0012712
0.0340443 0.309689 0.335148 1.06008e-05
0.0696462 0.14559 0.295929 0.000203401
0.0762004 0.158464 0.293618 0.000687768
0.0695382 0.151071 0.305093 0.000216855
0.0760909 0.164139 0.302661 0.000634745
-0.127656 -0.638373 -0.634249 0.000278457
-0.122152 -0.62617 -0.637943 4.10394e-05
-0.122653 -0.637568 -0.627396 0.00116033
-0.118838 -0.625581 -0.631089 0.000333454
0.0190436 0.103906 0.31946 0.00198383
0.0100578 0.108876 0.330552 5.36103e-05
0.0219007 0.109926 0.330089 0.00321657
0.019835 0.115701 0.33771 0.00144237
0.0223446 0.603275 0.634946 0.0013609
0.0151186 0.612138 0.632061 0.00386554
0.0242974 0.597001 0.646483 0.00166318
0.0158998 0.605879 0.644584 0.00628823
-0.134947 0.301461 0.116634 0.000822948
-0.129108 0.310528 0.116048 0.000237482
-0.129344 0.30546 0.129883 0.000280883
-0.123643 0.314514 0.129182 0.00141561
-0.142996 -0.0838223 -0.565873 0.00111068
-0.144864 -0.0678394 -0.5649 0.00219272
-0.150829 -0.0806685 -0.551983 0.0014133
-0.153029 -0.0652367 -0.550382 0.000467926
0.0730119 -0.708809 0.093157 0.00785959
0.0708484 -0.695787 0.0945382 0.0029068
0.0767644 -0.707383 0.104461 0.000728253
0.0769003 -0.695297 0.104861 0.00949211
0.0879825 -0.733838 0.154871 0.0118678
0.0756827 -0.729316 0.168831 0.000356076
0.102516 -0.730649 0.167562 0.00503601
0.0904089 -0.72596 0.181383 0.0109826
0.101643 -0.699137 -0.639166 0.000413146
0.108555 -0.686091 -0.643722 0.00100014
0.101987 -0.69896 -0.628302 0.00843511
0.109912 -0.686765 -0.633078 0.0063548
-0.153338 0.142771 0.163804 0.00235242
-0.154871 0.157249 0.164722 0.001446
-0.142031 0.137457 0.17673 0.00419983
-0.146007 0.152739 0.178752 0.00217216
-0.178608 0.171096 -0.359768 0.000566101
-0.179493 0.185444 -0.358247 0.000990236
-0.179581 0.172841 -0.347818 0.00555719
-0.180819 0.187267 -0.345797 0.00353822
-0.0151252 0.615861 0.601948 0.00238495
-0.00733197 0.62026 0.594625 0.00228338
-0.00645623 0.615646 0.60952 0.00273796
0.000637288 0.6213 0.602171 0.000227575
-0.118855 -0.704021 -0.580405 0.00430923
-0.114224 -0.693899 -0.584013 0.000118151
-0.114114 -0.703074 -0.573382 0.000718779
-0.108156 -0.692826 -0.577937 0.00349241
-0.0734307 -0.74977 0.0559676 0.00593992
-0.0612653 -0.741562 0.0526894 0.00211518
-0.0673108 -0.749087 0.0664089 0.00475753
-0.0556335 -0.740848 0.0637574 0.00266406
-0.171823 0.270828 -0.0591898 0.00194379
-0.166848 0.285025 -0.0647556 0.0008537
-0.166069 0.276433 -0.0462123 0.000779911
-0.160415 0.289586 -0.0491152 0.00155757
-0.078922 0.369915 -0.400571 0.00207581
-0.0712572 0.37666 -0.400479 0.000157774
-0.0714372 0.377516 -0.392116 0.00151134
-0.0633018 0.384822 -0.392302 0.000541093
-0.0598927 -0.0879101 0.0196948 0.00167147
-0.0589507 -0.0747663 0.0184999 0.000852943
-0.0577493 -0.0841577 0.0248711 0.00226516
-0.0566762 -0.0709172 0.0233992 0.000779939
0.028708 -0.635824 0.0306068 0.00416404
0.0315136 -0.624292 0.0296478 0.000254904
0.0331996 -0.641514 0.0384806 0.00146634
0.0338276 -0.630664 0.0384201 0.00281816
0.0612548 -0.688542 0.0815489 0.00169512
0.0589404 -0.674045 0.0810786 0.000957934
0.0674519 -0.693227 0.0890461 0.000424898
0.0655242 -0.678376 0.0885006 0.00697529
0.194537 0.127047 -0.265596 0.000343098
0.197685 0.137927 -0.265646 0.00153601
0.200223 0.129492 -0.252387 2.02906e-05
0.203397 0.14048 -0.252589 0.00093059
0.156091 -0.0423195 -0.46827 0.000970901
0.156994 -0.031179 -0.463783 0.00139246
0.158267 -0.0371566 -0.460316 0.00395671
0.158289 -0.0257768 -0.454826 0.00190224
0.0375169 0.371766 0.374416 2.43032e-05
0.038908 0.38424 0.374955 0.00176289
0.0448114 0.372216 0.381343 0.000655911
0.0461538 0.383994 0.382684 0.00057017
0.0657617 0.395674 0.105184 0.00136242
0.0561428 0.401746 0.10799 0.000961337
0.0670138 0.387676 0.116558 0.00151755
0.0576763 0.393039 0.119429 0.000925731
-0.0836814 -0.659185 0.0711208 0.00195518
-0.0792671 -0.642486 0.0672735 0.00150028
-0.0747486 -0.664268 0.0758957 0.00104268
-0.0703993 -0.646878 0.0717578 0.00200433
-0.0200263 0.515309 0.649195 0.00438518
-0.0252047 0.521967 0.652692 0.000616941
-0.0129167 0.514913 0.65452 0.00296715
-0.0189448 0.521873 0.660519 0.00365591
-0.187175 0.193604 -0.456837 0.000475879
-0.183835 0.212103 -0.459665 0.000757221
-0.187293 0.197736 -0.443931 0.000790547
-0.184348 0.216216 -0.446278 0.000167908
-0.0398247 -0.0747479 -0.631983 0.000672627
-0.0382675 -0.0624228 -0.630627 0.00203997
-0.034394 -0.071739 -0.624327 0.00358594
-0.0328549 -0.059721 -0.624258 0.000300592
0.195191 0.183125 -0.272234 0.000319089
0.197293 0.195595 -0.27191 0.00247495
0.198667 0.182713 -0.262524 0.0012865
0.200653 0.194619 -0.261731 0.000568058
0.116151 0.0355964 -0.603074 0.00143428
0.117741 0.0465247 -0.602616 0.000603897
0.125967 0.0364085 -0.597011 0.000572651
0.126807 0.0475731 -0.596838 0.0010046
0.0571358 -0.623304 0.0588466 0.000183009
0.0592732 -0.612952 0.0558617 0.00106625
0.0649439 -0.628001 0.0605283 0.000163146
0.0669448 -0.617862 0.0566903 0.00103367
0.0601944 0.399013 0.45679 0.000987053
0.0611308 0.411649 0.457531 0.00303398
0.0575639 0.404307 0.467133 0.00254992
0.058146 0.416794 0.468402 0.00464784
0.110368 0.333294 0.106986 0.000740267
0.101176 0.345288 0.108456 0.000659626
0.11306 0.325756 0.118578 0.0016862
0.104119 0.338279 0.120232 0.000589342
-0.0269848 -0.298266 -0.673641 0.00754821
-0.0241941 -0.284446 -0.671389 0.00202763
-0.0179244 -0.295625 -0.672394 0.00181382
-0.0151584 -0.281969 -0.670252 0.00740481
0.0686899 -0.712399 -0.635902 0.000974265
0.0721115 -0.700595 -0.635709 0.00588457
0.0692624 -0.711572 -0.624907 0.00122377
0.068504 -0.701476 -0.620893 0.00405503
0.139424 0.318134 -0.419063 0.0022617
0.131119 0.328508 -0.416944 0.0013376
0.144218 0.315921 -0.407667 0.000959313
0.13561 0.326922 -0.405257 3.08743e-05
-0.172399 0.0359093 -0.505246 0.000788533
-0.169437 0.0511799 -0.504627 0.00414864
-0.177576 0.0429168 -0.492935 0.00287372
-0.174617 0.0578544 -0.492572 0.00100674
0.177637 0.113475 -0.0203183 0.00115215
0.175231 0.127116 -0.0158753 0.00192095
0.17338 0.116567 -0.00853444 0.00118629
0.171134 0.130219 -0.00398225 0.00104868
-0.106894 -0.0960705 -0.62678 0.00392786
-0.103835 -0.0820745 -0.623982 0.00141443
-0.0952939 -0.0890823 -0.629332 0.000467739
-0.092502 -0.0760198 -0.625915 0.00206624
0.0541811 -0.717022 0.0758927 0.0062977
0.0512806 -0.704153 0.0794891 0.00202281
0.0565499 -0.718025 0.0875688 0.00333194
0.0539626 -0.705443 0.0902818 0.00386657
0.171573 0.299812 -0.0984934 0.00109273
0.165726 0.310196 -0.095832 0.000233976
0.169184 0.298763 -0.0889057 0.000703994
0.163502 0.309187 -0.0864225 0.00097714
0.0762963 -0.71283 -0.64918 0.00114388
0.083899 -0.700233 -0.653873 0.010267
0.0756691 -0.709784 -0.638479 0.0014055
0.081466 -0.697569 -0.640752 0.00492251
0.0562269 -0.216042 -0.685314 9.10765e-05
0.0611466 -0.202824 -0.685197 0.00563536
0.0560732 -0.205681 -0.676555 0.00401203
0.0613921 -0.19228 -0.676265 0.00120394
-0.0242233 0.509659 0.359607 0.0011304
-0.0223072 0.523025 0.356033 0.0024396
-0.0130838 0.505069 0.358255 5.19162e-05
-0.0111982 0.518382 0.354733 0.00115859
0.0214959 -0.406462 -0.684906 0.0007916
0.0213253 -0.39125 -0.68267 0.00270376
0.0253918 -0.403242 -0.674327 7.40331e-05
0.024437 -0.387482 -0.672162 0.00116822
0.0240141 -0.0403997 0.0331148 0.00125365
0.0153722 -0.0350654 0.0358434 0.00258826
0.02661 -0.0441864 0.0437052 0.000725647
0.01872 -0.0385196 0.0461819 0.00218469
-0.0891043 -0.133461 -0.00393782 0.000227588
-0.0889561 -0.120321 -0.000864213 0.000268805
-0.0803773 -0.129852 -0.00479121 0.0006467
-0.0811411 -0.116549 -0.00188926 0.00149955
0.0644128 -0.0427407 -0.0111856 0.000435202
0.0654371 -0.0384586 -0.0171257 0.00151002
0.0723946 -0.0457189 -0.00602913 0.00073394
0.0769314 -0.0400383 -0.0151597 0.000440116
0.00977288 0.0337159 -0.575207 0.00133151
0.0100558 0.0429306 -0.574538 0.000473637
0.00970577 0.0355138 -0.564539 0.00269725
0.00974162 0.0459759 -0.564823 0.00152645
0.0961778 0.461403 -0.292636 0.00115514
0.0946189 0.475212 -0.288502 0.00244124
0.0996942 0.46329 -0.279952 0.00133326
0.0981405 0.476792 -0.276092 0.00071143
-0.203162 0.086851 -0.179212 0.000686302
-0.206944 0.0989723 -0.174629 0.000274364
-0.204279 0.0891302 -0.165115 0.000234898
-0.207507 0.101187 -0.161219 0.000936244
-0.0473826 0.36356 -0.475549 0.000764153
-0.0464388 0.369154 -0.465431 0.00149589
-0.0394173 0.371832 -0.464338 6.8457e-05
-0.0388688 0.377074 -0.45387 0.00136061
-0.160578 0.0122359 -0.112602 0.000619578
-0.169132 0.0247686 -0.104756 1.11672e-05
-0.155789 0.0089588 -0.100438 0.000271508
-0.16535 0.0223406 -0.092116 0.000204931
-0.0867046 0.0169455 0.16862 1.60663e-05
-0.0867067 0.0276341 0.178747 0.00117838
-0.077225 0.0212988 0.175401 7.5871e-05
-0.0770666 0.0320985 0.185527 0.00161443
-0.0505676 -0.344426 0.031619 0.000183025
-0.0544784 -0.328957 0.0345579 0.000492094
-0.0412793 -0.34026 0.0375767 0.00216754
-0.0450183 -0.324586 0.0408008 0.0022744
0.0357241 -0.563227 -0.0147237 0.0113914
0.0393534 -0.548319 -0.0127343 0.00572085
0.0416382 -0.567344 -0.00343304 0.000212986
0.0453087 -0.552459 -0.00140573 0.00580467
-0.0471514 -0.160535 0.0675875 0.00495617
