-0.0863355 0.298715 -0.176668 0.00549558
-0.0776494 0.279435 -0.169731 0.00256728
-0.0691211 0.309311 -0.165855 0.000847527
-0.736162 -0.20613 -0.241762 0.00261455
-0.740056 -0.206124 -0.231901 0.00262071
-0.725643 -0.206237 -0.234406 0.00365844
-0.732748 -0.206572 -0.220734 0.000324144
0.661547 0.00457916 -0.193174 0.011483
0.644544 0.0217254 -0.187361 0.00988767
0.667803 0.00120676 -0.172709 0.0141057
0.650659 0.0181527 -0.165565 0.0122386
0.171605 -0.195854 -0.542275 0.0152186
0.168785 -0.192157 -0.524225 0.00393659
0.185479 -0.191326 -0.530177 0.00252261
0.183531 -0.188145 -0.511803 0.0146003
0.711377 -0.158499 0.403495 0.0165554
0.704678 -0.155882 0.419256 0.00807999
0.724832 -0.155212 0.415517 0.006163
0.716207 -0.151694 0.433468 0.00996949
-0.373903 0.126741 -0.0913169 0.00114522
-0.350184 0.135168 -0.0976199 0.00357182
-0.364556 0.131209 -0.0783 0.00135022
-0.342084 0.140537 -0.0840333 0.01454
0.236675 -0.211581 -0.332313 0.00283556
0.230002 -0.209925 -0.314833 0.00117961
0.253387 -0.204075 -0.322983 0.00467042
0.24711 -0.202768 -0.305946 0.00597679
-0.0314686 0.114032 -0.406452 0.011228
-0.040292 0.11892 -0.390453 0.00634017
-0.0118083 0.114429 -0.392327 0.0108308
-0.0217991 0.118981 -0.37537 0.00627938
0.843027 -0.201891 -0.341186 0.00685371
0.859804 -0.192309 -0.34254 0.00499321
0.849804 -0.190659 -0.324682 0.00500672
0.863519 -0.181622 -0.32432 0.00870801
-0.313825 -0.206045 0.595729 0.0027003
-0.323776 -0.209331 0.613241 0.000586438
-0.29896 -0.202873 0.60499 0.00587204
-0.309667 -0.205902 0.622575 0.00284286
-0.186689 -0.1471 -0.526463 0.00515594
-0.192482 -0.138452 -0.513649 0.00349157
-0.177087 -0.141669 -0.518942 0.000274667
-0.18255 -0.131276 -0.507047 0.0102351
0.0215907 0.11596 0.0744603 0.00238938
0.020146 0.129835 0.0798236 0.00200777
0.0206689 0.119521 0.0895798 0.00193081
0.0174586 0.130948 0.0978764 0.00408704
-0.0851947 0.2476 -0.179497 0.00831036
-0.0783244 0.277059 -0.174163 0.00656582
-0.0665895 0.250113 -0.162525 9.17298e-06
-0.0605933 0.280019 -0.157624 0.00282315
0.366598 -0.036708 -0.550851 0.000188151
0.393052 -0.0265598 -0.556216 0.00139824
0.381787 -0.0299605 -0.529213 0.000259261
0.407686 -0.0210012 -0.535145 0.00201568
-0.0627199 0.0858632 0.276283 0.00513717
-0.0697782 0.0849116 0.29092 0.00418556
-0.0468306 0.0820337 0.289939 0.00130775
-0.0585161 0.0815938 0.309012 0.000867826
0.0724178 -0.201754 0.458813 0.00699073
0.0557397 -0.193827 0.474589 0.0149161
0.090369 -0.204146 0.475968 0.00459885
0.0723849 -0.202647 0.495214 0.00609653
0.114176 0.0692677 -0.425126 0.000449371
0.112449 0.0877288 -0.420877 0.00156985
0.132374 0.070422 -0.40752 0.00428105
0.129177 0.0879389 -0.403596 0.00292247
0.0811947 0.127544 0.106971 0.00155384
0.0695715 0.133251 0.121101 0.0040403
0.0921582 0.125175 0.114317 8.52243e-05
0.0819676 0.131309 0.127923 0.00544127
-0.552729 -0.0764622 0.275387 0.00847451
-0.551245 -0.0622092 0.269519 0.0129597
-0.537855 -0.0757123 0.292169 0.0113737
-0.53711 -0.0616014 0.286247 0.0153656
0.570147 0.0881721 0.0420969 0.0193293
0.558027 0.0953497 0.0537134 0.0171541
0.589964 0.0834517 0.0646568 0.0163957
0.575663 0.092194 0.0738571 0.0135573
-0.369321 -0.193391 -0.639291 0.00713311
-0.349723 -0.186679 -0.645772 0.0136144
-0.344986 -0.202255 -0.62475 0.00649011
-0.327517 -0.193656 -0.635297 0.003139
0.57278 -0.128091 -0.6362 0.00435958
0.555895 -0.111846 -0.628256 0.0021958
0.591659 -0.134749 -0.631798 0.000360269
0.574021 -0.115837 -0.622918 0.00765122
0.00247198 -0.0785944 -0.465989 0.0103689
0.00504541 -0.0592852 -0.466941 0.00854838
0.0244083 -0.0770395 -0.462501 0.00637248
0.026096 -0.0563231 -0.463155 0.00498972
-0.452561 -0.0685071 -0.351007 0.0134934
-0.448586 -0.0489287 -0.353336 0.0128097
-0.457914 -0.0563758 -0.343395 0.0112533
-0.45212 -0.0368637 -0.346305 0.0095574
-0.135192 0.0770425 -0.226135 0.00368348
-0.145154 0.0827932 -0.213844 0.00206723
-0.117325 0.0762409 -0.221156 0.00448512
-0.125857 0.0837733 -0.210365 0.00304729
-0.215989 -0.200753 0.453109 0.000557438
-0.201015 -0.189248 0.452512 0.00217603
-0.192378 -0.201073 0.459123 0.00306905
-0.178641 -0.189777 0.461128 0.00396107
-0.78676 -0.193318 -0.230282 0.00418223
-0.796111 -0.190487 -0.215851 0.00857586
-0.783049 -0.193186 -0.214387 0.00430304
-0.793891 -0.191525 -0.199306 0.00137709
-0.302023 0.216381 -0.164127 0.00278187
-0.299358 0.233265 -0.161153 0.000209561
-0.313458 0.230921 -0.149671 0.00100066
-0.308272 0.24794 -0.149489 0.00207087
0.725012 -0.137684 -0.0839254 0.022082
0.717983 -0.123403 -0.0784986 0.016777
0.727919 -0.146013 -0.0649732 0.0199617
0.721454 -0.130432 -0.0600848 0.0195745
0.773135 -0.202072 0.441727 0.00667263
0.766326 -0.20033 0.459273 0.00466713
0.788713 -0.199995 0.455025 0.00875
0.781961 -0.199226 0.473115 0.00951905
-0.0910967 -0.0914443 0.493176 0.00719288
-0.0977291 -0.072627 0.496485 0.00473722
-0.07242 -0.0811731 0.486484 0.0114085
-0.0833908 -0.0603026 0.49069 0.00864377
0.371707 -0.120617 -0.377901 0.000509478
0.387432 -0.105318 -0.380768 0.00168054
0.381777 -0.109428 -0.360063 9.44286e-06
0.397536 -0.0946056 -0.363384 0.00244354
-0.185737 -0.0558651 -0.458301 0.00757236
-0.192265 -0.0380338 -0.451026 0.00082703
-0.164478 -0.0429708 -0.463865 0.0114658
-0.171031 -0.0235865 -0.458534 0.00645104
-0.728393 -0.207586 -0.122984 0.00115894
-0.740948 -0.20937 -0.10169 0.00062527
-0.71046 -0.205508 -0.108407 0.00323739
-0.722826 -0.208057 -0.0857872 0.000687894
-0.00445872 -0.09752 -0.435386 0.00307563
-0.00316918 -0.0802695 -0.436593 0.00464619
0.017109 -0.095646 -0.432795 0.00790372
0.0200398 -0.0778665 -0.434221 0.010234
-0.470214 0.114006 -0.0513402 0.0112543
-0.463663 0.116012 -0.0390997 0.00924779
-0.457598 0.113831 -0.02635 0.0114293
-0.443671 0.114817 -0.0221111 0.0104428
-0.227738 0.117604 0.276146 0.0076564
-0.211293 0.121675 0.264663 0.00358499
-0.21131 0.117766 0.287104 0.00749445
-0.19821 0.120627 0.278455 0.00463325
0.298921 -0.148694 0.33254 0.00780305
0.313562 -0.131202 0.322339 0.0141153
0.309989 -0.150531 0.342663 0.00858743
0.324961 -0.132769 0.33291 0.00354376
0.299662 -0.120393 -0.635393 0.00323484
0.28813 -0.107691 -0.628303 0.00740167
0.315134 -0.130163 -0.629451 0.00270655
0.304604 -0.116159 -0.623437 0.00872149
-0.802606 -0.184938 -0.148095 0.0036161
-0.814019 -0.177363 -0.13207 0.00423975
-0.800713 -0.185459 -0.126062 0.0099272
-0.813336 -0.178769 -0.107952 0.000751787
0.564075 -0.12424 0.495553 0.0079026
0.552598 -0.111839 0.503451 5.18909e-06
0.581489 -0.126013 0.499359 0.00409687
0.566838 -0.116717 0.508928 0.00547194
-0.296366 -0.121279 0.438864 0.00648785
-0.294361 -0.0997609 0.436951 0.00396624
-0.280616 -0.114153 0.447236 0.00937218
-0.278339 -0.0918363 0.445634 0.00723737
-0.299008 0.0806917 -0.473091 0.00419659
-0.306919 0.0888531 -0.454656 0.00590141
-0.279729 0.0900381 -0.465629 0.00333686
-0.286928 0.0990357 -0.44687 0.0107434
-0.404949 -0.193442 0.508707 0.00849616
-0.387753 -0.189711 0.506338 0.00115473
-0.396407 -0.191323 0.522411 0.0069355
-0.379608 -0.187461 0.52035 0.0150008
0.504282 0.0857487 0.243999 0.00697439
0.495816 0.0941872 0.240524 0.0146527
0.518035 0.0770423 0.260308 7.12387e-05
0.514432 0.087345 0.252934 0.00970746
0.142032 0.0667254 0.407878 0.00293819
0.138895 0.08115 0.397908 0.00913317
0.15287 0.0551045 0.409321 0.00220559
0.150632 0.0701597 0.397773 0.00563093
-0.639583 -0.0749379 0.0149082 0.00401799
-0.639789 -0.0529347 0.0219662 0.00363901
-0.63395 -0.0705639 0.0390013 0.0086638
-0.634386 -0.0485863 0.0452183 0.00765335
-0.798846 -0.186631 -0.168625 0.00225771
-0.809429 -0.178129 -0.153 0.00419676
-0.798811 -0.186404 -0.14385 0.00833135
-0.810437 -0.179313 -0.127679 7.07257e-05
0.0760569 0.24564 0.234224 0.00472879
0.0778313 0.259724 0.228891 0.000109082
0.0947981 0.244083 0.23624 0.00668964
0.0948018 0.259088 0.231059 0.0020359
0.482589 0.0129748 -0.301474 0.0144537
0.476667 0.0278197 -0.294411 0.00739085
0.504016 0.0273358 -0.301003 0.0139834
0.500117 0.0408308 -0.293341 0.00632119
-0.480317 0.109452 0.129472 0.0158083
-0.489501 0.110458 0.149814 0.0148023
-0.46271 0.112153 0.149447 0.013107
-0.471601 0.112323 0.168145 0.0129372
-0.611505 -0.145093 0.248996 0.00314856
-0.596725 -0.13705 0.240379 0.00489412
-0.603758 -0.144991 0.26495 0.00304659
-0.587357 -0.137947 0.256437 0.0039965
-0.541388 -0.106097 0.228206 0.00163866
-0.537468 -0.0901501 0.227389 0.00218461
-0.534241 -0.101037 0.243167 0.00275845
-0.531001 -0.086001 0.24085 0.00122372
-0.382376 0.0203801 0.392381 0.00158628
-0.381376 0.0361862 0.392103 0.000949141
-0.36554 0.0196808 0.40254 0.001372
-0.365498 0.0358478 0.402009 0.000903574
0.597649 -0.161857 -0.564871 0.00474579
0.580621 -0.145272 -0.557841 0.00462985
0.60704 -0.166385 -0.548877 0.0121069
0.591329 -0.150759 -0.541444 0.00230269
-0.54994 0.0700275 -0.223348 0.0113296
-0.529092 0.0851991 -0.22711 0.00873352
-0.540385 0.0779856 -0.199528 0.00133293
-0.518388 0.0884469 -0.208358 0.00834522
0.326751 -0.0758504 -0.348572 0.00527606
0.327729 -0.0582831 -0.345545 0.00703252
0.341074 -0.068709 -0.345062 0.00945573
0.344247 -0.0523419 -0.343712 0.000512684
-0.765471 -0.206726 -0.237511 0.0020189
-0.773208 -0.205747 -0.224657 0.00299829
-0.759612 -0.207864 -0.225499 0.00088073
-0.769613 -0.207689 -0.210961 0.00105588
-0.0700958 -0.114564 -0.479496 0.0131628
-0.0711819 -0.095767 -0.477043 0.0155348
-0.0498099 -0.107003 -0.476829 0.0124791
-0.0509911 -0.0890432 -0.475214 0.0143713
-0.407173 -0.209084 0.561886 0.00338944
-0.419003 -0.202502 0.58163 0.00624296
-0.398532 -0.207896 0.580024 0.000309583
-0.410588 -0.200685 0.599297 0.0080605
0.318771 -0.214993 -0.296698 0.00624824
0.325918 -0.199832 -0.294949 0.0029031
0.316258 -0.203198 -0.276789 0.0102541
0.324951 -0.186212 -0.276491 0.0119929
0.300672 -0.111061 0.291747 0.000173175
0.308767 -0.0879295 0.292259 0.00033865
0.323169 -0.105295 0.294811 0.00289122
0.330437 -0.0811014 0.296812 0.00489176
0.292221 -0.207398 0.547133 0.00134684
0.272825 -0.209063 0.569603 0.000318083
0.311804 -0.206093 0.557585 0.00265203
0.292636 -0.207807 0.579562 0.000937549
0.0261475 0.272829 0.233204 0.00465841
0.0304559 0.287257 0.226534 0.00150394
0.0426375 0.272803 0.23485 0.006303
0.0468092 0.287048 0.227687 0.000358883
-0.596774 -0.0738013 -0.188345 0.00871692
-0.594033 -0.0586173 -0.186335 0.0119936
-0.601523 -0.0667154 -0.171678 0.0101912
-0.599501 -0.0506767 -0.169995 0.0126538
0.0947241 -0.118528 0.43356 0.00818481
0.0804332 -0.102914 0.441035 0.00813809
0.114169 -0.103212 0.422307 0.00823992
0.0959991 -0.0885183 0.433136 0.00778773
-0.111703 0.103141 -0.182545 0.00459468
-0.115803 0.114857 -0.175019 0.00341089
-0.0959802 0.101964 -0.179229 0.00479407
-0.0979829 0.115773 -0.172241 0.00219324
0.258231 -0.214014 0.335224 0.00526907
0.280761 -0.204197 0.331792 0.00454762
0.279394 -0.209698 0.341729 0.000953483
0.303039 -0.201151 0.338365 0.00759415
-0.278717 0.141172 -0.191489 0.00534889
-0.285022 0.150188 -0.179871 0.00158503
-0.269204 0.157502 -0.185352 0.00368238
-0.275429 0.166949 -0.17484 0.00815089
-0.609311 -0.0155625 -0.169992 0.00362379
-0.614887 0.00063458 -0.160773 0.00162173
-0.618038 -0.0110799 -0.149877 0.0021954
-0.623466 0.00562535 -0.140816 0.000420626
-0.28688 0.0823182 0.186992 0.00159217
-0.26758 0.0867732 0.187531 0.00604722
-0.267547 0.0823751 0.196 0.00164912
-0.255545 0.0867419 0.199422 0.00601595
-0.619574 0.0718945 -0.144423 0.000448343
-0.605501 0.0905724 -0.139883 0.00644207
-0.618221 0.0859189 -0.122709 0.00249219
-0.601955 0.102558 -0.119276 0.00608735
0.256789 -0.211387 -0.323871 0.00264228
0.250512 -0.210081 -0.306834 0.00133591
0.272041 -0.202457 -0.315548 0.00628769
0.265935 -0.200649 -0.298646 0.00809639
0.341896 0.0847184 0.238415 0.00399237
0.341993 0.0904815 0.230043 0.00975551
0.353707 0.0755789 0.25134 0.0051471
0.361441 0.0837131 0.235545 0.00298714
-0.396879 -0.0475273 0.431413 0.00220045
-0.393631 -0.0294104 0.431627 0.00375063
-0.375364 -0.0464272 0.437358 0.00791006
-0.372213 -0.0273367 0.438254 0.0084371
-0.23764 0.269488 0.168037 0.00791701
-0.231287 0.285586 0.165923 0.00277758
-0.214368 0.271078 0.176674 0.00498148
-0.208773 0.286071 0.174232 0.00113491
0.164926 -0.21172 -0.395526 0.00297518
0.156141 -0.204583 -0.378349 0.00416189
0.180838 -0.213087 -0.38267 0.00434166
0.172384 -0.205151 -0.365977 0.00359441
-0.575676 0.0766835 -0.245436 0.0015983
-0.554266 0.0940967 -0.248759 0.00589375
-0.567402 0.0865018 -0.225166 0.0105084
-0.547077 0.102407 -0.228332 0.0115325
-0.300049 -0.149843 0.603727 0.00789934
-0.289101 -0.142934 0.594525 0.000989831
-0.28264 -0.152443 0.616786 0.0104991
-0.280975 -0.145893 0.616623 0.00394939
-0.14047 -0.195783 0.674151 0.00839274
-0.150279 -0.190711 0.686501 0.00408918
-0.125722 -0.191124 0.681742 0.000320747
-0.133138 -0.184192 0.691496 0.00918403
0.334739 0.0861708 -0.0148958 0.0054448
0.329847 0.0877822 0.00616819 0.00705622
0.349873 0.0877446 0.00755139 0.00701856
0.345177 0.0906088 0.0287157 0.0098828
0.307346 -0.0912328 -0.430696 0.000767461
0.32057 -0.0770488 -0.434457 0.00109042
0.314259 -0.0803066 -0.4176 0.00193187
0.328595 -0.0664297 -0.422173 0.000139496
0.017742 -0.16938 -0.433982 0.0092334
0.0146276 -0.156633 -0.428941 0.00343842
0.0331796 -0.174591 -0.427236 0.00808045
0.0315625 -0.160368 -0.423706 0.00421223
0.28735 -0.204156 0.5688 0.00458917
0.268067 -0.206304 0.590876 0.00244058
0.308637 -0.204655 0.575336 0.00408998
0.290661 -0.207023 0.596461 0.00172184
-0.0371139 0.0838427 -0.478661 0.00301511
-0.0404555 0.0978703 -0.468326 0.00365941
-0.0180464 0.0836304 -0.464605 0.00995894
-0.0208877 0.0974961 -0.452361 0.0119115
-0.117152 0.0819168 -0.426859 0.00119078
-0.126246 0.0869222 -0.410665 0.00619621
-0.105221 0.0835051 -0.411227 0.00277906
-0.11619 0.0874128 -0.395531 0.00668679
0.0446229 0.0917128 -0.33166 0.0109868
0.0291995 0.0935612 -0.312554 0.0128352
0.0627811 0.0874281 -0.321851 0.00670211
0.0491335 0.0888782 -0.302132 0.00815218
0.125295 0.0893468 -0.0215721 0.00862083
0.111213 0.0904377 2.9766e-05 0.00971165
0.134085 0.0897247 0.000806881 0.00899868
0.120203 0.0903118 0.0218698 0.00958582
-0.777475 -0.207023 0.200814 0.00172212
-0.788193 -0.199917 0.224366 0.00216382
-0.765071 -0.203606 0.220961 0.00513912
-0.773743 -0.196395 0.243908 0.004716
-0.397707 0.0166521 -0.379954 0.00345681
-0.400956 0.0304141 -0.374257 0.000747135
-0.379728 0.0255346 -0.387034 0.000630388
-0.383016 0.0383988 -0.381159 0.00382944
-0.372464 -0.204932 -0.614903 0.00381268
-0.353503 -0.195656 -0.626785 0.00537308
-0.347181 -0.211777 -0.606708 0.00303193
-0.330521 -0.203105 -0.617868 0.00564
-0.140822 0.075591 0.458345 0.00703193
-0.132533 0.084891 0.444995 0.00657868
-0.120483 0.0691392 0.468212 0.0122777
-0.112597 0.0806561 0.453988 0.00609762
0.846945 -0.164751 -0.0238737 0.00786577
0.854843 -0.152709 -0.019623 3.22589e-05
0.854612 -0.154636 -0.00502571 0.00019865
0.859507 -0.143099 0.0013783 0.00469644
-0.214688 -0.207524 0.611115 0.00122134
-0.231814 -0.208694 0.63186 5.14808e-05
-0.197678 -0.208927 0.622738 0.000181961
-0.215293 -0.209536 0.643214 0.000790673
0.832322 -0.147715 0.307252 0.00577108
0.821773 -0.13648 0.317533 0.00546447
0.833898 -0.145252 0.327983 0.00330793
0.826131 -0.131742 0.338056 0.010202
0.69714 0.00511355 0.074776 0.00465057
0.684844 0.0183864 0.0834131 0.00662137
0.698209 -0.00256987 0.0935942 0.00768349
0.686245 0.0121681 0.102878 0.00958577
0.73964 -0.111703 -0.296502 0.00307349
0.733844 -0.0945025 -0.291523 0.00232996
0.754432 -0.107383 -0.283162 0.013017
0.748016 -0.0924178 -0.276381 0.00770094
0.205825 0.122473 -0.131475 0.00567307
0.204515 0.131962 -0.131174 0.00330628
0.222017 0.126777 -0.123471 0.00113391
0.217828 0.128347 -0.116092 0.00308723
-0.069168 -0.147218 -0.490761 0.00568559
-0.0703884 -0.128882 -0.489155 0.00377052
-0.0476676 -0.142921 -0.485078 0.00394391
-0.0490853 -0.124549 -0.483868 0.00535911
0.263738 -0.0669514 0.337033 0.000579242
0.263813 -0.0466641 0.338957 0.00250271
0.282269 -0.057899 0.333299 0.00315547
0.282802 -0.0378299 0.334734 0.00172031
-0.242029 -0.0695265 -0.477285 0.0108531
-0.245223 -0.0498857 -0.471115 0.0162141
-0.219589 -0.0624481 -0.478364 0.0141126
-0.221872 -0.0432448 -0.472979 0.0189137
-0.110702 0.0941765 -0.182695 0.00494704
-0.115275 0.105243 -0.175161 0.00316146
-0.0947814 0.0925327 -0.180228 0.00601911
-0.0973375 0.105954 -0.172953 0.00152988
0.325256 -0.188433 -0.508056 0.0125684
0.34151 -0.173578 -0.509708 0.00063718
0.333428 -0.183429 -0.487469 0.00503686
0.347413 -0.165126 -0.48767 0.003012
0.656302 0.0543695 0.223853 0.0027027
0.643047 0.0685805 0.230275 0.000504152
0.66581 0.0450103 0.241456 0.00369549
0.652485 0.0594126 0.24889 0.0013731
-0.647518 -0.204916 -0.265282 0.00382857
-0.656803 -0.204203 -0.242256 0.00512862
-0.637571 -0.202892 -0.253413 0.00585333
-0.646899 -0.201572 -0.229989 0.00167794
-0.650589 -0.184446 0.44656 0.00578749
-0.662168 -0.180152 0.467152 0.0166955
-0.637822 -0.183902 0.463671 0.00353798
-0.64391 -0.178435 0.478606 0.0110752
-0.586273 -0.216329 0.286165 0.0075841
-0.557391 -0.210024 0.273419 0.00128016
-0.571202 -0.21172 0.301447 0.00297489
-0.54182 -0.207049 0.291177 0.00169554
-0.687808 -0.187619 0.249651 0.0226948
-0.676548 -0.181206 0.261147 0.00920938
-0.664002 -0.183485 0.270677 0.00518968
-0.655879 -0.178051 0.283836 0.0206827
0.336405 -0.14168 0.504265 0.000263879
0.340304 -0.137183 0.503676 0.000220176
0.351147 -0.145443 0.511991 0.00349895
0.359231 -0.140946 0.508508 0.00099791
0.138468 0.140011 0.144601 0.0019889
0.133712 0.152247 0.152141 0.00223608
0.154787 0.144255 0.143676 0.00458163
0.150939 0.157155 0.151428 0.00135171
-0.539218 -0.151897 -0.53768 0.00995321
-0.560499 -0.147032 -0.516824 0.00508756
-0.526108 -0.15375 -0.519096 0.0118061
-0.546544 -0.150732 -0.495945 0.00878823
0.706371 -0.169744 0.239898 0.00344343
0.708952 -0.154738 0.235998 0.00602383
0.70316 -0.159153 0.250862 0.000231988
0.708296 -0.143888 0.246067 0.00536872
-0.130027 0.116148 -0.299886 0.00911158
-0.138646 0.116048 -0.279837 0.00921201
-0.11324 0.117328 -0.289329 0.00793244
-0.122105 0.118032 -0.269642 0.00722798
-0.37393 0.0814855 -0.241757 0.000759465
-0.380688 0.0812351 -0.226148 0.000509141
-0.355456 0.0830473 -0.230232 0.00232128
-0.365775 0.0839425 -0.212274 0.00321649
-0.627776 -0.212294 -0.114568 0.00354949
-0.636248 -0.212089 -0.0917945 0.00334423
-0.619093 -0.207821 -0.0954424 0.000924018
-0.623022 -0.205631 -0.0756615 0.00311359
-0.119845 -0.0467771 0.499367 0.00301339
-0.122753 -0.0272895 0.500392 0.00224731
-0.101552 -0.0406262 0.493788 0.00785278
-0.107642 -0.0206312 0.496275 0.00578387
-0.5246 -0.153794 -0.388854 0.0118504
-0.522184 -0.145499 -0.378154 0.00355465
-0.518341 -0.14354 -0.367722 0.00159588
-0.513323 -0.133843 -0.360012 0.0081008
0.826078 -0.208246 -0.0929964 0.000499082
0.815279 -0.209658 -0.0659898 0.000913027
0.838139 -0.205531 -0.0749438 0.00321446
0.828057 -0.206455 -0.0485915 0.00228955
0.248129 -0.21168 -0.361533 0.00293491
0.241159 -0.211173 -0.343596 0.00242761
0.267382 -0.204016 -0.350174 0.0047289
0.260948 -0.202778 -0.332546 0.00596741
0.583133 0.101637 -0.242836 0.00202034
0.567836 0.110141 -0.236758 0.00010498
0.593326 0.0921844 -0.229511 0.00693842
0.576021 0.101764 -0.224 0.00463015
-0.0598769 0.195997 -0.165829 0.0062732
-0.0557821 0.223566 -0.160478 0.00304534
-0.0375063 0.196253 -0.146328 0.000414863
-0.0372462 0.223257 -0.14211 0.00345809
-0.487557 -0.088332 -0.312146 0.0101178
-0.481024 -0.0664798 -0.318755 0.0101718
-0.499137 -0.0721399 -0.293997 0.00733833
-0.494637 -0.0502131 -0.300469 0.00789472
0.0731625 -0.206942 -0.478962 0.00180322
0.0614713 -0.209418 -0.459958 0.000673103
0.0864113 -0.2051 -0.469653 0.00364501
0.0748353 -0.20793 -0.449958 0.000815106
0.120929 -0.100806 -0.409565 0.0112123
0.122006 -0.0828493 -0.40891 0.011277
0.139501 -0.0997384 -0.399779 0.00920752
0.138861 -0.080687 -0.398924 0.010174
-0.706808 -0.15107 0.311756 0.00912566
-0.692331 -0.141433 0.306157 0.000510925
-0.694727 -0.151174 0.333203 0.00923029
-0.680686 -0.141367 0.326752 0.000576594
-0.382057 0.110666 -0.39701 0.00418096
-0.392906 0.119522 -0.379568 0.00103727
-0.371186 0.119446 -0.390055 0.00148966
-0.382036 0.128302 -0.372612 0.0053326
-0.408954 -0.209373 0.567856 0.000627744
-0.420784 -0.202791 0.5876 0.00595377
-0.400459 -0.207658 0.586312 0.0010866
-0.412617 -0.200371 0.605385 0.00837418
0.75247 -0.212831 -0.434814 0.00428716
0.7682 -0.206303 -0.431284 0.000964881
0.769431 -0.210478 -0.417603 0.00173277
0.793079 -0.203208 -0.41906 0.0055373
-0.407793 -0.154053 0.621014 0.00723572
-0.413476 -0.143208 0.626691 0.00028941
-0.389758 -0.154673 0.634173 0.00148937
-0.393915 -0.143945 0.637616 0.00334704
0.554225 0.0707714 -0.0194586 0.00273644
0.542893 0.0773899 -0.00472295 0.00606311
0.566153 0.0687314 -0.00618136 0.00585327
0.555451 0.0756436 0.00825974 0.00767654
0.474019 -0.0842121 0.31716 0.00836145
0.476184 -0.0695009 0.316869 0.00650529
0.492899 -0.0857425 0.31739 0.00681036
0.495103 -0.0703934 0.317508 0.0086934
0.368405 -0.124422 -0.368672 0.000478547
0.383728 -0.109072 -0.371194 0.00131305
0.377258 -0.114638 -0.350502 0.000430557
0.392301 -0.0992395 -0.353193 0.000743013
-0.186686 -0.14914 -0.637404 0.00524585
-0.197607 -0.142833 -0.623799 0.000889054
-0.166704 -0.149859 -0.631533 0.000624675
-0.176018 -0.140112 -0.620789 0.00183235
-0.0805285 -0.105929 0.457326 0.00303917
-0.0926716 -0.0842479 0.46089 0.00485137
-0.0587572 -0.10197 0.451009 0.00044623
-0.0712928 -0.0786729 0.454937 0.00228934
-0.390009 -0.218821 0.413677 0.0100762
-0.379765 -0.206074 0.410878 0.00267087
-0.380045 -0.213655 0.428045 0.00491008
-0.368075 -0.202622 0.425065 0.00612303
0.138831 -0.213232 0.631852 0.00448719
0.128865 -0.201074 0.644765 0.00767062
0.153857 -0.211732 0.646007 0.00298701
0.143772 -0.200496 0.6595 0.00878283
-0.494668 -0.0519799 0.299249 0.0039471
-0.495908 -0.0311693 0.292163 0.000320473
-0.484961 -0.0529522 0.312527 0.00505202
-0.488146 -0.0285103 0.303283 0.00140121
-0.477664 -0.156563 -0.329205 0.0148325
-0.475538 -0.141679 -0.32504 0.0104954
-0.479901 -0.139491 -0.316583 0.00765338
-0.470115 -0.122396 -0.319408 0.00288923
-0.796274 -0.154486 0.16873 0.00626733
-0.768574 -0.143603 0.164199 0.00165916
-0.787057 -0.149374 0.189413 0.00743016
-0.757853 -0.13894 0.184655 0.00300416
-0.352389 -0.039958 -0.449999 0.00219356
-0.368125 -0.0215193 -0.442064 0.00218214
-0.33151 -0.0327346 -0.458976 0.00215896
-0.347576 -0.0147938 -0.451014 0.00329223
0.085179 0.127817 0.071371 0.00229672
0.0721503 0.132985 0.0846775 0.0043901
0.0958093 0.125425 0.0813844 0.000102924
0.0824538 0.1306 0.0956675 0.00302692
0.429467 0.0499402 0.307591 0.015671
0.436633 0.0647713 0.298604 0.00804794
0.448234 0.0436151 0.311902 0.0199821
0.454062 0.0607352 0.302804 0.0113344
-0.422327 0.0304234 -0.408327 0.00384261
-0.435739 0.0481644 -0.398332 0.004779
-0.408768 0.0414653 -0.41613 0.00480208
-0.42282 0.0580483 -0.405242 0.00613129
-0.461312 -0.0804502 0.331615 0.00178395
-0.461768 -0.0597117 0.327976 0.000471944
-0.449004 -0.0780414 0.343337 0.00153747
-0.449275 -0.0579322 0.340322 0.000542003
0.546423 0.0720048 -0.153881 0.00168019
0.531653 0.075113 -0.14178 0.00116041
0.560652 0.0688748 -0.145061 0.00369115
0.545126 0.0714145 -0.133996 0.000796619
-0.428489 0.0231897 -0.406162 0.00243209
-0.43878 0.0408614 -0.397555 0.00356982
-0.413476 0.0342513 -0.414226 0.00362255
-0.426675 0.0516862 -0.40413 0.00496288
-0.212539 0.129041 0.255148 0.00378146
-0.197878 0.133374 0.243821 0.00766588
-0.199948 0.126222 0.268125 0.000962014
-0.185336 0.130633 0.256421 0.00537264
0.0842567 0.214977 -0.00482729 7.5253e-05
0.0831006 0.231799 -0.00551795 0.000390997
0.0847827 0.218325 0.014891 0.00113763
0.0836598 0.234686 0.0142318 0.000551253
-0.119987 -0.113471 0.465208 0.00749407
-0.127137 -0.0947067 0.467898 0.009745
-0.0996271 -0.112343 0.460796 0.00430184
-0.109986 -0.0908951 0.463625 0.00653027
-0.60209 -0.14578 0.279186 0.00383631
-0.584643 -0.139528 0.271497 0.00241583
-0.588654 -0.144504 0.293438 0.00256043
-0.571616 -0.137244 0.285083 0.00470016
0.435749 0.0687419 -0.271184 0.00891549
0.41743 0.0744545 -0.256818 0.00627151
0.448003 0.0701808 -0.258323 0.0105452
0.430306 0.0751756 -0.244478 0.00555039
0.632456 0.0636465 0.0641356 0.0110458
0.612954 0.0758964 0.0691555 0.0112526
0.643589 0.056045 0.0852239 0.00964547
0.623071 0.0690752 0.0887564 0.011921
-0.385754 -0.221944 -0.40861 0.0131986
-0.394133 -0.21192 -0.39605 0.0031751
-0.379319 -0.208908 -0.401685 0.000163111
-0.387486 -0.19919 -0.389197 0.00547667
-0.71081 -0.203339 0.0436968 0.00540633
-0.712136 -0.205937 0.0603971 0.00280826
-0.697212 -0.205498 0.0644813 0.00324723
-0.692878 -0.207858 0.0778486 0.000886587
-0.641594 -0.150108 -0.378198 0.0081641
-0.612435 -0.146223 -0.391514 0.00427947
-0.630392 -0.150035 -0.354424 0.0080909
-0.598345 -0.146805 -0.369047 0.00486084
0.759422 -0.204203 0.48283 0.00705663
0.754809 -0.198019 0.494287 0.00489885
0.776636 -0.199035 0.493787 0.00970964
0.771563 -0.193475 0.505503 0.0147952
0.843195 -0.152726 0.0979888 0.0107817
0.847405 -0.141111 0.103278 0.000832715
0.847738 -0.148207 0.114763 0.00626346
0.851806 -0.136474 0.120259 0.00547012
0.215196 0.107482 0.324019 0.000885009
0.2292 0.113547 0.308754 0.00101869
0.230093 0.101666 0.335096 0.00779184
0.243573 0.109178 0.319311 0.00253539
0.424479 0.0735396 -0.271969 0.00387576
0.406183 0.0792724 -0.25708 0.00145361
0.437883 0.0744856 -0.257668 0.00624042
0.419344 0.0800904 -0.243229 0.000635559
-0.701526 -0.210144 0.142705 0.00139888
-0.708863 -0.209666 0.164269 0.000920656
-0.690046 -0.206948 0.158532 0.00179697
-0.692043 -0.206489 0.176238 0.00225647
-0.184429 0.286783 -0.211879 0.00696529
-0.202296 0.302912 -0.197199 0.00966442
-0.168153 0.299888 -0.213942 0.00433696
-0.180485 0.318935 -0.201313 0.00457488
0.0761202 -0.172458 0.654441 0.00509092
0.0737363 -0.158413 0.645955 0.013817
0.0999944 -0.18083 0.668769 0.0122403
0.0974345 -0.165355 0.659931 0.00314287
-0.255896 -0.145994 -0.543391 0.00404959
-0.271777 -0.143121 -0.524245 0.00117721
-0.240227 -0.142657 -0.535886 0.000713176
-0.256019 -0.139202 -0.517083 0.00274246
0.117945 0.236446 0.232374 0.00255969
0.113841 0.252985 0.227999 0.0012361
0.139713 0.227771 0.233338 0.00322035
0.132241 0.245487 0.228635 0.000861839
0.691503 -0.207178 0.165197 0.00156678
0.671923 -0.199728 0.189068 0.0156916
0.697331 -0.210247 0.189755 0.00150217
0.677973 -0.201243 0.211424 0.00954645
-0.575134 0.0349204 0.195677 0.0171042
-0.571748 0.0526494 0.19622 0.0142957
-0.561867 0.0322222 0.213545 0.012625
-0.56018 0.0500204 0.213303 0.0110244
-0.578124 -0.208228 -0.343288 0.000516814
-0.59376 -0.211506 -0.31922 0.0027608
-0.560682 -0.207184 -0.327337 0.00156054
-0.577189 -0.210651 -0.302707 0.00190594
0.533775 -0.14961 0.498501 0.00912855
0.52819 -0.132099 0.503466 9.83128e-06
0.554377 -0.147522 0.499146 0.00704975
0.54613 -0.132812 0.506543 0.0030868
0.195583 0.0845372 -0.306949 0.0112007
0.187929 0.0902859 -0.291162 0.00955986
0.207696 0.089542 -0.29044 0.0107212
0.200002 0.0945113 -0.273209 0.0137853
0.364053 0.132648 -0.227314 0.00699288
0.347194 0.137448 -0.220134 0.00180927
0.378197 0.126455 -0.215251 0.00119564
0.363111 0.130787 -0.20552 0.00127538
-0.0538183 0.0785808 -0.435836 0.00205393
-0.0605008 0.0853892 -0.421353 0.00467582
-0.0432011 0.0780969 -0.426914 0.00122921
-0.0491559 0.0847886 -0.411971 0.00406259
-0.439058 0.0787746 -0.325108 0.000393255
-0.43772 0.0890753 -0.318853 0.00926196
-0.425964 0.0911081 -0.31726 0.0103821
-0.42163 0.0964679 -0.311193 0.0157419
-0.394831 0.0740618 -0.426361 0.000491879
-0.410702 0.0883091 -0.413265 0.00164264
-0.383994 0.0843744 -0.426432 0.00289389
-0.398507 0.095849 -0.410943 0.000723034
0.109757 -0.145953 -0.592653 0.00400897
0.0997236 -0.144607 -0.58304 0.00266305
0.122636 -0.148427 -0.581422 0.0064827
0.112671 -0.147238 -0.57197 0.00529388
-0.563424 -0.0583774 -0.26103 0.00451765
-0.554019 -0.0359138 -0.265351 0.0103618
-0.570057 -0.0427189 -0.243702 0.00799368
-0.56151 -0.0211304 -0.247067 0.0136209
0.308483 -0.139418 0.547974 0.00252561
0.292504 -0.142731 0.568941 0.000786549
0.324846 -0.142636 0.565342 0.000691763
0.313212 -0.14345 0.581484 0.0015058
-0.339015 0.127251 -0.0144214 0.0139037
-0.324622 0.141266 -0.0202179 0.00146248
-0.337262 0.12947 0.00764081 0.0106361
-0.324838 0.146213 -0.000284182 0.00160239
0.496269 -0.00620071 -0.341775 0.00456024
0.496096 0.00185147 -0.327796 0.00375784
0.51444 0.0023634 -0.336223 0.00466895
0.514748 0.0123058 -0.323055 0.00849936
0.0535314 0.194278 -0.100881 0.00582499
0.0520545 0.212326 -0.0971408 0.00813945
0.0597734 0.197227 -0.0867746 0.00612987
0.0579943 0.21546 -0.0820963 0.00914661
-0.449738 0.0939731 -0.227806 0.0132471
-0.433185 0.0968916 -0.232865 0.0161656
-0.43975 0.0915388 -0.208681 0.0108128
-0.419302 0.0929033 -0.212191 0.0121773
-0.187711 -0.142847 -0.592906 0.000901519
-0.200547 -0.144835 -0.570902 0.00289012
-0.172976 -0.140023 -0.577972 0.00192191
-0.184854 -0.140772 -0.557678 0.00117249
0.813772 -0.215318 0.0583386 0.00657276
0.832848 -0.210563 0.0546287 0.00181808
0.817886 -0.211175 0.0794468 0.00242973
0.840339 -0.205395 0.0728848 0.00334994
-0.0194135 -0.211363 -0.500951 0.00261788
-0.0292249 -0.209894 -0.485656 0.00114902
0.00173064 -0.207558 -0.489123 0.00118696
-0.00794178 -0.206189 -0.473057 0.00255584
0.117659 0.0729275 -0.373713 0.00676756
0.11233 0.0842412 -0.363742 0.0067636
0.132578 0.066359 -0.36118 0.00222949
0.128785 0.0801839 -0.355784 0.00439764
0.766319 -0.143116 -0.423849 0.00117192
0.751916 -0.141267 -0.40809 0.000676879
0.779417 -0.141983 -0.405153 3.85554e-05
0.766701 -0.140409 -0.388119 0.00153498
-0.35824 -0.147292 -0.619954 0.00534829
-0.334738 -0.142316 -0.616058 0.000372386
-0.342194 -0.144186 -0.604236 0.00224174
-0.317673 -0.139575 -0.600321 0.0023692
-0.0363934 -0.00349657 -0.480188 0.00633067
-0.0365139 0.0220224 -0.477151 0.00919538
-0.0198379 0.0078155 -0.475117 0.00773753
-0.0200474 0.0329415 -0.472086 0.0105189
-0.624282 -0.147854 -0.431329 0.0059101
-0.611854 -0.141324 -0.43489 0.000619718
-0.630185 -0.147935 -0.409339 0.00599053
-0.608691 -0.143113 -0.417485 0.00116851
0.539424 -0.0701421 0.296992 0.00507245
0.543762 -0.0458689 0.294476 0.00255553
0.559996 -0.0674749 0.294211 0.00229088
0.564009 -0.0434513 0.292152 0.000232345
0.843966 -0.197265 0.476759 0.00463508
0.832873 -0.194737 0.493719 0.00906876
0.850375 -0.199183 0.494198 0.00748925
0.836931 -0.192602 0.509038 0.00206409
-0.154893 0.303921 0.183661 0.00133732
-0.158245 0.316868 0.184101 0.00236723
-0.130505 0.302407 0.189894 0.00486922
-0.137341 0.315555 0.191493 0.00102627
0.0928907 0.148373 0.142546 0.00721662
0.0870924 0.159065 0.152342 0.00219898
0.109194 0.14825 0.145469 0.00429121
0.104404 0.159581 0.153492 0.00332969
0.734691 -0.220302 0.540803 0.0115573
0.740536 -0.206969 0.538917 0.00177577
0.747407 -0.210275 0.54442 0.00153001
0.7566 -0.198029 0.539799 0.0107162
0.0640458 0.1315 -0.101491 0.00446788
0.0600405 0.141675 -0.0963098 0.004089
0.0771109 0.129215 -0.0939661 0.000441457
0.0721118 0.135997 -0.0866467 0.00114197
0.155268 -0.209089 -0.42262 0.000343907
0.144289 -0.208489 -0.401989 0.000256416
0.169043 -0.209946 -0.414081 0.00120098
0.158787 -0.206615 -0.394352 0.00212988
-0.584065 -0.0128921 0.222479 0.00802156
-0.587732 0.00999747 0.225927 0.00310607
-0.569603 -0.0110619 0.240912 0.0123429
-0.571055 0.00967866 0.244114 0.00939215
0.588695 0.0569259 -0.00677284 0.00451681
0.576098 0.0645863 0.00309497 0.00623013
0.601496 0.0531608 0.0110768 0.00747096
0.588551 0.0606532 0.0203057 0.007845
-0.0242205 0.0769262 0.0124265 0.00379976
-0.0349612 0.0760063 0.0362761 0.0047197
-0.0129274 0.0824104 0.0359679 0.00168441
-0.023846 0.0815663 0.0602161 0.000840319
0.244171 -0.158443 0.297842 0.00290748
0.248855 -0.135019 0.298148 0.00412351
0.268058 -0.1526 0.291263 0.000656867
0.276633 -0.130556 0.288396 0.00352382
-0.183614 0.0902844 0.317229 0.00955841
-0.19529 0.0890055 0.330826 0.00827952
-0.165538 0.0849356 0.329192 0.00420962
-0.178577 0.0835151 0.345286 0.00278907
-0.385956 0.0128801 -0.431935 0.00321062
-0.39966 0.0307781 -0.421196 0.00547947
-0.367229 0.0223297 -0.44021 0.00444279
-0.379751 0.0389828 -0.429138 0.00852271
-0.757544 -0.198689 0.302225 0.00348882
-0.755779 -0.187581 0.308596 0.00487625
-0.738932 -0.199362 0.327847 0.00113209
-0.740252 -0.186092 0.331596 0.00177601
0.603963 0.0523437 0.06339 0.00829319
0.586397 0.0639474 0.0698182 0.00994183
0.614797 0.0464731 0.0894781 0.0100789
0.595721 0.0601053 0.0937231 0.0103355
0.744905 -0.140182 0.229633 0.00242243
0.734177 -0.128911 0.23577 0.0123007
0.757082 -0.135936 0.239426 0.00600846
0.745002 -0.127795 0.247112 0.00139596
0.591921 0.0621714 -0.223457 0.0110089
0.575303 0.0720421 -0.219495 0.0124108
0.605614 0.0513881 -0.204849 0.00823765
0.590151 0.062872 -0.200761 0.0105661
0.254252 0.193104 0.152436 0.00227046
0.245173 0.208289 0.161658 0.000562176
0.269237 0.192645 0.161083 0.000358931
0.258924 0.206907 0.170751 0.00220767
-0.236567 0.216153 0.173252 0.0123285
-0.236298 0.236435 0.17422 0.0129317
-0.218087 0.215624 0.178205 0.00745964
-0.218444 0.235025 0.179953 0.00909409
-0.468452 0.109536 -0.140925 0.0157237
-0.463589 0.108763 -0.125386 0.0164965
-0.449073 0.112324 -0.12509 0.0129361
-0.445727 0.112052 -0.105514 0.0132078
0.574687 -0.131653 -0.372892 0.0013907
0.566345 -0.119012 -0.364769 0.000110534
0.577322 -0.134116 -0.353712 0.000810409
0.569849 -0.121378 -0.346444 0.000909402
0.123237 -0.205141 -0.446674 0.00360365
0.111584 -0.208587 -0.425863 0.000158054
0.139437 -0.204418 -0.440548 0.0043265
0.127592 -0.207689 -0.419109 0.00105646
-0.0246658 0.11407 -0.139752 0.00191845
-0.0312441 0.134678 -0.137741 0.00376343
-0.0117119 0.121509 -0.132798 0.0056851
-0.0197163 0.142125 -0.130206 0.0017609
0.154222 -0.173943 0.351644 0.00232554
0.144318 -0.154068 0.360201 0.0028616
0.173053 -0.172877 0.341123 0.00732667
0.163599 -0.15318 0.350939 0.00815158
0.184077 0.114449 -0.0732497 0.0108109
0.177408 0.113389 -0.0518618 0.0118708
0.204696 0.11842 -0.049148 0.00683986
0.195526 0.11719 -0.029035 0.00806986
0.0819982 0.104691 0.423193 0.00311433
0.0767585 0.112891 0.416058 0.000753702
0.0940847 0.0957448 0.434872 0.00444553
0.0910279 0.105583 0.42606 0.00205441
-0.395572 0.116317 0.0309812 0.00894281
-0.376182 0.119811 0.0287509 0.00871472
-0.381549 0.114829 0.0446561 0.010465
-0.363099 0.120288 0.041156 0.0181592
0.104768 0.119549 0.302091 0.0057113
0.117976 0.12457 0.291948 0.000690465
0.122058 0.115204 0.309794 0.0100564
0.136866 0.121508 0.297256 0.00375225
0.63989 0.0619058 -0.191397 0.00757661
0.624544 0.0765308 -0.186723 0.00478476
0.65105 0.0532149 -0.173746 0.00699946
0.634576 0.0691121 -0.168364 0.00550722
-0.498938 0.0406357 0.34203 0.00898227
-0.498379 0.0588352 0.337879 0.0118457
-0.480381 0.0451883 0.35669 0.0117067
-0.479418 0.0638123 0.353384 0.013303
-0.0492013 0.113684 0.418522 0.0115764
-0.0518039 0.118558 0.42021 0.00670245
-0.0333999 0.108792 0.428062 0.0149999
-0.037492 0.115121 0.430249 0.00862479
0.276246 0.115084 -0.284022 0.00639432
0.268353 0.123453 -0.269884 0.000849761
0.291828 0.122743 -0.273816 0.000791134
0.284404 0.132145 -0.259561 0.0068897
-0.636179 -0.204412 -0.246651 0.00433313
-0.645264 -0.202947 -0.22341 0.00135228
-0.626295 -0.201714 -0.232195 0.00703046
-0.63307 -0.199746 -0.210894 0.00899891
-0.290412 0.286701 -0.112623 0.00318882
-0.291859 0.304702 -0.113307 0.00475917
-0.301712 0.292715 -0.0941285 0.00308983
-0.302465 0.310894 -0.0939963 0.00356368
-0.148759 -0.0922657 -0.491796 0.00650633
-0.153538 -0.0748525 -0.483716 0.0143654
-0.132247 -0.0819447 -0.492902 0.00522279
-0.136717 -0.0631202 -0.486577 0.0117173
0.594757 -0.118133 0.446584 0.000258762
0.579767 -0.112923 0.456153 0.00935601
0.611323 -0.124218 0.453986 0.0109135
0.592614 -0.119868 0.463433 0.00239999
0.684859 0.0165357 -0.273634 0.00588811
0.671958 0.0368602 -0.269881 0.00339887
0.696767 0.0136992 -0.261477 0.000530336
0.684539 0.0323562 -0.257432 0.00221807
0.599407 -0.137652 -0.288987 0.001127
0.597628 -0.119456 -0.28616 0.000860187
0.610901 -0.131961 -0.286841 0.000178607
0.609642 -0.113391 -0.284008 0.00301239
0.772439 -0.142192 0.143676 0.00024823
0.758744 -0.133721 0.150982 0.00822253
0.779185 -0.142079 0.1525 0.000134772
0.765426 -0.138381 0.161642 0.00356301
0.470909 -0.0094492 -0.557973 0.000703932
0.470415 -0.00657182 -0.550156 0.00190632
0.490714 -0.0112228 -0.541125 0.00017126
0.490067 -0.00815842 -0.53335 0.00311475
-0.448132 -0.158011 -0.580858 0.016067
-0.428737 -0.148569 -0.589791 0.00662526
-0.42866 -0.159769 -0.570749 0.0178246
-0.407701 -0.151553 -0.578559 0.00850234
-0.21876 -0.141607 -0.58738 0.00033888
-0.231739 -0.143808 -0.564544 0.00186312
-0.204013 -0.138567 -0.572539 0.00337853
-0.216296 -0.140379 -0.550379 0.00156453
-0.520848 -0.147036 0.541854 0.00509218
-0.501175 -0.135561 0.53229 0.00638309
-0.501223 -0.143246 0.558233 0.00130191
-0.478638 -0.132139 0.549455 0.00980463
-0.485809 -0.209721 -0.578895 0.000975582
-0.469482 -0.193811 -0.593648 0.000617913
-0.459092 -0.22046 -0.576747 0.011715
-0.443319 -0.204542 -0.591417 0.00420308
-0.37417 -0.196583 0.635929 0.00557962
-0.379262 -0.186117 0.643003 0.00283826
-0.357806 -0.197033 0.64465 0.00283056
-0.363016 -0.187417 0.651977 0.00599604
0.287801 -0.213364 0.372536 0.00461936
0.314162 -0.206302 0.367799 0.00244291
0.307617 -0.209002 0.387611 0.000256914
0.330693 -0.199586 0.382427 0.00588274
0.46086 -0.0743492 0.431742 0.00215711
0.465837 -0.0637146 0.424915 0.00943544
0.477305 -0.0775711 0.432925 0.00119373
0.481811 -0.0668463 0.425568 0.0104571
0.49612 0.0789757 -0.235299 0.000486699
0.483359 0.0798605 -0.223501 0.000616804
0.510121 0.0789782 -0.224919 0.000626352
0.497963 0.0795797 -0.213143 0.000261636
0.270721 -0.0611293 0.337328 0.000873987
0.271254 -0.0410603 0.338763 0.00230915
0.289373 -0.0535571 0.332689 0.00376469
0.289767 -0.033503 0.334152 0.00230211
0.745448 -0.108049 -0.0152574 0.00044972
0.736242 -0.0928073 -0.00932565 0.00590578
0.74737 -0.110384 0.00131245 0.00219736
0.736467 -0.097017 0.00721929 0.0066133
0.756242 -0.166607 -0.548903 0.00933744
0.749358 -0.15861 -0.535399 0.00434236
0.765737 -0.166328 -0.530821 0.00587172
0.763739 -0.159316 -0.519973 0.00231421
-0.361448 0.292719 -0.0266817 0.00420896
-0.357381 0.313063 -0.0270989 0.00225549
-0.365955 0.295234 -0.00286179 0.0019577
-0.362662 0.315857 -0.0020532 0.00718595
0.66768 -0.179957 -0.293109 0.00613986
0.660677 -0.167409 -0.284175 0.00281911
0.68758 -0.175834 -0.290652 0.00459024
0.678389 -0.163635 -0.281082 0.00588304
-0.75183 -0.206385 -0.233983 0.00235982
-0.75957 -0.207018 -0.221091 0.00172738
-0.744305 -0.207305 -0.224817 0.00143966
-0.752758 -0.207726 -0.210772 0.00101883
-0.140397 -0.213847 0.666024 0.00510158
-0.152026 -0.210552 0.680271 0.0018065
-0.127744 -0.210317 0.671697 0.00157243
-0.13693 -0.204984 0.683595 0.00116264
-0.03253 -0.145506 -0.601075 0.00356042
-0.0455401 -0.142569 -0.585222 0.000624448
-0.0181343 -0.140222 -0.584692 0.00172196
-0.0312052 -0.136586 -0.568877 0.00535794
0.211892 0.119062 -0.129415 0.00810775
0.207632 0.119489 -0.11735 0.00577058
0.230411 0.121315 -0.115042 0.00394508
0.223492 0.120468 -0.100576 0.00479166
0.854883 -0.153115 0.296377 7.2194e-05
0.845392 -0.141519 0.308239 0.000424826
0.859552 -0.153416 0.320025 0.00474114
0.851967 -0.140336 0.331215 0.0016084
0.671926 -0.212336 -0.579626 0.00359135
0.694559 -0.206015 -0.586084 0.00272993
0.685578 -0.2105 -0.564366 0.00175454
0.709748 -0.204662 -0.569699 0.00408289
-0.468969 0.124368 0.220152 0.000891563
-0.457285 0.127435 0.217609 0.00217485
-0.451258 0.121763 0.23546 0.00349748
-0.440645 0.125122 0.232391 0.000137572
0.225714 -0.131636 -0.298676 0.00492033
0.220655 -0.11147 -0.294076 0.000580687
0.244157 -0.132738 -0.298316 0.00817688
0.238343 -0.112014 -0.29341 0.0022284
-0.0126134 -0.211215 0.439866 0.00247125
-0.00959017 -0.192982 0.435216 0.00349635
0.0117619 -0.222205 0.438496 0.0134612
0.0123403 -0.204693 0.436322 0.00404997
0.347136 -0.149191 -0.470292 0.00311368
0.360905 -0.130056 -0.469844 0.00189466
0.354614 -0.139262 -0.451085 0.000862017
0.368953 -0.121473 -0.451304 0.00117729
-0.169442 -0.147096 0.467421 0.00986263
-0.167615 -0.131516 0.46925 0.0116116
-0.142717 -0.15034 0.460553 0.00177468
-0.140759 -0.131513 0.463725 0.00485128
0.429397 -0.142495 0.470608 0.011685
0.432685 -0.128293 0.463447 0.00452389
0.447578 -0.146725 0.47372 0.0147966
0.449678 -0.13236 0.466739 0.00781642
0.826803 -0.150387 0.355955 0.00844332
0.828221 -0.134227 0.36296 0.00771708
0.831075 -0.143213 0.378054 0.00126945
0.832976 -0.127156 0.384461 0.014788
0.0394781 0.100624 -0.434426 0.00813509
0.0382226 0.115092 -0.422892 0.00212286
0.0590161 0.10333 -0.417811 0.00959294
0.0558191 0.116175 -0.406984 0.00452678
-0.324709 -0.193356 0.424286 0.0029547
-0.316818 -0.180731 0.418849 0.00515804
-0.310836 -0.189435 0.437671 0.0103469
-0.30187 -0.178308 0.432038 0.00204617
-0.545295 -0.20439 -0.231042 0.00435448
-0.552837 -0.19945 -0.210906 0.00561891
-0.532484 -0.196049 -0.212707 0.0115854
-0.53673 -0.189376 -0.195348 0.0156236
-0.529118 0.0156256 0.30891 0.00798414
-0.530327 0.0356042 0.304256 0.00998103
-0.515392 0.0134359 0.322991 0.00965277
-0.517113 0.0342111 0.319893 0.0101773
-0.581127 -0.118575 0.165124 0.0110068
-0.575556 -0.104878 0.164144 0.00539336
-0.569924 -0.114019 0.179194 0.00560845
-0.565856 -0.101375 0.179446 0.00203375
0.115102 0.136129 -0.137821 0.00206563
0.114479 0.153289 -0.141598 0.00344061
0.130188 0.129885 -0.137569 0.00127315
0.129467 0.14719 -0.141704 0.00301968
0.302124 -0.199278 0.578965 0.0094669
0.283845 -0.201413 0.600209 0.00733237
0.329628 -0.20326 0.587343 0.00548506
0.311967 -0.205249 0.608463 0.00349617
-0.274431 0.242605 0.186801 0.000540441
-0.273054 0.262491 0.185438 0.00106946
-0.259698 0.245062 0.196893 0.000392194
-0.256772 0.262923 0.194269 0.00316845
-0.632261 -0.147136 0.284476 0.0051917
-0.61409 -0.141502 0.276927 0.000442082
-0.622236 -0.145069 0.30091 0.00312484
-0.601144 -0.140515 0.293481 0.00142931
0.66922 -0.182278 0.480398 0.0167221
0.691918 -0.175233 0.470456 0.00747899
0.686851 -0.180488 0.492572 0.0052892
0.703234 -0.17417 0.485013 0.0125197
0.589799 -0.151494 -0.389587 0.000308558
0.580957 -0.138848 -0.382159 0.00112822
0.593967 -0.154584 -0.372831 0.00379527
0.584858 -0.142112 -0.364953 0.000448265
0.25274 0.146108 0.135899 0.0123749
0.246014 0.152673 0.147984 0.00193372
0.271014 0.143291 0.147235 0.000876336
0.263163 0.152295 0.158514 0.00860317
-0.297027 0.0831832 0.237605 0.00245719
-0.295961 0.0820842 0.257012 0.00135821
-0.285148 0.0886479 0.256487 0.00792193
-0.282207 0.0872891 0.272936 0.00656309
0.0871307 0.121859 -0.0722714 0.00603885
0.0777794 0.12412 -0.0557947 0.010926
0.0934158 0.123322 -0.0565357 0.00371724
0.0848091 0.127029 -0.0418913 0.00661651
-0.648414 -0.204699 -0.259996 0.00404551
-0.657857 -0.203712 -0.236646 0.00675768
-0.635674 -0.202943 -0.246874 0.00580197
-0.64476 -0.201478 -0.223633 0.000814441
-0.58486 -0.210914 0.344164 0.00216949
-0.568017 -0.209705 0.347195 0.000959533
-0.564952 -0.205745 0.356739 0.00299988
-0.556318 -0.206968 0.366195 0.00177654
0.769828 -0.14282 0.0758336 0.000875539
0.758104 -0.133985 0.0851888 0.00795943
0.777042 -0.142657 0.095588 0.000713429
0.765123 -0.133066 0.10596 0.00887764
0.70673 -0.107535 -0.260027 0.00724918
0.700869 -0.0942684 -0.253414 0.00361956
0.707725 -0.107101 -0.241553 0.00821519
0.701182 -0.0944912 -0.233706 0.00379195
-0.528532 -0.0699033 0.302034 0.0124627
-0.527073 -0.0555765 0.296144 0.0174017
-0.515732 -0.0663567 0.318861 0.0119015
-0.514244 -0.050132 0.311234 0.0179668
-0.36351 0.281643 0.0590275 0.00240187
-0.356414 0.301277 0.061866 0.000970485
-0.349965 0.282886 0.0832119 0.00275986
-0.342312 0.302569 0.0835738 0.00529272
-0.443922 0.0832607 0.160589 0.00253468
-0.452457 0.0837415 0.177919 0.00301548
-0.431302 0.0837185 0.175865 0.00299249
-0.440387 0.0844284 0.193636 0.00370237
0.0700188 -0.11569 0.45046 0.00475912
0.0693699 -0.103274 0.449866 0.00559215
0.0969924 -0.10847 0.436078 0.0048426
0.0827453 -0.0932124 0.443704 0.00473558
-0.720847 -0.162508 0.362515 0.000832291
-0.719356 -0.146076 0.356888 0.00338379
-0.702968 -0.161792 0.382738 0.0032088
-0.704764 -0.146949 0.381489 0.0024623
-0.576226 -0.144284 0.275967 0.00234017
-0.559749 -0.136206 0.26649 0.00770923
-0.564825 -0.142123 0.287415 0.000178775
-0.549791 -0.133607 0.277439 0.00984259
-0.706161 -0.147589 0.117923 0.00564503
-0.680944 -0.140311 0.112166 0.0016331
-0.698603 -0.144083 0.136926 0.00213932
-0.673352 -0.136438 0.130244 0.00550632
0.462258 -0.07508 0.342471 0.00121147
0.458067 -0.0664716 0.347992 0.0103483
0.47032 -0.0746139 0.353051 0.000646258
0.462718 -0.0705664 0.364819 0.00612508
-0.382893 0.0918538 0.428856 0.00085777
-0.376875 0.103916 0.422732 0.000741868
-0.362506 0.0882097 0.43775 0.0046937
-0.356543 0.101729 0.432577 0.00319122
0.648698 0.0174009 -0.185592 0.0102069
0.63053 0.035134 -0.179337 0.0103824
0.657073 0.013249 -0.163937 0.0138774
0.638371 0.0302687 -0.158085 0.0112157
0.539057 0.0303086 0.332993 0.00346145
0.530523 0.0504535 0.334109 0.00207259
0.566662 0.0278836 0.325587 0.0108671
0.556127 0.0481429 0.329335 0.005995
0.806633 -0.206309 0.360929 0.00243644
0.817118 -0.20468 0.366339 0.00406502
0.815052 -0.208457 0.38095 0.000288394
0.828563 -0.203696 0.383224 0.00504875
0.690171 -0.145454 -0.552717 0.00350996
0.672947 -0.131833 -0.543966 0.0101109
0.702826 -0.146828 -0.535667 0.004884
0.685804 -0.133841 -0.527523 0.00810313
-0.290387 -0.206014 0.606197 0.00273113
-0.301575 -0.208334 0.623626 0.000410956
-0.272235 -0.203824 0.616845 0.00492149
-0.284085 -0.205712 0.633889 0.00303308
0.70597 -0.206854 -0.158854 0.00189085
0.689611 -0.204331 -0.141853 0.00948394
0.714598 -0.206202 -0.141268 0.00254261
0.697157 -0.205581 -0.122627 0.00316535
0.303211 -0.0978785 -0.551338 9.3207e-06
0.31727 -0.0799547 -0.553373 0.000230272
0.311336 -0.0877558 -0.536497 0.000273835
0.325893 -0.0684665 -0.538425 0.000245029
-0.590617 -0.0320995 0.205001 0.00963849
-0.594827 -0.00977769 0.208511 0.00450581
-0.578171 -0.0305273 0.224195 0.0126195
-0.582162 -0.00875802 0.227859 0.00730247
-0.383564 0.107542 -0.403349 0.00338474
-0.3941 0.116515 -0.386095 0.000905962
-0.373361 0.114833 -0.398306 0.00234911
-0.383909 0.12382 -0.381023 0.00253645
0.235316 -0.108923 0.300843 0.00411881
0.229071 -0.0855253 0.303685 0.00568503
0.257859 -0.105069 0.295923 0.00370387
0.254666 -0.0816865 0.296401 0.00354865
-0.787398 -0.209379 0.144434 0.000633943
-0.797925 -0.205646 0.164246 0.00309862
-0.77779 -0.208485 0.163448 0.000260082
-0.789293 -0.204105 0.184324 0.00463986
-0.00952298 -0.20957 -0.611548 0.000825304
0.00239876 -0.207658 -0.608201 0.00108733
0.00332653 -0.207936 -0.598675 0.00080843
0.0206703 -0.205898 -0.599862 0.00284654
0.0324957 -0.164321 -0.425943 0.00663276
0.0315737 -0.149935 -0.423253 0.00378993
0.048613 -0.167387 -0.416339 0.00467851
0.0486622 -0.152581 -0.41417 0.00274119
0.476995 -0.084745 -0.333997 0.00826577
0.467214 -0.0775526 -0.317232 0.00210134
0.49 -0.0779938 -0.326401 0.000452196
0.485248 -0.0695645 -0.316109 0.00801324
-0.615948 -0.207049 0.481786 0.00169615
-0.616626 -0.201076 0.490409 2.01023e-06
-0.606436 -0.208536 0.503634 0.00259916
-0.595576 -0.200176 0.49959 0.00780352
0.839197 -0.201045 0.0309792 0.00770037
0.857057 -0.18879 0.0281449 0.00224609
0.845546 -0.191402 0.0513977 0.00926481
0.862393 -0.179023 0.0477152 0.0075819
0.110612 -0.206589 -0.516364 0.00215642
0.0970375 -0.207134 -0.498195 0.00161144
0.122061 -0.206324 -0.506561 0.0024209
0.110028 -0.206604 -0.488645 0.00214058
-0.208599 0.282992 -0.180024 0.0110478
-0.227538 0.29844 -0.165894 0.00510534
-0.196988 0.293244 -0.180151 0.00755018
-0.215865 0.308783 -0.165597 2.71749e-05
0.177967 -0.0364335 -0.377129 0.00359795
0.178355 -0.0154673 -0.381061 0.000488162
0.192612 -0.0331888 -0.363257 0.00414766
0.193743 -0.011009 -0.367916 2.08508e-05
0.227378 0.106875 -0.298124 0.010053
0.219599 0.113626 -0.28234 0.00953902
0.24194 0.115794 -0.290093 0.00439013
0.234516 0.123404 -0.27495 0.000130769
0.297695 0.106768 -0.0284339 0.0184923
