0.109791 -0.574023 0.413436 0.00247266
0.0909882 0.156955 -0.146511 0.0076362
0.089221 0.172874 -0.143758 0.00118368
0.107882 0.159007 -0.13818 0.00543578
0.105466 0.175348 -0.134827 0.00612707
-0.20887 0.345497 -0.183297 0.00158854
-0.203313 0.361609 -0.191705 0.000727898
-0.195983 0.329358 -0.188523 0.00311324
-0.190364 0.344678 -0.197658 0.00193549
-0.312024 0.470786 -0.054489 0.00429557
-0.309106 0.49872 -0.0512016 0.00154549
-0.320712 0.48553 -0.0295459 0.00172781
-0.316514 0.512765 -0.0271449 0.00219345
0.508772 -0.29638 -0.544364 0.000651977
0.516443 -0.280944 -0.544182 0.000852892
0.521881 -0.294623 -0.523437 0.0012888
0.529578 -0.279446 -0.522753 0.00121596
-0.146252 0.309046 -0.204509 0.000285663
-0.138041 0.323876 -0.218459 0.00199979
-0.129961 0.299433 -0.205479 0.00135405
-0.119116 0.314515 -0.221997 0.0022582
-0.10196 -0.063836 0.621799 0.00465465
-0.0947924 -0.0504388 0.608493 0.00218881
-0.0763161 -0.0679899 0.626785 0.00164205
-0.0695013 -0.0546363 0.612858 0.00113302
-0.52669 -0.195483 0.388133 0.00207274
-0.521678 -0.1718 0.382636 0.000845015
-0.513407 -0.191615 0.406801 0.00153648
-0.507716 -0.168768 0.402698 0.00210628
-0.273573 0.177968 0.058477 0.00592842
-0.283327 0.198617 0.0621143 0.00210821
-0.274118 0.175247 0.081084 0.00189084
-0.28266 0.193746 0.0863775 0.000755153
-0.299484 0.214669 0.117893 0.000458255
-0.309802 0.234753 0.125341 0.00129615
-0.299749 0.215508 0.140287 0.000283713
-0.310074 0.234139 0.150269 0.000317299
-0.0344045 -0.464729 0.0570624 0.0028668
-0.0158277 -0.457643 0.0391551 0.000361363
-0.0193357 -0.469631 0.0712437 0.00251851
-0.000300602 -0.46247 0.0521883 0.000582801
-0.412639 -0.40958 -0.199915 0.00111689
-0.391811 -0.40532 -0.207847 0.00129226
-0.394684 -0.409122 -0.181241 0.000746152
-0.375183 -0.40467 -0.189778 0.00153543
0.0571714 0.156853 -0.537207 0.00261302
0.0660213 0.167948 -0.547325 0.000864642
0.0750431 0.154437 -0.537676 0.00336123
0.0837518 0.1671 -0.546785 0.00195629
-0.0405859 0.940516 0.0447749 0.00284082
-0.0240735 0.949027 0.0359378 0.0017836
-0.0249101 0.949076 0.0571485 0.00126503
-0.0101794 0.957526 0.0487044 0.00746436
0.0234564 0.134253 -0.495082 0.000275889
0.0371464 0.140053 -0.51347 0.00312252
0.0412641 0.131702 -0.485049 0.0026588
0.0555376 0.137552 -0.504225 0.000151762
0.396941 -0.433463 -0.493364 0.00958303
0.405439 -0.423756 -0.496326 0.000477628
0.412116 -0.427718 -0.473907 0.00107336
0.423576 -0.418465 -0.479379 0.00605139
-0.050956 0.20276 -0.572697 0.00154067
-0.0482879 0.216592 -0.589488 0.00123687
-0.0287842 0.192985 -0.568006 5.46385e-05
-0.0250788 0.205568 -0.583208 0.00317603
0.00883604 0.829008 0.288207 0.00184187
0.018964 0.841621 0.269202 0.00201836
0.0297403 0.822438 0.293205 0.000168336
0.0399238 0.835309 0.27226 0.00465337
-0.567687 -0.4452 -0.135215 0.000604425
-0.588604 -0.442346 -0.12456 0.00667127
-0.556064 -0.451647 -0.119475 0.00289261
-0.572602 -0.450607 -0.110673 0.00176123
-0.57146 -0.455146 0.249372 0.00105712
-0.585155 -0.42963 0.249019 9.22581e-05
-0.560864 -0.459305 0.268188 0.000694345
-0.575613 -0.432449 0.267871 0.00185484
-0.231981 0.487967 0.424748 0.00240607
-0.226599 0.503174 0.422202 0.000228895
-0.22226 0.49425 0.440308 0.00171759
-0.216522 0.509917 0.437442 6.55389e-05
-0.0308947 0.925881 0.115711 0.00383326
-0.0182722 0.939537 0.104094 0.00128094
-0.0177561 0.932054 0.128073 0.00248415
-0.005802 0.945456 0.11619 0.0091586
0.0207986 0.908352 -0.0655064 0.000257351
0.0159923 0.918543 -0.0500478 0.00284542
0.0418853 0.919872 -0.0551631 0.00450055
0.0331974 0.928275 -0.039939 0.00119261
-0.513882 0.0366555 -0.322548 0.00359769
-0.492547 0.0491149 -0.334175 0.00110828
-0.501039 0.0435322 -0.306785 0.00171482
-0.479738 0.0557344 -0.318598 0.00616206
0.21854 0.412349 0.568878 0.00728083
0.224017 0.435059 0.572358 0.00187971
0.20653 0.424922 0.590364 0.000633715
0.210777 0.447159 0.594176 0.000384947
-0.621878 -0.0403717 -0.17984 0.00015747
-0.605436 -0.0190105 -0.183871 0.00232154
-0.61242 -0.0275651 -0.161198 0.00084802
-0.596037 -0.00620165 -0.165178 0.00629668
-0.0786886 0.918122 0.0790582 0.000752991
-0.0620419 0.930739 0.0683785 0.000370889
-0.066728 0.922843 0.0931293 0.00164118
-0.0517077 0.935777 0.082889 0.00245157
0.239747 0.674361 -0.115785 0.000622769
0.233806 0.696316 -0.113121 0.00120137
0.252607 0.677216 -0.0927496 0.00118319
0.247097 0.698546 -0.0902048 0.00104114
-0.311416 0.234912 0.113521 8.5205e-05
-0.322187 0.25708 0.118218 0.00206542
-0.31141 0.232491 0.136487 0.00170522
-0.321072 0.25228 0.144402 0.000497351
-0.599315 -0.191122 -0.425888 0.00113035
-0.595981 -0.166885 -0.421178 0.00260783
-0.612549 -0.176135 -0.401383 0.00239633
-0.607016 -0.150948 -0.397328 6.77464e-05
-0.209973 0.11307 -0.453241 0.00377344
-0.192939 0.119805 -0.468345 0.00315771
-0.192455 0.113103 -0.434505 0.0012544
-0.171919 0.118011 -0.449494 0.000484303
-0.585501 -0.0175813 -0.0545011 0.00149663
-0.567959 -0.0057375 -0.0605686 0.000793692
-0.57279 -0.0117248 -0.0344547 0.000804296
-0.553412 -0.000435678 -0.0399896 0.00191834
0.0129212 0.934757 -0.0331461 0.00227134
-0.00296395 0.938721 -0.0145094 0.00110841
0.0280774 0.941939 -0.017312 0.000707501
0.00744698 0.945801 -0.000539117 0.00236145
0.0326039 -0.362484 -0.552176 0.000809497
0.00888193 -0.362394 -0.536577 0.00466204
0.0539088 -0.360421 -0.535436 0.00284134
0.0297892 -0.360152 -0.5199 0.000684433
-0.0600135 -0.543273 0.662763 0.00240491
-0.06124 -0.523862 0.674822 0.00114656
-0.0363569 -0.533215 0.668782 0.000891994
-0.0372363 -0.513823 0.680817 0.000491693
0.0771633 0.720784 0.603815 0.00422357
0.059706 0.733638 0.613805 0.00427439
0.0926846 0.724001 0.612652 0.00133889
0.0752227 0.735952 0.622711 0.0018638
-0.0624654 -0.615783 0.566377 0.00422714
-0.0736417 -0.610168 0.580921 0.00185038
-0.0421462 -0.613337 0.571584 0.000866939
-0.05362 -0.606849 0.587658 0.000195048
-0.0101919 0.678003 -0.223266 0.000765547
-0.0099746 0.699635 -0.211551 0.00279294
0.017142 0.689237 -0.222934 0.0026019
0.0166512 0.709706 -0.211593 0.000341338
-0.0202144 -0.358754 -0.0942455 0.00938054
-0.0103158 -0.350215 -0.100692 0.00676122
-0.00638549 -0.356233 -0.0814642 0.0027447
0.00239386 -0.346725 -0.0870245 0.00572349
0.371259 0.481127 0.163908 0.000608717
0.365361 0.499463 0.170067 0.00241627
0.369234 0.48302 0.186498 0.00278132
0.362447 0.500397 0.194349 0.00346817
0.032394 -0.50733 0.685827 0.00106347
0.0373735 -0.48456 0.696322 0.00136087
0.0597476 -0.492905 0.687065 0.00190274
0.0633694 -0.469616 0.698497 0.000648538
0.157822 0.144348 -0.533912 0.00075579
0.126853 0.146121 -0.530257 0.000668105
0.170839 0.133166 -0.51322 0.00387475
0.138891 0.134178 -0.509524 0.00149007
0.431104 -0.0159533 0.0349984 0.000293863
0.409845 -0.00756461 0.0441539 0.00186415
0.445743 -0.0207511 0.0467743 0.000542441
0.425346 -0.0135224 0.0584232 0.00124469
-0.425206 -0.0720431 0.377057 0.00596271
-0.411535 -0.0541214 0.374234 0.00154957
-0.407122 -0.0625023 0.393574 0.00150847
-0.397261 -0.04333 0.386422 0.00362888
0.335111 -0.518007 0.107704 0.00128586
0.308655 -0.521707 0.116792 0.00452762
0.359396 -0.524996 0.1236 0.00167489
0.333189 -0.530228 0.133796 0.00429048
-0.372733 -0.156011 -0.73889 0.000664096
-0.364454 -0.135872 -0.747803 0.00123875
-0.364467 -0.160963 -0.739057 0.00387157
-0.356187 -0.140824 -0.74797 0.00329692
-0.158316 0.842841 0.148852 0.00268812
-0.140934 0.860312 0.143548 7.5615e-05
-0.141641 0.853982 0.166503 0.00137896
-0.123109 0.87202 0.160908 0.00493041
0.423308 -0.578423 0.280444 0.00345904
0.441335 -0.571886 0.273338 0.00156027
0.430732 -0.572948 0.293136 0.00208317
0.447517 -0.565599 0.287161 8.35511e-05
0.0848574 0.135421 -0.13975 0.00788547
0.0823105 0.150813 -0.136158 0.00075737
0.100473 0.135477 -0.131979 0.00757662
0.0970192 0.150611 -0.126716 0.00371971
-0.564912 -0.21497 0.341241 5.02012e-05
-0.56359 -0.191277 0.332653 0.000401768
-0.55354 -0.211997 0.35926 0.000376568
-0.551547 -0.188539 0.351539 0.000549975
0.294627 0.431955 0.377626 0.00235673
0.291024 0.451339 0.381037 0.00099986
0.283454 0.435226 0.397754 0.00100229
0.2809 0.454369 0.400333 0.00280617
0.0140289 0.326232 -0.252493 0.00125968
0.0225181 0.347469 -0.263031 0.000527088
0.0382946 0.325178 -0.251792 0.000226011
0.0485094 0.345997 -0.263097 0.00114996
0.163972 -0.484086 0.0856066 0.000815417
0.175887 -0.483459 0.0748475 0.00195041
0.185215 -0.486818 0.0975625 0.0025499
0.189744 -0.486834 0.0911851 0.00121202
0.477069 0.0295071 -0.376105 8.22645e-05
0.456791 0.032614 -0.366546 0.00282777
0.493904 0.0236977 -0.360071 0.00299223
0.473378 0.028234 -0.351647 0.000679314
0.300917 -0.307663 0.628098 0.00326789
0.295894 -0.284537 0.623212 0.000374887
0.309672 -0.337208 0.623597 0.00227579
0.303326 -0.312834 0.619579 0.00299806
0.0588647 -0.364331 -0.533541 0.000738017
0.0347451 -0.364062 -0.518005 0.00237151
0.0811435 -0.362527 -0.514771 0.00352028
0.056162 -0.362873 -0.498998 0.00268598
0.384263 0.397581 0.113154 0.00215574
0.385189 0.4136 0.119213 0.000503865
0.384816 0.401726 0.136041 0.00173929
0.385802 0.417969 0.141488 0.000846469
-0.264383 -0.464879 0.0725088 0.0011274
-0.248571 -0.460376 0.0634024 8.80787e-05
-0.247377 -0.467094 0.089319 0.000557121
-0.231439 -0.462532 0.0795953 0.00184869
-0.323352 0.306399 0.269417 0.00133714
-0.329536 0.33015 0.267566 0.000547694
-0.314739 0.303334 0.287228 0.00148946
-0.319395 0.32556 0.28782 0.000887969
-0.616053 -0.283494 0.280834 0.00305229
-0.616938 -0.266608 0.276072 0.00193592
-0.607399 -0.280983 0.298521 0.00444502
-0.605311 -0.264209 0.296571 0.000445625
-0.382363 0.01226 0.235636 0.0024499
-0.366691 0.0285586 0.230197 0.00303245
-0.37008 0.0181707 0.255669 3.9843e-05
-0.353964 0.035927 0.249515 0.00617489
0.242292 0.809481 0.0908938 0.000807398
0.229655 0.824536 0.0993294 0.000536914
0.24354 0.80484 0.115515 0.00088669
0.230215 0.819217 0.124481 3.35679e-05
0.642268 -0.125395 -0.117047 0.000938671
0.630217 -0.107239 -0.112711 0.000614595
0.645049 -0.129714 -0.0947694 0.000279657
0.633699 -0.11381 -0.0898211 0.00119946
0.612428 -0.309015 -0.330316 0.00161023
0.620879 -0.288328 -0.333035 0.000377569
0.621731 -0.304105 -0.309204 0.00372236
0.629467 -0.284117 -0.312292 0.00376581
0.392132 -0.5473 0.179241 0.000813186
0.397699 -0.549816 0.178608 0.00263791
0.398309 -0.550173 0.200489 0.00228166
0.418036 -0.550439 0.192423 0.002762
0.0450686 -0.520164 0.220689 0.00424773
0.0629162 -0.51677 0.207414 0.00383157
0.0688116 -0.519573 0.238226 0.00199883
0.0855708 -0.516777 0.227192 0.00230374
-0.203127 0.754601 0.225055 0.00129091
-0.192844 0.772812 0.221401 3.03325e-05
-0.188486 0.758539 0.246402 0.00133933
-0.178548 0.776604 0.242323 0.00272808
0.303218 0.0589215 0.0981084 0.00569941
0.294483 0.0801816 0.0998814 0.00436161
0.317624 0.0539746 0.11737 0.000449375
0.305898 0.0730324 0.121655 0.00552606
0.034479 -0.375148 -0.69222 0.000991009
0.0246078 -0.37655 -0.680638 0.00136644
0.0500805 -0.374543 -0.679785 0.00225566
0.0401509 -0.375757 -0.667803 0.000274237
-0.426993 -0.44664 0.531189 0.00541253
-0.424761 -0.423145 0.535126 0.000502198
-0.406343 -0.446634 0.547055 0.00182288
-0.403495 -0.4224 0.551191 0.00453367
-0.25045 -0.313126 0.675852 0.00246582
-0.253066 -0.288435 0.6709 0.000400248
-0.236056 -0.311209 0.684029 0.000334066
-0.238958 -0.286846 0.678821 0.000502212
-0.365124 -0.388546 -0.316918 0.00165789
-0.343221 -0.384983 -0.324391 0.00255115
-0.347413 -0.383825 -0.299344 0.00111023
-0.324517 -0.379514 -0.308165 0.00262717
0.263589 -0.0659941 -0.822148 0.000564732
0.267856 -0.046151 -0.820398 0.00148911
0.281772 -0.0656764 -0.81172 0.000768216
0.284709 -0.0458399 -0.809583 0.00149694
-0.313381 0.245557 0.0797368 4.10917e-05
-0.326248 0.270738 0.0804447 0.00191634
-0.315715 0.242137 0.100657 0.00136319
-0.327553 0.265865 0.103493 0.000934525
0.140634 0.820001 -0.107886 0.00136925
0.120975 0.837683 -0.100125 0.000764286
0.162513 0.819302 -0.0946318 0.00399361
0.143439 0.837772 -0.0868948 0.00120101
0.345582 -0.410788 -0.586921 0.00166779
0.338011 -0.41281 -0.569704 0.00292175
0.357484 -0.406532 -0.575641 0.00204348
0.350099 -0.407737 -0.559229 0.00452404
0.103638 0.941249 0.0111279 0.00835651
0.0796158 0.944808 0.0239856 0.00234941
0.119231 0.93428 0.030866 0.00746856
0.0966873 0.938927 0.0407705 0.000751374
0.485291 -0.552658 0.125767 0.00512545
0.504581 -0.543817 0.118163 0.00028326
0.495321 -0.548914 0.142484 0.00167042
0.513725 -0.539294 0.135305 0.000276952
0.269541 -0.00272202 -0.817627 0.000142255
0.271919 0.0162755 -0.81498 0.000775992
0.288852 -0.00454163 -0.804857 0.0013303
0.290603 0.0153719 -0.801712 0.00198914
0.267712 0.698155 -0.0466615 0.00156471
0.259991 0.719679 -0.0456965 3.71345e-05
0.277377 0.695265 -0.0259562 4.03547e-05
0.270595 0.717354 -0.0244997 0.00152665
-0.313824 0.0888138 -0.410146 0.00110065
-0.297451 0.0951409 -0.419784 0.000162073
-0.297723 0.0912262 -0.39318 0.000290328
-0.279537 0.0969754 -0.402819 0.00124
0.443469 -0.398896 -0.513914 0.0024302
0.45779 -0.379356 -0.521905 0.000437854
0.460761 -0.391628 -0.495144 0.00229561
0.474775 -0.372175 -0.503241 0.00523321
0.547069 -0.0421476 -0.4374 0.00401319
0.539163 -0.0242579 -0.434391 0.00213679
0.558793 -0.0413704 -0.413733 0.000138103
0.551881 -0.0236205 -0.411112 0.00493997
-0.58164 -0.414708 -0.22182 0.00118764
-0.599892 -0.405824 -0.215114 0.00230502
-0.569335 -0.422849 -0.207458 0.00360998
-0.588257 -0.415756 -0.200332 0.000768462
0.32313 0.605216 0.0601902 0.00106784
0.320137 0.622545 0.0669744 0.00102632
0.322694 0.605827 0.0812298 0.00234443
0.319405 0.622614 0.0882049 3.08773e-05
0.199898 0.191879 -0.110863 0.00201563
0.209406 0.211272 -0.116985 0.000612519
0.217813 0.197248 -0.0962959 0.000761135
0.226972 0.218201 -0.10151 0.00380369
-0.483814 -0.322036 0.491243 0.00109929
-0.480677 -0.298696 0.493759 0.000432442
-0.469191 -0.317144 0.509342 0.00122636
-0.465467 -0.293811 0.512194 0.00160562
0.412971 0.00533824 -0.149164 0.00146774
0.393117 0.0118105 -0.143283 0.00370092
0.432094 -0.000414125 -0.137226 0.0026186
0.412649 0.00583893 -0.130492 0.00046107
-0.154996 0.447238 0.592615 0.00868361
-0.146423 0.467072 0.587739 0.00634265
-0.141083 0.451558 0.605836 0.00431189
-0.1326 0.469756 0.599611 0.00835356
-0.349708 -0.517948 0.233204 0.00298137
-0.325492 -0.511872 0.222384 0.000436385
-0.328832 -0.517851 0.24978 0.000548455
-0.303381 -0.512278 0.238852 0.00253469
0.0862987 -0.454551 0.00425842 0.00132127
0.103952 -0.448382 -0.018181 0.000243451
0.1016 -0.458374 0.0182628 0.000261145
0.119979 -0.453615 -0.00219457 0.000101666
-0.431737 -0.362981 -0.573636 0.000710052
-0.457549 -0.364769 -0.56893 0.0132424
-0.417167 -0.370072 -0.561199 0.00837247
-0.443046 -0.371401 -0.556209 0.0020932
0.552203 -0.279589 -0.473954 0.00388565
0.560463 -0.262619 -0.473081 0.000664611
0.563405 -0.279636 -0.453093 0.00380621
0.571627 -0.262416 -0.452347 0.00103997
-0.283187 0.0299038 0.362186 0.0033177
-0.275116 0.0481249 0.34884 0.00370775
-0.268582 0.0285048 0.38457 0.004107
-0.261936 0.0460831 0.370259 0.0025388
0.256689 0.504312 0.372195 0.0079147
0.244282 0.518913 0.380285 0.00517569
0.260294 0.499975 0.3891 0.00148673
0.24844 0.514392 0.396609 9.20619e-05
-0.686919 -0.275144 -0.167291 0.000128059
-0.689519 -0.25469 -0.165642 0.0022066
-0.693073 -0.274522 -0.145882 0.00151507
-0.69444 -0.253866 -0.144923 0.00143509
0.144616 -0.377558 -0.395102 0.000629959
0.123885 -0.379664 -0.381478 0.00275879
0.161829 -0.378571 -0.381403 0.00215403
0.143108 -0.380599 -0.367034 0.0005066
-0.171071 0.605768 0.598828 0.000368635
-0.167845 0.627275 0.598208 0.00691729
-0.149936 0.606655 0.61368 0.00303935
-0.147164 0.627278 0.6148 0.00027555
-0.401733 0.0683991 -0.411463 0.00808168
-0.384648 0.0769978 -0.417436 0.000999808
-0.384353 0.0697964 -0.396262 0.00143832
-0.365926 0.0776998 -0.401647 0.00112658
0.158412 0.751962 0.285119 0.00278581
0.14286 0.761013 0.287769 0.00195892
0.164593 0.739895 0.292736 0.00126732
0.146321 0.748859 0.298455 0.000216409
0.191726 0.100642 -0.225649 0.00347765
0.165742 0.105419 -0.214328 0.00396297
0.214877 0.0935098 -0.208055 0.0032059
0.187087 0.1003 -0.198466 0.00373238
0.487571 -0.080433 0.222558 0.00236362
0.468561 -0.0709852 0.231544 0.000386102
0.503746 -0.0946204 0.240195 0.000533896
0.485507 -0.0838325 0.248173 0.00312027
0.613853 -0.356201 0.215567 0.00159774
0.615889 -0.33527 0.220499 6.55088e-05
0.601287 -0.346192 0.243393 0.000241726
0.601885 -0.323783 0.24877 0.00103593
0.545171 -0.378667 -0.40382 0.00156666
0.558704 -0.358033 -0.41008 0.00250491
0.555208 -0.374752 -0.382049 0.00137647
0.569419 -0.355249 -0.387592 0.000742861
-0.523379 -0.377269 -0.431941 0.000172385
-0.540204 -0.368673 -0.428009 0.00240428
-0.513579 -0.388968 -0.419643 0.00160824
-0.530746 -0.380495 -0.415653 0.000647352
-0.25834 0.0937918 -0.27315 0.00314748
-0.23576 0.10347 -0.278841 0.000804816
-0.237154 0.103441 -0.253954 0.00287039
-0.215617 0.112498 -0.259457 0.00674923
0.104525 0.313532 -0.233136 0.00399069
0.117098 0.333151 -0.239056 0.00215338
0.128343 0.317547 -0.228972 0.00215454
0.139106 0.336808 -0.235016 0.000576031
0.103799 -0.197649 -0.85666 7.57873e-05
0.106412 -0.175832 -0.861756 0.00103565
0.129092 -0.194215 -0.854025 0.00179025
0.132234 -0.171475 -0.859483 0.00321189
0.201583 0.668955 0.313217 0.00135131
0.184421 0.681491 0.319306 0.000585122
0.195428 0.656934 0.327959 0.00565752
0.178051 0.66939 0.333677 0.000734648
-0.0186812 -0.223668 -0.855837 0.00127281
-0.00393776 -0.200054 -0.862954 0.000765093
0.0078407 -0.222576 -0.855315 8.00567e-05
0.0212201 -0.199346 -0.863077 0.000408732
0.2216 -0.445423 -0.0878377 0.0050614
0.196207 -0.446157 -0.0667054 0.00317679
0.238506 -0.444892 -0.0688642 0.00261735
0.213651 -0.446528 -0.0485175 0.00352442
-0.20375 -0.385208 -0.267231 0.00327971
-0.174117 -0.382193 -0.276304 0.00205338
-0.182308 -0.383732 -0.243729 0.00240286
-0.151275 -0.380381 -0.252932 0.00419753
0.44102 -0.568881 0.211782 0.00639526
0.461625 -0.563611 0.204773 0.000552999
0.451216 -0.566381 0.226499 0.00218598
0.471557 -0.56157 0.219849 0.000686333
0.269149 0.45869 0.461603 0.00150423
0.268718 0.473673 0.465437 0.00267629
0.264705 0.46138 0.48203 0.000944999
0.265037 0.476226 0.486054 0.000661046
0.283946 -0.604075 0.407981 0.0123937
0.30841 -0.600611 0.396578 0.00860991
0.295129 -0.601362 0.423319 0.00134656
0.319898 -0.595618 0.4144 0.00644669
-0.647959 -0.289118 -0.286008 0.000833607
-0.649426 -0.265122 -0.277773 0.00660784
-0.662888 -0.28175 -0.264743 0.00471142
-0.663495 -0.257167 -0.256495 0.00170467
-0.326737 0.403324 -0.0510739 0.000514298
-0.325923 0.433023 -0.049777 0.0012462
-0.336958 0.415829 -0.0269803 0.000249844
-0.334275 0.446751 -0.0261775 0.00101166
-0.0462323 0.00896295 0.556742 0.00178405
-0.0403525 0.0231896 0.540192 0.00104588
-0.0261377 -0.000482817 0.5659 0.000351977
-0.0203577 0.0132516 0.549004 0.000523756
-0.21272 -0.584763 0.493067 0.000923841
-0.199855 -0.58145 0.4851 0.000830199
-0.192954 -0.585805 0.50691 0.00259441
-0.184744 -0.582788 0.503562 0.00504732
-0.158583 -0.431426 -0.0603972 0.00341513
-0.136795 -0.428579 -0.0693442 0.00269249
-0.141892 -0.429363 -0.0493658 0.00130312
-0.1217 -0.426745 -0.0574344 0.00200558
0.223375 0.480742 -0.200187 0.00149241
0.225433 0.500517 -0.197832 0.0019386
0.239756 0.481133 -0.184973 0.00175982
0.2429 0.501373 -0.182055 0.00183185
-0.273837 0.378825 0.39993 0.000492721
-0.2723 0.395227 0.400876 0.00154218
-0.264356 0.380424 0.414083 0.000372514
-0.262854 0.396689 0.416825 0.000864043
0.0927833 0.25986 0.464877 0.00405106
0.0862402 0.272303 0.483311 0.00278644
0.117554 0.271554 0.469777 0.00129391
0.11588 0.284759 0.486823 0.00140066
0.616807 -0.171733 -0.361701 0.0039791
0.619285 -0.152049 -0.360095 0.000968537
0.624821 -0.169524 -0.340442 0.0031615
0.625622 -0.150183 -0.340217 0.00113721
0.329539 -0.121618 -0.778043 0.000701232
0.3301 -0.0924607 -0.782392 0.000776805
0.351707 -0.117621 -0.763862 0.00015793
0.35211 -0.0920718 -0.767456 0.00162911
0.513787 -0.453967 -0.295829 0.00307111
0.525658 -0.44558 -0.3022 0.00407921
0.529047 -0.450696 -0.281397 0.00347203
0.539896 -0.443473 -0.287235 0.0057467
0.362168 -0.461164 -0.10295 0.00105205
0.344214 -0.460717 -0.0989134 0.00116755
0.375677 -0.465631 -0.0911367 0.00274241
0.357926 -0.464914 -0.0874074 0.000755695
-0.634089 -0.0812882 0.0498497 0.00082283
-0.622665 -0.063159 0.046372 0.00116236
-0.624379 -0.0772705 0.0727072 0.000283274
-0.612545 -0.058896 0.0696893 0.00187753
0.221838 -0.419284 -0.169267 0.000170335
0.19856 -0.421342 -0.1554 0.00172861
0.237757 -0.423324 -0.152932 0.00166135
0.213656 -0.424836 -0.139718 0.000357088
0.277729 0.0900721 -0.456772 0.00289245
0.251895 0.0918955 -0.449105 0.00240413
0.291516 0.0826828 -0.443662 0.0023917
0.265839 0.0843355 -0.436125 0.00142133
0.0714531 0.515915 0.573338 0.00447378
0.0759348 0.537279 0.57866 0.00338773
0.0914145 0.525472 0.578287 0.00214019
0.0965926 0.546662 0.581921 0.00594638
-0.259562 0.200974 0.281189 0.00159536
-0.269478 0.225022 0.279951 0.00333075
-0.244133 0.193235 0.298995 0.000970261
-0.254698 0.217275 0.297204 0.00401663
-0.193794 0.535011 -0.198543 0.0029249
-0.187762 0.559228 -0.194422 0.00130303
-0.18346 0.556494 -0.194842 0.00178688
-0.17439 0.581572 -0.192534 0.00222874
-0.362417 -0.561133 0.449692 0.000900359
-0.382002 -0.554555 0.465513 0.00925605
-0.339733 -0.561603 0.464145 0.00415184
-0.359258 -0.555101 0.4801 0.0032668
-0.701345 -0.24627 -0.0775595 0.00130518
-0.699523 -0.222729 -0.0783111 0.0010738
-0.700974 -0.237821 -0.0605448 0.00104218
-0.698698 -0.214302 -0.0615891 0.00084415
-0.107591 0.182412 0.403935 0.000184641
-0.116517 0.203006 0.417407 0.000874487
-0.089189 0.189412 0.413948 0.00307879
-0.10029 0.209383 0.424695 0.00250194
0.142266 -0.175141 0.689745 0.000263777
0.146281 -0.155953 0.675384 0.00456093
0.161127 -0.180045 0.686721 0.00191894
0.166051 -0.161133 0.672005 0.00232084
0.385393 -0.565169 0.235432 0.00554811
0.409215 -0.562204 0.222923 0.00252143
0.397256 -0.56507 0.250616 0.000209501
0.420928 -0.561435 0.238022 0.00439292
0.41193 -0.159943 0.46327 0.00179088
0.397167 -0.149391 0.46937 0.000506815
0.402356 -0.170749 0.479937 0.000696758
0.388489 -0.159926 0.485722 0.00126614
-0.379245 -0.384761 -0.391958 0.000138617
-0.353262 -0.381695 -0.401564 0.00296193
-0.361084 -0.379298 -0.374932 0.000444306
-0.3372 -0.376 -0.384002 0.00201338
0.425406 -0.207089 0.480975 0.00091494
0.412158 -0.193199 0.486474 0.000767677
0.414975 -0.218639 0.496196 0.00205304
0.4027 -0.202846 0.499788 0.00165488
0.54513 -0.222695 0.312594 0.00143436
0.534055 -0.203659 0.316517 0.000512275
0.535141 -0.232288 0.331554 0.00217206
0.525023 -0.212436 0.335356 0.000992705
0.0233874 -0.127723 0.69195 0.00135405
0.0274366 -0.117291 0.680768 0.00159955
0.0479335 -0.128338 0.693953 0.00462809
0.0525024 -0.116608 0.681987 0.00391227
-0.0825079 0.706175 0.36549 0.000385916
-0.0705641 0.721455 0.356848 0.0020935
-0.0637616 0.70994 0.372973 0.00266104
-0.0509055 0.72509 0.364479 7.711e-05
-0.299299 0.0562908 -0.0728632 0.00564672
-0.276404 0.0689722 -0.082284 0.000450936
-0.295752 0.0631003 -0.0482892 0.00106927
-0.272631 0.0778638 -0.057705 0.00738499
0.0715483 0.162812 -0.550615 0.00474656
0.0803225 0.176069 -0.559669 0.00108347
0.0879872 0.162114 -0.551483 0.00448014
0.0966693 0.175529 -0.560324 0.00159032
-0.0848012 0.632281 -0.227241 0.00159017
-0.0850233 0.656173 -0.215697 0.000150873
-0.0629561 0.639945 -0.228861 0.000688486
-0.0628909 0.663715 -0.217054 0.00238309
-0.136008 0.239664 -0.153274 0.00126819
-0.124543 0.253395 -0.172211 0.000640016
-0.117846 0.220955 -0.148613 0.000851667
-0.107837 0.235061 -0.16583 0.00106595
-0.304916 -0.498387 0.171991 0.00245688
-0.286347 -0.493146 0.16379 0.00103034
-0.284157 -0.496338 0.187535 0.00259884
-0.26372 -0.490244 0.177884 0.004491
-0.548102 -0.299897 -0.490283 0.000381211
-0.557797 -0.28338 -0.485667 0.000338266
-0.55942 -0.298871 -0.473789 0.000931681
-0.568326 -0.279957 -0.470483 0.00161125
0.263905 -0.398483 -0.576896 0.000163806
0.252118 -0.39815 -0.56816 0.00170877
0.276482 -0.398737 -0.566162 0.00182615
0.264748 -0.398222 -0.55731 8.26608e-05
-0.498475 -0.268735 -0.582979 0.00158513
-0.513638 -0.252019 -0.569132 0.00138191
-0.511573 -0.264888 -0.563818 0.00132114
-0.526793 -0.247898 -0.550083 0.000785937
0.0467317 0.425099 0.702856 0.00646614
0.0580987 0.437948 0.695425 0.0052072
0.062923 0.424389 0.709051 0.000177909
0.0737364 0.436467 0.700599 0.000189253
0.364286 0.501288 0.105966 9.86624e-05
0.358312 0.520784 0.112548 0.00102549
0.361259 0.501208 0.12903 0.00221909
0.355509 0.520588 0.134932 0.000731492
0.531394 -0.0144394 -0.215478 0.000811489
0.510952 -0.00828845 -0.206467 9.57845e-05
0.548312 -0.0242062 -0.199572 0.00294956
0.529194 -0.0176683 -0.191284 0.000672591
0.0428469 -0.535382 0.270722 0.00456228
0.0626106 -0.531402 0.258747 0.00353889
0.0624659 -0.533121 0.287644 0.00349125
0.0830199 -0.529166 0.276109 0.00473127
-0.33067 -0.379096 -0.580653 0.00109119
-0.356602 -0.378502 -0.573057 0.00344284
-0.316279 -0.39138 -0.566251 0.0120519
-0.332407 -0.392349 -0.557904 0.011759
-0.438358 -0.505213 0.170186 0.0010297
-0.41964 -0.498661 0.158215 0.000107741
-0.417878 -0.505133 0.187713 0.00181535
-0.399748 -0.498145 0.175117 0.00326889
-0.157346 0.502131 -0.233268 0.00460629
-0.154537 0.524559 -0.225708 0.000659444
-0.137092 0.515904 -0.238029 0.00162038
-0.133246 0.538405 -0.230347 0.0025159
-0.441239 -0.457305 -0.0236444 0.00534441
-0.420969 -0.449059 -0.0352573 0.0022021
-0.418442 -0.454834 -0.00304167 2.42241e-05
-0.39615 -0.447423 -0.0140483 0.00216237
-0.223684 0.140681 0.288818 0.00452126
-0.225031 0.165734 0.291088 0.00272199
-0.214455 0.144263 0.307091 0.000802348
-0.216322 0.167307 0.309246 0.00278916
-0.498666 -0.409779 -0.344708 0.000217379
-0.519491 -0.404937 -0.338671 0.00757097
-0.48471 -0.415898 -0.331061 0.00821191
-0.501511 -0.413595 -0.325008 0.00213448
-0.121814 0.844431 0.194539 0.00475578
-0.103123 0.862829 0.187362 0.00113184
-0.101737 0.854069 0.209406 0.000850305
-0.0834796 0.872001 0.200615 0.00358792
-0.273136 -0.522817 0.600097 0.00102966
-0.276095 -0.499849 0.617638 0.00122147
-0.25094 -0.507734 0.62044 0.003569
-0.256841 -0.48551 0.638029 0.0014805
0.0278231 0.177526 -0.55854 0.00134833
0.0361858 0.189094 -0.569928 0.000111333
0.0440215 0.172061 -0.559127 0.00473242
0.0529402 0.184537 -0.569412 0.00138534
0.310792 0.0513675 0.0209803 0.00316569
0.294087 0.0653016 0.0296362 0.00134311
0.324277 0.045262 0.0362923 0.00151146
0.306787 0.0592741 0.0445603 0.00111119
-0.00200545 0.0448671 -0.878507 0.00187647
0.000652584 0.0690331 -0.876347 0.00048744
0.018591 0.0507172 -0.879118 0.000261548
0.021436 0.0744184 -0.877058 0.000370278
0.486088 -0.401637 0.440632 0.00348916
0.485288 -0.378137 0.445178 0.00227373
0.472271 -0.391992 0.458675 0.000617477
0.471577 -0.368301 0.463527 0.000581056
0.17554 0.732411 0.301801 0.00203389
0.157902 0.743144 0.307756 0.00840095
0.170918 0.717206 0.314981 0.000823847
0.153146 0.730601 0.321582 0.00797702
-0.544436 0.00486922 -0.431777 0.00404539
-0.530286 0.0215062 -0.43282 0.00249041
-0.537005 0.0167491 -0.412028 0.000684369
-0.521312 0.0332352 -0.414594 0.000878466
0.22643 0.72364 -0.101148 3.36037e-05
0.218909 0.746121 -0.0963866 0.00164979
0.237202 0.724257 -0.0802357 0.00295166
0.229521 0.74664 -0.0758021 0.00135086
-0.0766265 0.862027 -0.090656 0.00101964
-0.0757014 0.876595 -0.0766746 0.00207089
-0.0614715 0.882036 -0.0757715 0.000122882
-0.062969 0.894549 -0.0608078 0.000693084
-0.002543 -0.462649 0.051925 0.000202973
0.0148969 -0.455137 0.032123 0.00277092
0.0145248 -0.468916 0.0693384 0.000512504
0.0328966 -0.461491 0.0502653 0.00213854
-0.18873 0.538144 0.439477 0.00429275
-0.181425 0.556064 0.435553 1.06387e-05
-0.177879 0.544008 0.456947 0.00255016
-0.171142 0.56263 0.451904 0.002008
0.289856 0.169784 0.184455 0.00334362
0.297813 0.189717 0.183497 0.00161262
0.289676 0.180394 0.204944 0.00134149
0.298805 0.200391 0.204058 0.0026943
0.0211341 -0.320869 -0.803684 0.0096888
0.0341384 -0.305959 -0.823401 0.00325248
0.0492872 -0.321179 -0.803785 0.00751736
0.0610976 -0.305681 -0.821799 0.00230266
0.467656 -0.0110686 -0.591581 0.000920283
0.462083 0.00773091 -0.578237 0.000503992
0.476004 -0.00525257 -0.569773 0.00201766
0.470654 0.0128478 -0.557495 0.000624195
-0.108477 -0.387529 -0.234688 0.00143603
-0.0846628 -0.387043 -0.239534 0.00129038
-0.0809759 -0.387588 -0.219369 0.00482722
-0.0735803 -0.389722 -0.213255 0.00406055
-0.224751 0.73355 -0.0350002 0.0024513
-0.206876 0.76212 -0.0378436 0.00296505
-0.22608 0.757078 -0.012256 0.00192845
-0.207937 0.784163 -0.015209 0.00144309
-0.395196 -0.0306802 -0.714273 0.00492509
-0.382831 -0.00414803 -0.716114 0.00351333
-0.401707 -0.00901417 -0.694149 0.00102305
-0.389069 0.018747 -0.696114 0.000958969
0.583924 -0.0945397 0.10991 0.000610663
0.56916 -0.0844874 0.115878 0.00198548
0.591577 -0.106172 0.12591 0.00120173
0.576518 -0.0960085 0.132999 0.0017333
0.639764 -0.368853 0.143075 0.00338322
0.643652 -0.346444 0.148662 0.00184705
0.636021 -0.354525 0.167516 0.00134316
0.637492 -0.332686 0.173647 0.0017934
0.31746 0.145184 -0.643528 0.00565445
0.302361 0.155896 -0.638416 0.00442873
0.331829 0.137928 -0.628288 0.0012277
0.313539 0.146184 -0.620331 0.000431349
-0.281659 0.272899 0.322801 0.000243183
-0.291542 0.293769 0.321992 0.000523822
-0.261101 0.26374 0.342387 0.00101221
-0.272084 0.283444 0.342579 0.00219987
-0.228839 0.523744 0.392065 0.00101155
-0.221246 0.540097 0.389259 6.1562e-05
-0.218561 0.527265 0.410391 0.00113808
-0.211216 0.544423 0.407366 0.00486856
-0.17254 0.166012 -0.544839 0.00155514
-0.160399 0.17942 -0.557142 0.000323796
-0.148163 0.164805 -0.536186 0.000230474
-0.1364 0.177651 -0.549361 0.00209601
-0.163724 0.308774 0.476164 0.00137705
-0.165403 0.325028 0.496059 0.000455514
-0.143982 0.311405 0.496835 5.87682e-05
-0.147348 0.328143 0.517995 0.00102486
-0.442868 0.0216992 -0.113118 0.00150985
-0.4262 0.0290553 -0.115275 0.000202588
-0.427912 0.0242967 -0.0923363 0.00186116
-0.41119 0.0320881 -0.0949945 0.000146175
-0.561918 -0.267628 -0.481634 0.000932763
-0.570495 -0.248959 -0.477161 0.0008885
-0.574097 -0.262475 -0.463804 0.000297885
-0.581842 -0.241751 -0.460447 0.00252673
-0.457828 -0.00731278 0.111234 0.00314146
-0.436612 0.00334588 0.102696 0.00119891
-0.440824 -0.00223412 0.128157 0.000656074
-0.421379 0.00982143 0.122142 0.000980664
0.125682 -0.351792 0.722573 0.00366326
0.120175 -0.327026 0.727792 0.000164869
0.146243 -0.352468 0.719834 0.000393968
0.142577 -0.329096 0.721493 0.000620116
0.657748 -0.30789 0.114369 0.000638148
0.659937 -0.288812 0.120402 0.00154054
0.650841 -0.30026 0.136776 0.00147432
0.651267 -0.279776 0.142304 0.00100836
-0.564977 -0.221706 0.340303 0.00200413
-0.56295 -0.198652 0.332468 0.00201519
-0.552993 -0.213376 0.356668 0.00171394
-0.551 -0.189917 0.348947 0.00154053
0.280019 -0.402071 -0.627974 0.002125
0.290889 -0.398151 -0.636677 0.00178886
0.298097 -0.398388 -0.623135 0.00394937
0.299665 -0.398791 -0.617339 0.00415988
-0.118412 -0.09032 0.636639 0.00183376
-0.110783 -0.0767974 0.625438 0.000746649
-0.0942301 -0.0906699 0.639896 0.000282492
-0.0874827 -0.0773343 0.628671 0.000949212
0.306625 -0.0623503 -0.796847 0.00085845
0.308972 -0.0418582 -0.794759 0.000824309
0.323918 -0.0541451 -0.785941 0.000376884
0.326315 -0.0336214 -0.783832 0.000608237
-0.0272023 0.119212 -0.191787 0.00384179
-0.0466554 0.120071 -0.1725 0.0021763
-0.00817307 0.116124 -0.175517 0.00150078
-0.0261062 0.117463 -0.159287 0.00537532
-0.147898 0.664941 0.355367 1.69774e-06
-0.140381 0.681059 0.348401 0.00108299
-0.131546 0.670925 0.365797 0.00191617
-0.126037 0.688329 0.359144 0.00302411
0.316404 -0.154899 -0.779556 0.00311385
0.317155 -0.125615 -0.784201 0.00239439
0.339494 -0.149628 -0.766487 0.00163899
0.3403 -0.120691 -0.770791 0.000508131
-0.190716 -0.359859 -0.521675 0.0032837
-0.205618 -0.362939 -0.493329 0.00409544
-0.168803 -0.356638 -0.49987 0.00014068
-0.185823 -0.359209 -0.469994 0.000295338
0.0477447 0.950677 0.0435287 0.000108361
0.0184958 0.953005 0.0578987 0.00124966
0.0580961 0.951103 0.0602206 7.76165e-05
0.0286665 0.952955 0.0737438 0.00295017
-0.352967 0.403472 0.0183594 0.0004177
-0.349949 0.434187 0.019096 0.000667095
-0.357973 0.414614 0.0394167 0.000105757
-0.355359 0.443593 0.0419292 0.00207139
0.406662 -0.392699 -0.566065 0.0042479
0.412292 -0.378202 -0.570328 0.00147927
0.415989 -0.389891 -0.547911 0.00182954
0.428287 -0.370852 -0.556309 0.00551402
-0.192246 -0.229188 0.701371 0.00389391
-0.18679 -0.214064 0.69933 0.000181424
-0.175454 -0.226365 0.710042 0.00671937
-0.169793 -0.212468 0.707738 0.00557797
0.504942 -0.501351 -0.0705393 5.53632e-05
0.490759 -0.504058 -0.0563223 0.00284396
0.514737 -0.500548 -0.0554692 0.00600524
0.505344 -0.501619 -0.0444799 0.00544551
0.102144 0.708875 0.360605 0.000104777
0.0940739 0.719862 0.35499 0.00296232
0.119236 0.698464 0.364523 0.0057916
0.105375 0.70829 0.363919 0.00373991
-0.568595 -0.485768 0.0746147 0.00325997
-0.58335 -0.482475 0.0839242 0.0105236
-0.565607 -0.489632 0.0966145 0.0035756
-0.562336 -0.487075 0.0947 0.000527838
0.0171464 0.0787694 0.464963 0.00423033
0.0271781 0.0912418 0.451473 0.00677234
0.0406224 0.066296 0.469947 0.00145727
0.0497208 0.078521 0.454892 0.000837103
-0.54537 -0.194847 -0.523789 0.000291532
-0.545915 -0.169593 -0.517199 0.000528728
-0.556857 -0.178853 -0.500598 0.000147451
-0.554308 -0.153449 -0.494667 0.00201543
-0.0774147 0.290001 -0.79981 0.00481068
-0.0826844 0.300719 -0.781728 0.000970003
-0.0619285 0.308106 -0.787726 0.000927921
-0.0704104 0.31832 -0.767756 0.00275593
0.665515 -0.189833 -0.0333542 0.00450033
0.662863 -0.172648 -0.0316002 0.000247264
0.668269 -0.190096 -0.0131164 0.00135254
0.663034 -0.173559 -0.0086019 0.00276163
-0.38301 -0.239265 -0.712778 7.9514e-05
-0.392111 -0.222086 -0.712524 0.000909176
-0.381989 -0.256418 -0.705557 0.000925356
-0.392351 -0.239362 -0.704712 2.58012e-05
-0.23518 -0.456063 0.0415563 0.00214277
-0.216095 -0.451066 0.0310851 0.000286131
-0.219041 -0.456939 0.0559932 0.000467587
-0.200251 -0.452442 0.0456099 0.00186683
0.449327 -0.14831 -0.664716 0.00141847
0.449188 -0.129652 -0.665744 4.7145e-05
0.464003 -0.145868 -0.645221 0.00134274
0.464592 -0.127111 -0.645988 0.000109948
-0.425261 -0.189708 -0.685971 0.000866579
-0.433955 -0.167574 -0.677744 0.00163071
-0.443944 -0.183753 -0.66959 0.00104425
-0.453547 -0.160895 -0.659296 2.27861e-05
0.296704 -0.409962 -0.278223 0.000368052
0.276059 -0.409137 -0.267942 0.00152983
0.316612 -0.41387 -0.262537 0.00234867
0.295992 -0.41379 -0.252413 9.7248e-05
-0.252373 -0.561636 0.398517 0.00229553
-0.227476 -0.555853 0.377848 0.00214998
-0.234856 -0.558879 0.413841 0.00467542
-0.210906 -0.553302 0.393438 0.00461594
0.278032 0.210659 0.288608 0.0027131
0.288968 0.232971 0.28866 3.84179e-05
0.270614 0.227404 0.309269 0.00139094
0.282186 0.249806 0.308572 0.00514333
-0.44483 -0.554747 0.362781 0.0129294
-0.420604 -0.550586 0.352599 0.00125763
-0.426087 -0.553603 0.380275 0.0059152
-0.400772 -0.550163 0.37045 0.00437739
-0.32612 -0.408209 0.631745 0.00627686
-0.327288 -0.381035 0.633205 0.00277622
-0.304426 -0.409973 0.643373 0.00367646
-0.305247 -0.383325 0.644573 0.000677566
-0.651316 -0.0955094 0.0194539 8.23725e-05
-0.640921 -0.0777393 0.0151732 0.00154036
-0.641691 -0.087421 0.0385834 0.00118554
-0.631508 -0.0694858 0.0348075 0.00330464
0.512919 -0.483531 -0.181051 0.00249119
0.523043 -0.477904 -0.188535 0.00024817
0.520932 -0.485549 -0.169702 0.00292666
0.53112 -0.476428 -0.176069 0.00131255
0.499531 -0.146089 -0.590532 0.00205044
0.501655 -0.128634 -0.591324 0.00266219
0.511563 -0.143216 -0.570653 0.00183665
0.513318 -0.126126 -0.571998 0.00279523
-0.334296 0.0742108 -0.313206 0.000160463
-0.310674 0.0838571 -0.31782 0.000697176
-0.313444 0.0806241 -0.291275 0.000427566
-0.288981 0.0911998 -0.295491 0.00164865
-0.22688 0.722985 -0.0433719 0.00274487
-0.208835 0.75095 -0.0457387 0.00349703
-0.229789 0.74426 -0.0205713 0.00141381
-0.211066 0.772031 -0.0240303 0.000778423
-0.655899 -0.327424 -0.228994 0.00399124
-0.664147 -0.307816 -0.222812 0.00247557
-0.661182 -0.329584 -0.208909 0.00308804
-0.669211 -0.311293 -0.203223 0.000603781
-0.0924998 0.847467 0.219125 0.00372732
-0.0756667 0.865648 0.209484 0.000632499
-0.0695639 0.856801 0.232281 0.00240895
-0.0563816 0.872904 0.219653 0.00567722
0.170838 -0.0915234 -0.854574 0.00288607
0.175071 -0.0670943 -0.855808 0.00252537
0.196455 -0.0897637 -0.84719 0.00246789
0.201683 -0.0651132 -0.848705 0.000482396
-0.0779749 0.835282 -0.115768 0.00145153
-0.0759071 0.852177 -0.102503 0.00168462
-0.0630295 0.855284 -0.101167 0.000391464
-0.0642148 0.870414 -0.0849318 0.000972511
-0.318357 0.0795997 -0.35539 0.00147754
-0.297012 0.0874682 -0.360943 0.000260769
-0.300903 0.0834462 -0.337087 0.00249472
-0.27795 0.0918139 -0.342299 0.000223221
-0.603844 -0.412946 -0.163989 0.000246634
-0.622647 -0.40398 -0.156363 0.00512853
-0.589355 -0.422253 -0.151679 0.00382194
-0.609431 -0.415309 -0.142662 0.00179764
-0.688849 -0.298416 0.078337 0.00112421
-0.69226 -0.275041 0.0725366 0.000811556
-0.687142 -0.297516 0.0951176 0.00249414
-0.69111 -0.273637 0.0887141 0.00203665
0.631548 -0.352909 -0.221359 0.00423793
0.643579 -0.329899 -0.226231 0.000790804
0.640944 -0.347093 -0.202919 0.00402337
0.650918 -0.323602 -0.207071 0.00178449
0.30507 0.226584 0.261323 0.00413862
0.316072 0.249565 0.259985 6.31855e-05
0.298521 0.244028 0.282741 0.000705867
0.309584 0.268169 0.2815 0.00580057
0.233858 -0.387516 -0.465246 0.00187195
0.20634 -0.386566 -0.451997 0.000533192
0.254943 -0.387599 -0.447251 0.0017368
0.228797 -0.386797 -0.434004 0.00272055
-0.344247 0.305083 0.0984687 0.0034997
-0.353456 0.324742 0.105489 0.00100213
-0.349897 0.29978 0.122895 0.00138845
-0.357889 0.319561 0.129894 0.00173438
0.583522 -0.0671841 -0.0373265 0.00233152
0.56506 -0.0580505 -0.0308001 0.00342498
0.596146 -0.0747442 -0.022127 0.000599487
0.579227 -0.0637569 -0.015855 0.00133396
-0.28313 0.00425455 -0.799983 0.00599808
-0.286993 0.0291012 -0.783036 0.00210573
-0.264004 0.0249623 -0.805407 0.00403405
-0.268477 0.0496287 -0.78831 0.00334113
0.556132 -0.157189 -0.486801 0.00142112
0.554932 -0.138028 -0.489149 0.000773686
0.567509 -0.159747 -0.466405 0.00198356
0.566965 -0.140723 -0.468053 0.000697886
-0.558257 -0.389816 -0.347975 0.00134145
-0.578487 -0.378737 -0.344864 0.00410104
-0.542868 -0.399674 -0.334566 0.00463867
-0.565411 -0.389515 -0.33056 0.000187725
-0.106294 -0.367357 -0.679391 0.00243056
-0.11563 -0.372018 -0.659681 0.00217022
-0.0862274 -0.367448 -0.665315 0.00256142
-0.0983318 -0.370951 -0.641901 0.000945205
0.309202 0.160854 -0.694397 0.00140981
0.295566 0.17318 -0.691783 0.00122008
0.31738 0.152758 -0.680931 0.00230138
0.303731 0.165634 -0.678683 0.00108797
-0.23683 0.626566 0.286377 0.00280451
-0.228962 0.644026 0.284634 0.00286404
-0.226567 0.633435 0.304007 0.000432303
-0.218503 0.650613 0.300475 0.0013573
-0.322219 -0.371678 -0.655343 0.00496567
-0.34792 -0.368963 -0.649036 0.00274188
-0.29988 -0.385996 -0.641787 0.0111957
-0.328754 -0.385147 -0.631983 0.00709916
0.386309 -0.0433613 -0.726638 0.00283746
0.384708 -0.0231972 -0.727898 0.000469971
0.402851 -0.0384039 -0.71062 0.00018935
0.399093 -0.0170175 -0.713308 0.00174968
0.213715 -0.163738 -0.832814 0.00170182
0.223013 -0.14184 -0.834027 0.000880225
0.238584 -0.166921 -0.821951 0.000668209
0.247927 -0.145263 -0.823518 0.000937201
-0.183873 0.778814 0.221758 0.00208105
-0.17412 0.79622 0.216744 0.000290911
-0.168106 0.782029 0.243213 0.000373987
-0.158713 0.799819 0.238375 0.00241615
-0.355356 -0.385372 -0.341055 0.00121603
-0.333019 -0.381403 -0.349567 0.00198183
-0.337485 -0.37997 -0.32583 0.00119952
-0.315387 -0.376002 -0.334168 0.00249155
0.219093 -0.456963 0.65709 0.00157333
0.217185 -0.43865 0.669975 0.00384501
0.241285 -0.441211 0.651727 0.000221299
0.240801 -0.421206 0.663994 0.00552335
0.215757 -0.398515 -0.6551 0.00698847
0.230431 -0.393796 -0.665669 0.000969176
0.233724 -0.399722 -0.640817 0.00580488
0.249314 -0.393244 -0.653971 0.00230031
-0.196138 -0.402139 -0.190275 0.00432103
-0.163698 -0.398533 -0.197381 0.00249741
-0.165616 -0.39874 -0.170866 0.00336536
-0.134424 -0.395594 -0.177851 0.00513447
0.0280558 0.0229836 0.531941 0.0013755
0.0354394 0.0339711 0.5158 0.001299
0.050021 0.016205 0.538483 0.000174209
0.0565055 0.0265479 0.523456 6.05429e-05
0.352392 -0.424134 -0.26695 0.000217117
0.332227 -0.424024 -0.256164 0.00301265
0.37105 -0.429153 -0.252618 0.00216832
0.350689 -0.429146 -0.242054 0.00124153
-0.319062 -0.513838 0.571746 0.00160878
-0.322357 -0.492052 0.58929 0.000468826
-0.29399 -0.504663 0.595852 0.00367744
-0.296808 -0.481623 0.613607 0.000530638
0.328055 -0.481633 0.570948 0.00227227
0.32794 -0.461879 0.583046 0.000880859
0.334102 -0.462441 0.577829 0.000462108
0.332483 -0.439159 0.589279 0.000228704
-0.643942 -0.143581 -0.327745 0.00215519
-0.633548 -0.120752 -0.332158 0.00130343
-0.650551 -0.130623 -0.304197 0.003081
-0.639884 -0.107613 -0.308776 0.00147467
0.353249 0.49195 0.239668 0.00236832
0.342984 0.507186 0.252261 0.0022262
0.342804 0.491147 0.262932 0.00093414
0.332506 0.506485 0.274156 0.00183001
0.178921 -0.0404313 -0.856119 0.00155638
0.183391 -0.0157241 -0.855306 0.00148628
0.203546 -0.0399742 -0.84854 0.000489644
0.208695 -0.0159511 -0.847479 0.000972817
-0.275083 -0.369478 -0.661073 0.00242838
-0.300759 -0.368763 -0.654565 0.00814036
-0.25469 -0.377674 -0.649485 0.00400773
-0.284164 -0.378164 -0.634018 0.00282748
0.228623 0.53285 0.456344 0.000266795
0.219664 0.549704 0.460359 0.00115434
0.224253 0.532226 0.474785 0.00535232
0.215955 0.550038 0.477761 0.00234514
-0.033756 0.201786 -0.84235 0.00594586
-0.0315932 0.226845 -0.830062 0.00888489
-0.00410228 0.217459 -0.842897 0.00301066
-0.00318698 0.241142 -0.831395 0.00642365
-0.588385 -0.343493 0.311526 0.000361313
-0.587524 -0.325196 0.312321 0.00270173
-0.580281 -0.338682 0.332208 8.46542e-05
-0.578202 -0.31925 0.331629 0.00417777
-0.184023 -0.169093 -0.84145 0.00175049
-0.177334 -0.143767 -0.84697 0.00131034
-0.159678 -0.159973 -0.848508 0.000405019
-0.151883 -0.135372 -0.852676 0.00125392
-0.0307327 0.919028 0.133289 9.30731e-05
-0.0195052 0.932865 0.121541 0.00123046
-0.0177455 0.924807 0.141559 0.00328076
-0.00592776 0.938446 0.129048 0.00709959
0.175586 -0.115953 -0.85097 0.00287744
0.179918 -0.0910715 -0.851904 0.00277309
0.199884 -0.113395 -0.844266 0.00234944
0.206267 -0.0892101 -0.845564 0.00115273
-0.117148 -0.407159 -0.170549 0.0041797
-0.10024 -0.404611 -0.173447 0.00204118
-0.0998459 -0.406207 -0.155477 0.00044788
-0.0884878 -0.401879 -0.158815 0.00402988
-0.0745511 -0.604838 0.582949 0.00235682
-0.08819 -0.597675 0.598461 0.00188005
-0.0525488 -0.602879 0.588663 0.00347159
-0.065919 -0.595943 0.605142 3.6084e-05
-0.118161 -0.141492 -0.864125 0.00181536
-0.111059 -0.117559 -0.867832 0.00222201
-0.0902832 -0.13209 -0.869528 0.0014747
-0.0829092 -0.107019 -0.872751 0.000985148
-0.591566 -0.456896 0.147032 0.0007365
-0.601854 -0.443878 0.160186 0.00226745
-0.580796 -0.46353 0.167416 0.000973584
-0.590576 -0.450557 0.180527 0.00078405
0.0785825 0.130033 0.401718 0.00719405
0.089387 0.145428 0.386803 0.0160194
0.104234 0.124241 0.409166 0.00728922
0.114851 0.13942 0.388662 0.00374884
-0.391951 0.0466912 -0.190914 0.000308572
-0.371319 0.0544405 -0.194026 0.000207739
-0.376225 0.049926 -0.170394 0.000590739
-0.355306 0.0585948 -0.173907 3.82728e-05
0.182426 -0.411792 -0.180646 0.000282038
0.160467 -0.414365 -0.165342 0.000944945
0.198864 -0.415224 -0.163294 0.00238647
0.176109 -0.417922 -0.148192 0.000793911
-0.0882565 0.110945 -0.221053 0.00511102
-0.0707144 0.117404 -0.228212 0.000492024
-0.0651677 0.11856 -0.214523 0.00205955
-0.0657628 0.122856 -0.206131 0.00737388
-0.40367 -0.440468 0.556748 0.00493319
-0.401163 -0.417264 0.560148 0.000967182
-0.38259 -0.437572 0.57132 0.00156591
-0.380506 -0.415025 0.574471 0.00487528
-0.226899 0.250581 0.373132 0.00106922
-0.240163 0.270185 0.37537 0.000389722
-0.207648 0.250254 0.391216 0.00162899
-0.218147 0.269551 0.395812 0.00271949
-0.451709 0.00249097 0.0615674 0.00130791
-0.427788 0.011907 0.0485814 0.0015167
-0.433674 0.00752353 0.0804111 0.000219059
-0.410904 0.0181234 0.0681495 0.000929937
-0.225047 -0.413206 -0.145928 0.0048119
-0.193332 -0.409996 -0.153726 0.00357987
-0.198103 -0.41186 -0.124428 0.00125868
-0.167391 -0.408635 -0.132337 0.00253904
0.424552 -0.519309 0.0581264 0.000756008
0.401435 -0.522877 0.0705989 0.00426648
0.443685 -0.520858 0.0730997 0.0050299
0.426753 -0.524318 0.0832445 0.00175758
-0.174923 0.550116 0.582427 0.00156621
-0.173526 0.573794 0.578601 0.0107339
-0.153551 0.550203 0.596887 0.0095715
-0.152788 0.572734 0.595733 0.000421972
-0.435404 -0.550598 0.336184 0.00580055
-0.409603 -0.545856 0.323868 0.00248504
-0.415216 -0.548856 0.353626 0.00197793
-0.389323 -0.54415 0.341535 0.00241256
-0.488478 0.0199072 -0.157758 0.00525571
-0.464973 0.0259384 -0.160869 0.000172765
-0.469503 0.0218034 -0.140865 0.00110242
-0.450322 0.0279128 -0.142273 0.00380479
-0.473209 -0.541237 0.291006 0.00947446
-0.450178 -0.536506 0.280205 0.00104912
-0.454208 -0.54011 0.307441 0.00233962
-0.428698 -0.535174 0.294724 0.00236235
-0.0683153 -0.147288 0.696032 0.00330691
-0.05876 -0.136328 0.694647 0.00131379
-0.0503545 -0.150837 0.703611 0.00339558
-0.0422971 -0.140018 0.700847 0.00399268
0.411828 -0.580321 0.317315 0.00173717
0.426967 -0.571815 0.312376 0.000778949
0.419455 -0.572616 0.32974 0.000969678
0.433144 -0.564234 0.325655 0.00207016
0.25226 0.201366 -0.652766 0.000512487
0.231217 0.206515 -0.644988 0.00253819
0.259123 0.189341 -0.636683 0.00111273
0.237638 0.194296 -0.629051 0.000667435
-0.249029 -0.0562547 0.53243 0.00726805
-0.222993 -0.0350466 0.536199 0.000847246
-0.217417 -0.041313 0.552241 0.00226164
-0.1935 -0.0221623 0.553881 0.00728903
-0.112859 0.120149 0.398902 0.00124089
-0.110329 0.138306 0.39688 6.51826e-05
-0.0983828 0.119669 0.408546 0.00284922
-0.0921995 0.136791 0.401463 0.00260744
-0.122847 0.112347 -0.24049 0.00381646
-0.10451 0.118705 -0.250831 0.000477468
-0.109693 0.117509 -0.227089 0.00207177
-0.0890628 0.123951 -0.237804 0.00566247
0.251853 0.41666 0.494585 0.00023186
0.256081 0.43382 0.496063 0.00167666
0.246578 0.421998 0.513592 0.0010393
0.251534 0.439271 0.514696 1.23066e-05
-0.674779 -0.319635 -0.158731 0.000321468
-0.677633 -0.300747 -0.15556 0.00447705
-0.682205 -0.32005 -0.138253 0.00384251
-0.68564 -0.300392 -0.134975 0.00108548
0.516605 -0.261465 -0.552279 0.000307196
0.522004 -0.242741 -0.555089 0.00257961
0.528593 -0.259672 -0.531668 0.00195057
0.534583 -0.242628 -0.533337 0.00219566
0.275516 0.0822537 0.182556 0.00724232
0.272848 0.0996853 0.18657 0.00118611
0.279778 0.0830443 0.20362 0.00104741
0.275647 0.0995865 0.208474 0.00455422
0.246214 0.340663 -0.179147 0.000900746
0.252515 0.361832 -0.178643 0.000752566
0.261711 0.352514 -0.164579 0.00198982
0.268151 0.373931 -0.163553 0.000978747
-0.28262 -0.351568 0.660858 0.00189094
-0.279615 -0.328114 0.660485 0.000150703
-0.265775 -0.347658 0.671192 0.00291068
-0.264643 -0.324229 0.669761 0.00204258
-0.567432 -0.486491 0.0753448 0.00301249
-0.582182 -0.483261 0.0845316 0.0102935
-0.564582 -0.490406 0.0972675 0.00343553
-0.561527 -0.487378 0.0956275 0.000863701
0.508333 -0.536773 0.085864 0.000669345
0.528326 -0.524543 0.0811901 0.00116055
0.521093 -0.531247 0.102545 0.00142254
0.539431 -0.518973 0.0979355 0.000408423
-0.162189 -0.185307 -0.844944 0.0016347
-0.153805 -0.160572 -0.850283 0.000598195
-0.138018 -0.177529 -0.85098 0.000244362
-0.130126 -0.153312 -0.856217 0.00122165
0.648275 -0.149823 0.00230427 0.000430104
0.63742 -0.134264 0.012168 0.000385251
0.650072 -0.152899 0.0231509 0.00153869
0.639063 -0.13723 0.0329485 0.00272222
0.295919 0.245628 -0.0625677 0.00241134
0.304291 0.26684 -0.0682947 0.000984414
0.30231 0.245197 -0.0466882 9.67841e-05
0.311731 0.264496 -0.0512376 0.00102553
0.379557 0.305441 0.101145 0.00234938
0.386503 0.325888 0.100157 0.00309382
0.377564 0.310574 0.117604 0.00191261
0.383861 0.331942 0.119822 0.00141265
-0.189182 0.248741 -0.676507 0.0089779
-0.174084 0.266326 -0.680109 0.00272658
