0.114587 0.202061 -0.171981 0.00320772
0.131311 0.189306 -0.166005 0.000576615
0.129588 0.2009 -0.164185 0.000172873
0.356475 0.656552 -0.106667 0.00728822
0.359433 0.673305 -0.101849 0.00711738
0.373221 0.659672 -0.0923955 0.00688528
0.375265 0.676014 -0.0885649 0.00687353
0.407586 -0.0751509 0.151025 0.0011921
0.413751 -0.0682498 0.133681 0.00270977
0.424194 -0.0815976 0.155355 0.000975661
0.428381 -0.0750644 0.139583 0.00277263
0.177769 -0.173372 -0.0287883 0.0018275
0.18561 -0.157878 -0.0304958 8.14065e-05
0.179038 -0.168121 -0.012122 0.00143561
0.186169 -0.15186 -0.0134661 0.000669201
0.239064 0.0394906 -0.391575 0.000981809
0.229402 0.0583717 -0.385468 0.000920242
0.22452 0.0457232 -0.377649 0.00304871
0.212885 0.0631821 -0.370613 0.00258934
0.365608 0.51003 -0.113132 0.00236811
0.3675 0.528003 -0.110041 0.00330496
0.379228 0.513654 -0.102545 0.00309879
0.381762 0.530555 -0.100647 0.0052299
0.257531 -0.138633 -0.275703 0.000467388
0.255423 -0.122266 -0.275723 0.00288525
0.263363 -0.139126 -0.267118 0.00127473
0.260908 -0.122856 -0.266839 0.000351058
-0.102111 -0.167024 0.697286 0.000570049
-0.0997465 -0.151917 0.697856 0.00128148
-0.0849868 -0.163089 0.702723 0.000327246
-0.0825052 -0.147998 0.703166 0.000370249
0.375087 -0.232087 -0.190078 0.000138413
0.37722 -0.215797 -0.190332 0.000461741
0.392971 -0.231315 -0.188297 0.00108993
0.395694 -0.214694 -0.187675 0.000641349
-0.13935 -0.296358 0.143185 0.000775336
-0.154576 -0.291005 0.149016 0.00317056
-0.13598 -0.305782 0.15439 0.00553798
-0.149866 -0.300618 0.159805 0.00165015
0.242894 -0.0859561 -0.191066 0.00129533
0.241498 -0.0713767 -0.186485 0.00165498
0.236483 -0.0858727 -0.173043 0.00493571
0.233853 -0.0684966 -0.167465 0.00750069
0.226375 0.242724 -0.196522 0.00052082
0.223195 0.26102 -0.191771 0.000720808
0.210721 0.25077 -0.181298 0.00284745
0.208073 0.268693 -0.176645 0.00126751
0.127548 -0.131674 0.642002 0.00141922
0.122045 -0.114527 0.647764 0.00192249
0.111051 -0.128674 0.657057 0.00170678
0.107927 -0.111271 0.660339 0.000110076
0.122321 -0.167549 0.358235 0.00273154
0.122747 -0.151352 0.354749 0.00097076
0.13488 -0.164723 0.37194 0.00231442
0.132615 -0.14843 0.367214 0.000109619
-0.102429 -0.161902 0.299023 0.00688076
-0.110047 -0.146057 0.302685 0.00588715
-0.0989836 -0.152399 0.301797 0.00372934
-0.105384 -0.136641 0.305404 0.0025126
0.252647 -0.279044 -0.259201 0.00134048
0.260398 -0.264772 -0.266266 0.00108759
0.258356 -0.274488 -0.247329 0.00527413
0.266446 -0.260325 -0.252186 0.00241966
0.033223 -0.0794025 -0.389204 0.00259253
0.0167849 -0.0722942 -0.382768 0.00103565
0.0463648 -0.0867483 -0.374969 0.0019256
0.030417 -0.0781959 -0.369142 0.00191592
-0.61481 -0.114176 0.00543194 0.00220506
-0.609335 -0.0971122 0.00946633 0.000147689
-0.61747 -0.0972005 0.0203965 0.00169914
-0.611204 -0.0804462 0.0241891 0.00211875
-0.555881 -0.312622 -0.0241681 6.45072e-05
-0.54679 -0.296363 -0.0364083 0.000906559
-0.537797 -0.318694 -0.0225361 0.00285115
-0.527718 -0.302143 -0.0362001 0.0027271
0.314133 0.101621 -0.292251 0.000115477
0.311841 0.126414 -0.289446 0.00114538
0.296174 0.107967 -0.275916 0.00343054
0.293754 0.132057 -0.273113 0.00230546
0.21822 0.597929 -0.257211 0.00442596
0.21871 0.612594 -0.2596 0.00486913
0.22486 0.598384 -0.24762 0.00382795
0.224831 0.613148 -0.249668 0.00116961
-0.597355 -0.150055 -0.0320375 0.00210345
-0.597123 -0.132366 -0.0252513 0.00157754
-0.592311 -0.134871 -0.0258889 0.00154952
-0.590673 -0.118889 -0.0187677 0.00242753
-0.595849 -0.0256754 0.104926 0.00465841
-0.571288 -0.0146953 0.105484 0.00103306
-0.581612 -0.0163906 0.124358 0.00206042
-0.556476 -0.00567679 0.123203 0.00115091
0.00221783 0.446384 -0.42987 0.00335874
-0.0030103 0.466606 -0.42427 0.00979972
0.0173326 0.44709 -0.416254 0.0020139
0.0125645 0.468248 -0.411596 0.00958816
-0.620103 -0.253821 0.297734 0.00167023
-0.625025 -0.234077 0.299372 0.00185426
-0.599395 -0.248668 0.309052 0.00348716
-0.606565 -0.228349 0.315006 0.00155703
-0.341594 -0.343652 0.230858 1.24758e-05
-0.324985 -0.328575 0.227331 0.00101703
-0.337433 -0.330499 0.245192 0.00165259
-0.321154 -0.315146 0.242173 0.00209856
-0.202782 -0.105364 -0.412452 0.0016098
-0.190156 -0.0934557 -0.412652 0.000155886
-0.198239 -0.0947308 -0.396521 0.000644179
-0.185803 -0.0830323 -0.397579 0.00131545
0.477715 -0.057801 -0.48225 0.00179609
0.474263 -0.0417766 -0.47642 0.000140952
0.466206 -0.0540646 -0.465478 8.25368e-05
0.463805 -0.0352102 -0.459934 0.00281828
0.380557 -0.143453 -0.467513 0.000333212
0.366438 -0.135431 -0.452936 0.00137838
0.397157 -0.141324 -0.458346 0.0031113
0.383137 -0.133846 -0.443058 1.29517e-05
-0.460542 0.00777895 0.45876 0.00267786
-0.462127 0.0345216 0.464191 0.000247886
-0.473033 0.0163687 0.479057 0.000538306
-0.476238 0.0421963 0.484994 0.00249231
-0.46989 0.00700616 0.121361 0.00105186
-0.485683 0.00665721 0.131962 6.48309e-05
-0.453582 0.00976041 0.134758 0.00387333
-0.4704 0.00988365 0.145105 0.00127899
0.427214 -0.159099 -0.493996 0.00440777
0.433912 -0.154585 -0.489087 0.000474338
0.433382 -0.154343 -0.479082 0.00227406
0.443495 -0.149455 -0.476277 0.00110053
0.377561 -0.0452289 0.103147 0.000506029
0.389427 -0.0390597 0.0874499 4.82018e-05
0.394218 -0.0508784 0.116048 0.00093174
0.40241 -0.0446951 0.0971206 0.00134518
0.124337 -0.36641 -0.153851 0.000599866
0.131213 -0.357518 -0.150233 0.00895589
0.131163 -0.366656 -0.137939 0.000725836
0.140269 -0.358755 -0.133653 0.00633646
0.46864 0.801739 0.0103847 0.00221057
0.469499 0.817198 0.0133219 0.00206083
0.483714 0.804114 0.0205627 0.00361678
0.484112 0.819782 0.0242918 0.00204968
0.146158 0.704555 -0.289295 0.00696314
0.146628 0.718567 -0.28536 0.0080644
0.155479 0.706311 -0.279223 0.00879835
0.156676 0.720625 -0.274863 0.00974333
0.40014 0.322664 -0.543315 0.00167658
0.395461 0.336771 -0.535396 0.00156299
0.415538 0.324483 -0.531557 0.000751733
0.41104 0.337952 -0.523856 0.00089069
-0.126471 0.282178 0.0729006 0.00206216
-0.137207 0.298262 0.0761759 0.00653462
-0.132535 0.273612 0.0885676 0.00924276
-0.143543 0.289164 0.0905439 0.00109698
-0.410798 0.290726 0.506387 0.00346145
-0.405533 0.304738 0.502193 0.00133277
-0.399515 0.291257 0.518017 0.000483006
-0.393952 0.305713 0.51316 0.00375645
-0.109966 -0.463938 -0.401693 0.000865803
-0.130914 -0.466345 -0.389345 0.00456526
-0.098723 -0.468267 -0.390359 0.000638111
-0.117841 -0.46999 -0.376738 0.00326881
0.0826277 -0.210829 -0.474014 0.00085883
0.0783419 -0.192337 -0.476056 0.00243163
0.0891778 -0.213438 -0.464156 0.00226483
0.087294 -0.197439 -0.463475 5.42351e-05
0.184706 -0.00224852 -0.305691 0.00715896
0.173796 0.0131794 -0.2998 0.00343012
0.191149 -0.00247003 -0.303431 0.00342235
0.180636 0.0131619 -0.297553 0.00645267
-0.274062 -0.322369 -0.393884 0.00165639
-0.278454 -0.308152 -0.387639 0.00236682
-0.278038 -0.320165 -0.375248 0.00122629
-0.282067 -0.305764 -0.36887 0.00113298
0.163741 -0.138792 -0.0801498 0.00302821
0.163313 -0.122134 -0.0780146 0.00517561
0.150206 -0.135218 -0.0680355 0.000419739
0.147132 -0.117883 -0.0641747 0.00165095
0.253086 -0.398542 0.0961142 0.00162317
0.242456 -0.380808 0.113703 0.00219986
0.267316 -0.397982 0.114049 0.00087104
0.256747 -0.380254 0.13129 0.00240642
0.273527 0.201596 -0.248526 0.0010575
0.270668 0.22037 -0.244498 0.00236027
0.25695 0.204481 -0.232071 0.00125643
0.253052 0.224412 -0.227669 0.000419037
0.0421247 0.442871 -0.183612 0.00139838
0.0441184 0.463761 -0.179614 0.00332428
0.0288168 0.456298 -0.167694 0.00118899
0.0309634 0.477324 -0.163642 0.00364298
-0.344753 -0.0364898 0.142615 0.000568695
-0.359418 -0.0249637 0.144522 0.00120524
-0.336243 -0.0453686 0.158228 0.000871225
-0.350085 -0.0340349 0.160869 0.000727535
-0.447164 0.233359 0.528931 0.00171425
-0.439278 0.247766 0.525284 0.00076307
-0.437044 0.235307 0.541289 0.00171298
-0.4293 0.249798 0.537592 0.00322406
0.0221769 0.474671 -0.162496 0.00251729
0.0260666 0.495633 -0.159551 0.00264217
0.0111406 0.487663 -0.146783 0.00116985
0.0164082 0.50664 -0.144829 0.000695161
0.344324 0.218019 -0.538582 3.28983e-05
0.34245 0.240808 -0.533588 0.00267023
0.328304 0.230886 -0.523334 0.00217767
0.325 0.252756 -0.517247 7.44477e-05
0.27772 0.263745 -0.259325 0.00078575
0.273754 0.282543 -0.255808 0.000850707
0.26239 0.269002 -0.244119 0.00122534
0.260906 0.287358 -0.242591 0.000679017
-0.217302 0.314144 0.347258 0.00234221
-0.215833 0.329646 0.349184 0.000708881
-0.228092 0.318938 0.359448 0.00291347
-0.228579 0.335352 0.362914 0.000382809
0.319749 -0.425705 -0.0684542 0.00207056
0.2977 -0.421023 -0.0614289 0.00154993
0.33042 -0.433736 -0.0576991 0.00196002
0.309623 -0.429481 -0.0495112 0.000832251
0.191032 0.296228 -0.357491 0.000523331
0.189288 0.314369 -0.353193 0.00122764
0.175279 0.302459 -0.340685 0.00207228
0.173141 0.321451 -0.336542 0.00039795
0.452167 -0.127983 -0.140984 0.0015182
0.444767 -0.114832 -0.134774 0.00208926
0.464155 -0.129635 -0.133157 0.00105681
0.455738 -0.116765 -0.12763 0.000696153
0.101638 -0.358366 -0.190094 0.00848467
0.0977262 -0.345941 -0.186299 0.000888904
0.10766 -0.357537 -0.178354 0.00015002
0.103471 -0.347467 -0.172746 0.00796557
0.145532 -0.284205 0.553007 0.0026805
0.15605 -0.2658 0.54964 0.00123357
0.14696 -0.272787 0.566505 0.000999499
0.158137 -0.253364 0.564716 0.00061787
-0.509127 -0.1941 0.35509 0.00169452
-0.507145 -0.174544 0.354284 0.00137068
-0.489401 -0.190789 0.357216 0.00147691
-0.486862 -0.171168 0.356335 0.00367958
-0.0993332 0.350301 -0.000145839 0.00113944
-0.103728 0.369012 0.00432454 0.00112143
-0.113824 0.35933 0.0136406 0.00124051
-0.117468 0.377991 0.0195879 0.000248322
0.568053 -0.268982 0.100384 0.000720073
0.566824 -0.25264 0.106132 0.000617159
0.559433 -0.262491 0.120242 4.75577e-05
0.556874 -0.245043 0.125523 0.00112933
-0.00954808 -0.295541 -0.544186 0.00156135
-0.00338485 -0.274836 -0.544139 0.000724564
0.0118276 -0.29328 -0.537075 0.00033788
0.0174577 -0.272907 -0.536533 0.000211242
-0.576347 -0.0324367 0.214963 0.000509219
-0.567218 -0.0212936 0.206211 0.00163374
-0.56582 -0.0307661 0.22731 0.0013581
-0.557167 -0.0202949 0.219621 0.00302624
-0.0636703 0.714266 -0.437415 0.00840381
-0.0641383 0.733742 -0.435856 0.00908497
-0.050546 0.7198 -0.427326 0.00947717
-0.0502256 0.739351 -0.423684 0.00905547
-0.29889 -0.315549 0.0989585 0.00246614
-0.290389 -0.295936 0.0952553 0.00173937
-0.289842 -0.304302 0.1127 0.0021917
-0.281447 -0.28474 0.109476 0.00126884
-0.424966 -0.408463 0.161045 0.00163186
-0.428665 -0.406939 0.174075 0.000507198
-0.415346 -0.402446 0.174221 0.000846173
-0.415422 -0.401182 0.184987 0.00110674
0.424295 -0.418013 -0.0767435 0.00235784
0.432777 -0.407106 -0.0869318 0.00131074
0.437147 -0.41774 -0.0645558 1.96991e-05
0.446578 -0.405663 -0.0732664 0.001504
-0.3262 0.117171 0.49446 0.00188922
-0.324992 0.137943 0.496526 0.00142345
-0.340745 0.119035 0.51192 0.00222662
-0.33974 0.140634 0.512707 0.000171876
-0.0395969 0.427176 -0.082888 0.00171436
-0.0364114 0.442962 -0.0809644 0.00244479
-0.0487184 0.438238 -0.0700885 0.000445787
-0.0435848 0.45392 -0.0695621 0.00434904
-0.128368 0.463846 0.0948151 0.000302096
-0.11137 0.467657 0.0886964 0.000206407
-0.117631 0.46301 0.11033 0.000789701
-0.100628 0.46658 0.103433 0.000615978
-0.017043 0.633793 -0.427923 0.00944361
-0.0178896 0.653865 -0.422183 0.012174
-0.0038545 0.634048 -0.418975 0.00810914
-0.00488432 0.654062 -0.414006 0.0103642
0.224482 -0.327479 -0.21773 0.00209322
0.240776 -0.315165 -0.224674 0.000241876
0.232588 -0.322776 -0.201063 0.00468644
0.248243 -0.311298 -0.206115 0.0012531
0.484426 0.1912 -0.516852 0.00187219
0.481751 0.205307 -0.512693 0.000515276
0.476669 0.194272 -0.503939 0.00156188
0.472653 0.207797 -0.499141 0.00110474
-0.0629924 -0.468671 -0.321347 0.000278059
-0.0719424 -0.467105 -0.303904 0.000190788
-0.049221 -0.464202 -0.310119 0.0016271
-0.0584008 -0.461858 -0.290717 0.000804111
0.278627 0.252127 -0.458251 0.00164953
0.275994 0.271697 -0.454266 0.00299209
0.263609 0.258453 -0.444675 0.00100852
0.261554 0.277681 -0.440163 0.0011365
-0.299919 -0.162018 0.0443364 0.00341583
-0.302289 -0.140589 0.045936 0.000139679
-0.289262 -0.15987 0.0613573 0.00193023
-0.291549 -0.138423 0.0643179 7.5272e-05
0.0874077 -0.352771 -0.0979695 0.00395055
0.0736634 -0.350286 -0.079066 7.44979e-05
0.0967758 -0.350263 -0.0871394 0.00410963
0.0834802 -0.347488 -0.0677525 0.000555539
0.119911 0.305072 -0.270363 0.000142621
0.117916 0.325239 -0.264781 0.00295837
0.106215 0.307449 -0.253418 0.000382167
0.101873 0.326119 -0.246518 0.00198863
0.349903 -0.442588 -0.0423989 0.00275359
0.335079 -0.438489 -0.0345591 0.000796712
0.35384 -0.445789 -0.0299781 0.00246851
0.34798 -0.443538 -0.0243405 6.43091e-05
0.404035 0.315591 -0.421621 0.000675177
0.401203 0.326586 -0.418223 6.19667e-05
0.392499 0.318106 -0.408916 0.00146585
0.389528 0.329465 -0.406045 0.00126965
0.0633265 -0.169858 0.306279 0.00142602
0.0656817 -0.148434 0.310471 0.00218339
0.0799488 -0.16308 0.315276 0.000665093
0.0823948 -0.141358 0.317913 0.00740497
0.264446 -0.144967 -0.216407 0.00186753
0.264655 -0.131781 -0.213642 0.000943384
0.261057 -0.141081 -0.201713 0.00205644
0.261208 -0.127569 -0.198682 0.00496836
-0.597971 -0.344364 0.250827 0.000624557
-0.608126 -0.331439 0.263389 0.00317107
-0.583391 -0.346278 0.256 0.00392823
-0.594267 -0.332376 0.26998 0.000137246
0.569208 -0.159578 0.0353024 0.000137959
0.564696 -0.148165 0.041725 0.00112789
0.567739 -0.157315 0.0525699 4.8677e-05
0.56164 -0.146508 0.0582201 0.000697017
0.317539 -0.237911 0.225747 0.00131154
0.318435 -0.220818 0.226029 0.00188159
0.334251 -0.236888 0.230005 0.000913773
0.332437 -0.219932 0.228193 0.00146653
-0.0509299 0.000242497 0.622919 0.00220171
-0.0413529 0.0113531 0.611494 0.000251812
-0.0315417 0.000503763 0.631531 0.00171765
-0.021938 0.0114763 0.618546 0.00483058
0.306477 0.149678 -0.486138 0.0010488
0.301714 0.170578 -0.481357 0.00130428
0.28853 0.156424 -0.470097 0.00234647
0.284193 0.176551 -0.465175 0.00170506
-0.18119 -0.449795 -0.352841 0.00285094
-0.19491 -0.441607 -0.344114 0.0018134
-0.169899 -0.454815 -0.344627 0.00302061
-0.184131 -0.447439 -0.335406 0.00209243
0.540656 -0.120084 -0.0201505 0.000860525
0.529651 -0.106742 -0.0164816 0.00113351
0.544911 -0.122669 -0.00591913 0.00160465
0.535095 -0.109595 -0.00144729 0.00196773
-0.101873 -0.421697 -0.486044 0.000980389
-0.097354 -0.411723 -0.500428 0.000233331
-0.0840118 -0.430644 -0.479369 0.00103499
-0.0792378 -0.420433 -0.494154 0.00271843
0.240921 0.134255 -0.407603 0.000675279
0.239249 0.151694 -0.403196 0.00147065
0.224925 0.138461 -0.391953 0.00327871
0.223192 0.155759 -0.387228 0.000673947
-0.15737 0.678823 -0.517194 0.00716816
-0.161229 0.696836 -0.515864 0.00573713
-0.142546 0.678497 -0.505181 0.00716891
-0.146782 0.696946 -0.504607 0.00613335
-0.159489 -0.182082 0.100605 0.00104009
-0.163717 -0.164556 0.107678 0.0013484
-0.175717 -0.172119 0.115948 0.00307021
-0.179029 -0.155557 0.122892 0.000121626
-0.0233699 -0.117545 -0.0692214 0.000665195
-0.023058 -0.0963448 -0.0648343 0.00316358
-0.0375049 -0.105749 -0.0524368 0.00140549
-0.0376078 -0.0851057 -0.0464329 0.00308902
-0.468832 0.238134 0.466483 0.00128993
-0.464153 0.254368 0.466445 0.000362328
-0.469885 0.244547 0.482242 0.00140963
-0.464301 0.26028 0.480894 0.00291658
-0.362377 0.0326004 0.54806 0.000332031
-0.361139 0.0529608 0.547782 0.00194844
-0.370144 0.0315112 0.555687 0.000873189
-0.368206 0.0516597 0.554631 0.000728888
0.096567 0.0205456 -0.23324 0.0057997
0.102748 0.0406366 -0.23142 0.001088
0.0896095 0.0324717 -0.215877 0.000382511
0.0962768 0.0519633 -0.21311 0.00571513
-0.244848 0.323611 0.180802 0.00094644
-0.253133 0.344357 0.186461 0.00125811
-0.259088 0.325574 0.19743 7.13408e-05
-0.267723 0.344804 0.203666 0.00211326
-0.189079 -0.303805 0.251744 0.00312563
-0.209604 -0.302016 0.261721 0.00630386
-0.176966 -0.31611 0.267308 0.00917974
-0.19311 -0.312514 0.276075 0.00478146
0.35981 0.254385 -0.560798 0.00105023
0.358686 0.273764 -0.555164 0.0022714
0.351763 0.266316 -0.551367 0.000772697
0.348696 0.285995 -0.543922 0.00224248
-0.176149 -0.235687 0.133102 0.00316136
-0.184399 -0.218003 0.136957 0.000727164
-0.193056 -0.232466 0.148015 0.000119016
-0.198892 -0.214086 0.150401 0.00156923
0.340914 0.411982 -0.352364 0.00272025
0.334471 0.424852 -0.345887 0.0031074
0.328546 0.41643 -0.337559 0.0029174
0.323263 0.43027 -0.331141 0.00239193
-0.207043 -0.0977598 0.40202 0.00269133
-0.195279 -0.0823784 0.401484 0.000316541
-0.208745 -0.0863533 0.420169 0.000532474
-0.196348 -0.0703118 0.419142 0.000940248
0.0218203 -0.409285 -0.461966 0.00012336
0.0343948 -0.392193 -0.473727 0.00135842
0.0346172 -0.408263 -0.445216 0.00187782
0.0475457 -0.391091 -0.456657 0.0012663
-0.0862448 -0.0400439 0.661247 0.0036605
-0.0774481 -0.0265299 0.650032 0.00122016
-0.070345 -0.0443624 0.67055 0.00383454
-0.0614523 -0.0306991 0.658932 0.00146115
-0.270094 0.348231 0.413855 0.000306969
-0.278335 0.36243 0.417122 0.00386619
-0.274975 0.337428 0.427277 0.00378954
-0.28332 0.351509 0.429749 0.000456658
-0.255953 0.417075 0.320483 0.00201362
-0.274717 0.417567 0.330495 0.00244737
-0.238611 0.414004 0.333285 0.000431597
-0.259806 0.415307 0.343149 0.00119254
-0.389786 -0.244531 -0.0408496 0.00222311
-0.386897 -0.226411 -0.044147 0.000485323
-0.374855 -0.245424 -0.0341032 0.000877413
-0.372902 -0.22669 -0.03668 3.34688e-05
0.0110553 -0.146786 -0.199271 0.00330965
0.0183532 -0.131547 -0.210329 0.000383709
0.0249257 -0.153843 -0.195793 0.00482257
0.0321417 -0.138037 -0.206834 0.00538272
-0.137978 0.706979 -0.499447 0.00879937
-0.142825 0.722356 -0.498614 0.00683429
-0.124308 0.707708 -0.486882 0.00776893
-0.129322 0.723871 -0.487418 0.00684315
0.279899 5.77415e-05 -0.369356 0.00190795
0.269718 0.0089967 -0.353741 0.00425201
0.292161 0.00418516 -0.359788 0.00460947
0.281973 0.0124447 -0.343175 0.00101454
-0.192095 0.244389 0.289047 0.00739997
-0.185759 0.260868 0.288059 0.00356341
-0.2006 0.254033 0.303285 0.00336195
-0.194296 0.269561 0.302633 0.0078155
0.245189 0.336769 -0.228437 0.00207249
0.246182 0.353739 -0.227402 1.75547e-05
0.233444 0.340629 -0.214324 0.0022275
0.234179 0.358071 -0.213393 0.000385623
0.263692 0.382841 -0.255938 0.00307237
0.261665 0.399536 -0.250326 0.000478011
0.248373 0.388727 -0.239268 0.00432956
0.247025 0.406618 -0.234299 0.00156236
0.33468 0.272867 -0.530982 0.000476096
0.331496 0.29202 -0.523251 0.00261893
0.31903 0.283117 -0.515448 0.00211161
0.315898 0.301538 -0.508175 0.000706904
-0.205963 -0.228473 -0.19312 0.00209335
-0.200032 -0.208465 -0.192047 0.000399297
-0.191952 -0.223107 -0.181677 3.88886e-05
-0.185338 -0.203509 -0.181082 0.00111335
-0.57961 -0.31295 -0.0155537 0.002829
-0.591549 -0.301413 -0.014421 0.00108663
-0.569573 -0.323612 -0.0115074 0.00141711
-0.585663 -0.313284 -0.00829756 0.000206247
0.214282 -0.339399 -0.0873067 0.00409665
0.205246 -0.330913 -0.080979 0.0027312
0.215866 -0.341748 -0.0756723 0.00140728
0.204828 -0.332279 -0.0684829 0.00164333
0.439318 -0.16965 -0.163559 0.00108153
0.437095 -0.154983 -0.157581 0.00184712
0.451969 -0.164998 -0.156592 0.00137861
0.451701 -0.149484 -0.150486 0.00102839
-0.16194 -0.0745494 -0.308974 0.000648921
-0.147349 -0.0667654 -0.316466 0.000138376
-0.145271 -0.0713334 -0.294303 0.000107237
-0.131511 -0.0641725 -0.301442 0.000516678
-0.299882 0.250463 0.452256 0.00349129
-0.291939 0.267895 0.449247 0.00159369
-0.308576 0.255702 0.466163 0.00134343
-0.300665 0.273362 0.462852 0.00344186
-0.263312 -0.36061 -0.372658 0.000399047
-0.268389 -0.346024 -0.366899 0.00149376
-0.261355 -0.362481 -0.354688 0.00145303
-0.266319 -0.347543 -0.349706 0.00389878
-0.659563 -0.156561 0.0335512 9.17805e-05
-0.651892 -0.135546 0.0372028 0.00265164
-0.669219 -0.14086 0.0535836 0.00314632
-0.659899 -0.120874 0.0551063 0.00203785
0.20239 0.805792 -0.228812 0.00697255
0.20446 0.822938 -0.22587 0.00565062
0.217789 0.807755 -0.219747 0.0041202
0.219743 0.825158 -0.216953 0.00265355
0.512433 0.0961399 -0.549476 0.00125795
0.509937 0.113164 -0.547891 0.00117233
0.505969 0.0987915 -0.535773 0.00259684
0.503963 0.114916 -0.533085 0.0016852
0.149179 0.839365 -0.241219 0.0024716
0.149328 0.856565 -0.242977 0.00229781
0.164696 0.842386 -0.229222 0.000176914
0.166849 0.859003 -0.229574 0.0101922
0.412642 0.733442 -0.0522951 0.00847651
0.413111 0.75144 -0.0477424 0.0074013
0.425059 0.73576 -0.0407566 0.00765932
0.427562 0.752608 -0.0348451 0.00654224
-0.144367 -0.150583 0.306916 0.00401496
-0.151596 -0.134291 0.310562 0.00252611
-0.15249 -0.14903 0.317163 0.00379876
-0.159567 -0.132077 0.321038 0.00251698
-0.618596 -0.0521233 0.195204 0.00159138
-0.608061 -0.039322 0.18521 0.00187564
-0.609759 -0.0516185 0.210199 0.000138042
-0.600512 -0.0386619 0.19981 0.000875709
-0.113164 0.701899 -0.499439 0.00650406
-0.11833 0.718439 -0.499687 0.00758593
-0.104661 0.704454 -0.490486 0.00787334
-0.109457 0.721469 -0.49052 0.00883661
0.402598 0.00618582 -0.602178 0.00511441
0.405241 0.0252296 -0.606181 0.00460143
0.408085 0.00564557 -0.59777 0.00188198
0.410728 0.0246894 -0.601773 0.00239496
-0.374776 -0.0100019 0.169188 0.00564319
-0.393793 -0.00434986 0.173991 0.004695
-0.367759 -0.0215747 0.18411 0.00145984
-0.386931 -0.0149859 0.187577 0.000227828
-0.0689992 -0.0707216 0.317006 0.00212997
-0.0763454 -0.0559029 0.329537 0.00111752
-0.0467417 -0.0644812 0.320606 0.00113537
-0.0538116 -0.0494924 0.33302 0.000294091
-0.0953679 -0.20261 0.0275003 0.000563009
-0.101709 -0.182334 0.0337245 0.000967209
-0.113522 -0.194295 0.0449056 0.00182561
-0.119794 -0.173719 0.0517881 0.000925079
-0.202829 -0.209326 0.607417 0.000263026
-0.207663 -0.190144 0.602474 0.0013434
-0.193449 -0.209965 0.623479 0.000779501
-0.198313 -0.191786 0.618842 0.000606348
-0.0821468 -0.166791 -0.537586 0.00272475
-0.0873002 -0.152822 -0.528957 0.00355959
-0.0620428 -0.157328 -0.536756 0.00194798
-0.0668356 -0.143803 -0.528462 0.000688875
-0.0689201 0.313548 -0.0353242 0.00502151
-0.0745321 0.326152 -0.0358301 0.00408744
-0.0778485 0.318302 -0.023053 0.000816431
-0.079112 0.332358 -0.0263854 9.2455e-05
0.386229 -0.0172894 -0.372851 0.0010575
0.387567 0.00125223 -0.371585 0.00160452
0.375291 -0.0110461 -0.361002 0.000233537
0.375436 0.00716607 -0.358654 0.000736168
-0.327792 -0.320923 0.0518901 0.000123603
-0.319052 -0.304623 0.0453776 0.00129458
-0.317684 -0.31509 0.0652768 0.00167223
-0.310101 -0.296889 0.0598297 0.00245501
-0.000141631 -0.170875 -0.521417 0.000909498
-0.00655143 -0.15312 -0.515193 0.000752714
0.0124523 -0.16866 -0.515782 0.000990442
0.0051569 -0.150748 -0.509513 2.04395e-05
0.30001 0.421463 -0.300277 0.00128354
0.296428 0.43967 -0.293448 0.000645227
0.283368 0.428467 -0.282193 0.00270868
0.280345 0.447444 -0.275421 5.04344e-05
-0.673728 -0.108016 0.132167 0.00217229
-0.665755 -0.0942718 0.135015 0.00267868
-0.665878 -0.100825 0.147392 0.00104819
-0.657369 -0.0867528 0.149245 0.000691713
-0.506151 -0.281264 0.344994 0.00382123
-0.509917 -0.262798 0.350049 0.00318827
-0.481501 -0.278512 0.343521 0.00107714
-0.485038 -0.260001 0.349514 0.000115693
0.467374 0.707324 -0.00817936 0.0054792
0.465534 0.724705 -0.00782078 0.00602797
0.476516 0.709707 -0.00294618 0.00718882
0.475925 0.7272 -0.00241489 0.00853416
0.00047066 -0.0300451 0.665374 0.00343819
0.00760164 -0.0211749 0.652812 0.00105567
0.0120513 -0.0416271 0.667821 0.000169942
0.0189536 -0.0333158 0.656348 0.0033233
-0.127976 -0.332237 0.582961 0.00316431
-0.139398 -0.317889 0.594773 0.000781025
-0.112005 -0.329753 0.595808 0.000219862
-0.121118 -0.315632 0.60823 0.00130183
0.190759 -0.339772 -0.021932 0.000623172
0.180615 -0.328513 -0.0122756 0.00176223
0.192535 -0.341814 -0.00672798 0.00316988
0.184145 -0.329954 0.000400987 0.00184689
0.431176 -0.157753 -0.509933 0.00332162
0.444234 -0.152827 -0.509702 0.000652811
0.436882 -0.152061 -0.496262 0.00241464
0.449722 -0.147415 -0.495398 0.00260362
0.294534 -0.392105 -0.100849 0.00115176
0.273873 -0.387137 -0.0947859 0.000186546
0.303164 -0.40572 -0.0900518 0.000330787
0.281117 -0.400148 -0.0840561 0.000740602
-0.295293 -0.033835 0.378605 0.00173739
-0.29971 -0.0260344 0.384314 0.000899135
-0.279201 -0.0336763 0.389966 0.00308147
-0.284285 -0.0250657 0.395843 0.00373715
-0.0098104 0.492482 0.00404342 0.00303042
-0.0197211 0.499255 0.00556461 0.00539644
-0.00990286 0.486434 0.0141654 0.00673908
-0.0250091 0.49331 0.0184386 0.00235312
-0.121719 -0.00573028 0.403572 0.00208764
-0.104894 0.00486634 0.402637 0.000598293
-0.115566 0.00475731 0.41927 0.00181453
-0.102015 0.0143858 0.420944 8.62202e-05
0.160548 -0.326242 -0.07347 0.00227537
0.154261 -0.316685 -0.05999 0.000200614
0.161106 -0.313037 -0.0597421 0.00436578
0.15599 -0.30326 -0.0480072 0.0064438
-0.0610043 -0.299277 0.0441584 0.00190828
-0.0722201 -0.299815 0.0586933 0.00183144
-0.0522238 -0.299682 0.0532384 0.00450316
-0.062773 -0.300307 0.0688227 0.000437212
0.50234 -0.123555 0.147356 0.00129807
0.487403 -0.116424 0.152522 0.0012229
0.504416 -0.139989 0.157876 0.000845391
0.490843 -0.131519 0.160795 0.00108813
0.225721 0.0915362 -0.382518 0.00123734
0.221465 0.111216 -0.37738 0.00204522
0.20939 0.0975777 -0.366822 0.00109373
0.205017 0.11743 -0.362323 0.000520318
-0.385495 0.192162 0.360439 0.00167142
-0.378025 0.206332 0.349929 0.00151592
-0.370191 0.181383 0.36179 0.00134821
-0.361549 0.195313 0.350432 0.00235131
-0.0836161 -0.044324 0.177249 0.00323045
-0.0991192 -0.0358528 0.186004 0.00682005
-0.0839583 -0.0582842 0.19076 0.0044856
-0.0996102 -0.0498797 0.199438 0.00530954
-0.0879001 -0.245487 0.687491 0.00248994
-0.0945947 -0.229482 0.689436 0.00112921
-0.0680698 -0.243946 0.69155 0.000275849
-0.0745541 -0.227717 0.693982 0.00154273
-0.667586 -0.24044 0.245609 0.00179552
-0.672576 -0.222486 0.241424 0.00251975
-0.655313 -0.24299 0.260525 0.000566324
-0.659243 -0.224086 0.257814 0.000459551
0.357137 0.379855 -0.512635 0.00568214
0.350819 0.398245 -0.500806 0.00452087
0.37337 0.389609 -0.511426 0.00546292
0.366746 0.407629 -0.499933 0.00700873
-0.219408 -0.233785 0.433813 0.00231578
-0.233459 -0.221687 0.451001 0.00797385
-0.213024 -0.231 0.449332 0.00782393
-0.226914 -0.216524 0.465484 0.00211934
-0.453672 -0.207773 0.353904 0.00116181
-0.453947 -0.184385 0.352437 0.000993555
-0.441057 -0.205353 0.352641 0.000767746
-0.441277 -0.182099 0.351834 4.4247e-05
-0.118657 0.796557 -0.462798 0.00265571
-0.119397 0.814619 -0.459718 0.00222621
-0.100699 0.801891 -0.453855 0.00358547
-0.101116 0.820515 -0.450681 0.0115435
0.445633 -0.435994 -0.0133551 0.00376905
0.456497 -0.42504 -0.0211165 0.000100623
0.459319 -0.428087 -0.00185237 0.000724395
0.472444 -0.416953 -0.0100244 0.00228629
-0.253149 0.420621 0.296064 0.00229809
-0.246727 0.422869 0.294632 0.00119094
-0.229486 0.423218 0.307008 0.00179064
-0.235347 0.424954 0.31077 0.00374021
-0.331282 -0.355598 0.181322 0.00166445
-0.321279 -0.340559 0.179041 0.00143937
-0.327004 -0.345597 0.196539 0.000772524
-0.315794 -0.329203 0.193674 0.00225906
0.0795799 0.709239 -0.321001 0.00715114
0.0820447 0.721389 -0.318207 0.00785543
0.0935046 0.716651 -0.307969 0.00637928
0.0959652 0.729698 -0.30591 0.00762495
-0.0617982 0.456681 -0.473825 0.0134411
-0.0688806 0.475814 -0.46911 0.000766461
-0.0459483 0.457849 -0.461271 0.00555875
-0.0529412 0.476925 -0.455884 0.00444481
0.215594 -0.111259 -0.0223644 9.69917e-05
0.225816 -0.0961967 -0.0273453 0.00238858
0.217138 -0.105013 -0.00271828 0.00103652
0.227576 -0.0900759 -0.00929654 0.000721888
-0.553016 -0.402762 0.115208 0.000210015
-0.574136 -0.397403 0.12441 0.000305289
-0.539396 -0.409341 0.127621 0.00131457
-0.559281 -0.404956 0.138148 0.00138443
0.335142 0.585197 -0.133666 0.00767457
0.339027 0.602323 -0.130212 0.00914875
0.347468 0.592821 -0.123798 0.0084148
0.352307 0.610346 -0.120278 0.0104829
0.444876 0.580995 -0.0419157 0.00389059
0.445092 0.598851 -0.0409835 0.0051182
0.460681 0.587188 -0.0339714 0.00800042
0.462246 0.606076 -0.0322159 0.00966654
-0.0949736 -0.0526278 -0.385685 0.000354295
-0.116981 -0.0530917 -0.366886 0.00062418
-0.080794 -0.0476207 -0.366791 0.00297493
-0.102556 -0.0488598 -0.348146 0.00350609
-0.183984 0.276454 0.125364 0.00495564
-0.198795 0.292144 0.128077 0.000228813
-0.192008 0.270341 0.138181 0.00529623
-0.206653 0.286034 0.141787 0.0023847
0.253095 0.12351 -0.220485 0.00113665
0.252514 0.135365 -0.217421 0.000950066
0.240982 0.124832 -0.210222 0.00399926
0.240275 0.136991 -0.207543 0.00223739
0.364573 0.143101 -0.356668 0.000581945
0.360401 0.163512 -0.349604 0.00287774
0.346275 0.1479 -0.338102 0.00162055
0.342432 0.168383 -0.331635 0.000485268
0.221773 -0.0418471 -0.272578 0.00204565
0.217962 -0.0234034 -0.272363 0.00158754
0.226937 -0.0412942 -0.267729 0.00183387
0.223252 -0.0231117 -0.267367 0.0020883
0.0161738 -0.188408 -0.174834 0.00121548
0.0227669 -0.174571 -0.186074 0.00069584
0.0283085 -0.196929 -0.171616 0.00129834
0.036071 -0.182727 -0.182547 0.00305103
0.485965 -0.129737 -0.516615 0.000431127
0.494785 -0.117536 -0.517084 5.35882e-06
0.486004 -0.124682 -0.500666 0.00226508
0.493838 -0.111974 -0.500629 0.00375474
0.502141 -0.0975858 -0.534733 0.00248906
0.510067 -0.0842728 -0.53366 0.00185788
0.504888 -0.0903658 -0.5174 0.000629419
0.512274 -0.0773583 -0.516204 0.00631361
-0.56732 -0.283876 -0.0362076 9.06407e-05
-0.557839 -0.266231 -0.0492216 0.00208905
-0.550014 -0.289737 -0.0401638 0.000141345
-0.539747 -0.272404 -0.0536205 0.00265159
0.547097 -0.160327 0.121295 0.0022801
0.535521 -0.148337 0.124756 0.000837834
0.541027 -0.173072 0.134556 0.000958113
0.529704 -0.160128 0.138001 0.00330209
0.361753 0.17565 -0.557764 0.000566691
0.364814 0.199612 -0.555679 0.00415256
0.349834 0.186934 -0.546141 0.00191284
0.349983 0.211657 -0.542794 0.00139088
-0.0444862 -0.29787 0.126935 0.0033208
-0.0509979 -0.291938 0.138625 0.00106324
-0.0452011 -0.297041 0.141682 0.00569185
-0.0473748 -0.285452 0.148552 0.00271555
-0.694333 -0.163156 0.15153 0.00371212
-0.689219 -0.146659 0.150133 0.00277112
-0.691477 -0.164976 0.171916 0.00144569
-0.686232 -0.148899 0.169394 0.000282186
-0.065756 0.665225 -0.440494 0.00398463
-0.06417 0.678542 -0.43668 0.00353091
-0.0467919 0.669045 -0.426201 0.00528926
-0.0456395 0.681958 -0.422453 0.00456961
0.0554159 0.802528 -0.319616 0.0010118
0.0577398 0.817296 -0.317892 0.00277904
0.0670552 0.805083 -0.309067 0.000156011
0.0701894 0.82099 -0.30836 0.00186342
-0.434455 -0.352591 0.292204 0.00189885
-0.438518 -0.339119 0.307301 0.00262255
-0.418146 -0.34011 0.294557 0.000574455
-0.423405 -0.32696 0.310026 0.00100811
-0.657413 -0.316507 0.19966 0.000290357
-0.661006 -0.306548 0.204856 0.000317348
-0.651128 -0.317497 0.209694 0.000542819
-0.654807 -0.307216 0.215649 0.000785609
0.100486 -0.174573 -0.423431 0.000865816
0.0975576 -0.162623 -0.419146 0.00114236
0.106762 -0.174186 -0.406927 0.000640385
0.103555 -0.162156 -0.40267 0.00130754
0.0238465 -0.210116 -0.130264 0.00466525
0.0337072 -0.196281 -0.141742 0.00394811
0.0340971 -0.214739 -0.127889 0.00472961
0.0442074 -0.200962 -0.139336 0.00565959
-0.270684 -0.340326 -0.382956 2.80443e-05
-0.275108 -0.326345 -0.376926 0.00187134
-0.271409 -0.340426 -0.364516 0.00126331
-0.2757 -0.325732 -0.358894 0.00374462
0.335511 -0.288938 0.229004 0.0046642
0.332674 -0.26848 0.229817 0.0026104
0.351618 -0.292279 0.225644 4.4683e-05
0.347133 -0.271618 0.226808 0.00347418
0.244942 -0.367214 -0.0876398 0.00103117
0.23177 -0.360146 -0.0822394 0.000431608
0.245859 -0.376641 -0.07358 0.00217063
0.232088 -0.369651 -0.0686269 0.00074959
0.470581 -0.0758938 -0.0649973 0.000996264
0.458523 -0.0671815 -0.0609119 0.000312716
0.482725 -0.0751652 -0.0536883 0.00155625
0.470018 -0.0663231 -0.0501994 0.00145436
0.0870094 0.694987 -0.317524 0.00755677
0.0895667 0.708412 -0.315502 0.00900954
0.103676 0.700437 -0.30298 0.00736592
0.104752 0.714159 -0.300914 0.00790579
0.078018 -0.187529 0.0246169 0.00031582
0.0758532 -0.167599 0.028224 0.0013259
0.0638372 -0.181459 0.0403855 0.000696246
0.0624906 -0.161685 0.0428429 0.000822412
-0.0981101 0.0183883 0.565916 0.00099016
-0.0846841 0.0268974 0.557136 0.00188048
-0.083038 0.0186197 0.578019 4.95325e-05
-0.0703425 0.0273737 0.569073 0.00128649
0.456883 -0.263673 0.216304 0.000389023
0.450436 -0.247369 0.22097 0.000264108
0.46633 -0.266952 0.208655 0.00320126
0.458596 -0.250535 0.214678 0.00234717
0.0663398 0.281037 -0.151018 0.00380085
0.058594 0.29762 -0.142247 0.00283722
0.062396 0.286423 -0.137272 0.00408653
0.0543497 0.301256 -0.128219 0.00100375
-0.123955 -0.427649 -0.217932 0.00531997
-0.129648 -0.411064 -0.201553 0.00453477
-0.104408 -0.418518 -0.21148 0.00134179
-0.110135 -0.400659 -0.192289 0.000342776
-0.286113 -0.283534 0.176581 0.00419891
-0.27511 -0.267889 0.173064 0.000763238
-0.283859 -0.277639 0.191148 0.00163879
-0.273605 -0.26432 0.187624 0.00333312
-0.613287 -0.351006 0.0572164 7.53679e-05
-0.628193 -0.338913 0.0590099 0.000493768
-0.6053 -0.360714 0.0660707 0.000190315
-0.622008 -0.350065 0.0683862 0.00174504
0.0738047 0.35044 -0.215333 0.000456068
0.0662783 0.369535 -0.20591 0.00103261
0.0557207 0.355025 -0.195397 0.00109151
0.0484916 0.374569 -0.186691 0.000547808
-0.328328 -0.228828 0.49965 0.00043152
-0.335539 -0.211646 0.513052 0.000754642
-0.307209 -0.219169 0.496734 0.00129767
-0.314533 -0.201446 0.511092 0.0053049
-0.629446 -0.0619003 0.188229 0.000424623
-0.619412 -0.0476585 0.178979 0.0010589
-0.62011 -0.0594816 0.201582 0.000925928
-0.611002 -0.0458987 0.191442 3.27206e-05
0.178316 -0.203914 0.55303 0.000325575
0.1841 -0.185204 0.551084 0.00164188
0.172766 -0.195773 0.570872 0.00153714
0.178354 -0.176795 0.56915 0.00114654
0.580861 -0.210208 -0.0024586 0.00125452
0.581789 -0.195976 0.00254816 0.00190092
0.582243 -0.204338 0.0156416 0.000284769
0.58267 -0.191308 0.0206062 0.00279221
-0.280473 -0.283892 0.137431 0.00101003
-0.270577 -0.265388 0.134455 0.00212196
-0.275299 -0.274304 0.151752 9.01414e-05
-0.265298 -0.257256 0.148822 0.00502867
-0.211806 -0.243384 -0.19203 2.27486e-05
-0.206046 -0.222725 -0.191176 0.000931955
-0.198237 -0.239981 -0.18115 0.00102027
-0.192001 -0.219852 -0.180393 0.0016677
0.0673357 -0.120197 0.027904 0.00231841
0.0677159 -0.0995311 0.0295186 0.000386624
0.0539943 -0.113204 0.0429584 0.00270516
0.0548982 -0.0910353 0.0438303 3.60172e-05
-0.348856 -0.034956 0.124818 0.000994428
-0.363635 -0.0233146 0.126821 0.00166923
-0.34122 -0.0403382 0.141799 1.45496e-05
-0.355753 -0.0286237 0.144009 0.00041298
-0.168366 0.693327 -0.543167 0.00738263
-0.172549 0.712871 -0.542442 0.00809417
-0.157764 0.695114 -0.538414 0.00439967
-0.161839 0.713787 -0.536793 0.00585308
-0.575183 -0.0155285 0.102878 0.00280806
-0.550403 -0.00525746 0.103897 0.00134286
-0.559235 -0.00682941 0.121416 0.00107732
-0.53465 0.00286037 0.121862 0.0029394
0.398541 0.30183 -0.556633 0.000589274
0.393991 0.317154 -0.549762 0.000770825
0.410472 0.30232 -0.550172 4.74551e-05
0.406116 0.316325 -0.544121 0.00137237
-0.677773 -0.197363 0.0571885 9.11239e-05
-0.676219 -0.176145 0.0592713 0.00101434
-0.683199 -0.182866 0.0750408 0.000344973
-0.679325 -0.161914 0.0755867 0.00105836
0.131728 -0.241495 -0.367774 0.00135548
0.132947 -0.224177 -0.364622 0.00284326
0.133102 -0.23054 -0.349819 0.000357798
0.133829 -0.213686 -0.347025 0.00406588
0.0767956 -0.403932 -0.298645 0.00364219
0.0868168 -0.390603 -0.299027 0.00157797
0.0798161 -0.391348 -0.282057 0.00132247
0.0893425 -0.377987 -0.281733 0.000687544
0.302137 -0.0834372 -0.104533 0.0013454
0.29992 -0.0742035 -0.0916392 0.00199009
0.311762 -0.0725483 -0.0923171 3.6974e-05
0.312159 -0.0633459 -0.0808752 0.00131362
0.147451 0.700546 -0.289815 0.00623402
0.147921 0.714559 -0.28588 0.00733528
0.157898 0.701473 -0.279615 0.00756912
0.158827 0.715808 -0.27562 0.00839445
0.146288 0.700567 -0.270433 0.00843987
0.147048 0.71463 -0.266601 0.00742071
0.159799 0.704413 -0.257797 0.00744261
0.160917 0.718689 -0.253997 0.00669342
0.300315 -0.434743 -0.0236407 0.00237999
0.280615 -0.427804 -0.0154865 0.00154092
0.313132 -0.438881 -0.0116883 0.000111066
0.293867 -0.431422 -0.00269173 0.00153046
-0.167895 0.602913 -0.547071 0.0016325
-0.173546 0.623245 -0.549917 0.000710406
-0.156544 0.597636 -0.536867 0.00808764
-0.161933 0.618229 -0.540009 0.00795975
0.403407 -0.198982 -0.183901 0.000279211
0.403346 -0.184065 -0.18011 0.00131262
0.422882 -0.195117 -0.180108 0.00111931
0.422622 -0.180418 -0.175689 0.000642642
-0.33897 -0.242394 0.314408 0.00159549
-0.341943 -0.224386 0.320541 0.00322887
-0.338899 -0.233024 0.324218 0.00050383
-0.342844 -0.214093 0.329984 0.00371399
-0.000195338 0.677448 -0.39321 0.0100367
-0.00200283 0.695261 -0.387728 0.00642782
0.0125169 0.677407 -0.381845 0.00913756
0.0112485 0.693891 -0.375637 0.00517251
-0.352832 -0.0388296 0.541255 0.000483061
-0.357146 -0.0165541 0.546406 0.001172
-0.362337 -0.0358621 0.552435 0.000184906
-0.367562 -0.0127031 0.557057 4.98755e-05
-0.587549 -0.0502258 0.230796 0.00193343
-0.580075 -0.0375885 0.221402 0.000105565
-0.578598 -0.0487508 0.243782 0.0006614
-0.570568 -0.0365435 0.235629 0.00281816
0.224708 -0.332412 0.138726 0.000877222
0.217702 -0.3151 0.145599 0.000775072
0.244142 -0.338601 0.150004 0.00264601
0.23642 -0.321633 0.157853 0.00078448
-0.521046 -0.0344715 0.0125458 0.00309874
-0.535276 -0.0260018 0.0339301 0.00228626
-0.50464 -0.0228987 0.0283148 0.00187614
-0.518613 -0.0149588 0.0496024 0.000960744
-0.127868 0.643129 -0.525051 0.00230805
-0.126885 0.658464 -0.51959 0.00428336
-0.117449 0.648611 -0.514381 0.00339888
-0.114604 0.662606 -0.508161 0.00492863
0.167472 -0.247849 -0.294051 0.00511036
0.170464 -0.232764 -0.299509 0.00530663
0.184425 -0.246789 -0.297662 0.00395133
0.189075 -0.232202 -0.302705 0.00320461
-0.627846 -0.302292 0.016506 0.00125823
-0.640086 -0.290519 0.0191316 0.00123831
-0.630969 -0.308363 0.0262084 0.00116324
-0.644173 -0.296977 0.0295026 0.00283111
0.034556 -0.412346 -0.441748 0.000576895
0.0474845 -0.395174 -0.453189 0.000112966
0.0460369 -0.410553 -0.426707 0.00269399
0.0593768 -0.393064 -0.436999 0.00243787
0.164916 0.112365 -0.312957 8.99375e-05
0.162904 0.129064 -0.308488 0.00192772
0.152821 0.118424 -0.300648 0.00135245
0.150404 0.135309 -0.295974 0.000491078
-0.471623 0.214176 0.515411 0.00288604
-0.466192 0.230079 0.512256 0.00111341
-0.465122 0.216315 0.527764 0.000101389
-0.459803 0.231805 0.524706 0.00192346
-0.390211 0.0327122 0.386634 0.00121063
-0.392732 0.0500033 0.389568 0.00360212
-0.378015 0.0355755 0.385353 0.000521462
-0.381074 0.0527504 0.389011 0.00222853
0.0246213 -0.401429 -0.465167 0.00262556
0.0370173 -0.384558 -0.476835 0.000996994
0.0386027 -0.400188 -0.448104 0.0040088
0.0513606 -0.383 -0.459675 0.00165
-0.261278 -0.339615 -0.42419 0.000482003
-0.269173 -0.325152 -0.420404 0.000824205
-0.267737 -0.3396 -0.40826 0.000201952
-0.273844 -0.325719 -0.403699 0.000675393
0.090326 -0.264183 0.360071 0.000743103
0.095886 -0.248833 0.355727 0.00128607
0.102577 -0.262271 0.372317 0.00142463
0.108191 -0.247906 0.368934 0.00380514
-0.0634927 -0.0288772 0.345948 0.00281005
-0.0715224 -0.0164888 0.362848 0.00171438
-0.0441353 -0.0201154 0.35483 0.00204031
-0.0522926 -0.00718399 0.370861 0.000549763
0.314421 0.530022 -0.15839 0.00786843
0.315749 0.547711 -0.153972 0.00739443
0.325921 0.532097 -0.148495 0.00762912
0.328946 0.550197 -0.143655 0.00793451
0.349911 -0.320188 -0.17007 0.00121269
0.360135 -0.301423 -0.180481 0.00013133
0.369761 -0.320882 -0.171001 2.38607e-05
0.379801 -0.30245 -0.181638 0.00249409
0.27968 -0.0749347 0.101275 0.00316804
0.293972 -0.0593709 0.0927247 0.00105669
0.300732 -0.0659843 0.11384 0.000268601
0.314073 -0.050575 0.105024 0.00423992
-0.166212 0.342813 0.0787024 0.00157278
-0.167235 0.363694 0.0800273 0.000821639
-0.177049 0.342219 0.0933895 0.000633567
-0.177237 0.363325 0.094337 0.00052965
-0.309708 -0.223637 0.485126 0.00801848
-0.317219 -0.206095 0.499568 0.00458733
-0.28649 -0.210386 0.481177 0.00502228
-0.294105 -0.19296 0.496511 0.00906903
-0.156716 -0.298001 0.599311 0.00125487
-0.168343 -0.282815 0.604916 0.000924438
-0.140657 -0.297454 0.612322 0.00196265
-0.152559 -0.282895 0.62001 0.000305307
0.0550417 -0.183547 0.0495165 0.00177235
0.0538513 -0.163762 0.0518838 0.000158335
0.0407478 -0.176003 0.0655346 0.00247471
0.0400862 -0.156211 0.0675275 0.000593306
-0.176603 0.31366 0.0978707 0.00159872
-0.17848 0.334116 0.0997328 0.00201676
-0.184647 0.31082 0.111452 0.00391624
-0.191152 0.330497 0.1134 0.000790888
0.313174 0.330978 -0.308976 0.000200373
0.310946 0.347135 -0.30469 0.00178586
0.302275 0.332372 -0.296273 0.000275649
0.2994 0.349026 -0.291358 0.00121914
0.502145 0.0416246 -0.583688 0.000784372
0.502011 0.0614111 -0.584223 0.0012203
0.5087 0.046295 -0.569656 0.00297527
0.508698 0.0643445 -0.569534 0.00160248
-0.0600428 -0.468884 -0.392548 0.00201337
-0.0521735 -0.467574 -0.395171 0.00179685
-0.047986 -0.467088 -0.380825 0.000220821
-0.0371648 -0.466877 -0.383006 0.00240517
0.252693 0.00793437 -0.263069 0.000976175
0.26399 0.0198977 -0.267635 0.000391842
0.255813 0.0122046 -0.247926 0.00466549
0.265896 0.0253099 -0.252935 0.00220741
-0.424992 0.298655 0.482648 0.0038119
-0.418788 0.311903 0.478668 0.000124145
-0.413629 0.299944 0.495329 0.00178775
-0.407885 0.313181 0.490314 0.00182233
0.12586 -0.31282 0.525249 0.00379051
0.135136 -0.297097 0.52106 0.00155102
0.129845 -0.3031 0.539217 0.00144249
0.139926 -0.286261 0.534851 0.00318529
0.144572 0.514157 -0.111037 0.000879294
0.132182 0.523412 -0.105859 0.00114714
0.134141 0.507747 -0.0968352 0.0011919
0.121162 0.51716 -0.0908017 0.00059337
0.532845 -0.203794 -0.106572 0.00109073
0.529495 -0.189281 -0.107426 0.000226758
0.542792 -0.200852 -0.0949373 0.000660208
0.53873 -0.186149 -0.0955838 0.000424714
-0.474374 0.0882099 0.551709 0.0082961
-0.47965 0.110437 0.557272 0.00147938
-0.477378 0.0867014 0.567103 0.00449028
-0.481733 0.108523 0.570996 0.0122963
-0.173218 0.65819 -0.532594 0.00678742
-0.178844 0.677717 -0.531858 0.00487864
-0.161924 0.655811 -0.524145 0.00709178
-0.166156 0.674214 -0.523015 0.005628
-0.205949 0.268829 0.337338 0.00428721
-0.201792 0.286138 0.3381 0.00277542
-0.215762 0.276847 0.349441 0.000541329
-0.212544 0.294303 0.351155 0.00290232
0.162832 0.69572 -0.278171 0.00631623
0.163809 0.710004 -0.274143 0.00714332
0.173913 0.699678 -0.266477 0.00798957
0.174848 0.71372 -0.262507 0.00883939
0.518307 -0.119244 -0.0652149 0.0018123
0.506573 -0.107216 -0.064301 0.00285947
0.530239 -0.122043 -0.0550314 0.000930699
0.518618 -0.108996 -0.0542082 0.000678125
-0.00248993 -0.145601 0.711103 0.000584634
-0.00335803 -0.125546 0.709855 0.00194187
0.0184486 -0.143803 0.708152 0.000456634
0.0178441 -0.124543 0.706693 0.00202443
0.084685 0.535825 -0.127369 0.00841312
0.0749602 0.545464 -0.124535 0.00362868
0.0819841 0.535434 -0.114932 0.0053965
0.0723616 0.545047 -0.112175 0.00657977
-0.0391455 -0.108289 0.157269 0.00146942
-0.0405392 -0.0865774 0.158805 0.000266782
-0.0498063 -0.103015 0.172635 0.000363318
-0.0523326 -0.0824605 0.174719 0.000343196
0.162778 -0.219212 -0.00447423 0.00139472
0.167678 -0.20255 -0.00437473 0.00106202
0.165352 -0.210874 0.0122836 0.000750466
0.170102 -0.193018 0.0119938 0.000573142
0.351635 -0.0857469 -0.516494 0.00527524
0.342824 -0.0645576 -0.510945 0.00347704
0.333129 -0.0824102 -0.500075 0.000911382
0.324794 -0.061071 -0.494386 0.000460457
0.294314 0.208966 -0.278602 0.00138145
0.2913 0.226864 -0.274659 0.000318165
0.279039 0.213682 -0.262477 0.00283125
0.275739 0.231825 -0.258443 0.00190757
0.0756361 0.5465 -0.351152 0.0105244
0.0732404 0.563143 -0.347865 0.0082504
0.0906099 0.550931 -0.341788 0.0130119
0.0864544 0.568249 -0.339611 0.0105795
0.303368 0.659996 -0.147484 0.00649937
0.30301 0.677806 -0.145099 0.00627697
0.317621 0.653797 -0.138726 0.00787097
0.318863 0.671314 -0.135062 0.00761369
-0.220051 -0.116305 -0.405333 0.00123134
-0.208805 -0.104411 -0.405427 0.000650867
-0.214754 -0.104489 -0.389368 0.000259927
-0.203308 -0.0928793 -0.389766 0.00270663
0.424985 0.68669 -0.0460623 0.00591923
0.422219 0.704096 -0.0426099 0.00358566
0.43706 0.69084 -0.0358454 0.00615166
0.433752 0.708378 -0.0326547 0.0036778
-0.17686 -0.344068 -0.176696 0.0065142
-0.177117 -0.317093 -0.171141 0.0011924
-0.162692 -0.340791 -0.169031 0.00435745
-0.16196 -0.313227 -0.164148 0.000295428
0.164188 -0.0783583 0.550941 0.000253544
0.15719 -0.0663484 0.557059 0.000804885
0.160187 -0.0826694 0.565989 0.00176272
0.152676 -0.0701983 0.572942 0.000333417
0.103088 0.180333 -0.227593 0.00271382
0.100803 0.20198 -0.227019 0.00554854
0.0927818 0.185557 -0.212171 0.00872721
0.0905896 0.205518 -0.21101 0.00513699
-0.309152 0.1034 0.471107 0.00028267
-0.309078 0.123148 0.474028 0.00316547
-0.323536 0.107704 0.490445 0.00281214
-0.322284 0.128402 0.492165 0.000314482
-0.555763 -0.25138 0.337377 0.0001188
-0.561953 -0.230168 0.341675 0.00329261
-0.535477 -0.254224 0.342792 0.000962264
-0.539408 -0.234423 0.346083 0.000135384
-0.5028 -0.370614 0.283342 0.00553468
-0.504574 -0.353118 0.298432 0.00177973
-0.486501 -0.363385 0.286468 0.00113457
-0.487909 -0.345742 0.301399 0.00130354
-0.198483 -0.15062 0.619704 0.000199077
-0.199419 -0.131235 0.613746 0.000310697
-0.186748 -0.146743 0.632935 0.000212201
-0.188254 -0.127073 0.626356 0.0017108
-0.186325 -0.0307824 0.521356 0.000135491
-0.17531 -0.0156177 0.51427 0.00132821
-0.176961 -0.0231037 0.538712 0.0014206
-0.165626 -0.00835736 0.53199 0.00229083
-0.415588 -0.374403 0.0326166 0.00351367
-0.410511 -0.355381 0.018334 0.00192359
-0.391713 -0.371112 0.0442558 0.00375783
-0.386516 -0.35235 0.0303612 0.00133468
0.456544 0.641834 -0.0285944 0.00703624
0.457702 0.659117 -0.0259825 0.0078007
0.469781 0.645691 -0.0180719 0.00765829
0.47065 0.663676 -0.0160151 0.00864256
-0.0163124 -0.0571815 -0.3727 0.00153694
-0.0321143 -0.0556583 -0.362729 0.00199592
-0.000197832 -0.0617004 -0.359371 0.00146267
-0.0164757 -0.0599436 -0.349485 0.00198345
0.0956074 0.250499 -0.241837 0.00264301
0.091221 0.268455 -0.239368 0.00387263
0.0840194 0.254402 -0.225396 0.00122345
0.0784236 0.270999 -0.221426 0.00250205
0.332316 0.495964 -0.407145 0.00217458
0.321849 0.506701 -0.398263 0.00145045
0.33809 0.496231 -0.397078 0.00281169
0.328087 0.506438 -0.390482 0.00126531
0.387434 0.0463879 -0.380982 0.00178637
0.38558 0.0643519 -0.374901 0.0014431
0.369913 0.0531296 -0.362919 0.00366662
0.366051 0.0718034 -0.354052 0.000273937
0.252725 -0.0971853 0.112798 0.000877192
0.266101 -0.0816573 0.104121 0.000402856
0.268668 -0.0917964 0.128057 0.00259338
0.281211 -0.0756029 0.118416 0.00394353
-0.0632665 0.664107 -0.458041 0.0113919
-0.061954 0.677388 -0.454209 0.0120796
-0.048159 0.668275 -0.4472 0.0100065
-0.0463833 0.681825 -0.442873 0.0107628
0.141596 0.6393 -0.281144 0.00718511
0.141542 0.653876 -0.275745 0.00469121
0.15404 0.636303 -0.269374 0.00554164
0.153508 0.651678 -0.265135 0.00366942
0.10721 -0.232711 -0.00703054 0.000604138
0.104562 -0.213919 -0.00164062 0.0017607
0.0915132 -0.225858 0.0100071 0.00128684
0.0884873 -0.20629 0.015134 0.000658069
-0.19633 -0.293569 0.495912 0.000815482
-0.207573 -0.278223 0.505944 0.000904623
-0.191432 -0.296648 0.513575 0.00123172
-0.201974 -0.281315 0.521664 0.000721887
0.324264 -0.0232873 -0.495154 0.00172327
0.319486 -0.00229872 -0.491646 0.00136445
0.312396 -0.0166519 -0.481864 0.00148932
0.305003 0.00491932 -0.476882 0.00020114
-0.312176 -0.0877136 0.293779 0.00299739
-0.322465 -0.0816235 0.306809 0.00286881
-0.30073 -0.0829094 0.302365 0.00223397
-0.310627 -0.0767592 0.31602 0.00267342
0.417 0.383735 -0.463714 0.005592
0.407905 0.399589 -0.456058 0.00603714
0.408582 0.385249 -0.444348 0.00158
0.399615 0.40199 -0.437405 0.00119744
-0.0123883 0.50126 -0.0504299 0.00305223
-0.00245715 0.507963 -0.0562116 0.000106266
-0.00197756 0.502229 -0.0389681 0.00205568
0.00767475 0.509001 -0.0451199 0.000941198
-0.236198 0.262079 0.178197 0.00341152
-0.24883 0.273711 0.184785 0.00171215
-0.243917 0.265126 0.191618 0.00621299
-0.256883 0.273593 0.198379 0.000795058
0.143977 -0.246067 0.405497 0.00243003
0.148403 -0.229597 0.402359 0.00192247
0.151274 -0.241432 0.418277 0.00122177
0.156018 -0.22401 0.415245 0.000948865
-0.241939 -0.132135 0.196259 0.00137777
-0.243791 -0.114998 0.200039 0.000198435
-0.251043 -0.131647 0.209507 0.000287229
-0.254845 -0.113617 0.213765 9.21405e-05
