-0.389809 -0.203244 -0.110795 0.000185412
-0.32814 -0.519634 -0.237839 0.00136959
-0.328896 -0.50121 -0.235555 0.000614282
-0.328788 -0.517799 -0.219822 0.000721869
-0.329549 -0.499409 -0.217684 3.90742e-05
0.116114 -0.419593 0.00539749 0.00286129
0.133768 -0.416721 0.00236153 0.00215833
0.127692 -0.415671 0.0197362 0.00142248
0.146032 -0.412288 0.0155931 0.000190989
0.472522 0.0271113 0.245988 0.000573743
0.478349 0.0465982 0.246088 0.000674296
0.493768 0.0298631 0.244825 0.000589188
0.498389 0.0495544 0.245293 0.000121143
0.318035 -0.253917 0.0802473 0.000601442
0.323931 -0.235921 0.0797349 0.000114639
0.335869 -0.252588 0.090601 0.000841783
0.339273 -0.235491 0.088578 2.30289e-05
0.400642 -0.360986 0.142288 0.00283205
0.410693 -0.345856 0.138154 0.00193918
0.419771 -0.36558 0.149724 0.00249348
0.429259 -0.34798 0.145539 0.00161965
-0.26166 0.0460471 -0.460633 0.0046567
-0.268904 0.0540222 -0.448479 0.00112513
-0.250299 0.0518499 -0.454979 0.000120427
-0.25723 0.0590918 -0.442593 0.00516232
-0.0377081 -0.515709 0.062869 0.00197211
-0.0325383 -0.501363 0.0616614 0.00319773
-0.0360303 -0.512484 0.0785611 0.00029426
-0.0320393 -0.498443 0.0780071 0.00369673
-0.328043 -0.51781 -0.161498 0.00146696
-0.329123 -0.500716 -0.159512 0.000386503
-0.328368 -0.518371 -0.144741 0.00114178
-0.330462 -0.501971 -0.141874 0.000952277
0.303143 -0.365161 0.24289 0.00252433
0.302277 -0.351916 0.246503 0.00108888
0.318225 -0.360611 0.243163 0.00225092
0.317914 -0.346326 0.246377 0.000962738
0.0632869 -0.237817 -0.247197 0.000794015
0.067882 -0.223829 -0.248806 0.00339372
0.0665549 -0.234982 -0.234113 0.00197392
0.0720898 -0.220967 -0.235003 0.00282526
-0.0173487 0.519119 0.184505 0.000187979
-0.00568957 0.531371 0.179107 0.0017826
-0.010516 0.523572 0.196597 0.000944712
0.00120918 0.535408 0.190545 0.000485984
-0.330267 -0.387441 -0.347307 6.72229e-05
-0.332588 -0.365905 -0.344657 0.000114634
-0.328598 -0.386172 -0.333754 0.00168762
-0.331095 -0.363495 -0.331653 0.00145123
-0.191582 -0.602198 -0.0273572 0.00113485
-0.207072 -0.602969 -0.0104321 0.000956972
-0.17682 -0.599741 -0.0151492 0.00262805
-0.190594 -0.600892 0.00236742 0.000199894
-0.189017 0.153401 -0.0237542 6.49854e-05
-0.188709 0.167966 -0.0135307 0.00223119
-0.172993 0.153767 -0.0226323 0.000942254
-0.172678 0.168742 -0.0125743 0.00166924
0.408682 0.155376 0.170536 0.00664434
0.409091 0.165569 0.172738 0.000222821
0.42231 0.154917 0.172427 0.00742018
0.422638 0.166476 0.174081 0.00250393
-0.115572 0.307486 0.0366001 0.00177076
-0.113718 0.326531 0.0407937 0.000947654
-0.101032 0.315227 0.0376551 0.00207551
-0.100301 0.335128 0.0424512 0.000807733
-0.118275 -0.629863 -0.256431 0.000388092
-0.130286 -0.629387 -0.241053 0.002162
-0.107477 -0.627126 -0.244559 0.000601109
-0.118144 -0.626517 -0.229527 0.000934252
-0.417257 -0.176192 -0.103289 0.0013512
-0.426195 -0.167316 -0.0957012 0.000793304
-0.40918 -0.181107 -0.087836 0.000642948
-0.418091 -0.171569 -0.0815612 6.11595e-06
-0.00783544 0.185984 0.245724 0.000310171
-0.00561818 0.207276 0.2463 0.000886191
0.0151041 0.193862 0.247346 0.00193201
0.0167285 0.215045 0.247801 0.0023869
0.243104 0.333377 0.0684706 0.00138019
0.246349 0.353764 0.067412 0.00180706
0.259414 0.339469 0.0766848 0.000618008
0.262053 0.360411 0.0742766 0.000475692
-0.683915 -0.0804894 -0.228019 0.000586398
-0.687144 -0.0653668 -0.228696 0.00264286
-0.681543 -0.0825104 -0.210601 0.00295765
-0.687275 -0.0682404 -0.208854 0.00277441
0.23517 -0.104569 -0.202632 0.00133823
0.238221 -0.0898065 -0.200859 0.00118864
0.244438 -0.102114 -0.187613 0.00236356
0.247866 -0.0867926 -0.186528 0.00156707
0.131084 0.00253318 0.246881 0.00146699
0.128993 0.0203957 0.246941 0.00152687
0.14631 0.00317817 0.244987 0.000426795
0.144275 0.0193347 0.244477 0.000936877
-0.17097 0.0752665 -0.284135 0.00223061
-0.178172 0.0775298 -0.267611 0.00201517
-0.156844 0.080091 -0.271527 0.000987515
-0.168773 0.0808548 -0.255177 0.000287973
0.131782 -0.240858 -0.355253 0.00224932
0.130357 -0.239045 -0.342919 0.00260613
0.14017 -0.235799 -0.344606 0.00088635
0.13836 -0.233809 -0.331819 0.00062404
0.258818 -0.393469 0.239618 0.00144329
0.251817 -0.38487 0.247911 0.0024966
0.271205 -0.38688 0.242238 0.00317585
0.264319 -0.37836 0.250336 0.00492235
-0.126479 -0.334083 -0.401908 0.00130364
-0.123262 -0.31708 -0.40412 0.00207671
-0.108036 -0.334495 -0.402427 0.000720527
-0.105233 -0.317649 -0.404937 0.00117383
-0.394664 0.0163579 -0.471208 0.00608931
-0.397797 0.029057 -0.463051 0.00414881
-0.380814 0.0203625 -0.468457 0.00268475
-0.383328 0.0329474 -0.461508 0.00634356
-0.126083 0.40144 0.0816119 0.000350594
-0.1126 0.418919 0.0794503 0.000810769
-0.120045 0.410257 0.0872507 0.000629826
-0.10828 0.42711 0.0857818 0.0027041
0.0405466 -0.0361611 -0.44084 0.0062675
0.0387666 -0.021144 -0.438341 0.00161598
0.0513841 -0.0365567 -0.440243 0.00675764
0.0498957 -0.0219137 -0.437374 0.00716345
-0.28657 -0.621675 -0.24668 0.00148769
-0.307581 -0.610452 -0.23368 0.00210174
-0.274517 -0.624285 -0.234195 0.00039346
-0.29852 -0.615417 -0.217997 0.00285081
-0.0306309 0.422648 0.0594197 0.000705443
-0.0337001 0.438988 0.0645013 0.00287252
-0.0120515 0.429269 0.0596964 0.000171847
-0.0157894 0.445669 0.0648229 0.0020291
-0.235653 0.17529 -0.00210348 0.00280978
-0.236725 0.188651 0.00740912 0.00334776
-0.221458 0.177172 -0.00203037 0.00106466
-0.221167 0.191496 0.00632811 0.000932489
0.179416 -0.202011 -0.314981 0.00160434
0.183038 -0.19023 -0.317496 0.00205809
0.180303 -0.197948 -0.30211 0.00433052
0.185281 -0.186476 -0.305331 0.000897593
0.495448 -0.0777638 -0.0157109 0.00163103
0.500596 -0.0620863 -0.016757 0.00198236
0.512117 -0.0769866 -0.0132584 0.000233898
0.517616 -0.0612327 -0.0137858 0.00140287
0.394529 -0.378351 0.18701 0.00373141
0.385266 -0.386489 0.208423 0.00408703
0.4121 -0.375367 0.194047 0.00567974
0.401506 -0.381182 0.21432 0.000262166
0.0920786 0.24409 0.244631 0.00078259
0.0934732 0.262599 0.244424 0.000989627
0.112141 0.250388 0.244418 0.00099599
0.112777 0.26908 0.244639 0.000774574
0.415926 -0.186938 0.11773 0.0033196
0.420115 -0.168698 0.107982 0.00373643
0.436725 -0.18563 0.122788 0.00180349
0.439189 -0.166572 0.114011 0.0036894
-0.243331 0.185322 0.245928 0.000513602
-0.242592 0.202548 0.245662 0.000248048
-0.226931 0.188231 0.244666 0.000747528
-0.226177 0.207057 0.245404 9.92044e-06
-0.537238 -0.117899 -0.170384 1.70316e-05
-0.556664 -0.114407 -0.160543 0.00118168
-0.521279 -0.118554 -0.157671 0.00191289
-0.540085 -0.114698 -0.148441 0.000161384
0.10113 0.0950445 -0.134409 0.000357621
0.0944624 0.10347 -0.12215 0.00556026
0.109479 0.099641 -0.121109 0.000907601
0.10294 0.108527 -0.108782 0.00686528
0.41715 0.59781 0.0969327 0.00203802
0.419024 0.613204 0.0977224 0.000748578
0.435535 0.59806 0.100929 0.00307561
0.437894 0.614222 0.101393 0.00034637
-0.0844041 -0.489144 -0.377354 0.00143982
-0.0837561 -0.475231 -0.380845 0.00246213
-0.0681947 -0.48951 -0.375665 0.000159697
-0.0669885 -0.474863 -0.379401 0.000975446
-0.516781 -0.013268 0.24689 0.00147613
-0.517528 0.00656893 0.245486 7.16485e-05
-0.497359 -0.0124948 0.24546 4.59738e-05
-0.498666 0.00662319 0.244713 0.000701454
-0.194725 0.0710168 -0.325125 0.000945725
-0.208751 0.0726686 -0.309457 0.00145939
-0.177177 0.0758263 -0.310529 0.00177985
-0.18629 0.0780537 -0.294333 0.00183992
0.0503721 -0.013892 0.246349 0.000934619
0.0467829 0.0054588 0.24697 0.00155585
0.0675001 -0.0161713 0.244598 0.000816192
0.064366 0.00311487 0.24528 0.000134479
-0.35212 -0.265882 0.238189 0.00623161
-0.355548 -0.250415 0.242103 0.00331053
-0.338311 -0.264159 0.246682 0.00126839
-0.340968 -0.248349 0.250669 0.00525467
0.603172 -0.200082 0.200344 0.00240088
0.602844 -0.184361 0.199042 0.00272872
0.610411 -0.197501 0.207745 0.00483863
0.610341 -0.181456 0.206682 0.00476821
0.0986335 0.603298 0.237052 0.00358103
0.10977 0.613512 0.231395 0.000969122
0.1099 0.606173 0.247061 0.001647
0.119422 0.616558 0.241247 0.00333131
0.346417 0.125973 0.245589 0.000175033
0.349962 0.142737 0.244811 0.000602599
0.366376 0.127328 0.244814 0.000600215
0.369574 0.144357 0.244175 0.00123889
0.0943282 -0.12588 0.246746 0.00133244
0.0955804 -0.105275 0.245232 0.000182118
0.115611 -0.1259 0.244455 0.00095911
0.116765 -0.104087 0.243478 0.00193606
0.511477 -0.159586 0.108026 0.00266656
0.527518 -0.152753 0.0985232 0.00571065
0.529844 -0.161686 0.114974 0.00594203
0.545556 -0.1543 0.105654 0.0029474
-0.427467 -0.0176639 0.246345 0.000931013
-0.426502 -0.000949763 0.246109 0.000694562
-0.40961 -0.0145297 0.245052 0.000361647
-0.408972 0.00302627 0.245106 0.000307944
-0.490794 -0.163892 -0.429095 0.0040823
-0.490722 -0.1472 -0.435933 0.000247288
-0.47461 -0.167879 -0.42607 0.00636888
-0.47484 -0.151181 -0.432907 0.00253522
-0.216472 0.118066 -0.066891 0.00130291
-0.22536 0.129542 -0.0505776 0.000352829
-0.194161 0.120815 -0.0635435 0.000600816
-0.20458 0.13218 -0.0458664 0.000647534
-0.624358 -0.0957452 0.0673235 0.00290641
-0.637242 -0.0894513 0.0781948 0.00290577
-0.616983 -0.0950107 0.0759042 0.00252807
-0.630978 -0.0906826 0.0891484 0.00121814
-0.33174 -0.341222 0.200747 0.00153131
-0.330723 -0.325054 0.204205 0.000671113
-0.330468 -0.335926 0.21906 5.53806e-05
-0.329666 -0.320148 0.221026 0.00231494
0.403598 -0.0105631 0.24527 0.000144091
0.407098 0.00604313 0.245587 0.000172902
0.423117 -0.0072121 0.245899 0.000485111
0.426673 0.00861438 0.245908 0.000494111
-0.510876 -0.110035 0.0137178 0.000131086
-0.522946 -0.105715 0.0214805 9.67596e-06
-0.496433 -0.114071 0.0249449 0.000761723
-0.508236 -0.109486 0.0324474 0.000494986
0.464162 0.647574 0.245322 9.16384e-05
0.46235 0.66633 0.244921 0.000493448
0.484729 0.64584 0.245784 0.000370059
0.483642 0.662933 0.245536 0.000122059
-0.0869259 -0.530481 -0.369298 0.000684709
-0.0847035 -0.51476 -0.373733 0.00232188
-0.0721762 -0.529472 -0.36691 0.00184219
-0.069842 -0.513815 -0.370668 0.000860655
0.175942 -0.147074 -0.336802 0.00233421
0.179012 -0.128273 -0.336698 9.18612e-05
0.181268 -0.143159 -0.315322 0.00247303
0.183864 -0.122479 -0.319783 0.00023269
-0.285858 -0.299245 0.246688 0.0012738
-0.283254 -0.282282 0.245596 0.000182364
-0.262875 -0.296746 0.246215 0.000800509
-0.260255 -0.279251 0.24535 6.42948e-05
-0.507397 0.0437925 0.246138 0.000723843
-0.50858 0.062405 0.244754 0.000660446
-0.490305 0.0435974 0.24649 0.0010757
-0.491048 0.0626546 0.245699 0.00028481
0.0382682 -0.421336 -0.313351 0.0043068
0.0422624 -0.400525 -0.314471 0.000628026
0.0445585 -0.419352 -0.295497 0.000720316
0.0483169 -0.39883 -0.296754 0.00261564
-0.533585 -0.146386 -0.385864 0.00118307
-0.547054 -0.14416 -0.37525 0.00117854
-0.518074 -0.146639 -0.378409 0.00335332
-0.53261 -0.14396 -0.368806 0.0010644
-0.404529 0.0889658 -0.152275 0.00360808
-0.407463 0.0929578 -0.134823 0.00218345
-0.390422 0.0934454 -0.144185 1.31697e-05
-0.393572 0.0983193 -0.125643 0.00156314
0.511464 0.0601493 0.080354 0.00191473
0.506701 0.0685939 0.0908487 0.00350112
0.524169 0.0653508 0.088723 0.00175331
0.521755 0.0741235 0.0973882 0.00165495
0.200813 0.492866 0.0719389 0.00084091
0.202618 0.506217 0.07378 0.000335423
0.214549 0.496733 0.0733037 0.001513
0.216251 0.509931 0.0749852 0.000877187
-0.677058 -0.0339015 0.235776 0.00744344
-0.680003 -0.017286 0.243129 0.00228475
-0.669459 -0.0336749 0.250086 0.00467222
-0.672185 -0.0156313 0.256114 0.0107
-0.0112077 -0.486127 -0.36868 0.00483734
-0.00552982 -0.471919 -0.37466 0.00420236
-0.00406873 -0.479274 -0.359531 0.000880405
0.00337102 -0.465685 -0.365426 0.0121086
-0.550735 0.0693183 -0.334472 0.00137221
-0.557347 0.0709395 -0.317738 0.00208521
-0.53823 0.0737684 -0.321899 0.00130178
-0.544972 0.0756327 -0.305537 0.000950738
-0.181622 0.086269 -0.207089 0.0004943
-0.200521 0.0862084 -0.189808 0.00240443
-0.167071 0.089993 -0.195666 0.00199698
-0.185146 0.0896976 -0.17853 0.00012396
-0.430828 -0.175884 -0.434621 0.00344228
-0.440571 -0.164828 -0.436001 0.00288116
-0.417573 -0.181842 -0.42927 0.000792547
-0.429184 -0.17243 -0.428505 0.00318113
-0.176829 0.177951 0.00163541 0.0042012
-0.174319 0.194094 0.00880799 0.00171025
-0.159242 0.184836 0.00245793 0.00118529
-0.157081 0.200338 0.0100964 0.00024155
-0.244226 -0.560668 0.241546 0.00386829
-0.246732 -0.548913 0.24883 0.00341607
-0.231383 -0.559783 0.243147 0.00226724
-0.231825 -0.54592 0.249014 0.00359956
-0.291402 -0.283886 0.245547 0.000133205
-0.288809 -0.266511 0.245086 0.000327852
-0.270423 -0.28122 0.24416 0.00125387
-0.267256 -0.263723 0.243257 0.00215655
-0.337777 -0.347555 -0.346358 0.00212416
-0.339663 -0.328291 -0.346956 0.000700792
-0.336612 -0.344879 -0.328266 0.00103894
-0.33886 -0.325262 -0.327363 0.00146439
-0.289879 -0.101446 -0.4452 0.000933909
-0.28088 -0.0777774 -0.449706 0.00126137
-0.264304 -0.0972687 -0.443743 0.00122626
-0.255212 -0.0737903 -0.448405 0.000712125
0.4635 0.050026 0.0272478 0.00265974
0.454746 0.0540445 0.0413857 0.00115728
0.475049 0.0525142 0.0325722 0.00113433
0.465763 0.058845 0.0467812 0.00263113
0.417757 0.436839 0.130203 0.00232746
0.424796 0.456839 0.128356 0.00230982
0.439394 0.440718 0.134751 0.00188266
0.445181 0.459929 0.133084 0.00219597
-0.387183 -0.235877 -0.34447 0.000301397
-0.39916 -0.224198 -0.338003 0.00200615
-0.377931 -0.240254 -0.330631 0.00431374
-0.389884 -0.228601 -0.323958 0.000871518
0.432635 0.0488339 0.02137 0.00281399
0.425961 0.0522849 0.0342158 0.00164599
0.44632 0.0535066 0.0269899 0.000812523
0.438333 0.0570274 0.040797 0.0018824
-0.0241816 0.175159 0.242693 0.00272078
-0.0220316 0.196597 0.243264 0.00215025
-0.000489309 0.180626 0.244602 0.000811931
0.00144471 0.20232 0.245188 0.000225555
0.604048 -0.0457458 0.109397 0.00152441
0.606104 -0.026167 0.109007 0.000531352
0.605704 -0.0405668 0.126691 0.000131446
0.607575 -0.0210263 0.12581 0.0020019
0.0365349 -0.408162 -0.366582 0.0019786
0.0396896 -0.393156 -0.369147 0.000594374
0.0438021 -0.40324 -0.35265 0.00396438
0.0474062 -0.387881 -0.35551 0.00766681
-0.398767 -0.226765 -0.393735 0.00256721
-0.41084 -0.216433 -0.390665 0.000963969
-0.39594 -0.234383 -0.380933 0.00146267
-0.407523 -0.223867 -0.377563 0.00339548
0.216364 0.631786 0.0931616 0.00238232
0.214649 0.644331 0.100019 0.00219267
0.23089 0.635903 0.0939579 0.00231268
0.228995 0.648178 0.100981 0.00247284
-0.289217 -0.596516 0.00584389 0.00112441
-0.302609 -0.590235 0.012272 0.00377398
-0.277161 -0.597708 0.0150871 0.00042757
-0.292259 -0.593497 0.0249218 0.00133968
0.272407 0.572548 0.0856936 0.000550974
0.272072 0.587738 0.0888517 0.00102298
0.286576 0.579207 0.0859307 0.000371845
0.284988 0.595133 0.0891013 1.52318e-05
-0.203218 -0.267863 0.246551 0.00113656
-0.204672 -0.250767 0.246364 0.000949536
-0.185307 -0.267009 0.245968 0.000554476
-0.187168 -0.249414 0.245609 0.000194538
-0.330367 -0.510729 0.193844 0.000857088
-0.333946 -0.495572 0.197292 0.00443647
-0.324066 -0.512161 0.2026 0.0054442
-0.328104 -0.497094 0.206495 0.00140589
-0.0314108 0.0837476 -0.225205 0.000948122
-0.0379326 0.0844827 -0.210238 0.00189516
-0.0182348 0.086909 -0.21412 0.000941091
-0.0251637 0.0878671 -0.198731 0.00022123
0.540246 0.00962624 0.246183 0.000768978
0.540201 0.03109 0.246903 0.00148914
0.551793 0.0112676 0.247113 0.00169893
0.54977 0.0326763 0.247466 0.00205228
0.59867 0.588573 0.126929 0.000678474
0.603838 0.605956 0.122964 0.00165239
0.608585 0.592067 0.137934 0.00301176
0.613792 0.609168 0.135074 0.00821852
-0.607703 -0.0917065 -0.445404 0.000557487
-0.60423 -0.0752113 -0.445886 0.00294702
-0.590614 -0.0889128 -0.44625 0.000209215
-0.587054 -0.0732408 -0.448417 0.000796525
-0.0988201 -0.603533 -0.00381561 0.00262173
-0.0843941 -0.597813 -0.00856423 0.000492326
-0.0893021 -0.597172 0.00932881 0.000749859
-0.0753374 -0.590376 0.00392626 0.00359938
-0.145254 -0.494205 -0.372881 0.00208539
-0.145593 -0.479834 -0.375749 0.00175701
-0.126581 -0.497812 -0.373758 0.000595866
-0.126811 -0.483352 -0.376729 0.000180567
0.170396 -0.161307 -0.367244 0.00162303
0.173547 -0.143793 -0.36331 0.00048594
0.174193 -0.156708 -0.346566 0.0020082
0.177632 -0.138456 -0.344743 0.000805985
0.341339 0.474956 0.2457 0.000286166
0.341181 0.494006 0.245308 0.000106301
0.360903 0.474168 0.245516 0.000101928
0.358987 0.492507 0.244547 0.00086705
-0.68959 0.0876123 0.164884 0.00509028
-0.680685 0.103366 0.168432 0.00379462
-0.684573 0.0944205 0.180038 7.61931e-05
-0.675099 0.110096 0.182491 0.00108948
-0.207678 0.047125 -0.462127 0.00335012
-0.215056 0.0595392 -0.454289 0.00754143
-0.189721 0.0530198 -0.459863 0.00207092
-0.199105 0.0631895 -0.449134 0.0102698
-0.0119164 -0.0324711 -0.459227 0.00276988
-0.0066014 -0.0156028 -0.459924 0.000527877
0.00327457 -0.0289442 -0.457212 0.000173588
0.00773076 -0.0120017 -0.45712 0.00285878
-0.517654 -0.140231 -0.306958 4.98513e-05
-0.535021 -0.136358 -0.293884 0.00275426
-0.504063 -0.140994 -0.291145 0.00155343
-0.521515 -0.136266 -0.280603 0.00107722
0.253896 -0.194993 0.0256679 0.000743234
0.260105 -0.182658 0.0227083 0.00374324
0.269164 -0.192648 0.0369947 0.000651712
0.274884 -0.179885 0.0346616 0.00275466
0.466631 0.731935 0.252691 0.007277
0.475606 0.7371 0.241497 0.00391727
0.477409 0.730487 0.259633 0.0142185
0.486685 0.735723 0.248271 0.00285688
-0.175423 -0.618029 -0.156953 0.00178491
-0.184762 -0.61726 -0.14278 0.00272977
-0.161968 -0.614235 -0.142194 0.000213212
-0.166682 -0.613484 -0.130489 0.000306654
0.466756 -0.384351 0.217547 0.00607471
0.460362 -0.380274 0.227055 0.00183142
0.481723 -0.382947 0.222327 0.00527862
0.476596 -0.374964 0.229053 0.00283805
0.173022 -0.133923 0.247373 0.00195897
0.16991 -0.110373 0.247465 0.00205133
0.195363 -0.129483 0.246009 0.000595499
0.19209 -0.106657 0.245847 0.000433166
-0.0367798 -0.510459 0.153054 0.00104372
-0.0355195 -0.497514 0.154021 0.000216312
-0.0363482 -0.510446 0.169609 0.000541219
-0.0350718 -0.496773 0.169812 0.000664799
0.25764 0.36642 0.245788 0.00037441
0.257097 0.383351 0.245128 0.000286128
0.281949 0.367175 0.246877 0.00146291
0.281627 0.38449 0.246406 0.000991929
-0.364152 0.185854 0.247703 0.00228916
-0.357433 0.197226 0.237514 7.20572e-05
-0.353014 0.189239 0.252649 0.00723519
-0.346749 0.200525 0.243031 0.00238281
-0.337499 -0.296214 0.0769545 1.39827e-05
-0.339339 -0.279808 0.0843867 0.00219645
-0.337968 -0.290877 0.0960608 0.000643925
-0.340697 -0.275407 0.104158 0.00224001
0.0244675 -0.25409 -0.367072 0.015637
0.040384 -0.247702 -0.370374 0.000446054
0.0337448 -0.248688 -0.356202 0.00739182
0.0501446 -0.242538 -0.359341 0.00319428
-0.000753609 -0.418384 -0.394182 0.00572386
2.61856e-05 -0.403926 -0.39843 0.00739629
0.00709278 -0.419415 -0.383573 0.00454468
0.0089883 -0.404331 -0.38737 0.00342617
-0.0265194 0.208996 0.0154978 0.00110613
-0.0244411 0.228376 0.0240721 0.00250249
-0.00730591 0.212927 0.015932 7.32855e-05
-0.00503244 0.232624 0.0238646 0.000530855
0.315785 0.0417467 -0.0138509 0.00367208
0.309067 0.0512695 -0.00305999 0.00383022
0.3289 0.0435137 -0.00650515 0.00321028
0.323125 0.0523492 0.00498876 0.00348597
0.00994232 -0.385683 0.242546 0.00286752
0.0136615 -0.366173 0.249562 0.0041481
0.0263129 -0.379581 0.245713 0.000299025
0.0297663 -0.360306 0.252428 0.00701376
0.539229 0.151262 0.245328 8.6423e-05
0.539776 0.168465 0.245308 0.000106107
0.560578 0.153242 0.245502 8.81441e-05
0.560308 0.17131 0.245685 0.000270996
0.311182 -0.127566 -0.109275 0.000190858
0.314873 -0.11243 -0.109997 0.000793757
0.324389 -0.124927 -0.0957865 0.00190113
0.327969 -0.109319 -0.097188 0.00071807
-0.240024 -0.196518 -0.426681 0.00079432
-0.236168 -0.178967 -0.428856 0.00170047
-0.219295 -0.198071 -0.427445 0.000227232
-0.215113 -0.180904 -0.43009 0.000148889
0.31834 -0.387243 0.216073 0.000236942
0.311078 -0.387964 0.231493 0.000446987
0.335106 -0.386496 0.21905 0.000869823
0.328124 -0.386946 0.234461 0.000825933
-0.685592 -0.0794942 0.211195 0.00109117
-0.693258 -0.0662374 0.224699 0.00875675
-0.678103 -0.0773915 0.230694 0.00639839
-0.685247 -0.062484 0.243892 0.000746302
-0.542152 0.0726699 -0.310949 0.00127813
-0.549365 0.0744256 -0.293914 0.00176781
-0.530009 0.0770079 -0.300121 0.00159582
-0.537255 0.0784115 -0.282576 0.000690097
0.2415 0.0642436 -0.0380131 0.00625286
0.23334 0.0736463 -0.0306711 0.00577573
0.253054 0.0620369 -0.0258649 0.00467366
0.247162 0.072533 -0.0190556 0.00566234
0.151856 -0.233194 -0.308054 0.0029058
0.154831 -0.228894 -0.300078 5.78856e-05
0.15977 -0.227282 -0.296604 0.000928469
0.163591 -0.223209 -0.288764 0.00358128
0.0551788 -0.239845 -0.326246 0.00630122
0.0694592 -0.233204 -0.327258 0.000414343
0.0636717 -0.234533 -0.314461 0.00311432
0.0728624 -0.228765 -0.312401 0.00221496
0.0432893 0.569217 0.164611 0.00107338
0.0613481 0.5815 0.159183 0.000321008
0.0530128 0.575546 0.176619 4.31536e-05
0.0702068 0.587457 0.170919 0.000311663
0.556229 -0.175974 0.0147784 0.0026167
0.56165 -0.16393 0.0101941 0.000317195
0.571794 -0.181122 0.0160141 0.00790091
0.576378 -0.168333 0.0113102 0.000503253
0.0594765 0.151505 0.245101 0.000313055
0.0638759 0.17328 0.244894 0.000520285
0.0786028 0.152588 0.245076 0.000338238
0.0836218 0.173922 0.244831 0.000583317
0.560895 0.650034 0.24461 0.000803959
0.557985 0.668022 0.245933 0.000518803
0.571401 0.648247 0.247706 0.0022924
0.567392 0.666641 0.248461 0.00304662
-0.309589 -0.593282 -0.113043 0.00121059
-0.3207 -0.580958 -0.110671 0.00429846
-0.299907 -0.597943 -0.0993757 0.000660073
-0.312368 -0.584905 -0.0971062 0.00102582
0.0711654 -0.221773 -0.250106 0.00171203
0.0772858 -0.208172 -0.250792 0.0118
0.0758349 -0.218912 -0.236478 0.00126077
0.0818402 -0.205117 -0.237116 0.0124352
-0.481536 -0.133936 -0.1414 0.000389399
-0.497773 -0.126573 -0.135438 5.84712e-05
-0.466786 -0.138673 -0.127782 0.00193359
-0.482765 -0.131042 -0.121801 0.000979004
0.25372 0.262595 0.0893855 0.00275512
0.259265 0.282884 0.0885125 0.00240515
0.274952 0.2666 0.101071 0.00282898
0.280464 0.286655 0.0998555 0.00230883
0.603574 0.548017 0.199042 0.0019995
0.606431 0.563548 0.199217 0.000858127
0.602054 0.550285 0.214164 0.00351882
0.604915 0.565503 0.214401 0.000658394
-0.328923 -0.480317 0.111656 0.000587192
-0.32807 -0.460676 0.110355 0.00144025
-0.329249 -0.476323 0.127531 0.000260946
-0.328678 -0.45731 0.128048 0.000832286
-0.560445 -0.0165466 -0.45842 0.000790826
-0.558701 0.00163399 -0.461585 0.000830423
-0.543414 -0.0136155 -0.459093 0.000637003
-0.542369 0.00461339 -0.462993 3.85747e-05
-0.267843 -0.415172 0.246175 0.000760857
-0.263072 -0.397844 0.245653 0.000238899
-0.251442 -0.411668 0.246356 0.000942472
-0.24616 -0.393986 0.246011 0.000597183
0.279519 -0.38982 0.158184 0.00139704
0.284181 -0.392778 0.169178 0.00223156
0.294079 -0.384854 0.165586 0.00484762
0.291466 -0.389587 0.18192 9.14823e-05
-0.662199 -0.1441 -0.422687 0.00190539
-0.675082 -0.141071 -0.409403 0.0026416
-0.651164 -0.146796 -0.414792 0.00209245
-0.664532 -0.143764 -0.400981 0.00137775
-0.128611 -0.153928 0.247226 0.00181166
-0.127086 -0.135034 0.247185 0.0017705
-0.109669 -0.151101 0.245389 2.48812e-05
-0.108045 -0.131414 0.245787 0.000373412
-0.687317 -0.0126653 0.021247 0.00281578
-0.685136 0.0050305 0.019419 0.000634543
-0.68641 -0.00628282 0.0403294 0.00190865
-0.684124 0.0114152 0.0381206 0.000377126
0.0981164 -0.373163 -0.135832 0.00100265
0.100321 -0.357171 -0.139467 0.00134877
0.107735 -0.373802 -0.119877 0.000360324
0.110032 -0.358156 -0.12276 0.00245106
-0.30973 0.226341 0.176452 0.000153517
-0.294538 0.238914 0.167035 0.0018385
-0.300267 0.230882 0.19127 0.00174425
-0.284964 0.24341 0.181714 0.000378872
-0.0655067 0.0712494 -0.333351 0.000392484
-0.0786519 0.0723 -0.31897 0.000548068
-0.04971 0.0734968 -0.319278 0.000714844
-0.0623176 0.0747883 -0.305692 0.000122332
-0.410973 -0.212255 -0.35513 0.000178389
-0.422729 -0.20177 -0.349743 0.00138579
-0.401032 -0.217753 -0.342212 0.00130582
-0.412987 -0.206235 -0.335802 0.000120814
0.42994 0.621211 0.245049 0.000365224
0.429696 0.639249 0.24508 0.000333618
0.449894 0.621548 0.246345 0.000930551
0.448323 0.640359 0.246404 0.000990186
-0.176407 -0.329835 -0.402342 0.00161343
-0.175375 -0.313483 -0.405422 0.00142015
-0.154548 -0.330281 -0.402456 0.00142311
-0.152645 -0.313889 -0.40461 0.0021486
-0.17974 -0.0627371 -0.447843 0.00318456
-0.179033 -0.0417798 -0.454199 0.000564389
-0.162321 -0.063579 -0.450225 0.000693106
-0.161353 -0.0430986 -0.45669 0.00211728
0.371791 0.710653 0.106425 0.00301557
0.374607 0.720063 0.108043 0.00305617
0.384195 0.718403 0.113896 0.00299582
0.391101 0.72628 0.113618 0.00135333
0.268275 -0.272588 0.0480521 0.000958121
0.275069 -0.252346 0.0494231 0.000968031
0.28348 -0.268215 0.0607954 0.000673819
0.290882 -0.247953 0.0620501 0.000614963
-0.68379 -0.0221184 -0.392921 0.00071121
-0.682461 -0.00543695 -0.391646 0.00204027
-0.685501 -0.0161589 -0.380239 0.00100028
-0.68389 0.000371431 -0.378831 0.000611432
0.550225 -0.137205 0.00679389 0.00298352
0.55703 -0.124981 0.00352314 0.00107545
0.566727 -0.136308 0.00687969 0.00127635
0.572589 -0.123684 0.00366522 2.00008e-05
0.198596 0.0425205 0.245008 0.000406485
0.19761 0.0583161 0.24478 0.000634056
0.212785 0.0456124 0.24579 0.000376035
0.211783 0.0614891 0.245631 0.000216547
-0.41725 0.0802438 -0.265311 0.000320717
-0.426109 0.0813156 -0.248834 0.000600549
-0.405276 0.0829542 -0.254705 0.00172922
-0.41063 0.0846968 -0.239515 0.00167007
-0.452617 0.0725009 -0.322569 0.000157576
-0.463405 0.0728185 -0.305264 0.00187511
-0.436761 0.0763816 -0.311274 0.00248444
-0.44794 0.076836 -0.293714 0.000543917
0.142328 0.0825174 -0.145188 0.00194474
0.136306 0.0939427 -0.137492 0.000816685
0.152776 0.0831254 -0.132338 0.00311308
0.144637 0.0949578 -0.126644 0.00144865
0.467656 0.108292 0.0732836 0.00549996
0.465317 0.122016 0.0838301 0.00739142
0.481132 0.11319 0.080223 0.00116584
0.479287 0.126905 0.0909759 0.0118915
0.00689654 -0.469335 -0.292632 0.00356623
0.0199624 -0.457848 -0.293797 0.00568849
0.0142668 -0.464334 -0.281554 0.00147367
0.0259369 -0.45189 -0.282636 0.00886928
-0.204947 0.230661 0.0240499 0.00126947
-0.202372 0.247186 0.0301816 0.00304041
-0.187006 0.235856 0.0227538 0.00164056
-0.18432 0.252593 0.0294254 0.000984096
0.461121 0.114906 0.0671016 0.00863534
0.458775 0.128131 0.0774981 0.00408204
0.473063 0.121591 0.0752378 0.00282962
0.471188 0.135256 0.0859409 0.0102058
0.593682 -0.0183163 0.243559 0.00185483
0.588515 0.0017883 0.243668 0.00174556
0.600976 -0.0111396 0.245973 0.000558678
0.595213 0.0085615 0.246359 0.000945333
-0.632191 0.0519561 -0.433569 0.00338648
-0.641449 0.0594989 -0.418916 0.0016977
-0.628551 0.0559974 -0.425882 0.000651307
-0.637711 0.0637937 -0.411723 0.00476284
0.550183 0.514646 0.132659 0.00564062
0.552923 0.533912 0.132568 0.00254745
0.561008 0.518136 0.141195 0.0025865
0.563867 0.537734 0.142097 0.00672327
-0.510797 -0.13017 -0.225228 0.00166122
-0.533769 -0.125144 -0.21527 0.00118363
-0.496086 -0.131741 -0.212437 0.00388494
-0.518265 -0.12623 -0.203141 0.000149328
-0.296834 -0.538267 -0.374974 0.00762768
-0.299508 -0.52449 -0.374496 0.00476447
-0.297661 -0.537431 -0.366359 0.00100162
-0.300335 -0.523654 -0.365881 0.00386483
0.59893 0.722858 0.133912 0.00664294
0.596687 0.73862 0.136102 0.00888403
0.612182 0.71994 0.140971 0.0066086
0.610104 0.736034 0.143246 0.00453114
-0.288032 -0.146667 -0.436609 0.000326299
-0.278533 -0.123199 -0.441199 0.000770858
-0.261287 -0.144185 -0.434563 0.00212023
-0.252413 -0.121699 -0.438788 0.00186357
-0.174764 -0.597299 0.132656 0.00299622
-0.179966 -0.596073 0.147449 0.00216207
-0.160045 -0.591628 0.146084 0.00229061
-0.16606 -0.590723 0.161085 0.00277284
0.343956 0.492212 0.245102 0.000312012
0.341564 0.510938 0.244565 0.00084905
0.364111 0.48899 0.245727 0.000313107
0.361142 0.50707 0.244808 0.000606339
-0.413236 -0.107112 0.2448 0.000614267
-0.411844 -0.092746 0.246198 0.000783775
-0.399154 -0.102508 0.243237 0.0021772
-0.397579 -0.0874233 0.244331 0.00108333
-0.28312 0.0894381 -0.187629 0.000605338
-0.301001 0.0920161 -0.169239 0.00128853
-0.269172 0.0906874 -0.176161 0.000638977
-0.285203 0.0935866 -0.157091 0.0015376
0.18788 -0.221048 -0.274009 0.00314491
0.197469 -0.212037 -0.275622 0.00478556
0.190355 -0.214837 -0.259532 0.00674613
0.200941 -0.204775 -0.262556 0.00306747
-0.0585527 -0.524624 0.244617 0.000797164
-0.0558886 -0.509948 0.244272 0.00114208
-0.0460411 -0.517737 0.245695 0.000281174
-0.0437464 -0.502562 0.244887 0.000526767
-0.0404553 -0.514216 -0.276062 0.00471928
-0.0342188 -0.502617 -0.273302 0.00151717
-0.0389378 -0.510563 -0.260595 0.00320184
-0.0344023 -0.498492 -0.256498 0.00133369
0.181949 -0.182681 -0.309391 0.00132775
0.18482 -0.167977 -0.312831 0.00141024
0.184506 -0.180494 -0.292687 0.00379504
0.188039 -0.16532 -0.296815 1.04917e-05
0.487188 -0.293201 0.154528 0.00116516
0.492157 -0.276626 0.153281 0.00175504
0.506118 -0.295615 0.157322 0.000233735
0.510838 -0.279373 0.155646 5.17676e-05
0.437695 0.14595 0.0914991 0.00218354
0.434903 0.150339 0.104381 0.000101802
0.450771 0.150355 0.0995473 0.00075505
0.448035 0.154092 0.11277 0.00213564
-0.566903 0.119475 0.241954 0.00285234
-0.564915 0.134035 0.236483 0.0110926
-0.552148 0.120075 0.245916 0.000501771
-0.548797 0.133667 0.238739 0.00779345
-0.332646 -0.475779 0.19372 0.0031356
-0.334589 -0.459554 0.19479 0.00507933
-0.325188 -0.478023 0.201957 0.00432196
-0.327997 -0.462713 0.204089 0.0015127
0.279566 0.00284046 0.24484 0.000574213
0.279947 0.0183209 0.244574 0.000839856
0.302871 0.00130519 0.245581 0.000166807
0.304001 0.0165452 0.245538 0.000124414
-0.381053 -0.0740999 0.245778 0.000363592
-0.380614 -0.057753 0.246451 0.00103678
-0.362125 -0.0749064 0.246233 0.000818897
-0.363962 -0.0574346 0.246933 0.0015186
0.334856 -0.323337 0.244854 0.000559743
0.337284 -0.308044 0.245481 6.69248e-05
0.353316 -0.321515 0.245438 2.36668e-05
0.354829 -0.305486 0.245709 0.000294719
-0.320687 -0.321176 0.245102 0.000312474
-0.32009 -0.304938 0.243994 0.0014203
-0.3029 -0.31939 0.245303 0.000110503
-0.302138 -0.303594 0.244288 0.00112603
-0.373549 0.0905927 -0.140701 0.00344193
-0.377293 0.0955056 -0.121617 0.00191238
-0.356499 0.0955707 -0.130401 0.000218596
-0.361401 0.101336 -0.111819 0.00096715
0.265033 -0.172149 0.248702 0.00328844
0.263621 -0.152011 0.250058 0.0046442
0.288058 -0.16698 0.247669 0.00225477
0.286166 -0.14744 0.248553 0.00313852
0.0605617 0.354186 0.246737 0.001323
0.0666002 0.378994 0.246131 0.000716943
0.0846975 0.357318 0.244871 0.000542637
0.0898719 0.381115 0.24402 0.0013944
-0.668853 0.0970275 -0.0406671 0.0050564
-0.653765 0.102851 -0.0400585 0.000162214
-0.665408 0.104965 -0.0242196 0.00172297
-0.647483 0.108582 -0.0236122 0.00466929
-0.33124 -0.322448 0.143639 0.000839637
-0.333176 -0.306911 0.148296 0.00129011
-0.331922 -0.316531 0.162896 0.00098782
-0.33391 -0.300428 0.167506 0.00173534
0.0438944 -0.359099 -0.306629 0.00129427
0.0465021 -0.340894 -0.305642 0.000506159
0.0476872 -0.351596 -0.293078 0.000291124
0.0505449 -0.333723 -0.291818 0.00184773
-0.0935048 -0.583268 -0.356104 0.00314159
-0.0890922 -0.566736 -0.360979 0.00121154
-0.0751253 -0.581443 -0.358623 0.000977918
-0.0701834 -0.564878 -0.363125 0.000579452
-0.472534 0.134975 -0.0361838 0.00171057
-0.47263 0.142139 -0.0251191 0.00432485
-0.461184 0.141812 -0.0271985 0.000509305
-0.461848 0.14892 -0.0160323 0.00672329
0.489557 0.194626 0.17998 0.00679452
0.487828 0.203072 0.185909 0.000784201
0.506052 0.198787 0.181097 0.00763133
0.503308 0.207166 0.188189 0.00111804
-0.388006 0.17237 0.00627377 0.00207136
-0.374305 0.1798 0.00260378 0.00119048
-0.379759 0.180007 0.0236379 0.000413684
-0.36576 0.188766 0.0189881 0.00195777
-0.179162 -0.152994 0.248313 0.00289895
-0.176193 -0.132939 0.248578 0.00316364
-0.156179 -0.145426 0.247713 0.00229933
-0.152637 -0.125126 0.247511 0.002097
0.500503 -0.365693 0.241527 0.00388723
0.495129 -0.354133 0.248027 0.00261253
0.518519 -0.361721 0.24193 0.00348384
0.511736 -0.350388 0.249262 0.00384809
-0.325943 -0.539539 0.143494 0.00109591
-0.330505 -0.526504 0.150424 0.000994626
-0.326162 -0.537218 0.16204 0.00122395
-0.330778 -0.524247 0.169026 0.00126794
0.219548 -0.401493 0.043166 0.000206135
0.233826 -0.394279 0.0341206 0.00653967
0.229387 -0.400544 0.053586 0.000418343
0.242513 -0.39405 0.044918 0.00425515
0.565211 -0.189681 0.246019 0.000605274
0.564297 -0.171022 0.246185 0.000771377
0.58119 -0.184933 0.244101 0.00131252
0.580019 -0.166427 0.244494 0.000920039
-0.498364 -0.118083 0.223666 0.00971453
-0.501331 -0.109172 0.23003 0.00237045
-0.485664 -0.116278 0.22826 0.00306912
-0.487618 -0.106812 0.234333 0.00463595
0.321282 -0.176641 -0.0188426 0.00257087
0.30896 -0.177345 0.00245993 0.00182485
0.333408 -0.174603 -0.00321935 0.00186487
0.323607 -0.174261 0.0141695 0.000822698
0.345062 0.494591 0.092392 0.000533314
0.347887 0.509116 0.0922805 0.00167076
0.3592 0.494113 0.0955453 0.00194918
0.362004 0.509626 0.0941462 0.00175258
0.188017 -0.159676 -0.291492 0.00191425
0.190659 -0.138589 -0.298288 0.00145068
0.193352 -0.154441 -0.275691 0.00242992
0.195608 -0.132616 -0.282931 0.000767396
0.590611 0.0406488 -0.00607271 0.00609603
0.58279 0.0554225 -0.0022017 0.00777909
0.601048 0.0407974 0.00849456 0.00452465
0.593327 0.0567377 0.0128047 0.00646704
-0.543303 -0.155891 -0.43236 0.00202769
-0.538556 -0.140653 -0.437691 0.000347072
-0.524596 -0.155614 -0.430646 0.0018047
-0.520113 -0.139884 -0.436971 0.000495557
-0.22801 0.00291561 -0.465676 0.00297581
-0.229173 0.0185816 -0.463779 0.0016122
-0.208371 0.00899418 -0.464589 0.000849944
-0.212316 0.0239223 -0.461183 0.00509649
-0.340687 0.0181311 -0.466667 0.00130951
-0.340544 0.0333577 -0.467562 0.000453044
-0.323205 0.0226803 -0.465491 0.000638441
-0.3249 0.0376611 -0.464447 0.00426812
0.528729 0.449222 0.246546 0.00113236
0.529108 0.468403 0.246111 0.000696916
0.549941 0.45404 0.245514 9.97372e-05
0.551023 0.471271 0.245191 0.000223141
-0.569798 0.0155747 0.246605 0.00119108
-0.570053 0.0323727 0.245604 0.000189815
-0.548027 0.0122398 0.24724 0.00182557
-0.548462 0.0303409 0.24628 0.000865582
-0.158912 0.360969 0.1141 0.00229579
-0.14923 0.374381 0.113902 0.000977088
-0.153539 0.371273 0.129352 1.30222e-07
-0.144131 0.38405 0.127912 0.00114795
0.428646 -0.33738 0.243377 0.00203716
0.42705 -0.318814 0.24587 0.000455666
0.446532 -0.335563 0.244249 0.00116461
0.444538 -0.317794 0.24726 0.00184583
-0.261266 0.156186 -0.0159301 0.00366648
-0.262721 0.169661 -0.00566423 0.00345932
-0.243909 0.163587 -0.0136888 0.00016302
-0.24544 0.177223 -0.00357969 0.000482923
0.602982 -0.158539 0.187668 0.00259071
0.606977 -0.139778 0.189338 0.00140462
0.600277 -0.155466 0.201855 0.00529523
0.604168 -0.1369 0.203443 0.00140479
0.28987 0.666447 0.0997086 0.00195194
0.287925 0.680307 0.107208 0.00302622
0.306788 0.670458 0.099892 0.00246823
0.304659 0.684208 0.106874 0.00201945
0.0555805 -0.0230325 -0.330586 0.0124988
0.054075 -0.0070838 -0.325349 0.00120144
0.0573217 -0.0197554 -0.312582 0.0123822
0.0582269 -0.00297394 -0.307858 0.000821348
0.366579 -0.379625 0.179329 0.00433264
0.361839 -0.387223 0.197871 0.00322583
0.383979 -0.37393 0.185093 0.00880725
0.375011 -0.382574 0.206937 0.000458979
-0.340937 -0.299199 -0.0400123 0.00234977
-0.343658 -0.283672 -0.0398309 6.39302e-05
-0.339914 -0.300315 -0.0247813 0.00174848
-0.342625 -0.284342 -0.0241645 4.90534e-05
-0.119752 -0.626542 -0.234126 0.000307346
-0.13043 -0.626052 -0.219251 0.00186439
-0.109779 -0.622999 -0.221549 0.00143389
-0.119651 -0.622688 -0.206667 0.000204318
0.123825 0.0981051 -0.124207 0.000379272
0.117358 0.107023 -0.112956 0.00600976
0.132215 0.101637 -0.111753 0.000680995
0.123182 0.110919 -0.101781 0.00691126
0.154043 0.629572 0.0952954 0.000102289
0.162739 0.639626 0.0985251 0.00153738
0.167847 0.635342 0.0972898 0.0010648
0.172651 0.646208 0.102223 0.00192213
0.417402 0.7121 0.249814 0.00440011
0.422637 0.720646 0.242352 0.0030618
0.432122 0.710642 0.255274 0.00985967
0.43793 0.71731 0.246643 0.00122905
-0.34314 -0.273446 0.0730665 0.000968342
-0.349166 -0.257765 0.0838045 0.000698471
-0.34326 -0.269389 0.0950075 0.0020642
-0.348889 -0.254107 0.105491 0.00186354
-0.676199 -0.00413424 0.236774 0.00830156
-0.679026 0.0135411 0.241016 0.00439798
-0.66626 -0.00432389 0.247324 0.00190993
-0.669615 0.0142318 0.252271 0.00685667
0.165692 -0.00750808 -0.313923 7.70159e-05
0.15397 -0.00222008 -0.30384 0.00337972
0.174976 -0.00793218 -0.299768 0.00295393
0.165532 0.000451898 -0.28977 0.00356664
0.0944272 -0.380565 -0.140065 0.00180019
0.0966953 -0.364548 -0.143708 0.000498161
0.101122 -0.381071 -0.12589 0.00222532
0.103678 -0.365828 -0.128955 0.000275282
-0.331158 -0.446112 -0.31514 0.00164798
-0.328997 -0.42539 -0.316999 0.000513133
-0.330263 -0.43854 -0.30498 0.000753436
-0.329163 -0.415913 -0.306279 0.000346985
0.185381 -0.194804 -0.0611709 0.0079728
0.200991 -0.187132 -0.0658414 0.000395935
0.200179 -0.190026 -0.0487745 0.00542156
0.216714 -0.182207 -0.054893 0.00334712
0.53364 -0.151944 0.00683698 0.00300056
0.54075 -0.139589 0.00331059 0.000421809
0.548495 -0.153648 0.00626931 0.000237772
0.55542 -0.141414 0.00268962 0.00245306
-0.0526835 -0.608163 -0.305863 0.002242
-0.0448139 -0.594452 -0.307581 0.00403822
-0.0467758 -0.602219 -0.294319 0.000114387
-0.0396137 -0.587671 -0.297204 4.50153e-05
-0.350475 -0.195852 -0.427548 5.53624e-05
-0.34172 -0.17959 -0.430536 6.35402e-05
-0.331334 -0.192107 -0.427184 0.00106401
-0.32348 -0.176153 -0.430386 0.000681969
-0.315741 -0.603929 -0.282775 0.000551885
-0.327582 -0.586686 -0.27959 0.00220473
-0.310449 -0.609145 -0.268721 0.000908847
-0.322469 -0.591833 -0.265851 0.000158378
-0.171002 -0.587234 0.241705 0.00370898
-0.175818 -0.577161 0.248369 0.00295489
-0.156328 -0.583781 0.242345 0.00306929
-0.159542 -0.572742 0.248453 0.00303889
-0.219773 0.0924643 -0.146867 0.000681872
-0.229804 0.0958858 -0.131126 0.000193685
-0.204493 0.0956614 -0.136449 0.000797762
-0.214598 0.0997924 -0.120931 0.00213558
-0.171911 -0.597896 0.026846 0.00153462
-0.18402 -0.599622 0.046858 0.00141969
-0.156935 -0.59624 0.0417173 0.0022903
-0.168804 -0.598258 0.0620029 0.000929303
-0.142832 -0.635714 -0.30536 0.00136238
-0.159265 -0.633565 -0.29104 0.00120813
-0.127127 -0.634214 -0.295396 0.00128713
-0.14442 -0.633049 -0.278862 0.000153606
-0.397715 0.111973 -0.0831417 0.000749085
-0.400931 0.119305 -0.0672648 4.80852e-05
-0.38012 0.117801 -0.0749216 0.00282084
-0.383931 0.125222 -0.0585794 8.1965e-05
-0.333888 -0.410832 -0.383355 0.00437758
-0.335116 -0.393475 -0.382333 0.00478919
-0.323369 -0.407565 -0.382548 0.00626647
-0.324051 -0.390588 -0.381519 0.00639595
-0.174601 -0.318075 -0.404535 0.00149566
-0.173129 -0.300906 -0.408121 0.00094567
-0.153331 -0.318376 -0.405104 0.000883001
-0.151039 -0.301683 -0.407465 0.00145682
-0.687458 0.0916893 -0.0165399 0.00295734
-0.680023 0.102684 -0.0154467 0.000827506
-0.684996 0.0997047 -0.00128987 0.000495426
-0.677884 0.110859 -0.000121578 0.00637511
0.353769 -0.23281 0.245698 0.000283826
0.352885 -0.215802 0.245913 0.000499431
0.375607 -0.233748 0.244963 0.000450816
0.375403 -0.216975 0.244875 0.000539269
-0.291169 -0.43612 -0.384021 0.00119905
-0.289905 -0.417853 -0.384275 0.00412066
-0.279762 -0.432271 -0.385536 0.00037599
-0.278902 -0.413483 -0.386218 0.0029663
-0.64796 0.102682 0.0749581 0.00653657
-0.626864 0.111207 0.0716004 0.000690605
-0.637076 0.110663 0.0906439 0.000146624
-0.614143 0.117582 0.0857349 0.00517277
-0.172034 -0.621016 -0.351242 0.00137582
-0.166227 -0.606334 -0.356432 0.00118585
-0.151425 -0.62329 -0.348846 0.00334054
-0.144358 -0.608868 -0.354857 7.55763e-05
0.25534 -0.230909 0.0316883 0.000421074
0.260527 -0.214331 0.0324861 0.000703186
0.26843 -0.228921 0.0432665 0.000981662
0.273649 -0.210978 0.0444151 0.00138028
-0.0942806 0.0939395 -0.1397 0.000331585
-0.102981 0.0977873 -0.122241 0.000569756
-0.0784109 0.0978524 -0.127229 0.0015553
-0.0866789 0.102336 -0.109739 0.00138599
-0.0537619 0.373894 0.244235 0.00117907
-0.0506453 0.395204 0.243747 0.00166705
-0.0346255 0.377958 0.247372 0.00195818
-0.0330815 0.399066 0.246087 0.000673104
-0.266816 -0.0882304 0.245548 0.000134442
-0.268602 -0.0702424 0.245993 0.000578854
-0.244714 -0.0873556 0.247248 0.00183426
-0.246202 -0.0692562 0.246742 0.00132791
0.265802 0.551291 0.246668 0.00125443
0.267176 0.56997 0.245357 5.68293e-05
0.285715 0.552507 0.246448 0.00103353
0.286075 0.571652 0.245328 8.62889e-05
-0.559521 0.102177 -0.113482 0.00232889
-0.566263 0.105836 -0.0927086 0.0009131
-0.54506 0.107406 -0.0983389 0.00239805
-0.550521 0.111665 -0.0788716 0.000941458
-0.605107 -0.130274 -0.329255 0.000759545
-0.61944 -0.128766 -0.310732 0.000374905
-0.585808 -0.128892 -0.313883 0.000466531
-0.601497 -0.1269 -0.296186 0.000577242
0.409268 -0.0230593 0.24592 0.000506181
0.412122 -0.00740181 0.245909 0.000495408
0.430186 -0.0206036 0.246002 0.00058781
0.433143 -0.00478473 0.246462 0.00104823
-0.347826 0.189699 0.246864 0.00144978
-0.342081 0.200909 0.237608 0.00453505
-0.336702 0.191899 0.250744 0.00533043
-0.331406 0.203431 0.242341 0.00307265
-0.683631 0.0411684 -0.317654 0.00086952
-0.679791 0.0535858 -0.31565 0.00470967
-0.685454 0.0457792 -0.303279 0.000953428
-0.68163 0.0581976 -0.301539 0.00287069
-0.534847 -0.12025 -0.19398 0.000775757
-0.555111 -0.116743 -0.183945 0.000815606
-0.518408 -0.121772 -0.182127 0.0020421
-0.538522 -0.117817 -0.172753 3.38937e-05
-0.0126507 -0.453639 -0.137749 0.00460547
0.00698125 -0.446015 -0.141412 1.27663e-06
-0.00204697 -0.446406 -0.124528 0.000556935
0.0175466 -0.439431 -0.128313 0.00338765
0.0668849 0.324103 0.0400458 0.00126208
0.0665371 0.340739 0.042838 0.00140145
0.0858336 0.326701 0.0399784 0.00177931
0.0854348 0.3428 0.0427704 0.00182574
-0.378029 -0.233931 -0.432378 0.0113152
-0.39286 -0.222988 -0.42881 0.00589982
-0.377982 -0.241755 -0.417885 0.00159918
-0.392296 -0.231172 -0.414549 0.00672223
-0.23189 -0.118453 -0.440895 0.000352192
-0.225252 -0.0982699 -0.444019 0.000781103
-0.212198 -0.114069 -0.441455 0.000561784
-0.206953 -0.0951547 -0.444356 0.00098964
0.435793 0.0391873 -0.0239367 0.00445167
0.426608 0.0427292 -0.0102167 0.00334406
0.450459 0.0453834 -0.0161638 0.00030177
0.441197 0.0490572 -0.00233833 0.001521
-0.163334 0.258759 0.245256 0.000157651
-0.157142 0.279115 0.24421 0.00120397
-0.141821 0.265839 0.247059 0.00164523
-0.135302 0.285997 0.246863 0.00144913
0.565622 -0.345711 0.242195 0.00321881
0.560792 -0.332294 0.250193 0.00477927
0.584281 -0.340872 0.239297 0.00611733
0.582809 -0.326061 0.245387 2.69227e-05
-0.685176 -0.0361024 0.192616 0.000674777
-0.688846 -0.0221859 0.197706 0.00434475
-0.678942 -0.0369314 0.206642 0.00555886
-0.682815 -0.0220752 0.21549 0.0016861
0.569502 -0.0903391 -0.00249584 9.61686e-05
0.570268 -0.0747845 -0.00437068 0.000704846
0.585402 -0.0913525 -0.000141347 0.000950972
0.584844 -0.0753004 -0.00227769 0.00166815
0.455542 0.0411961 -0.0140528 0.00418829
0.446279 0.04487 -0.000227373 0.00296906
0.469548 0.0467488 -0.00713722 8.15923e-05
0.459498 0.0504966 0.00586655 0.00151487
-0.198913 -0.368863 -0.396674 0.000417839
-0.197015 -0.355067 -0.39867 0.000848577
-0.180209 -0.370064 -0.395812 0.00105901
-0.178316 -0.356178 -0.39789 0.00142374
-0.684398 0.0489173 -0.0868672 0.000103362
-0.680744 0.0635068 -0.0852288 0.00375677
-0.685943 0.0573622 -0.0702578 0.00144248
-0.682804 0.0720267 -0.068491 0.00169653
0.607563 -0.270547 0.237816 0.00198978
0.607779 -0.252345 0.23957 0.00220603
0.626115 -0.261743 0.236231 0.0205416
0.624775 -0.24385 0.236446 0.0192017
-0.590803 0.0673488 -0.363149 0.000871779
-0.599481 0.0688751 -0.344637 0.000310641
-0.580226 0.0706769 -0.349929 0.00217594
-0.58675 0.0727064 -0.332126 0.00165633
-0.458618 -0.0914742 0.243619 0.00179541
-0.45785 -0.0792565 0.245904 0.000490297
-0.442646 -0.08854 0.245605 0.000190858
-0.440986 -0.0754021 0.246785 0.00137073
-0.05319 -0.58915 -0.124652 0.000241151
-0.0448141 -0.577702 -0.12667 0.00202211
-0.051062 -0.580633 -0.107351 0.00222607
-0.040686 -0.569338 -0.11117 0.000718142
0.0362867 -0.31628 -0.372446 0.00255987
0.0364999 -0.301917 -0.373948 0.00252287
0.0445626 -0.310722 -0.364005 0.00484191
0.0456463 -0.296378 -0.365417 0.00605471
0.160672 -0.408403 0.21859 0.00543105
0.153802 -0.403256 0.230889 0.000442146
0.171968 -0.39969 0.222213 0.00187108
0.164394 -0.396008 0.23558 0.00635804
-0.219843 -0.604444 -0.0598089 0.00163563
-0.237051 -0.604709 -0.0445359 8.11041e-05
-0.203032 -0.60383 -0.0469938 0.00115681
-0.220299 -0.603849 -0.0316515 0.000154814
-0.313801 0.220209 0.120969 0.00166394
-0.300964 0.232169 0.11528 0.000953498
-0.307139 0.226424 0.135918 0.000603051
-0.294317 0.238593 0.129585 0.00211622
-0.330723 -0.442514 -0.207442 0.00121343
-0.329214 -0.423168 -0.211242 0.000296262
-0.330631 -0.442187 -0.190954 0.00112111
-0.329638 -0.423626 -0.193752 0.000127676
0.533916 0.277611 0.178171 0.000219973
0.536383 0.292489 0.175524 0.000679919
0.546106 0.276672 0.18112 0.00114329
0.548301 0.292638 0.178177 0.000816544
-0.388682 -0.0433959 0.247553 0.00213878
-0.38923 -0.0258812 0.248152 0.00273835
-0.370365 -0.0392343 0.246361 0.00094739
-0.372278 -0.0211191 0.246893 0.00147863
-0.122991 0.248397 0.0273432 0.000254689
-0.124095 0.266326 0.0343256 0.00329353
-0.103438 0.253553 0.028472 0.0001779
-0.105317 0.272547 0.0352988 0.00301442
0.103473 -0.0470405 0.246796 0.00138231
0.10409 -0.0300722 0.246198 0.000783775
0.122182 -0.0451042 0.245801 0.000386555
0.122611 -0.0278203 0.245232 0.000182491
0.0567985 -0.25687 -0.266606 0.000677267
0.059245 -0.243154 -0.268746 0.00151759
0.0604246 -0.255 -0.251754 0.0012122
0.0631884 -0.240853 -0.253803 0.00135755
0.0454936 -0.422877 0.186631 0.00348782
0.0338435 -0.421681 0.205641 0.000711105
0.059098 -0.416964 0.196927 0.000147263
0.0474472 -0.416041 0.216445 0.00265717
-0.0381073 0.0983081 -0.113778 0.00123617
-0.0462615 0.104021 -0.0970623 0.00113504
-0.0199841 0.0995033 -0.109578 0.00149213
-0.0296921 0.107018 -0.0918514 5.5538e-05
0.119577 -0.295674 -0.110667 0.000790709
0.120587 -0.281357 -0.111174 0.00095653
0.128843 -0.294071 -0.0944691 0.00164636
0.130671 -0.279836 -0.0951598 0.000986721
-0.170319 0.108282 -0.0866288 0.00179739
-0.183467 0.119121 -0.0676233 2.54719e-05
-0.14897 0.109111 -0.0829842 0.00238113
-0.161942 0.119698 -0.0639319 0.00127222
0.132612 -0.350184 -0.0805854 0.000620324
0.134522 -0.335498 -0.0820006 0.00018503
0.141938 -0.342809 -0.0685333 0.000364363
0.14356 -0.327723 -0.0707001 0.000738781
0.12759 -0.385944 -0.0762744 0.00369819
0.132359 -0.374422 -0.0754023 0.00139384
0.138336 -0.380682 -0.0648249 0.00150861
0.142698 -0.369019 -0.0636227 0.000130764
-0.586632 -0.109517 -0.151196 0.00017118
-0.60368 -0.107649 -0.137146 0.000216608
-0.572127 -0.107338 -0.137123 0.00136026
-0.588453 -0.105427 -0.124007 0.0012276
0.599406 -0.0326442 -0.00110701 0.006167
0.601197 -0.0130364 -0.00402358 0.004376
0.613348 -0.0292832 0.00824635 0.00777465
0.613207 -0.00920427 0.00578823 0.00763446
-0.124369 -0.627979 -0.243572 0.000336551
-0.135731 -0.627364 -0.22854 0.00191184
-0.114746 -0.624748 -0.231238 0.0010736
-0.125319 -0.624413 -0.216422 0.000620112
0.229225 -0.230625 0.0114913 0.00103217
0.233433 -0.21563 0.0116209 0.000330905
0.24223 -0.233955 0.0231929 0.000886273
0.247193 -0.218024 0.0237635 0.000274035
0.391211 -0.330139 0.133978 0.0037698
0.397854 -0.313766 0.131355 0.00146797
0.41254 -0.333115 0.140845 0.00200708
0.421568 -0.316141 0.138318 0.000627984
-0.261248 -0.0779121 0.246586 0.0011724
-0.26266 -0.0597228 0.247064 0.0016501
-0.240055 -0.0777788 0.247479 0.00206462
-0.241167 -0.0590539 0.247226 0.00181185
-0.0128235 -0.433169 0.149316 0.00333963
0.00774638 -0.426708 0.142912 0.00020766
-0.00450276 -0.427937 0.162984 3.57912e-05
0.0166011 -0.421563 0.156516 0.00307894
-0.00490625 0.525401 0.0896794 0.00147623
0.0130947 0.538183 0.0882449 0.00342498
-0.00193182 0.535992 0.104647 0.00425193
0.0174534 0.548734 0.102981 0.00162784
0.240751 0.684714 0.226138 0.00176138
0.250082 0.696935 0.21618 0.00954953
0.258889 0.688748 0.230228 0.00139042
0.26637 0.701346 0.220691 0.007561
0.433031 -0.32664 0.245936 0.000522289
0.431576 -0.308468 0.248737 0.00332274
0.451118 -0.322908 0.247832 0.00241779
0.449622 -0.304104 0.250664 0.00524988
0.418428 -0.322398 0.14305 0.00380038
0.426915 -0.305148 0.141521 0.00267234
0.441376 -0.320933 0.149649 0.00326322
