0.236708 0.728013 -0.141551 0.00187014
0.218313 0.739354 -0.130267 0.000173276
-0.185848 0.751308 -0.273704 0.000871942
-0.166172 0.772569 -0.276919 0.000579651
-0.183728 0.769601 -0.250377 0.00216346
-0.16404 0.790529 -0.25572 0.00264072
-0.152984 0.231747 0.488501 0.00157798
-0.148948 0.24926 0.479121 0.00118875
-0.139594 0.234824 0.497628 0.00167795
-0.13557 0.253286 0.48824 0.00348028
-0.0366941 -0.2892 -0.328427 0.0025022
-0.0450558 -0.284998 -0.315366 0.000921283
-0.0252916 -0.285703 -0.315497 0.00246494
-0.0336321 -0.282159 -0.304434 0.00789342
0.441973 -0.168642 -0.105184 0.00219862
0.450372 -0.148913 -0.106757 0.000298997
0.454889 -0.158195 -0.0859319 0.00189681
0.464166 -0.138267 -0.0879317 0.0031925
-0.331577 0.545286 -0.103329 0.00312706
-0.322457 0.564213 -0.107395 0.00143874
-0.321962 0.55327 -0.0866361 0.000434302
-0.31239 0.573886 -0.0884374 0.00287443
0.441559 0.27895 -0.085908 0.000512634
0.440512 0.300846 -0.0834894 0.0015294
0.458944 0.280656 -0.0832564 0.00107563
0.458742 0.302284 -0.08133 0.0010905
0.331886 -0.208424 -0.244428 0.00356643
0.337936 -0.189671 -0.254483 0.000754917
0.342931 -0.199548 -0.22719 0.000136169
0.349235 -0.180591 -0.237709 0.000995961
0.469657 -0.1274 -0.0996257 0.0023181
0.476969 -0.106131 -0.100796 0.000720995
0.479292 -0.119332 -0.0847217 0.00142933
0.488519 -0.0971157 -0.0868535 0.00171453
0.0126122 -0.10286 0.591587 0.000981079
0.0140264 -0.0811604 0.601014 0.00200564
0.0338148 -0.0972032 0.590873 0.000531088
0.0346897 -0.0758349 0.600662 0.00157514
0.882151 -0.301105 -0.170824 0.0012628
0.882279 -0.28063 -0.169119 0.00175447
0.877481 -0.300522 -0.148722 0.000796575
0.876856 -0.277289 -0.145371 0.00309963
0.531613 -0.442266 -0.377071 0.00161734
0.53373 -0.425319 -0.383754 0.000739349
0.552905 -0.444338 -0.374496 0.00150507
0.55639 -0.428158 -0.380618 2.39537e-05
0.166512 0.307248 0.41128 0.0021362
0.159134 0.322261 0.412834 0.00332222
0.158879 0.300187 0.42488 0.00109797
0.151688 0.315515 0.426502 0.00537708
-0.798744 -0.311291 -0.343435 0.00235864
-0.801068 -0.288153 -0.337448 0.000132074
-0.781097 -0.307754 -0.351653 0.00131566
-0.78503 -0.284835 -0.344944 0.00193529
-0.850537 -0.215201 -0.234737 0.00131567
-0.841704 -0.19543 -0.233928 0.00147391
-0.848978 -0.204892 -0.213075 0.000370992
-0.841332 -0.184959 -0.211806 0.00218994
-0.70119 -0.28717 -0.375625 0.000725895
-0.711729 -0.269833 -0.371336 0.00201456
-0.684229 -0.281563 -0.382425 0.00219457
-0.695138 -0.265107 -0.37836 0.000960996
0.47397 0.327952 -0.351034 0.000722537
0.466825 0.350022 -0.34723 0.000116718
0.493908 0.327454 -0.33641 0.00148307
0.487029 0.349666 -0.331965 0.000309624
0.247452 -0.30734 -0.386967 0.00240471
0.249656 -0.28999 -0.375702 0.0024018
0.264081 -0.303034 -0.386239 0.00160251
0.266837 -0.285971 -0.375814 0.00288363
0.540733 -0.561321 -0.292484 0.00228216
0.555005 -0.547091 -0.304678 0.00163983
0.56234 -0.562907 -0.281033 0.00125335
0.574269 -0.550607 -0.29529 0.00138903
-0.0241509 -0.279757 0.439367 0.00968291
-0.0231839 -0.263119 0.441824 0.00588756
-0.00527239 -0.272739 0.439685 0.00120695
-0.00474743 -0.257181 0.443048 0.00798699
-0.100341 0.573293 -0.390134 0.000517301
-0.101242 0.595463 -0.385995 0.00197324
-0.0787571 0.584537 -0.393986 0.00288738
-0.0803607 0.605599 -0.388992 0.000556497
-0.167876 0.3519 -0.191011 0.00188386
-0.172323 0.363061 -0.173323 0.000196143
-0.15181 0.364672 -0.181907 0.000354375
-0.156519 0.376024 -0.164062 0.00131212
0.709051 0.0928151 -0.238777 0.000423681
0.700326 0.109149 -0.230737 0.00104271
0.715718 0.087322 -0.219162 0.00116756
0.706429 0.103772 -0.209925 0.00246232
0.0855129 0.340925 -0.357757 0.00387044
0.0770468 0.352149 -0.360086 0.00257926
0.101246 0.331429 -0.35224 0.000659089
0.0889379 0.341073 -0.352298 0.00170793
-0.357178 -0.43127 -0.386682 0.00172747
-0.352432 -0.41055 -0.38995 0.001237
-0.334167 -0.432816 -0.387481 0.00112687
-0.330153 -0.410837 -0.390807 0.000654901
-0.735212 -0.0871759 -0.0202027 0.00122401
-0.723902 -0.0665518 -0.0244817 0.000203281
-0.719636 -0.0805049 -0.00256526 0.00101737
-0.708737 -0.0616916 -0.00699738 0.0011187
0.689101 -0.546436 -0.181504 0.00255151
0.70799 -0.539196 -0.187508 0.00112297
0.699879 -0.538893 -0.164186 0.0027127
0.719591 -0.531331 -0.170469 0.00121202
-0.395226 -0.140251 0.291971 0.0027803
-0.406415 -0.117318 0.296385 0.00190142
-0.375795 -0.136118 0.305323 0.000851265
-0.392166 -0.112218 0.306285 0.0016524
0.863436 -0.334975 -0.118367 0.000589897
0.865203 -0.308055 -0.114664 0.00201811
0.850579 -0.327181 -0.0929539 0.000616668
0.853256 -0.2997 -0.0898894 0.00305401
0.17117 -0.158509 0.529846 0.000592975
0.17196 -0.143058 0.54153 0.00238506
0.192112 -0.151427 0.524643 0.00107357
0.192459 -0.134167 0.536212 0.00104805
0.0289264 -0.18767 0.540021 0.0018126
0.023151 -0.171414 0.554369 0.000794246
0.0512554 -0.186129 0.538291 0.00258915
0.0477517 -0.168806 0.554302 0.000846406
0.141917 0.358914 0.310185 0.00194208
0.148364 0.375342 0.299549 0.00138337
0.155282 0.363416 0.315377 0.00227902
0.161187 0.380775 0.304546 0.00315596
-0.343239 -0.113202 0.463707 0.000705706
-0.343341 -0.0880385 0.468367 0.00108
-0.32619 -0.106456 0.471474 0.00348156
-0.327266 -0.0831528 0.477139 0.00181487
-0.51654 -0.500989 -0.355545 0.000386996
-0.510234 -0.485851 -0.365743 0.000982299
-0.496165 -0.506249 -0.355098 1.3543e-05
-0.489801 -0.489833 -0.364821 0.000314943
-0.214392 0.695206 -0.304725 0.000932354
-0.200938 0.713803 -0.304109 0.00170202
-0.218115 0.709862 -0.284252 0.00142134
-0.202127 0.728484 -0.284993 0.00143961
0.314983 0.165686 -0.227069 0.000297376
0.305768 0.183475 -0.223949 0.000511454
0.329454 0.166201 -0.213577 0.000860712
0.320001 0.184611 -0.210498 0.00144523
-0.238626 -0.230019 -0.284431 0.00288998
-0.255092 -0.219749 -0.276395 0.000666146
-0.233499 -0.230972 -0.270436 0.00575697
-0.251534 -0.221917 -0.263106 0.00763078
-0.00839214 0.46402 -0.0758184 0.00154528
-0.0145886 0.470821 -0.0595022 0.000745001
0.00915486 0.471745 -0.0637548 0.00284826
0.00325885 0.47854 -0.0483245 0.00255037
-0.0365273 0.43066 -0.121638 0.00328763
-0.0384497 0.439978 -0.109336 0.00167243
-0.0178848 0.43918 -0.11464 0.00059891
-0.0206317 0.447841 -0.100749 0.000141532
-0.690462 -0.0329017 -0.0178279 0.00045375
-0.681243 -0.0136013 -0.0255226 0.000423223
-0.677761 -0.0288404 -0.00347241 0.00320476
-0.668054 -0.0113222 -0.00997598 0.00345035
0.343123 -0.379931 0.0663742 0.00229785
0.355799 -0.362251 0.0618579 0.000779275
0.346631 -0.372804 0.0863938 0.000578079
0.360444 -0.356089 0.0807064 0.00110798
-0.0953676 0.349187 -0.235761 0.00082854
-0.0959595 0.358225 -0.220343 0.0002699
-0.0770777 0.358992 -0.228351 0.000301979
-0.0798005 0.368669 -0.211842 0.00061212
-0.0463332 -0.536957 -0.349171 0.000510376
-0.0347255 -0.521876 -0.361852 0.00221765
-0.0253452 -0.536619 -0.344936 0.0029189
-0.0126325 -0.522607 -0.357968 0.000527701
0.121142 0.538145 0.231848 0.000294719
0.104619 0.548965 0.228367 0.000498552
0.120563 0.522859 0.251298 0.00255538
0.10657 0.5348 0.24495 0.00251581
0.112953 -0.238058 0.490844 0.00104373
0.111608 -0.224418 0.503825 0.00169216
0.128436 -0.228118 0.492309 0.00137944
0.128007 -0.216229 0.503521 0.000753366
0.583425 -0.437785 0.085591 0.000476286
0.576948 -0.426199 0.10413 0.0015711
0.600279 -0.418133 0.0940053 0.000371618
0.59173 -0.406827 0.113507 0.00169264
-0.448025 -0.243817 0.335508 0.000676775
-0.452506 -0.22011 0.343207 0.000541079
-0.424703 -0.242351 0.348968 0.00200666
-0.429747 -0.219199 0.356518 0.00350991
-0.01433 0.352332 0.314317 0.000328524
-0.0100607 0.365728 0.298457 0.00128709
0.00724476 0.34655 0.31882 0.000526472
0.0130857 0.359643 0.30399 0.00132503
-0.384794 -0.329292 0.308938 0.00150382
-0.394527 -0.313188 0.319218 0.000511509
-0.364492 -0.336897 0.314657 0.000155917
-0.371742 -0.321419 0.326089 0.000688327
-0.444445 -0.157612 0.377498 0.00230216
-0.445124 -0.135085 0.382568 0.00240324
-0.426242 -0.149924 0.391719 0.000354481
-0.426624 -0.127339 0.395739 0.000175168
-0.582574 -0.576352 -0.188784 0.00105891
-0.610204 -0.569901 -0.182275 0.00132032
-0.565509 -0.578993 -0.174798 0.00164272
-0.593029 -0.572244 -0.168092 0.00162289
-0.403701 -0.343564 0.0348374 0.00171863
-0.413036 -0.32374 0.0385355 0.000417866
-0.400482 -0.350091 0.0530117 6.54404e-06
-0.408789 -0.330782 0.0566547 0.00215509
-0.276175 0.455912 -0.0236551 0.00320803
-0.279597 0.472792 -0.015403 0.00136312
-0.255193 0.460818 -0.0225737 0.00408357
-0.259391 0.477 -0.0132882 0.000597709
0.533832 -0.410569 0.147569 0.00268377
0.531348 -0.400157 0.163204 0.00521875
0.550826 -0.393382 0.154543 0.00352287
0.547119 -0.382545 0.171399 0.00679496
-0.695607 -0.00440885 -0.301056 0.000596533
-0.683899 0.0153714 -0.300403 0.00131465
-0.700079 0.0115864 -0.281082 0.00236229
-0.688129 0.0306237 -0.27978 0.0025281
0.270814 -0.299894 -0.183627 0.00321425
0.280389 -0.282858 -0.190545 0.000946872
0.288141 -0.289797 -0.170621 0.00201531
0.297973 -0.272167 -0.179688 0.00410251
0.460627 -0.194375 0.342623 0.0024223
0.456054 -0.171383 0.351098 0.000120758
0.443608 -0.179317 0.360982 0.00175186
0.439136 -0.156713 0.369518 0.000509509
0.450522 -0.183692 0.163971 0.0027903
0.466953 -0.1688 0.162192 0.00149526
0.453044 -0.167576 0.179713 0.00319587
0.470844 -0.15456 0.177164 0.00035871
-0.699404 -0.14555 0.115735 0.000736982
-0.695507 -0.126479 0.106431 0.000166735
-0.688662 -0.148724 0.135123 0.00252604
-0.68537 -0.129563 0.126622 0.0011033
-0.274615 -0.339164 0.299047 0.000909804
-0.270392 -0.324348 0.303782 7.65852e-06
-0.2652 -0.328223 0.307821 0.000121194
-0.262256 -0.314639 0.314808 0.00156245
-0.408988 -0.196888 0.24105 0.0044802
-0.406921 -0.176949 0.252066 0.000934299
-0.388805 -0.189698 0.258781 0.000806097
-0.385822 -0.169352 0.270577 0.00366239
-0.32056 0.0388313 0.428115 0.00738244
-0.328531 0.067564 0.425424 0.00256524
-0.299865 0.0374077 0.439629 0.0120867
-0.308136 0.0670993 0.436385 0.00412655
0.31741 -0.598573 -0.235845 0.000974805
0.342727 -0.595838 -0.246218 0.00158088
0.334978 -0.597745 -0.222931 0.000634168
0.364109 -0.595658 -0.232853 8.09437e-05
0.598291 -0.489864 -0.349899 0.00107101
0.611431 -0.476152 -0.356231 0.000267287
0.619567 -0.486188 -0.345265 0.00421269
0.632231 -0.472608 -0.352009 0.00284855
-0.00833199 0.593606 -0.392966 0.000299544
-0.0124552 0.610454 -0.38899 0.00253681
0.0134245 0.59881 -0.397522 0.00474603
0.00881027 0.616105 -0.394669 0.00289858
0.0490687 -0.287167 0.440316 0.00708556
0.0386165 -0.277038 0.449813 0.000922878
0.0700973 -0.280373 0.439535 0.00232983
0.0589556 -0.270752 0.449643 0.00564906
-0.666229 0.0683015 -0.26056 0.0013549
-0.653174 0.0873414 -0.260986 0.000969062
-0.664881 0.0819813 -0.24087 0.000808186
-0.652535 0.100511 -0.241659 9.98731e-05
0.106583 -0.517849 -0.0597146 0.00345222
0.109215 -0.500559 -0.0630434 0.00383013
0.128436 -0.513205 -0.0560284 0.00315785
0.130312 -0.495486 -0.0587439 0.00402955
0.0383846 0.0915443 0.594929 0.000634966
0.0433768 0.111274 0.586286 8.16804e-06
0.0646929 0.0928298 0.591429 0.00289132
0.0682743 0.113368 0.581804 0.00121604
0.294427 0.524435 -0.0322177 0.00630636
0.284087 0.541403 -0.0242679 0.00466544
0.296478 0.522622 -0.0210889 0.00347922
0.286137 0.539591 -0.0131391 0.00506588
-0.293708 -0.278507 -0.179174 0.00135574
-0.309499 -0.269154 -0.17583 0.00325822
-0.295489 -0.292989 -0.166408 0.00287396
-0.311352 -0.283368 -0.163299 0.00433176
0.0675205 0.159065 0.436166 0.00178231
0.0792074 0.177187 0.427402 0.0010087
0.0933807 0.150029 0.436917 0.00178586
0.103239 0.168649 0.428168 0.000978629
-0.68324 -0.381832 0.0735777 0.000119143
-0.696444 -0.364426 0.0798095 0.00309899
-0.664483 -0.382787 0.0833833 0.0025936
-0.677667 -0.364964 0.0900228 3.52467e-05
-0.36254 -0.239098 -0.370946 0.0028011
-0.358523 -0.216331 -0.362957 0.00382096
-0.347015 -0.226533 -0.365844 0.00167491
-0.344278 -0.204794 -0.356542 0.0037931
0.321739 -0.40654 -0.392333 0.00120087
0.324709 -0.381794 -0.39531 4.38476e-05
0.345446 -0.402524 -0.393358 0.000366244
0.348112 -0.378089 -0.395797 0.000357775
-0.179631 -0.14825 0.424124 0.0038116
-0.185614 -0.127353 0.425752 0.00173452
-0.152245 -0.155661 0.426849 0.00155523
-0.161561 -0.135388 0.427629 0.00287715
0.866557 -0.242778 -0.148939 0.00170455
0.860746 -0.218044 -0.141265 0.00176481
0.855549 -0.238453 -0.125445 0.0029251
0.849407 -0.213113 -0.117647 0.000467314
0.282063 0.691909 -0.186288 0.00220421
0.269612 0.704351 -0.179904 0.00168816
0.283528 0.681694 -0.169024 8.43872e-05
0.271032 0.694197 -0.162583 0.000396555
-0.135503 0.447011 0.210773 0.00142226
-0.154316 0.450137 0.214483 0.00159623
-0.121299 0.434419 0.225328 0.000101485
-0.137193 0.438277 0.227072 0.00200792
0.250932 0.208773 -0.271667 0.00406449
0.233601 0.224446 -0.269953 0.00128508
0.260613 0.20325 -0.25745 0.000593061
0.246426 0.220112 -0.256902 0.000183746
0.138565 0.328024 0.33243 0.00165122
0.145788 0.343701 0.321838 0.00236125
0.156337 0.331305 0.339065 0.00245571
0.161933 0.348308 0.329624 0.00307841
0.715278 -0.4863 -0.0691621 0.000312121
0.736787 -0.47757 -0.0731747 0.00133278
0.722743 -0.469878 -0.0535308 0.000676024
0.743151 -0.460023 -0.0562449 0.000990625
-0.769925 -0.086654 -0.0873954 0.00148226
-0.761413 -0.0655935 -0.0957889 0.00307452
-0.759497 -0.0869062 -0.0661878 6.6256e-05
-0.750312 -0.0658676 -0.073059 0.00118462
-0.27371 -0.210045 0.462583 0.00116154
-0.286308 -0.192393 0.468085 0.001859
-0.249373 -0.209589 0.469846 0.00241404
-0.261089 -0.192327 0.475798 0.00209343
-0.0957175 0.608995 -0.388569 0.0017172
-0.0972805 0.630269 -0.383696 1.15273e-06
-0.0756928 0.617614 -0.390552 0.00317488
-0.0793969 0.638343 -0.384438 9.62353e-05
-0.304991 0.5494 -0.0640159 0.00344022
-0.29646 0.570383 -0.0643974 0.000371721
-0.289329 0.565089 -0.0491264 0.000941769
-0.280857 0.586279 -0.0497516 0.00183255
-0.357489 -0.0757957 -0.356787 0.00147346
-0.354785 -0.0567103 -0.360098 0.000428062
-0.347531 -0.0759597 -0.345423 0.00542691
-0.343795 -0.0567093 -0.348367 0.0026006
-0.0147155 0.871469 -0.165335 0.00168668
0.00926945 0.878203 -0.181593 0.000734874
0.00730065 0.874329 -0.150403 0.00547981
0.0252319 0.881225 -0.165268 0.0084455
-0.291687 -0.120133 0.379469 0.00498029
-0.289985 -0.0966408 0.386137 0.0011852
-0.270486 -0.119234 0.387198 0.00123123
-0.266675 -0.0947696 0.394305 0.00280407
-0.232768 0.151476 0.492057 1.36839e-05
-0.225464 0.17116 0.484511 0.000594088
-0.217438 0.151625 0.504134 0.000757438
-0.208917 0.169942 0.498534 0.000238672
0.450525 -0.0983517 0.36655 0.000677562
0.449509 -0.0801288 0.371278 0.00298146
0.432573 -0.0925542 0.380449 0.00250179
0.429386 -0.0742837 0.386928 0.00101105
0.596926 -0.197818 -0.394554 0.000315991
0.598597 -0.173711 -0.394558 1.60611e-06
0.620451 -0.197091 -0.393656 0.000440057
0.621739 -0.174028 -0.393011 0.000381425
0.375379 0.184585 -0.158053 0.00165174
0.360223 0.206612 -0.157089 0.00192261
0.393687 0.177841 -0.151085 0.00191425
0.386335 0.199811 -0.147007 0.0026771
-0.523066 0.0607058 -0.382418 0.00112149
-0.524449 0.0836937 -0.375975 3.73908e-05
-0.499103 0.0685763 -0.386393 0.000349103
-0.500682 0.0920906 -0.38029 0.00121024
-0.0348426 0.143001 0.577651 0.00198587
-0.0256933 0.157325 0.570724 0.00144911
-0.00865103 0.140277 0.579885 0.000759867
-0.000525963 0.155814 0.571859 0.000735884
0.263119 0.219445 -0.236551 0.00102189
0.249305 0.237481 -0.237505 0.00084736
0.276534 0.218598 -0.223232 0.000875413
0.263838 0.236685 -0.22353 0.00144858
-0.184128 0.473751 0.20113 0.00374649
-0.198655 0.480599 0.204001 0.00592798
-0.178314 0.461976 0.216143 0.00327673
-0.193344 0.469221 0.217843 0.00280274
-0.019266 0.391059 0.274649 0.000837667
-0.0144174 0.402984 0.260968 0.000654286
0.00131052 0.387031 0.277885 2.10446e-05
0.00588024 0.399241 0.263941 0.000124724
-0.490461 -0.157813 -0.3894 0.00137401
-0.490766 -0.138748 -0.389959 0.00110067
-0.465674 -0.155768 -0.387157 7.55737e-05
-0.464314 -0.13636 -0.386912 0.00101007
-0.83822 -0.469238 -0.228391 0.00150013
-0.849803 -0.456372 -0.218125 0.00185397
-0.833977 -0.475178 -0.216727 0.000456641
-0.845992 -0.462563 -0.205247 0.00109311
0.0702761 0.342478 -0.260088 0.000555506
0.0610456 0.350663 -0.247348 0.00172235
0.0837811 0.343618 -0.252836 0.000353717
0.0746258 0.352421 -0.23995 0.00053684
0.555306 0.194558 -0.355432 0.00111457
0.54961 0.216594 -0.349873 0.00147357
0.572651 0.200072 -0.34451 0.000504564
0.567716 0.219987 -0.337068 0.000467519
-0.306334 0.254093 -0.165685 0.000779587
-0.291656 0.270817 -0.164392 0.0023485
-0.30603 0.273993 -0.151068 0.00163098
-0.29308 0.290737 -0.148352 0.00194253
-0.0924585 -0.278822 -0.345112 0.00384827
-0.103679 -0.276577 -0.331695 0.00148085
-0.0788244 -0.281376 -0.331628 0.00108643
-0.0882815 -0.278243 -0.317319 0.000561354
-0.197093 -0.575628 -0.0828954 0.000235103
-0.199121 -0.561277 -0.0720693 0.00168882
-0.179207 -0.573509 -0.0846352 0.00137756
-0.180094 -0.557875 -0.0736875 0.00304957
0.100973 0.386617 0.281442 0.000759029
0.106747 0.399274 0.270787 0.000359508
0.118302 0.387508 0.286636 0.00160436
0.124088 0.401443 0.276222 0.00300769
-0.0947978 -0.547688 -0.338194 0.000661199
-0.0859497 -0.531989 -0.352172 7.46898e-05
-0.0728705 -0.548254 -0.336254 0.00173854
-0.0623676 -0.532255 -0.349534 0.00191217
0.298358 -0.403756 0.215521 0.00187877
0.289451 -0.388694 0.223911 0.00112715
0.295723 -0.40284 0.232153 0.00357296
0.286268 -0.388081 0.242008 0.000257196
-0.475608 -0.224519 0.0823765 0.000426407
-0.48314 -0.21285 0.0879973 0.0003992
-0.470155 -0.226894 0.0958163 0.000308354
-0.476309 -0.216072 0.102999 0.000237079
0.165502 0.359756 0.321247 0.00269878
0.171372 0.377474 0.310153 0.00167838
0.180321 0.360489 0.327304 0.000417724
0.186346 0.377994 0.316064 0.00549052
-0.124318 -0.283413 -0.271441 0.000933784
-0.14454 -0.280631 -0.265037 0.00109655
-0.109248 -0.294213 -0.255124 0.00507661
-0.128811 -0.29115 -0.249262 0.00616974
0.0838105 -0.608222 -0.219337 0.000739205
0.0869657 -0.610226 -0.20954 0.00186105
0.105939 -0.605737 -0.207701 0.00251746
0.0983321 -0.608376 -0.188989 0.000862291
-0.217821 -0.105388 0.541802 0.00157182
-0.219579 -0.0825323 0.545339 0.000513961
-0.19252 -0.105907 0.550885 0.000653986
-0.195125 -0.082228 0.555145 0.000707425
-0.193175 0.597947 0.0919088 0.0041731
-0.182063 0.620589 0.0921496 0.00049952
-0.178622 0.611434 0.109276 0.000215702
-0.166686 0.633572 0.10788 0.00570796
-0.802669 -0.304958 -0.341283 0.00251167
-0.804564 -0.281788 -0.335225 0.000534707
-0.784832 -0.30014 -0.348853 0.000637955
-0.786621 -0.277146 -0.343004 0.00173457
-0.500555 -0.32352 -0.392877 0.000175567
-0.493651 -0.299678 -0.392851 0.000255812
-0.474118 -0.321556 -0.392325 0.000791874
-0.467089 -0.29751 -0.391973 8.94054e-05
0.589786 0.176735 -0.343827 0.000829593
0.580797 0.198572 -0.339912 0.000982297
0.601728 0.177536 -0.331779 0.00088986
0.592396 0.199822 -0.328325 0.000369691
-0.0011928 0.357519 -0.252437 0.0013517
-0.00481256 0.365878 -0.237417 0.00116572
0.0124009 0.36105 -0.245975 0.000966866
0.00698321 0.369837 -0.230038 0.000565806
0.531314 -0.496646 0.0429508 0.00503197
0.530642 -0.483322 0.0613348 0.00338641
0.547824 -0.485865 0.0497057 0.00361588
0.546206 -0.47242 0.0676909 0.00250585
0.0519661 0.413393 0.376148 0.00173863
0.0630689 0.428018 0.359159 0.000707526
0.0710373 0.405224 0.378101 0.000919916
0.0826393 0.419469 0.36098 0.000287089
-0.512399 -0.112385 -0.0267316 0.00477553
-0.530141 -0.0994937 -0.0192031 0.000413088
-0.524967 -0.125747 -0.00982193 0.00139927
-0.542235 -0.111996 -0.00312227 0.00448161
-0.538998 -0.258674 0.262115 0.00271561
-0.544568 -0.236684 0.267652 0.00256067
-0.512879 -0.255376 0.277271 0.00222455
-0.518896 -0.233667 0.284488 0.00125665
-0.532099 0.169397 -0.0684872 0.000536966
-0.53195 0.182291 -0.0714338 0.000489857
-0.517421 0.171093 -0.066949 0.00515279
-0.51628 0.185216 -0.0692089 0.00350295
-0.191844 0.655575 0.0270856 0.00272056
-0.178393 0.679418 0.0220754 0.000321909
-0.174756 0.66804 0.0442973 0.00044832
-0.161015 0.692337 0.038276 0.00479096
-0.492158 0.0496788 -0.388697 0.000714712
-0.497323 0.074483 -0.383169 0.00239574
-0.466425 0.0533526 -0.39078 0.00138025
-0.469066 0.0775791 -0.388095 0.00214126
-0.472588 0.305293 -0.312829 0.00250073
-0.461332 0.327368 -0.310964 0.00387721
-0.475271 0.320422 -0.289084 0.000736541
-0.463892 0.342798 -0.28802 0.00139097
-0.382875 -0.112081 -0.367411 0.00041374
-0.380456 -0.0923053 -0.370393 0.00168113
-0.367821 -0.11392 -0.357117 0.00287406
-0.364415 -0.0941146 -0.360409 0.000301203
-0.287204 0.638647 -0.21943 0.00136391
-0.274912 0.655595 -0.222195 0.00135486
-0.284767 0.650814 -0.200053 0.00257755
-0.27221 0.668504 -0.204285 0.00268528
-0.202029 0.626681 -0.355732 0.0010483
-0.191151 0.645562 -0.354652 0.00175255
-0.187781 0.636636 -0.357343 0.000295261
-0.17998 0.656861 -0.352864 0.000789089
-0.240665 0.385505 -0.10631 0.000429072
-0.244874 0.397103 -0.0916345 0.000884869
-0.224045 0.39948 -0.102426 0.000289496
-0.227889 0.410564 -0.0880995 0.000350965
-0.319718 0.563602 -0.100789 0.00182032
-0.309915 0.583863 -0.103218 0.000638403
-0.306403 0.575262 -0.0830318 0.00125752
-0.29714 0.596604 -0.0838084 0.00462774
0.0616619 0.464324 -0.0746708 0.00153112
0.0546737 0.473988 -0.0585187 0.0024326
0.0842004 0.46966 -0.0649108 0.00175668
0.0752689 0.479489 -0.0491983 0.00292167
-0.263306 0.593269 -0.33221 0.00154881
-0.246602 0.610403 -0.334967 0.000707762
-0.263323 0.611555 -0.318231 6.39396e-05
-0.24816 0.628353 -0.319491 0.00108951
-0.107889 0.226158 0.50923 0.00259241
-0.103326 0.24676 0.499992 0.000394789
-0.0910395 0.230539 0.51777 0.00220179
-0.0864535 0.251343 0.508363 0.00484186
0.577764 -0.500396 0.0077868 0.0017045
0.570594 -0.488312 0.0319063 0.00250434
0.59413 -0.484689 0.0196296 0.000380392
0.587059 -0.473972 0.0417822 0.00214248
-0.59659 -0.0647565 -0.382618 5.31049e-05
-0.597259 -0.0427583 -0.378607 0.000449414
-0.57596 -0.0575919 -0.385271 0.000948348
-0.576458 -0.0357579 -0.381749 0.00156827
-0.427245 0.0236729 -0.159209 0.00324939
-0.426821 0.0469853 -0.156786 0.0033871
-0.441419 0.0322612 -0.141868 0.000748555
-0.438888 0.054382 -0.14022 0.000181298
-0.0203419 0.381367 -0.209271 0.000833949
-0.0229583 0.391452 -0.19386 0.00120396
-0.00385979 0.387136 -0.201822 0.00100892
-0.00681601 0.396725 -0.186536 0.00124514
-0.247639 0.588588 -0.0088467 0.00239649
-0.24187 0.608779 -0.00898618 0.000120409
-0.234792 0.595513 0.00422699 0.00442757
-0.229439 0.615121 0.0064332 0.000513437
0.610772 -0.123975 0.201782 0.000241328
0.600344 -0.109132 0.206379 0.000449217
0.599364 -0.129439 0.216993 0.000886494
0.588197 -0.114874 0.222261 0.00175352
-0.0558981 0.255923 0.393935 0.000385262
-0.044635 0.272117 0.380806 0.0016105
-0.0351505 0.243796 0.399387 0.00129839
-0.0223346 0.260811 0.38619 0.00204888
0.523942 -0.245862 0.270565 0.00256486
0.530102 -0.223183 0.27355 0.001306
0.507809 -0.232188 0.286475 0.000277362
0.512925 -0.209732 0.288807 0.00180646
-0.468523 -0.586863 -0.157759 0.00195222
-0.496738 -0.582817 -0.139982 0.00104522
-0.44952 -0.590545 -0.144408 0.00180346
-0.47455 -0.585039 -0.126044 0.00350645
0.596986 -0.114221 0.217471 0.00216562
0.586082 -0.100533 0.222709 0.00230489
0.584308 -0.12111 0.232919 0.000193157
0.572553 -0.106852 0.238471 0.00141942
-0.423149 -0.168044 0.388687 0.000548308
-0.424813 -0.146747 0.392538 0.000463376
-0.40365 -0.165838 0.400308 0.00246302
-0.405689 -0.145193 0.403846 0.00351948
0.80643 -0.0791826 -0.166914 0.000251043
0.795065 -0.0598638 -0.160871 0.000534107
0.802606 -0.0861574 -0.143108 0.000600842
0.790836 -0.0672668 -0.136976 0.000157248
-0.285716 0.0803593 0.443399 0.00408586
-0.292399 0.109348 0.438322 0.00584831
-0.270871 0.0785147 0.452148 0.0101135
-0.272827 0.104881 0.446745 0.00122679
0.759536 -0.129096 -0.0141562 0.00066443
0.749143 -0.118786 -0.00671686 3.2201e-05
0.753237 -0.13659 0.00157366 0.00130888
0.743509 -0.126484 0.00870947 0.000504307
0.37885 -0.542752 -0.335095 0.000601682
0.393411 -0.527119 -0.345485 0.00236121
0.40638 -0.541714 -0.330262 0.0032647
0.422321 -0.526177 -0.340181 0.00516529
-0.239209 0.653592 -0.0524313 0.000956239
-0.228604 0.674749 -0.0583038 0.00169456
-0.224951 0.65667 -0.0311239 0.000189418
-0.212841 0.678009 -0.037165 0.000558507
-0.229281 -0.501422 -0.0575072 0.00281676
-0.226228 -0.488327 -0.0608008 0.000859133
-0.212448 -0.500893 -0.0614086 0.00110857
-0.208717 -0.487956 -0.0648996 0.00118459
-0.0827431 0.321772 0.348766 0.00184252
-0.0784232 0.33573 0.333085 0.000246148
-0.0614212 0.309184 0.355831 0.000295753
-0.0561786 0.323353 0.340171 0.00238423
-0.357798 -0.186776 -0.185213 0.000935322
-0.369288 -0.172123 -0.181858 1.58649e-06
-0.367812 -0.190539 -0.169616 0.000657218
-0.379235 -0.177137 -0.167242 0.00125678
-0.65407 -0.551609 -0.139439 0.00168173
-0.669841 -0.540873 -0.126062 0.000179398
-0.635654 -0.552499 -0.127997 0.000896192
-0.650311 -0.541135 -0.114218 0.00134425
0.260854 -0.0514444 0.389548 0.00167394
0.263251 -0.0331041 0.395214 0.000371037
0.278716 -0.0453511 0.38465 0.00082944
0.279827 -0.027724 0.392391 0.00346424
0.212067 0.525631 0.0787977 0.0193852
0.20222 0.54119 0.0856343 0.00261006
0.205821 0.522846 0.0960745 0.0183432
0.195822 0.538608 0.102707 0.000111523
0.549872 -0.20842 0.265759 0.00396348
0.547043 -0.185412 0.268211 0.000788152
0.533662 -0.196757 0.279544 0.00119306
0.530335 -0.17447 0.28258 0.00302673
-0.460951 0.169698 -0.0981388 0.00078997
-0.456718 0.189053 -0.0950773 0.00103295
-0.44373 0.180251 -0.100783 0.00308256
-0.437085 0.200357 -0.0989624 0.00260008
0.260874 -0.376753 -0.393884 0.00118563
0.263906 -0.354449 -0.394052 4.50432e-05
0.28443 -0.378003 -0.394762 0.00042202
0.287303 -0.354838 -0.39524 0.000765215
0.638993 -0.475268 -0.352529 0.00041692
0.650627 -0.460932 -0.359824 0.00188774
0.661338 -0.477103 -0.346364 0.000387915
0.671189 -0.460371 -0.354686 0.00130487
0.282963 0.182552 -0.24796 0.0013504
0.27211 0.199819 -0.246221 0.00101634
0.297574 0.182382 -0.23543 0.000672006
0.287684 0.200034 -0.233036 0.00232336
-0.763617 -0.509049 -0.26148 0.00493286
-0.789818 -0.503551 -0.25357 4.61711e-05
-0.749669 -0.523463 -0.249583 0.00107397
-0.779512 -0.518449 -0.238497 0.00536062
-0.645737 -0.557286 -0.161964 0.000748575
-0.665327 -0.549887 -0.149299 0.000671138
-0.629857 -0.560718 -0.147308 0.00179329
-0.648512 -0.551866 -0.134681 0.00181496
0.00590676 0.467492 -0.0625203 0.00143952
1.07461e-05 0.474287 -0.04709 0.00174767
0.0245739 0.47492 -0.051746 0.000127538
0.0184858 0.481692 -0.0367941 0.000573217
0.117619 -0.499919 -0.369098 0.00170147
0.128007 -0.482863 -0.380444 0.0020814
0.14079 -0.496236 -0.369754 0.00247741
0.151333 -0.478802 -0.380337 0.000669485
-0.101956 -0.359119 -0.184705 0.00282432
-0.0956919 -0.346938 -0.201965 0.000224814
-0.0804715 -0.371155 -0.179162 0.00145655
-0.0743978 -0.359707 -0.195499 0.00180536
-0.158467 0.283692 0.451577 0.000535738
-0.153429 0.300676 0.43795 0.00126266
-0.143591 0.284481 0.460451 0.00216178
-0.138679 0.301757 0.446163 0.000315367
0.604312 -0.527383 -0.318784 0.00158684
0.616619 -0.514001 -0.330526 0.000275971
0.626318 -0.526155 -0.312088 0.00273113
0.637957 -0.511809 -0.323539 0.00281485
-0.424921 0.165705 -0.38895 0.00102704
-0.42278 0.187684 -0.384481 0.000880234
-0.402266 0.179672 -0.391287 0.000950982
-0.399901 0.20171 -0.385902 0.0021535
0.276057 0.647708 -0.318932 0.00242554
0.263655 0.666023 -0.316362 0.00216336
0.292306 0.646412 -0.306326 0.000339343
0.27897 0.666053 -0.304377 0.00123735
-0.17107 0.473582 -0.0213431 0.00363725
-0.178209 0.488335 -0.0021896 0.00151932
-0.156316 0.48148 -0.0145721 1.79929e-06
-0.16389 0.495209 0.00402694 0.00605401
0.710511 0.0900792 -0.238994 0.000201381
0.702159 0.106754 -0.23062 0.00128072
0.717071 0.0851283 -0.218856 0.00113439
0.707781 0.101578 -0.209619 0.00242915
-0.300072 0.0771838 -0.294916 0.00209684
-0.294487 0.0921277 -0.294841 0.0025397
-0.303641 0.0829291 -0.276541 0.000581845
-0.297914 0.0982155 -0.276068 0.00115379
-0.458273 0.340214 -0.299257 0.00137344
-0.446298 0.362439 -0.298088 0.00296403
-0.459369 0.357228 -0.277875 0.000822176
-0.448096 0.37863 -0.276064 0.00238838
0.417984 -0.369775 -0.395196 0.000145899
0.423929 -0.348178 -0.39566 0.000279321
0.440407 -0.359171 -0.39343 0.00217343
0.447218 -0.336859 -0.394488 0.0015896
-0.336037 0.497507 -0.0642077 0.0041907
-0.335759 0.515347 -0.0656004 0.00231069
-0.324463 0.502185 -0.0503152 0.00178226
-0.323579 0.51959 -0.050935 0.00412561
0.0286416 0.547668 -0.393476 0.000734557
0.0287112 0.565916 -0.390303 0.0039079
0.0490369 0.554773 -0.397198 0.00292243
0.0497707 0.573698 -0.395005 0.00112153
-0.132826 -0.435008 -0.118653 0.000477851
-0.12207 -0.415404 -0.134203 9.9796e-05
-0.109315 -0.433826 -0.118833 0.00265578
-0.0976157 -0.413273 -0.133722 0.0051205
0.503781 0.402212 -0.225883 0.00205548
0.49359 0.416902 -0.214148 0.00215221
0.503401 0.397052 -0.201234 0.00115218
0.491949 0.411382 -0.188471 0.000895811
0.186709 0.549792 0.152722 0.000707138
0.179668 0.565914 0.156315 0.00224086
0.17936 0.5468 0.17021 0.000630891
0.172145 0.562579 0.173261 0.00403579
0.0425313 0.87387 -0.268296 0.00364704
0.0219063 0.876455 -0.25448 0.00267159
0.0587122 0.872757 -0.256852 0.00202603
0.0372983 0.874955 -0.243618 0.00291643
-0.324484 -0.0726455 0.376295 0.000582658
-0.328981 -0.0526644 0.382725 0.000292154
-0.303061 -0.0715888 0.385065 0.00250489
-0.304139 -0.050829 0.392566 0.00259945
0.254352 -0.454071 -0.0291076 0.000214667
0.25889 -0.434441 -0.0370169 0.0020018
0.269383 -0.448725 -0.0203304 6.39041e-05
0.272514 -0.427374 -0.0281528 0.00401105
-0.323499 0.571326 -0.122959 0.00153567
-0.314284 0.590362 -0.126585 0.00106843
-0.313274 0.579574 -0.104393 0.000579357
-0.302978 0.600298 -0.106922 0.00287095
0.0216892 -0.394396 -0.164976 0.00246371
0.0361779 -0.38406 -0.17319 0.00141602
0.047103 -0.398017 -0.157115 0.0011396
0.0614236 -0.387319 -0.165008 9.16383e-05
0.211886 0.155557 0.480952 0.00605954
0.197504 0.179622 0.478388 0.00519469
0.230278 0.142308 0.48242 0.000826189
0.215734 0.166271 0.481373 0.00129375
-0.235097 0.48616 -0.00217086 0.00136742
-0.240911 0.502623 0.0074154 0.00267518
-0.216568 0.492288 0.00100391 0.00181546
-0.222924 0.508576 0.0140937 0.00772626
0.763157 -0.476282 -0.31554 0.000791093
0.772952 -0.461698 -0.321398 7.44481e-05
0.779866 -0.474578 -0.304557 0.00150688
0.78923 -0.460121 -0.309545 0.00243657
-0.169017 0.366945 0.310932 0.00707487
-0.158839 0.384376 0.303375 0.00229008
-0.159901 0.360326 0.326316 0.00157114
-0.151116 0.377611 0.318524 0.009483
-0.438122 0.0307603 -0.147365 0.00242182
-0.436912 0.0534184 -0.145018 0.00227404
-0.450739 0.0398989 -0.132867 0.000955757
-0.445075 0.0615176 -0.132552 0.000417117
-0.682705 -0.509414 -0.0651457 0.00180836
-0.696796 -0.493966 -0.0513119 0.00157708
-0.662413 -0.508408 -0.0520266 0.000560614
-0.674469 -0.493539 -0.0363658 0.000199345
0.341985 0.127833 -0.383792 0.00343561
0.350638 0.154362 -0.38593 0.00110282
0.366401 0.134889 -0.390889 0.00301861
0.375937 0.162105 -0.392325 0.000411562
-0.610189 0.170058 -0.135198 0.000504216
-0.600792 0.18674 -0.139086 0.00134521
-0.599217 0.174365 -0.119509 0.00191438
-0.590717 0.190139 -0.123449 0.000877357
-0.286491 -0.352625 0.325815 0.00272669
-0.2867 -0.341324 0.336725 0.000724981
-0.274276 -0.343151 0.335688 0.000514875
-0.275923 -0.332377 0.349095 0.00190565
-0.185819 0.519431 0.209207 0.00301036
-0.185985 0.531975 0.204202 0.0071669
-0.179468 0.513919 0.225154 0.00351842
-0.175459 0.528013 0.216437 0.00413343
0.000858912 0.505325 0.291991 0.00077957
0.00960215 0.517534 0.278568 0.00011627
0.0251093 0.504528 0.296042 0.0040029
0.0343635 0.517347 0.280062 0.00253935
-0.338958 0.171683 -0.186757 0.00106651
-0.333299 0.190308 -0.183205 0.000331652
-0.347905 0.188359 -0.168321 0.00184553
-0.342825 0.206559 -0.16452 0.000969888
0.336827 -0.29779 -0.39122 0.00219247
0.340432 -0.280392 -0.384724 0.00141652
0.355921 -0.29125 -0.391173 0.00173223
0.359131 -0.27385 -0.38464 0.00186599
-0.344371 -0.154884 -0.226212 0.000741355
-0.354175 -0.139712 -0.223427 0.000616529
-0.354301 -0.156366 -0.210862 0.000487489
-0.364427 -0.140443 -0.207847 6.35078e-06
-0.298143 0.191133 -0.215723 0.000850066
-0.294244 0.208786 -0.211085 0.00142651
-0.306999 0.208408 -0.197241 0.000420798
-0.303579 0.225958 -0.192092 0.0027009
0.508448 0.385634 -0.268361 0.00349395
0.499543 0.402958 -0.259762 0.00383964
0.513078 0.379939 -0.248267 0.000510422
0.503416 0.396205 -0.238691 0.000448934
-0.773788 -0.464983 -0.076023 0.00441362
-0.793227 -0.441326 -0.0772722 0.00026183
-0.753552 -0.469692 -0.0617518 0.00446445
-0.772222 -0.447457 -0.0599654 0.00128062
-0.00397065 0.814378 -0.047755 0.00118933
0.00797374 0.822501 -0.0639395 0.000710339
0.0176341 0.811334 -0.0427031 0.00156143
0.0289813 0.8195 -0.059826 0.00101223
-0.280532 -0.283302 0.404705 0.00227316
-0.30438 -0.269455 0.409452 0.00498707
-0.256047 -0.289303 0.406154 0.000218565
-0.280953 -0.275102 0.410733 0.00159563
0.128472 -0.440868 -0.0990468 0.000115975
0.135037 -0.419755 -0.114427 0.000512879
0.149354 -0.440543 -0.0918055 0.000784867
0.153095 -0.420319 -0.106731 0.00148123
0.563316 -0.168213 0.25943 0.00112185
0.558341 -0.148027 0.263277 0.000749127
0.546842 -0.16251 0.274291 0.000191458
0.541865 -0.142919 0.278913 0.00139365
-0.65551 -0.373398 -0.377139 0.00173544
-0.650597 -0.34997 -0.382083 0.00106932
-0.630384 -0.370711 -0.380926 0.00202872
-0.625342 -0.346911 -0.385959 7.404e-05
0.120109 0.496333 0.115306 0.00750797
0.126069 0.51318 0.100211 0.00316137
0.1284 0.497014 0.136619 0.00245676
0.134505 0.513547 0.121687 0.00631641
0.171464 0.181457 0.415334 0.000643476
0.171581 0.201943 0.409293 0.00329698
0.191387 0.172471 0.419903 0.00333097
0.188026 0.193886 0.415201 0.00661407
-0.365481 -0.257125 -0.378852 4.16766e-05
-0.361602 -0.234426 -0.371084 0.00161439
-0.350162 -0.244922 -0.372205 0.0009293
-0.346817 -0.222838 -0.363857 0.00225301
-0.0819656 -0.371499 -0.391277 0.000658728
-0.078363 -0.34997 -0.385057 0.00269455
-0.0625262 -0.366953 -0.393346 0.00210216
-0.0586207 -0.345335 -0.387647 0.00118102
0.811888 -0.191996 -0.0519074 0.000772126
0.802243 -0.172365 -0.043078 0.00279632
0.796074 -0.191456 -0.0288528 0.000954671
0.787425 -0.171809 -0.0218992 0.00138372
-0.337282 -0.305481 0.356195 0.000106479
-0.341901 -0.289572 0.371225 0.00255674
-0.317092 -0.301795 0.366855 0.00160839
-0.325153 -0.285652 0.379672 0.000233819
-0.443301 0.223992 -0.0952046 0.0036244
-0.443401 0.243305 -0.0876172 0.00193208
-0.424385 0.230978 -0.0987262 0.000302686
-0.425422 0.250704 -0.0900054 0.000908073
0.84172 -0.147327 -0.219228 0.00249165
0.834522 -0.128488 -0.212119 0.00141123
0.844064 -0.148189 -0.200435 0.000699233
0.836137 -0.12843 -0.194186 0.000749011
0.341356 0.578708 -0.103587 0.00192593
0.32481 0.593647 -0.0958347 0.00127483
0.334675 0.564606 -0.0818617 4.22879e-05
0.318075 0.579608 -0.0744431 0.000563569
0.2177 0.172748 0.465188 0.00368115
0.204455 0.196376 0.461663 0.00361637
0.236269 0.159242 0.465104 0.00327017
0.222081 0.183604 0.462819 0.00322171
0.457574 0.462149 -0.182942 0.00147365
0.441803 0.478769 -0.172937 0.000338929
0.456887 0.454074 -0.156447 0.00182468
0.439709 0.470196 -0.146462 0.000632544
-0.497475 -0.495573 0.0708901 0.00664884
-0.506595 -0.479104 0.0882738 0.00388314
-0.473333 -0.490692 0.079448 0.00306621
-0.483268 -0.477767 0.0969516 0.0027667
0.348056 -0.582081 -0.282076 5.94001e-05
0.361314 -0.573482 -0.297521 0.000420182
0.367071 -0.584509 -0.271978 0.00043673
0.38049 -0.574877 -0.287303 0.00242464
0.420169 -0.120962 -0.170102 4.53567e-05
0.426418 -0.100977 -0.170257 0.000290793
0.428846 -0.115172 -0.153163 0.0038699
0.43505 -0.0955931 -0.153863 0.0037644
-0.197391 0.753416 -0.155115 0.000509281
-0.182183 0.771348 -0.154195 0.000405701
-0.185555 0.764134 -0.135892 0.0015744
-0.170147 0.782005 -0.134708 0.00235824
0.577372 -0.0298585 -0.0337016 0.000466115
0.578768 -0.00705408 -0.0387965 0.0028264
0.59247 -0.0356055 -0.0275364 0.00599678
0.593894 -0.0139387 -0.0338759 0.00263705
-0.267119 0.150519 0.443329 0.00639235
-0.262664 0.173891 0.436359 0.0148332
-0.249567 0.153555 0.450997 0.00518297
-0.24298 0.175844 0.443051 0.00123641
0.13402 0.830058 -0.225919 0.0032061
0.123591 0.834363 -0.214151 0.00564872
0.146702 0.829839 -0.215375 0.00351881
0.136313 0.834041 -0.203338 0.00169316
0.49985 -0.228884 -0.392243 0.00249256
0.503998 -0.206357 -0.394062 0.000299413
0.521468 -0.22382 -0.392489 0.0029702
0.525575 -0.201429 -0.394543 0.00115681
-0.0467415 -0.158854 0.452962 9.39276e-05
-0.0563464 -0.138219 0.455442 8.31329e-05
-0.0264574 -0.157896 0.453532 0.000197433
-0.0343053 -0.135892 0.456582 0.000876955
0.818639 -0.102327 -0.246518 0.00115701
0.813202 -0.0851409 -0.237708 0.000786442
0.82142 -0.101659 -0.225938 0.000754345
0.814871 -0.0843335 -0.217621 0.000698091
-0.671677 -0.102481 0.12802 0.00463814
-0.658114 -0.0914235 0.123312 0.00111653
-0.657604 -0.102051 0.142804 0.0010581
-0.644662 -0.088832 0.137095 0.000382066
0.758266 -0.292749 0.0353768 0.00116447
0.765611 -0.274088 0.032887 0.000365086
0.749737 -0.280533 0.0475977 0.00106995
0.756106 -0.26119 0.0455995 0.000308957
-0.40379 -0.494547 0.0652896 2.46762e-05
-0.415909 -0.489354 0.0825349 0.00157279
-0.386284 -0.489201 0.0736278 0.00469821
-0.398155 -0.483576 0.090844 0.00333988
0.0907855 -0.161116 0.554221 0.00251906
0.0940676 -0.142917 0.566938 0.00565894
0.113322 -0.153496 0.552789 0.0016229
0.117963 -0.134328 0.564526 0.00413056
-0.173926 -0.362218 -0.392903 0.00161352
-0.167747 -0.334575 -0.382437 0.00324844
-0.150038 -0.350814 -0.390411 0.00118608
-0.143325 -0.324171 -0.379657 0.00173625
-0.781927 -0.422295 -0.330942 0.00373606
-0.773355 -0.405448 -0.347027 0.00234118
-0.76491 -0.435617 -0.333787 0.00390519
-0.755355 -0.417831 -0.350828 0.00356663
0.438241 0.317081 -0.0796028 0.000511266
0.437025 0.340305 -0.0772618 8.73829e-05
0.455719 0.322054 -0.0803013 0.0013958
0.454156 0.344994 -0.0785944 0.00196102
-0.405311 -0.414277 0.212378 0.00186741
-0.409515 -0.401315 0.227864 0.00183612
-0.392154 -0.405789 0.225791 0.000628161
-0.395941 -0.393319 0.239657 2.11626e-05
0.648595 -0.16679 0.166704 0.00121457
0.639602 -0.152112 0.171012 0.00327559
0.639034 -0.170888 0.181159 0.000771306
0.631091 -0.155661 0.184832 0.0015725
-0.237964 -0.144374 0.399454 0.00500224
-0.232589 -0.120241 0.406431 0.00104517
-0.215954 -0.137649 0.406804 7.13125e-05
-0.212384 -0.11478 0.412552 0.00365955
-0.300467 0.25448 -0.171765 0.000160606
-0.28395 0.27135 -0.171639 0.00144777
-0.29978 0.274196 -0.1577 0.000645907
-0.285512 0.290961 -0.155956 0.000781015
0.629576 -0.0544797 0.0376764 0.00180759
0.615005 -0.0469129 0.0348452 0.0112221
0.632783 -0.0670318 0.0508246 0.00307698
0.616504 -0.0608941 0.051512 0.00536766
-0.508595 -0.557847 -0.0696486 0.000857315
-0.523501 -0.550521 -0.0507026 0.00226403
-0.490232 -0.552392 -0.05859 0.00356917
-0.504416 -0.545297 -0.0401252 0.000723936
0.0883963 0.354235 0.312101 0.00117652
0.0979175 0.366115 0.301627 0.000415696
0.107352 0.352219 0.319083 0.00393456
0.116062 0.36562 0.309029 0.0042688
-0.433273 -0.0848831 0.397484 0.00143356
-0.432121 -0.0607673 0.399403 0.0023865
-0.415905 -0.0755029 0.412237 0.00106413
-0.414196 -0.0504631 0.413324 0.00112602
0.561321 -0.320472 0.194354 0.00226552
0.573145 -0.298616 0.200847 0.000756969
0.556485 -0.291402 0.213699 0.00353956
0.568041 -0.269558 0.218533 0.00163753
-0.396975 -0.119915 0.426523 0.00418808
-0.394684 -0.0947818 0.429643 0.00160283
-0.379717 -0.112931 0.437457 0.000948055
-0.377251 -0.0872089 0.440561 0.000948455
-0.143764 -0.471865 -0.38254 0.000841067
-0.136276 -0.450237 -0.389046 0.0012952
-0.115149 -0.467414 -0.384038 0.000753245
-0.106602 -0.444893 -0.388682 0.000412761
-0.199052 0.148769 0.516245 0.000458064
-0.189971 0.165921 0.512298 0.000421782
-0.182595 0.152327 0.527661 0.00356453
-0.172925 0.168778 0.524454 0.00344641
-0.196738 -0.303349 -0.211313 0.00265347
-0.189842 -0.292686 -0.229292 0.0015323
-0.182953 -0.319444 -0.204727 2.5588e-06
-0.17593 -0.308674 -0.222239 0.0020179
-0.513544 0.101548 -0.07855 0.000735708
-0.508066 0.117889 -0.0787491 0.000812982
-0.496988 0.109385 -0.0841345 0.00225254
-0.490534 0.127997 -0.0832196 0.00471466
-0.0594612 -0.134542 0.577945 0.00353508
-0.0555641 -0.11512 0.585296 0.00220882
-0.0374122 -0.125405 0.580771 0.000999819
-0.0326986 -0.105292 0.588379 0.000480386
-0.533736 -0.430703 0.137242 0.00455904
-0.538538 -0.413233 0.159366 0.00906316
-0.514317 -0.421893 0.15266 0.00143081
-0.518536 -0.40473 0.17469 0.00579297
-0.568371 0.0918145 -0.356446 0.00240764
-0.556903 0.112886 -0.354303 0.00214978
-0.568193 0.114927 -0.340701 0.00178168
-0.552262 0.135397 -0.341139 0.00227238
0.14672 0.691538 -0.367283 0.00123443
0.139131 0.709019 -0.359862 0.00146411
0.161676 0.692702 -0.36024 0.00108323
0.153712 0.70967 -0.352965 0.00332317
0.439922 -0.221668 0.348512 0.00364841
0.434771 -0.200539 0.358369 0.000954998
0.429801 -0.20375 0.36083 0.00102248
0.424287 -0.183354 0.371298 0.000797491
0.221969 0.260995 -0.240488 0.000312007
0.205117 0.278858 -0.237015 0.000236904
0.237813 0.259444 -0.226599 0.00109921
0.221068 0.277457 -0.224146 0.000925952
0.581541 -0.263159 0.21053 0.00159047
0.591424 -0.241545 0.214341 0.000772639
0.569901 -0.243314 0.227583 0.00236556
0.576146 -0.221585 0.232136 0.000852725
-0.272147 0.659647 -0.15003 0.00134402
-0.259078 0.681312 -0.159383 0.00192362
-0.263336 0.665477 -0.130931 0.00152054
-0.25027 0.687081 -0.139657 0.00191978
-0.269601 -0.277848 0.314112 0.00236034
-0.273787 -0.257333 0.321773 0.000373684
-0.254175 -0.278283 0.327234 0.00166595
-0.258349 -0.257084 0.334884 0.00123236
-0.812953 -0.474215 -0.149737 0.000191115
-0.82533 -0.456068 -0.143968 0.00256956
-0.799157 -0.482438 -0.136576 0.0030798
-0.814798 -0.462775 -0.133555 0.000114523
-0.480008 0.205263 -0.362414 0.00296283
-0.477173 0.226393 -0.356146 0.00359354
-0.45826 0.21435 -0.36377 0.00243769
-0.456525 0.236429 -0.356598 0.00280255
0.0630283 0.207592 0.535476 0.00119237
0.0670392 0.22657 0.519521 0.000863535
0.0854584 0.194352 0.537832 0.00196992
0.0900011 0.214835 0.52234 0.000522319
-0.0392923 0.349899 0.436221 0.000810637
-0.033853 0.364072 0.42281 0.00018876
-0.0201093 0.341872 0.441957 0.00110388
-0.0117965 0.356126 0.428043 0.00266726
-0.227585 0.192141 -0.336312 0.00017998
-0.212275 0.210311 -0.337804 0.000448649
-0.220981 0.198625 -0.315164 0.00294275
-0.207409 0.216795 -0.315174 0.00174631
0.0229733 0.715908 0.075565 0.0021524
0.0292375 0.730981 0.0560241 0.00100884
0.0445955 0.704442 0.0810226 0.000264303
0.0509128 0.718993 0.062184 0.000579884
-0.678589 -0.465954 -0.346857 0.00279843
-0.673762 -0.448996 -0.357694 0.00012158
-0.663465 -0.472085 -0.349589 0.000308532
-0.658826 -0.455581 -0.360156 0.00206795
0.297459 0.663542 -0.168097 0.000823401
0.284203 0.676499 -0.161169 0.00127588
0.298863 0.655046 -0.150931 0.00108304
0.285183 0.667943 -0.143532 0.00155743
-0.307009 -0.322225 -0.128497 0.00180441
-0.324822 -0.311331 -0.123538 0.00285082
-0.310847 -0.334653 -0.114536 0.00175538
-0.328789 -0.323763 -0.109565 0.00309132
-0.333272 -0.491409 -0.370731 0.000609011
-0.323815 -0.47467 -0.376273 0.00206848
-0.309483 -0.489127 -0.371866 0.000968461
-0.300963 -0.471262 -0.377043 0.00281562
0.226022 0.734281 -0.282468 0.0024541
0.220501 0.747223 -0.274021 0.000760613
0.235905 0.737346 -0.264249 0.00117606
0.229143 0.751286 -0.256699 0.00430843
0.313452 -0.222187 -0.356345 0.00238011
0.309517 -0.21349 -0.349585 0.000256641
0.327235 -0.215045 -0.357374 0.00303659
0.323526 -0.204989 -0.349945 0.00159663
-0.357902 -0.391491 0.251863 0.000644688
-0.359043 -0.377253 0.258814 0.0080312
-0.347325 -0.388638 0.265854 0.00385146
-0.348118 -0.374442 0.271118 0.00467003
-0.499729 -0.158848 -0.00814639 0.00245486
-0.516763 -0.14446 -0.000897034 0.000696879
-0.508343 -0.166076 0.00885495 0.00179544
-0.52438 -0.151968 0.0152024 0.00354156
-0.125715 -0.503893 -0.0828631 0.00369014
-0.118834 -0.486456 -0.0902119 0.00232519
-0.098362 -0.502389 -0.082381 0.00140924
-0.0913188 -0.484974 -0.0894773 0.00182167
-0.794466 -0.477267 -0.293985 0.000953954
-0.790709 -0.461179 -0.310692 0.000788621
-0.778899 -0.495649 -0.293879 0.00439938
-0.776734 -0.479654 -0.308266 0.00190437
0.338906 -0.314461 0.342806 0.000831156
0.336679 -0.296742 0.360545 0.00209706
0.356055 -0.301194 0.345069 0.000882093
0.354692 -0.283648 0.362399 0.00253527
0.163908 0.449449 -0.392384 0.00107292
0.164104 0.469715 -0.393969 1.54108e-05
0.183657 0.447421 -0.39421 0.000386817
0.183175 0.467544 -0.394141 3.11807e-05
0.450787 -0.0666606 -0.146886 0.00145639
0.454311 -0.0479364 -0.149207 0.000130305
0.462669 -0.0637492 -0.132075 0.00220969
0.466497 -0.0449245 -0.134876 5.27459e-06
-0.712734 -0.452024 -0.344067 0.00270256
-0.70572 -0.435073 -0.358139 0.00187085
-0.698928 -0.461858 -0.347019 0.000192656
-0.693036 -0.445442 -0.359 0.00299622
0.700167 -0.354034 0.0664805 0.00131357
0.712669 -0.334522 0.0679246 0.000115413
0.693074 -0.333305 0.0845666 0.000953968
0.703845 -0.313279 0.0871465 0.000904703
0.506002 -0.405794 0.166067 0.000770733
0.50217 -0.396784 0.181553 0.00358188
0.522186 -0.388294 0.171894 0.000203297
0.519818 -0.378028 0.187168 0.00310988
-0.77901 -0.499435 -0.142098 0.00223505
-0.797147 -0.480181 -0.137146 8.56779e-05
-0.764379 -0.504432 -0.130743 0.00381813
-0.782902 -0.485047 -0.125912 0.000177551
-0.365031 -0.0521012 -0.228138 0.000600153
-0.36668 -0.0303555 -0.2238 0.00235993
-0.379921 -0.0412395 -0.210373 6.40116e-05
-0.381107 -0.019683 -0.205405 0.00203617
0.598509 -0.0853261 0.0765191 0.00426422
0.588827 -0.082158 0.0819977 0.00382465
0.608722 -0.0854277 0.0902134 0.0057762
0.598806 -0.0822694 0.0987134 0.00129127
0.121862 -0.428512 -0.390687 0.00116435
0.124684 -0.405927 -0.394809 0.000812296
0.146664 -0.426063 -0.390771 0.00134537
0.149319 -0.403646 -0.394656 0.000514974
-0.710995 -0.290556 -0.374847 0.000778881
-0.719599 -0.271348 -0.36982 0.00156421
-0.692536 -0.284025 -0.380878 0.00249927
-0.703075 -0.266688 -0.37659 0.0010956
0.0731991 0.246142 0.391484 0.000572525
0.0839161 0.261528 0.38028 0.000185313
0.0971398 0.238798 0.392691 0.000471485
0.105995 0.253609 0.383517 0.000151408
-0.503565 -0.0854171 -0.0579651 0.0025027
-0.522809 -0.072324 -0.0486112 0.00162962
-0.516398 -0.0943313 -0.0413585 0.000715018
-0.534564 -0.081645 -0.0335851 0.00349039
0.249366 0.686132 -0.316889 0.000566958
0.240313 0.70232 -0.31161 0.00112965
0.263218 0.686139 -0.303674 0.00233316
0.25384 0.701986 -0.298158 0.002897
-0.373282 -0.0535543 -0.221746 0.00192838
-0.375834 -0.0320739 -0.216881 0.000664831
-0.389846 -0.0435687 -0.202982 0.00288212
-0.390782 -0.0220223 -0.198156 0.000727527
-0.5221 -0.0806789 -0.392036 0.00102086
-0.515821 -0.0602424 -0.393503 0.000560253
-0.498772 -0.0684271 -0.391536 0.001471
-0.493243 -0.047891 -0.392914 0.000342523
0.236953 0.226671 -0.360043 0.00133965
0.215772 0.237779 -0.354125 0.00103578
0.251364 0.213609 -0.358257 0.00450704
0.231388 0.225685 -0.352932 0.00240142
-0.667985 -0.472617 -0.346482 0.00209291
-0.663333 -0.456284 -0.357331 0.000521891
-0.651881 -0.478321 -0.348849 2.28618e-06
-0.646943 -0.461845 -0.35954 0.00184923
-0.784554 -0.138907 -0.295108 0.000285958
-0.771569 -0.119208 -0.296029 7.59675e-05
-0.784209 -0.120653 -0.281024 0.0020816
-0.771243 -0.100274 -0.280621 0.00143622
-0.165695 0.463003 -0.0419151 0.00283208
-0.172657 0.478296 -0.0235849 0.00164942
-0.152607 0.473162 -0.0305526 0.000512127
-0.159976 0.486634 -0.0122507 0.0042723
-0.865226 -0.401595 -0.147651 0.000568031
-0.872856 -0.378142 -0.151021 3.77316e-05
-0.856802 -0.40446 -0.133118 5.94923e-07
-0.866398 -0.381585 -0.135867 0.000262062
0.331189 -0.473131 -0.376272 0.00238102
0.337318 -0.45371 -0.384845 0.000262191
0.354846 -0.474035 -0.37552 0.0020528
0.360896 -0.455748 -0.384746 0.0012916
-0.468943 -0.5366 -0.33428 0.000320688
-0.461036 -0.524522 -0.344404 0.00101957
-0.446197 -0.538876 -0.331638 0.00259915
-0.43492 -0.526346 -0.341275 0.00403945
-0.459204 0.208242 -0.0923339 0.00384008
-0.458047 0.227488 -0.0859231 0.00231197
-0.439445 0.212736 -0.09564 0.000337582
-0.439789 0.231711 -0.0872158 0.00299098
0.223566 0.650417 -0.00209118 0.00139645
0.206852 0.660116 0.00719672 0.00115377
0.220402 0.639041 0.0166777 0.00171488
