-0.584627 0.675424 0.143899 0.0159128
0.449265 0.565467 0.368941 0.00420691
0.424962 0.575024 0.376725 0.000187034
0.452102 0.546102 0.383629 0.00314486
0.428339 0.555085 0.391786 0.000678863
-0.427656 -0.796547 0.141658 2.03244e-06
-0.446746 -0.780062 0.155715 0.003545
-0.40079 -0.7986 0.154285 0.00642721
-0.420654 -0.782379 0.167767 0.00322309
-0.0434676 0.657401 0.493795 0.00433443
-0.022921 0.667643 0.471835 0.00260203
-0.0189116 0.656271 0.510756 0.000661966
0.000162672 0.667969 0.487085 0.00314452
-0.485617 0.819497 0.0584289 0.007414
-0.465376 0.829492 0.0454559 0.00354848
-0.467049 0.826894 0.0765074 0.00510627
-0.446609 0.835992 0.062313 0.00853932
-0.150483 -0.74054 0.289284 0.000356849
-0.155787 -0.730612 0.31284 0.00051082
-0.128371 -0.7321 0.302157 0.00293349
-0.133027 -0.722696 0.325226 0.00348569
0.34851 -0.549873 -0.484682 0.00385718
0.355071 -0.525162 -0.495017 0.000654622
0.364771 -0.548037 -0.463583 4.35555e-06
0.371402 -0.524218 -0.472724 0.00464128
-0.783566 -0.179832 -0.132006 0.00149881
-0.791241 -0.157047 -0.123561 0.000538819
-0.783621 -0.176191 -0.106607 0.000250379
-0.791167 -0.154213 -0.0972682 0.000541654
0.730862 -0.292964 -0.325557 0.00737133
0.74454 -0.268464 -0.322819 0.00333463
0.742845 -0.282018 -0.297194 8.26891e-05
0.753058 -0.258911 -0.296146 0.00121271
-0.385662 -0.39139 -0.598443 0.000514522
-0.413667 -0.37868 -0.587008 0.00171507
-0.386239 -0.411057 -0.577814 0.000737144
-0.412583 -0.399076 -0.567356 0.00151835
0.415636 -0.844077 0.0158173 0.00049728
0.405322 -0.838483 0.041754 0.00353047
0.435696 -0.837068 0.028871 0.00238763
0.427739 -0.828816 0.053131 0.00144151
-0.50927 -0.750052 0.115171 0.00109178
-0.517863 -0.728664 0.133463 0.00208325
-0.491917 -0.746174 0.134286 0.00231239
-0.501403 -0.725063 0.154052 0.00238675
-0.488244 0.687961 -0.200764 0.000336415
-0.472035 0.704384 -0.200803 0.000482168
-0.481097 0.711093 -0.184975 0.000449127
-0.470472 0.723965 -0.180474 0.00085187
-0.158723 0.414535 -0.797514 0.00699681
-0.168427 0.434193 -0.782527 0.00505993
-0.138352 0.426843 -0.799907 0.00196028
-0.150588 0.446626 -0.783001 0.00221242
-0.614235 0.301092 0.453702 0.00424677
-0.601755 0.327723 0.450684 0.00218138
-0.589831 0.307765 0.480461 0.000966428
-0.578466 0.335557 0.474914 0.00724759
0.0323154 0.649557 -0.514866 0.00414294
0.0280588 0.657159 -0.491599 0.00534378
0.0527836 0.660115 -0.501321 0.000886211
0.0458393 0.668131 -0.47882 0.000347169
-0.516652 0.708521 -0.149089 0.00122484
-0.503167 0.726126 -0.147473 0.00022048
-0.51757 0.727581 -0.127785 0.00198962
-0.505479 0.744898 -0.125623 0.000221371
0.806286 0.116217 0.191228 2.21086e-05
0.799889 0.134841 0.201779 0.00069018
0.80577 0.120188 0.215015 0.000957172
0.799406 0.139206 0.225425 0.00179704
-0.0392639 -0.240865 -0.8414 0.00536691
-0.0385602 -0.208188 -0.840062 0.00386572
-0.0138612 -0.235046 -0.844469 0.000828691
-0.0129825 -0.206096 -0.842948 0.00256357
0.412574 0.779186 0.184281 0.000198187
0.400263 0.786803 0.18242 0.00544565
0.424129 0.758393 0.203453 0.00553596
0.399953 0.766055 0.209528 0.00049107
-0.736575 -0.297933 0.249978 0.000261309
-0.743394 -0.27973 0.254864 0.000386292
-0.731966 -0.297472 0.271434 0.00473137
-0.739888 -0.279346 0.280015 0.0037986
-0.159108 -0.773881 0.208756 0.00276912
-0.171502 -0.765597 0.230776 0.00288581
-0.136183 -0.765269 0.222491 0.000376448
-0.14518 -0.756285 0.245434 0.000582634
0.270523 0.465126 -0.63713 0.00208143
0.253505 0.487612 -0.634252 0.000586097
0.290948 0.467535 -0.618713 0.000468073
0.274988 0.489967 -0.613948 0.00145396
0.3964 -0.797187 0.153837 0.00494772
0.38731 -0.785386 0.174483 0.00129037
0.413688 -0.783994 0.163485 0.00393417
0.404354 -0.772536 0.183509 0.00749373
-0.735979 -0.299151 0.133474 0.000383177
-0.742481 -0.274575 0.134146 0.00307805
-0.739118 -0.296581 0.160177 0.00163212
-0.745827 -0.270704 0.158822 0.00133342
-0.0196741 -0.605301 0.636654 0.00203009
-0.0376412 -0.599233 0.661463 0.00115274
0.00113503 -0.599431 0.647924 0.00349264
-0.0164274 -0.593386 0.673051 0.00017315
-0.711544 -0.37191 0.0631566 0.00275634
-0.718184 -0.349155 0.0746574 0.000836807
-0.711529 -0.369827 0.0870292 0.00199812
-0.717823 -0.348509 0.0978071 0.000269608
-0.803092 -0.115933 0.453315 0.00233589
-0.818182 -0.09344 0.452956 0.00301001
-0.789315 -0.122373 0.472581 0.00455083
-0.804714 -0.100482 0.473329 0.00123629
0.404976 -0.694182 0.275311 0.001107
0.424998 -0.674909 0.274326 0.00124211
0.400462 -0.670715 0.302679 0.0014595
0.421143 -0.648535 0.301975 0.00273178
0.692519 -0.214059 0.470737 0.000536333
0.714043 -0.192695 0.46582 0.00221013
0.686778 -0.193762 0.494426 0.000820817
0.710147 -0.173406 0.490456 0.00137228
-0.315547 -0.507332 -0.546613 0.00397995
-0.339583 -0.500038 -0.535852 0.000527672
-0.315127 -0.522687 -0.531828 0.00389309
-0.33999 -0.515525 -0.519469 0.000809154
-0.695501 -0.0295439 0.584448 0.000510562
-0.692485 -0.00619643 0.58644 0.000275038
-0.67556 -0.026627 0.591385 0.00114744
-0.671798 -0.00288934 0.593207 0.000787661
0.700704 -0.375478 -0.0285375 0.00609758
0.717263 -0.351652 -0.0294828 0.00086761
0.708912 -0.366062 -0.00234995 0.00178971
0.725938 -0.341902 -0.00387844 0.00549246
-0.765335 -0.225443 0.293383 0.000738316
-0.769893 -0.205838 0.294693 0.00199725
-0.760143 -0.229784 0.321291 0.0025635
-0.766142 -0.208916 0.32492 0.00440379
-0.167188 -0.258319 0.788198 0.00131437
-0.1594 -0.227134 0.790633 0.000810323
-0.14208 -0.247597 0.796804 0.000392438
-0.134795 -0.215212 0.799635 0.00043704
-0.540096 0.384611 -0.452767 0.000627693
-0.520073 0.407202 -0.455145 0.00348413
-0.537757 0.410032 -0.428034 0.000323957
-0.518913 0.433769 -0.430144 0.00371795
0.325665 0.687436 -0.366405 0.00180407
0.305641 0.705559 -0.361597 0.00207039
0.343048 0.684755 -0.351746 0.00182831
0.323886 0.703688 -0.346416 0.00138265
0.481464 0.729759 0.160518 0.00268101
0.456422 0.744731 0.165785 0.00545419
0.48311 0.712383 0.184626 0.00215557
0.459029 0.72532 0.192199 9.30668e-05
-0.480192 0.833814 0.0240769 0.00713854
-0.455571 0.840853 0.0126909 0.00462498
-0.46207 0.84216 0.0401266 0.0063842
-0.436878 0.848762 0.0276377 0.00809609
-0.393833 -0.784033 -0.178602 0.00149562
-0.413894 -0.772401 -0.185331 0.00274727
-0.378517 -0.799731 -0.163402 0.0107381
-0.390184 -0.789419 -0.176271 0.00569599
0.663263 -0.24557 -0.470121 0.0014824
0.673495 -0.218999 -0.479299 0.00265109
0.684305 -0.232998 -0.453732 0.00308962
0.695499 -0.20654 -0.462566 0.00680223
0.544159 0.156451 -0.650723 0.00739975
0.538502 0.183769 -0.644558 0.000377164
0.562634 0.161474 -0.63535 0.0003707
0.557133 0.189578 -0.627901 0.00102403
0.220862 -0.706733 -0.403613 0.00957252
0.239197 -0.6917 -0.420646 0.00160574
0.24692 -0.693938 -0.388827 0.00765539
0.265138 -0.6764 -0.403438 0.0181336
-0.511669 -0.656248 -0.205388 0.00177894
-0.534463 -0.64356 -0.19899 0.000361493
-0.513104 -0.672341 -0.185631 0.00306643
-0.534988 -0.658449 -0.179274 0.00212254
-0.472003 0.0510941 -0.676829 0.00603899
-0.46722 0.0756425 -0.675659 0.00323916
-0.445576 0.0583736 -0.682583 0.00198308
-0.440004 0.0826673 -0.68128 0.00122232
0.0357511 -0.552329 0.789844 0.0031476
0.0275818 -0.533644 0.813897 0.000729205
0.0521582 -0.532605 0.794326 0.00156142
0.0432793 -0.514211 0.818817 4.56905e-05
0.622552 0.00014163 0.611612 0.00116875
0.620303 0.0217967 0.612761 0.000897496
0.64959 0.00604374 0.601816 0.000670469
0.646979 0.0274256 0.603615 7.8738e-05
-0.338406 0.4161 0.619992 0.00108896
-0.32973 0.441234 0.6058 0.000219246
-0.320563 0.421625 0.634793 0.000344141
-0.310947 0.445686 0.622221 0.00142617
0.827744 0.0553239 0.294406 0.00166003
0.824331 0.0764975 0.298994 0.00270883
0.826304 0.0576645 0.317566 0.00217009
0.821994 0.0801175 0.320658 0.00181818
0.132707 0.274547 -0.798573 0.00130014
0.136829 0.301599 -0.795565 0.00263921
0.160155 0.288925 -0.788889 0.00054922
0.164125 0.314829 -0.786477 0.00138628
-0.016604 -0.613107 -0.627759 0.00208655
-0.00521873 -0.599065 -0.653663 0.00178727
0.00218162 -0.618376 -0.614289 0.00220054
0.013934 -0.605331 -0.635024 0.00258359
-0.638342 0.551109 0.149283 0.00168763
-0.630806 0.573078 0.146601 0.000889137
-0.630112 0.562631 0.168723 0.00526518
-0.62245 0.584844 0.165531 0.00205667
-0.842032 0.0139648 0.507034 0.00306888
-0.839352 0.0356004 0.506971 0.0031979
-0.829785 0.0110961 0.524664 0.00625849
-0.827038 0.0326401 0.525933 0.00532667
-0.807667 0.0504751 0.509494 0.00505138
-0.79878 0.071947 0.505952 0.000170878
-0.790307 0.0571986 0.525374 0.00202271
-0.783627 0.0773463 0.522836 0.00428743
-0.37554 -0.448806 -0.547884 0.00239979
-0.39638 -0.43767 -0.544031 0.000979508
-0.374173 -0.476823 -0.526823 0.000827281
-0.394518 -0.465479 -0.523817 0.0042895
-0.703655 0.258032 0.403376 0.00653804
-0.68919 0.27927 0.406331 0.000920172
-0.687385 0.262684 0.425534 0.00045294
-0.673359 0.284328 0.426195 0.00432872
0.160892 -0.555332 0.655769 0.00253776
0.179784 -0.542232 0.654438 3.80141e-05
0.162475 -0.533972 0.675072 0.00281118
0.184408 -0.520105 0.671931 3.28257e-05
-0.851196 -0.0220048 0.308052 0.00836057
-0.847372 0.00430192 0.316221 0.00152769
-0.850111 -0.0170423 0.334442 0.00557673
-0.848892 0.00906515 0.342967 0.00159218
-0.29789 -0.757746 -0.241896 0.000480369
-0.288202 -0.747683 -0.26599 0.00128073
-0.271951 -0.767541 -0.227046 0.00337172
-0.259984 -0.757431 -0.24945 0.00192111
0.576877 -0.366543 -0.438503 0.00319621
0.587771 -0.34871 -0.442053 0.00124114
0.591562 -0.359792 -0.422587 0.00141173
0.603081 -0.340923 -0.426607 0.00333333
-0.655763 0.348667 0.36345 0.00490867
-0.638951 0.370412 0.368994 0.00113988
-0.634875 0.352516 0.386071 0.00168655
-0.618301 0.374119 0.392487 0.00492057
0.742843 -0.252084 0.386049 0.00264972
0.756806 -0.229822 0.383331 0.00371235
0.741365 -0.232057 0.407535 0.00263731
0.758624 -0.209834 0.403645 0.00247323
0.0497088 -0.146301 0.831156 0.000476924
0.0460019 -0.122329 0.832133 0.000886681
0.0754911 -0.140706 0.824873 0.00285618
0.0728617 -0.116182 0.825748 0.00273512
-0.724447 0.322662 0.0770314 0.0027648
-0.715003 0.348222 0.0795258 0.00246708
-0.722133 0.333633 0.105338 0.00101272
-0.714375 0.357712 0.108515 0.000332813
-0.0419624 0.825498 -0.0633146 0.000905985
-0.0609605 0.829084 -0.0467218 0.00347832
-0.0266547 0.834053 -0.0494554 0.0021395
-0.0400698 0.837081 -0.0325895 0.0010492
0.300505 -0.807132 -0.125161 0.00400308
0.318099 -0.791107 -0.150852 0.00179728
0.325264 -0.808897 -0.111306 0.000709735
0.342391 -0.792802 -0.13713 0.00511284
-0.613073 -0.599097 -0.172631 0.00485693
-0.630035 -0.581896 -0.166011 0.00153622
-0.616825 -0.605384 -0.154 0.00010541
-0.632602 -0.587425 -0.147398 0.00590678
-0.12165 -0.487963 0.768288 0.000874714
-0.130819 -0.469367 0.781884 0.00328182
-0.0992649 -0.485657 0.784961 0.00375375
-0.107446 -0.46782 0.79626 0.00280537
-0.312939 0.42737 0.635082 0.000573701
-0.303558 0.451077 0.623218 0.000848125
-0.295103 0.436315 0.649295 0.00249927
-0.28631 0.459355 0.637945 0.00417172
-0.488343 -0.0183957 -0.666112 0.00185844
-0.490671 0.00701887 -0.663297 5.94865e-05
-0.461918 -0.0148202 -0.67256 0.00154842
-0.464001 0.0111792 -0.669703 0.00347346
0.776742 -0.20162 0.158589 0.002896
0.790911 -0.170311 0.156864 0.00496327
0.78022 -0.182761 0.18153 0.000582414
0.793358 -0.152671 0.180828 0.000953949
-0.722749 0.0037421 0.575861 0.00118942
-0.717849 0.025395 0.576231 0.000213779
-0.702853 0.00253775 0.585458 0.00305571
-0.697948 0.0247967 0.58529 0.00114919
0.27421 0.557113 0.549563 0.00259953
0.255673 0.567375 0.555154 0.00104803
0.270549 0.540837 0.5674 0.00138566
0.252359 0.550973 0.573164 6.09168e-05
0.139813 -0.762695 -0.238641 0.00298089
0.152623 -0.751906 -0.256565 0.000700466
0.159525 -0.767673 -0.223618 0.00227152
0.172461 -0.756042 -0.24046 0.0025846
-0.229812 -0.275151 0.7644 0.00142411
-0.221647 -0.24473 0.766952 0.00089479
-0.197099 -0.26529 0.776087 0.000671169
-0.187647 -0.234772 0.778702 0.000257572
0.412476 -0.821155 -0.0903006 0.00466681
0.424826 -0.808033 -0.107405 0.00148873
0.42843 -0.823322 -0.0764131 0.00173637
0.442089 -0.810886 -0.0905605 0.00483334
0.540217 -0.794355 -0.00491628 0.00655908
0.554763 -0.778767 -0.00573082 0.00146945
0.542446 -0.792203 0.0206744 0.0052441
0.557071 -0.776464 0.0198728 0.00280463
0.00413169 -0.209136 0.845921 0.0029442
0.00188015 -0.185035 0.84423 0.0053269
0.0285376 -0.208186 0.844501 0.0044371
0.0234621 -0.185755 0.844006 0.0021641
0.253959 0.769457 0.209187 0.00121023
0.272191 0.774875 0.197418 0.000346803
0.274568 0.766363 0.224191 0.00125225
0.292528 0.772159 0.211556 0.00215913
-0.36937 -0.37103 -0.636494 0.000295437
-0.397064 -0.357001 -0.627018 0.00271275
-0.362601 -0.391044 -0.622774 2.00107e-05
-0.390804 -0.377928 -0.611487 0.00221312
0.106658 0.734947 -0.29973 0.0011406
0.0972153 0.743827 -0.274858 0.00171997
0.127537 0.744831 -0.283909 0.00244757
0.118337 0.753739 -0.259716 0.00213645
-0.315048 -0.797346 0.145319 0.00205514
-0.332466 -0.788511 0.163549 0.000308769
-0.290093 -0.790487 0.154471 0.00108486
-0.305186 -0.78275 0.175275 0.000890111
-0.05074 0.387945 -0.834169 0.00270592
-0.047876 0.417547 -0.832661 0.000275323
-0.0255471 0.394949 -0.837524 0.00314743
-0.0220353 0.424596 -0.837184 0.0047188
0.154113 0.80007 0.127899 0.00161734
0.169708 0.809924 0.111705 0.0018119
0.175773 0.796556 0.14804 0.00228861
0.192447 0.806884 0.13082 0.00579013
-0.229249 -0.378974 -0.761962 0.0010549
-0.246419 -0.363941 -0.759942 0.00318495
-0.229775 -0.397898 -0.747367 0.00077878
-0.247102 -0.383006 -0.74549 0.000455937
0.443531 0.50657 -0.423718 0.00148177
0.417451 0.534487 -0.426598 0.0012408
0.46574 0.503043 -0.406935 0.000384842
0.441959 0.529275 -0.4085 0.00193352
-0.762999 0.224545 0.259534 0.00176376
-0.754022 0.248171 0.261655 0.00171989
-0.758319 0.238652 0.283905 0.00110301
-0.749797 0.26217 0.286244 0.000670014
0.500914 0.359761 -0.518403 0.00155448
0.477522 0.385587 -0.513428 8.84711e-05
0.525534 0.351272 -0.500872 0.000745444
0.504065 0.376929 -0.494503 0.000512368
-0.301235 0.350188 -0.720947 0.00231849
-0.280783 0.371766 -0.723691 8.46995e-05
-0.306021 0.374783 -0.698573 0.00172814
-0.285101 0.396068 -0.7013 0.00351282
0.325408 0.65431 0.399082 0.00139361
0.308695 0.666683 0.39577 0.00302413
0.330727 0.628052 0.41515 0.00141866
0.312139 0.641058 0.413774 0.00543625
-0.421456 0.792966 0.144184 0.00244114
-0.401589 0.804809 0.126255 0.00222365
-0.408167 0.78998 0.161036 0.000784285
-0.387749 0.802084 0.143728 0.00591286
-0.371029 0.483834 0.515465 0.00349709
-0.359369 0.5015 0.514456 0.000612503
-0.354811 0.48747 0.530946 0.00182476
-0.344235 0.505197 0.528778 0.00105309
-0.368606 -0.82347 0.0704033 0.000270447
-0.382346 -0.816623 0.0920376 0.00105304
-0.345614 -0.817312 0.0836532 0.00129475
-0.360411 -0.810244 0.104512 0.000455283
0.835029 0.0334403 0.337949 0.00266287
0.830669 0.0556889 0.341874 0.00120194
0.834273 0.0380941 0.361185 0.00170838
0.829598 0.06077 0.365209 0.00201496
0.0244364 -0.093218 -0.834678 0.0062032
0.0365465 -0.0681614 -0.834527 0.00202335
0.0553093 -0.0844736 -0.829126 0.000375062
0.0667826 -0.0598601 -0.828501 0.0031366
0.465472 0.202965 0.673492 0.00059065
0.463503 0.226529 0.66945 0.0038882
0.481432 0.19033 0.673729 0.00650873
0.47937 0.211815 0.669065 0.00141579
0.31965 0.741423 0.28517 0.000286769
0.289576 0.747691 0.28969 0.00718155
0.327652 0.727729 0.305247 0.00591448
0.298717 0.733895 0.309593 0.00139686
0.756813 -0.24933 0.243289 0.00130063
0.767329 -0.223461 0.245258 0.00189416
0.760197 -0.234388 0.269218 0.000869837
0.769725 -0.20981 0.271518 0.000737652
0.531178 0.657714 0.191314 0.00220458
0.50926 0.671316 0.194694 0.000644412
0.522951 0.643908 0.212744 0.00185723
0.501557 0.658371 0.215765 0.000399401
-0.349824 -0.631335 -0.391354 0.00223584
-0.368462 -0.621091 -0.387487 0.00037821
-0.35001 -0.651767 -0.374287 0.00018446
-0.368307 -0.641478 -0.371532 0.00284855
-0.392038 0.449245 -0.536307 0.000695672
-0.368558 0.467973 -0.539711 8.40246e-05
-0.39129 0.475353 -0.512354 0.00150864
-0.367839 0.494406 -0.515588 0.000835643
-0.594875 0.609434 -0.171595 0.000280437
-0.57803 0.629905 -0.176765 0.00479769
-0.591065 0.62786 -0.152761 0.00271614
-0.576866 0.647986 -0.156972 0.00313725
-0.797079 -0.142178 0.266933 0.0006846
-0.803318 -0.120276 0.275147 0.00130281
-0.792926 -0.14644 0.298946 0.00167332
-0.800095 -0.123317 0.307996 0.00322887
-0.760079 -0.102584 0.513436 0.000164745
-0.773151 -0.0828783 0.51897 0.000799031
-0.744201 -0.0995882 0.529434 0.00182533
-0.75536 -0.0800953 0.536749 0.00241261
-0.623419 -0.382654 -0.370631 0.000183952
-0.645422 -0.368718 -0.363709 0.000846587
-0.629332 -0.395859 -0.346416 0.00275867
-0.649913 -0.38009 -0.339983 0.0036942
-0.663995 0.504265 0.200551 0.00556132
-0.656409 0.524454 0.194906 0.00568062
-0.654714 0.511903 0.218873 0.00525635
-0.645431 0.533683 0.211153 0.00801532
-0.209726 -0.435709 -0.727224 0.00215315
-0.229455 -0.423267 -0.723109 0.000321149
-0.214666 -0.453636 -0.707596 0.000281811
-0.235168 -0.441892 -0.702809 0.00201062
-0.8017 0.135443 0.106105 0.00259648
-0.790653 0.157217 0.107424 4.99198e-05
-0.79652 0.146856 0.130437 0.00183175
-0.786477 0.166907 0.132442 0.00039379
0.536996 0.269066 0.57428 0.00228564
0.515986 0.278214 0.581488 0.000401131
0.53495 0.253405 0.590408 0.00137404
0.51399 0.264954 0.597201 0.000137188
0.30765 -0.00141998 -0.729343 0.00354878
0.315547 0.0232319 -0.729043 0.00100987
0.329982 0.0039851 -0.722573 0.00190413
0.339402 0.0292381 -0.72188 0.000809663
-0.558565 -0.0581013 -0.636795 0.000472444
-0.562657 -0.0342393 -0.635204 0.000499371
-0.534635 -0.0593134 -0.644546 0.00176801
-0.538859 -0.0351161 -0.641955 0.00268211
0.0751457 -0.62991 -0.582944 0.00179387
0.0870313 -0.620287 -0.600333 0.000992642
0.0909873 -0.633918 -0.569504 0.000742377
0.102496 -0.624363 -0.586603 0.00208296
0.257327 -0.648005 0.470937 6.68535e-05
0.25935 -0.636388 0.482813 0.00124992
0.262388 -0.627751 0.495825 0.00553053
0.268747 -0.615258 0.502199 0.00567029
-0.429085 0.690949 -0.251002 0.00308958
-0.411802 0.706372 -0.254322 0.00224662
-0.426803 0.710112 -0.233867 0.00323523
-0.409313 0.724852 -0.236604 0.00324352
-0.415487 0.645281 0.311155 0.00257642
-0.405174 0.667785 0.304589 0.000671632
-0.400806 0.651101 0.327273 0.0016143
-0.391554 0.6729 0.320243 0.00479879
0.617154 -0.360122 -0.403255 0.00239411
0.629394 -0.338762 -0.407264 0.00055649
0.632072 -0.357604 -0.383144 0.0020576
0.644893 -0.335948 -0.387666 0.00454684
-0.574885 0.730437 0.0446837 0.00302142
-0.567115 0.752828 0.0427707 0.00375474
-0.566397 0.736861 0.0711875 0.00111878
-0.559004 0.7598 0.0688698 0.00651866
0.838744 -0.0544439 0.143526 0.00830109
0.843391 -0.0288707 0.144957 0.00351856
0.840935 -0.0430787 0.165884 0.0062938
0.844181 -0.0175461 0.168699 0.000217027
-0.0759842 0.73621 0.289071 0.00376497
-0.0517998 0.743816 0.275587 0.00147013
-0.0489138 0.736003 0.303568 0.00121573
-0.0266445 0.744542 0.290503 0.00452974
-0.358475 -0.118592 -0.715334 0.00150147
-0.365437 -0.0914042 -0.711811 0.000695637
-0.329702 -0.112725 -0.72492 0.00018841
-0.335953 -0.086008 -0.721168 0.00108629
-0.172478 -0.283273 -0.789828 0.00472439
-0.168645 -0.253725 -0.788998 0.00258171
-0.142549 -0.270361 -0.796767 0.000524911
-0.13958 -0.240277 -0.796167 0.00109442
-0.291376 -0.559189 -0.52491 0.000524521
-0.317554 -0.551439 -0.511048 0.00211034
-0.290979 -0.573423 -0.511074 0.000523943
-0.316601 -0.565423 -0.497605 0.00187321
-0.230106 -0.44722 0.706873 0.00451053
-0.237044 -0.415856 0.726213 0.00157425
-0.207294 -0.447812 0.721234 2.65036e-05
-0.212263 -0.416648 0.737236 0.00591192
0.601944 -0.163713 0.615084 0.00251233
0.61739 -0.144349 0.615985 0.00107383
0.620503 -0.146461 0.61357 0.00239199
0.627872 -0.124911 0.619491 0.00809089
0.0398576 -0.641323 0.557366 0.0033295
0.0254631 -0.62676 0.586194 1.03851e-05
0.0636003 -0.634061 0.57212 0.00180978
0.0489642 -0.618851 0.601507 0.00191547
0.156746 -0.819295 0.0816936 0.000141346
0.145052 -0.812557 0.104608 0.00173917
0.178573 -0.809578 0.0976257 0.00353489
0.168283 -0.802922 0.119691 0.00188084
-0.775773 -0.123646 -0.486372 0.00542969
-0.794709 -0.105684 -0.478846 0.00164811
-0.77911 -0.13796 -0.470009 0.0061739
-0.795237 -0.116608 -0.461496 0.00175848
0.380528 -0.255821 0.698101 0.00672717
0.377447 -0.230894 0.714022 0.00704712
0.395434 -0.231227 0.700982 0.00128234
0.390547 -0.207048 0.719578 0.0169113
-0.580915 0.647645 -0.147696 7.73813e-05
-0.567656 0.667499 -0.150927 0.00559712
-0.583025 0.663036 -0.126708 0.00208921
-0.570487 0.682514 -0.128298 0.00283761
0.64421 -0.455778 -0.288345 0.00689808
0.655797 -0.429407 -0.298856 0.00443004
0.658585 -0.448554 -0.265184 0.00234642
0.670352 -0.423617 -0.274225 0.00472991
-0.460595 0.429229 0.485713 0.000489451
-0.444492 0.452035 0.479424 0.000250884
-0.438024 0.443441 0.500445 0.00318967
-0.421373 0.466157 0.495196 0.00366096
0.839859 0.0106416 -0.312856 0.00628424
0.837276 0.0380988 -0.3037 0.00109885
0.840018 0.0215502 -0.278565 0.00224377
0.83633 0.0511295 -0.274343 0.00486356
-0.241695 -0.216672 0.762985 0.00434123
-0.231333 -0.185675 0.76238 7.88961e-05
-0.215865 -0.214 0.769904 0.00159016
-0.205578 -0.184395 0.769849 0.00213142
-0.739136 -0.293256 0.202401 0.000461791
-0.746298 -0.270661 0.199925 0.000908098
-0.735343 -0.29774 0.222432 0.00148055
-0.741821 -0.277127 0.221586 0.00278379
-0.0871186 -0.68118 -0.442737 0.000340329
-0.0701587 -0.674573 -0.459339 0.000588525
-0.0576106 -0.68739 -0.424611 0.00100657
-0.0393227 -0.682377 -0.437946 0.000931267
-0.274613 0.145723 0.74789 0.00198846
-0.269664 0.170315 0.747254 0.000371555
-0.249751 0.146159 0.755239 1.9245e-05
-0.244703 0.170498 0.754152 0.00283605
-0.736943 0.166904 0.468814 0.00215013
-0.726297 0.189194 0.459069 0.00105388
-0.722136 0.17191 0.485278 0.00169686
-0.711378 0.194478 0.47461 0.00235543
-0.295103 -0.073644 0.742523 0.00428523
-0.292762 -0.0493951 0.743008 0.00390231
-0.266554 -0.0644226 0.752048 0.00299759
-0.265048 -0.0388753 0.752228 0.00262827
0.0635738 -0.828794 -0.0767949 0.00698458
0.0808927 -0.816836 -0.0878997 0.000224024
0.0838452 -0.828128 -0.0587412 8.2185e-05
0.101442 -0.816461 -0.0696925 0.0070715
-0.36823 -0.667246 0.341866 0.000554222
-0.375456 -0.650196 0.354676 0.00227782
-0.35172 -0.66375 0.357218 0.00213305
-0.359477 -0.646138 0.369341 0.000823629
0.273585 0.220244 -0.746613 0.000429139
0.277597 0.253392 -0.743271 0.00126227
0.295234 0.224175 -0.737794 8.56722e-05
0.300004 0.255509 -0.73535 0.000666284
0.578981 -0.392347 0.404168 0.00051436
0.595224 -0.377678 0.403787 0.000175323
0.579687 -0.376041 0.420898 0.000138173
0.595561 -0.361306 0.420206 0.000397138
0.446146 -0.445567 0.490976 0.0036397
0.455324 -0.424398 0.494872 0.00103433
0.438124 -0.419936 0.52024 0.00110536
0.44903 -0.399196 0.52368 0.00258581
-0.541994 0.691533 -0.141322 0.000887514
-0.529732 0.710449 -0.140382 0.00241304
-0.543765 0.71098 -0.11956 0.00119936
-0.531437 0.730089 -0.118115 0.00188144
0.639768 0.26577 0.478291 0.00429816
0.613122 0.277639 0.487133 0.000871273
0.639496 0.244711 0.494849 0.00154178
0.612567 0.257108 0.503447 0.00188325
-0.225865 0.707285 0.365342 0.00356651
-0.211835 0.715665 0.354288 0.000316284
-0.209682 0.705101 0.381408 0.000125722
-0.195366 0.711574 0.371023 0.0024678
0.142383 -0.0189579 -0.792372 0.00363931
0.15412 0.0115862 -0.790851 0.000870715
0.169273 -0.00575888 -0.78545 0.000508817
0.180238 0.0227081 -0.783969 0.00201921
0.205859 0.694301 0.423638 0.00510308
0.221393 0.705446 0.399676 0.00696626
0.232888 0.678138 0.434001 0.00629869
0.248106 0.689697 0.410069 0.0040392
-0.598629 0.209775 0.567047 0.000542097
-0.588874 0.240957 0.545668 0.00051187
-0.578793 0.221984 0.584962 0.00539928
-0.567676 0.253533 0.562869 0.00443872
-0.207229 -0.456171 0.726981 0.00807952
-0.212227 -0.425156 0.742658 0.00210996
-0.184832 -0.454244 0.740655 0.00193244
-0.189618 -0.42409 0.754696 0.00460746
0.0292976 -0.4393 -0.832289 0.00669997
0.0379368 -0.414617 -0.83374 0.00226225
0.0583531 -0.435895 -0.825363 0.00280375
0.0686121 -0.410555 -0.827087 0.00246899
-0.145574 -0.542229 -0.686441 0.00123657
-0.166231 -0.533216 -0.681966 0.00290138
-0.140476 -0.560007 -0.669701 0.0035805
-0.162203 -0.551264 -0.664552 0.00094235
0.0790978 0.784309 0.17014 0.00126562
0.0968104 0.794446 0.150081 0.00104633
0.0984835 0.778448 0.191694 0.000948655
0.114718 0.788774 0.173375 0.00406032
0.835408 -0.0499538 0.474609 0.00358257
0.842239 -0.0241841 0.475663 0.000770374
0.834965 -0.0406648 0.503952 0.0018453
0.836185 -0.0148977 0.505037 0.00819853
-0.259444 0.181466 0.75169 0.000125669
-0.256049 0.206581 0.750702 0.00200892
-0.231349 0.177875 0.761531 0.00070749
-0.227938 0.202543 0.760731 0.00267193
0.427989 -0.524318 -0.423513 0.000327345
0.444591 -0.502834 -0.429042 4.68584e-05
0.443522 -0.522836 -0.405013 0.00289524
0.460496 -0.502334 -0.409686 0.00223363
-0.48014 0.0330535 0.668871 0.00150874
-0.475387 0.0568717 0.671512 0.00227951
-0.448123 0.0386896 0.678794 0.000648196
-0.443333 0.0625048 0.681018 0.000279087
0.61949 -0.0840318 0.609043 0.0046608
0.615694 -0.0593264 0.617387 0.00177792
0.641241 -0.0705719 0.605523 0.000186361
0.636909 -0.0461845 0.612853 0.00511547
0.423784 -0.84636 0.0147073 0.00123941
0.417051 -0.840865 0.0375273 0.00424746
0.448379 -0.837099 0.0286609 0.00243418
0.442724 -0.828754 0.0515254 0.00207243
0.496225 -0.661177 0.219122 7.98985e-05
0.514655 -0.644391 0.214995 0.00135356
0.496724 -0.638508 0.240733 0.000242736
0.515145 -0.621666 0.236361 0.00185544
0.389878 0.185836 -0.698493 0.00302511
0.397401 0.207828 -0.699579 0.00067358
0.407725 0.193777 -0.690002 0.00459076
0.414609 0.215448 -0.691746 0.000505807
-0.416401 0.102297 -0.698555 0.00649531
-0.412103 0.128494 -0.695829 0.00241469
-0.387402 0.10998 -0.707094 0.00412657
-0.383812 0.137089 -0.70362 0.000399624
-0.673819 0.461249 0.0759143 0.000610832
-0.663964 0.482451 0.074135 0.00225094
-0.672976 0.469598 0.0954837 0.00158107
-0.663936 0.489477 0.0941317 0.00023067
0.556548 0.349508 -0.467201 0.00180626
0.542291 0.372452 -0.458111 0.00203959
0.577395 0.34985 -0.446398 0.00158309
0.566001 0.371973 -0.436001 0.00139225
0.54225 -0.0921555 0.639855 0.00343391
0.541308 -0.0645055 0.64379 9.45079e-05
0.56522 -0.078224 0.630831 0.00367016
0.564619 -0.0518347 0.635331 0.000319885
0.690515 0.415282 -0.062975 0.00141508
0.685419 0.434765 -0.0527184 0.000774752
0.688627 0.416192 -0.0335435 0.00285452
0.683686 0.436676 -0.0236645 0.000162142
-0.124262 -0.61803 0.615321 0.00224598
-0.139183 -0.603006 0.640841 0.00383427
-0.101827 -0.611029 0.630523 0.0011323
-0.117411 -0.597035 0.655623 0.00298441
0.550753 0.667474 -0.158162 1.22648e-06
0.536973 0.689307 -0.150674 0.000327613
0.57026 0.669016 -0.138163 0.000607586
0.556601 0.690794 -0.130054 0.000613593
0.194658 -0.607146 -0.576853 0.00130898
0.20323 -0.590701 -0.588839 0.00368302
0.208861 -0.609675 -0.562232 0.00252944
0.216334 -0.590506 -0.573448 0.00225159
-0.0362183 0.682762 0.429835 0.00346628
-0.0171727 0.692536 0.41337 0.000209709
-0.00871821 0.68192 0.445623 0.00138029
0.00986184 0.691847 0.427724 0.00426783
0.748565 -0.263448 0.216579 0.0013649
0.760336 -0.237773 0.21789 0.000468042
0.752147 -0.250344 0.247188 0.00269577
0.762398 -0.225041 0.248957 0.00214859
-0.451621 -0.656052 0.264268 0.00256492
-0.456766 -0.635494 0.281529 0.00149831
-0.436869 -0.653675 0.285017 0.000475265
-0.439423 -0.633782 0.304651 0.000849639
0.156833 -0.580034 0.635769 0.00216753
0.162514 -0.56847 0.644957 0.000260045
0.15393 -0.558584 0.660429 0.00198889
0.172822 -0.545484 0.659098 0.000586322
-0.532421 -0.21475 -0.637601 0.00484332
-0.54226 -0.195372 -0.63709 0.000959878
-0.514881 -0.226903 -0.640403 0.00334998
-0.525407 -0.208286 -0.639277 0.00197047
0.322506 -0.842694 0.016273 0.00162715
0.310637 -0.840116 0.0387361 0.00397916
0.342275 -0.837871 0.0280122 0.00194451
0.33147 -0.834591 0.0510551 0.00321224
-0.687677 0.42653 -0.133321 5.34874e-05
-0.678853 0.449471 -0.133412 0.00011178
-0.686114 0.433282 -0.109709 0.000895447
-0.677334 0.455744 -0.108922 0.000706985
0.0394239 -0.152497 0.834762 0.000777241
0.0359165 -0.128768 0.835543 0.00129929
0.0658821 -0.148495 0.828798 0.00309257
0.0622664 -0.124457 0.829808 0.00274577
0.198833 -0.327497 -0.772553 0.00201183
0.206227 -0.302597 -0.770238 0.00153617
0.223313 -0.316604 -0.764888 0.000438629
0.230387 -0.290583 -0.7635 0.000788474
0.152561 -0.16248 -0.789928 0.00228899
0.150988 -0.133848 -0.790156 0.0026371
0.177361 -0.171219 -0.785773 0.00267833
0.175197 -0.142139 -0.785522 0.0016719
-0.202791 0.697529 0.394982 0.00210497
-0.189545 0.704264 0.384205 0.000341267
-0.183284 0.695037 0.407837 0.000153035
-0.168901 0.701255 0.397275 0.00219369
0.579801 0.704763 -0.0834513 0.00154734
0.566716 0.72764 -0.0732149 0.00508891
0.592487 0.705206 -0.0585019 0.0104624
0.579488 0.727984 -0.0471201 0.00644575
-0.498563 0.351418 -0.523022 0.00195296
-0.480651 0.369737 -0.523253 0.00158385
-0.497935 0.375938 -0.502941 0.00024825
-0.478421 0.395402 -0.503695 0.000655486
-0.276338 0.594963 0.49784 0.00418028
-0.26654 0.618546 0.489558 0.00100553
-0.259261 0.605465 0.511508 8.57439e-05
-0.247822 0.628779 0.503388 0.00208065
0.32257 -0.480351 0.577274 0.00220113
0.333406 -0.463636 0.579036 0.000176619
0.315269 -0.459728 0.600743 0.000371147
0.328221 -0.442157 0.599864 0.00354624
0.60788 -0.532699 -0.239101 0.00190244
0.621808 -0.507285 -0.246255 0.000597553
0.624425 -0.524062 -0.217781 0.00584065
0.63786 -0.501069 -0.22279 0.0084679
-0.179443 -0.747104 -0.279421 0.00296935
-0.159804 -0.738626 -0.298902 0.00200053
-0.156928 -0.745748 -0.26787 0.00241842
-0.136346 -0.737095 -0.28755 0.00348084
0.38576 0.186271 0.701334 0.00184022
0.383649 0.212108 0.702469 0.00153306
0.408767 0.193908 0.697822 0.00308635
0.405638 0.220528 0.698098 0.00222835
0.183215 -0.571565 -0.623064 0.00084037
0.19615 -0.553543 -0.628177 0.000856009
0.202313 -0.572023 -0.600121 0.00111563
0.21386 -0.553275 -0.605185 0.00234816
0.101093 -0.169765 0.811549 0.000456302
0.101908 -0.14307 0.811684 3.94446e-05
0.126118 -0.160672 0.804306 0.00170404
0.128654 -0.132358 0.804049 0.00236957
0.540783 -0.438469 -0.40628 0.00528049
0.551384 -0.416945 -0.410401 0.00135398
0.558123 -0.431585 -0.386652 1.48915e-05
0.567039 -0.409464 -0.391119 0.00505911
0.428535 0.571145 -0.375735 0.000560744
0.410425 0.591605 -0.374638 0.000163127
0.448377 0.568987 -0.357638 0.000799485
0.4297 0.589542 -0.356133 0.000583485
0.4169 0.655337 -0.306891 0.00158358
0.402669 0.675224 -0.299433 0.00054401
0.4354 0.654125 -0.288336 0.000852851
0.420236 0.673967 -0.281423 0.000437066
-0.679178 -0.431853 -0.239462 0.00609384
-0.694734 -0.406631 -0.23413 0.000559905
-0.682235 -0.439322 -0.212926 0.000573563
-0.697111 -0.412879 -0.207753 0.00388955
-0.729096 -0.312556 -0.3212 0.00202844
-0.740519 -0.290962 -0.312806 0.000935144
-0.731192 -0.318232 -0.299457 0.00195539
-0.74087 -0.293396 -0.291491 0.00213194
0.0244707 0.589139 -0.697064 0.00442915
-0.00238862 0.59946 -0.679674 0.00786422
0.0527989 0.588253 -0.676088 0.00388454
0.0232585 0.601404 -0.662219 0.0034506
-0.841568 -0.0446812 -0.147786 0.00745685
-0.841266 -0.0131606 -0.15206 0.00407129
-0.840457 -0.0381523 -0.123873 0.0040892
-0.839131 -0.00564483 -0.128169 0.00874705
-0.822359 -0.0784591 0.0116069 0.00156711
-0.828811 -0.0572254 0.0231627 1.49867e-05
-0.822918 -0.0774765 0.0404647 0.00173863
-0.827987 -0.0557215 0.0492719 0.00129117
-0.00225705 0.626901 0.581104 0.00167405
0.0117248 0.637123 0.559757 0.000259185
0.0208609 0.622103 0.59968 0.000470211
0.0370823 0.6339 0.573074 0.00199945
0.74641 0.267371 0.0998894 0.00197748
0.739579 0.292563 0.11024 0.000628936
0.744347 0.276878 0.12762 0.000513402
0.737247 0.300617 0.138974 0.00132462
0.430233 0.189595 0.685564 0.000706047
0.42762 0.216158 0.68512 0.0020529
0.4477 0.189164 0.681287 0.00152956
0.445891 0.213665 0.680206 0.000125493
-0.157058 -0.294 -0.793267 0.00243499
-0.15249 -0.264097 -0.79311 0.00065824
-0.126257 -0.282257 -0.799662 0.00258452
-0.122367 -0.253345 -0.798843 0.00473696
0.490674 -0.190529 -0.655137 0.00756219
0.496835 -0.163368 -0.658451 0.00226887
0.521153 -0.181112 -0.643359 0.00768849
0.527442 -0.1547 -0.647235 0.00182337
0.562165 0.562699 -0.248822 0.00156083
0.548731 0.583872 -0.241928 0.00107117
0.580104 0.570113 -0.226301 7.57351e-05
0.56492 0.592113 -0.22307 0.00214494
0.117515 0.112904 0.80144 0.00404158
0.115401 0.143973 0.80432 0.00210556
0.148687 0.11973 0.792039 0.00170043
0.14424 0.14901 0.796727 0.00109155
-0.793613 0.0400026 0.534564 0.0047381
-0.787311 0.0599395 0.533086 0.00228292
-0.775576 0.0426389 0.549284 0.00478763
-0.769936 0.063131 0.548779 0.00315451
0.123562 -0.199767 0.80157 0.00176372
0.12522 -0.170659 0.80202 0.00075136
0.148925 -0.189765 0.79615 0.00222479
0.15084 -0.160488 0.796408 0.00314955
0.259924 0.394617 -0.713395 0.0048785
0.245619 0.419972 -0.711984 0.000687369
0.280033 0.397068 -0.694759 0.00261249
0.268341 0.422169 -0.691478 0.00323435
-0.640065 0.508854 -0.227783 0.000182877
-0.622361 0.531351 -0.232415 0.00562469
-0.639788 0.528377 -0.203642 0.00264199
-0.621512 0.550806 -0.208852 0.00276216
-0.148641 0.625902 0.573245 0.00541058
-0.128303 0.635373 0.559663 0.00140976
-0.117998 0.629268 0.584258 0.00166241
-0.0982968 0.638462 0.570029 0.0051748
0.82012 0.0752789 -0.0321615 0.00165993
0.814767 0.102608 -0.0305893 0.00309025
0.820525 0.0846243 -0.0029124 0.00205392
0.813903 0.112617 -0.00213882 0.00585435
0.709566 0.0426088 -0.591047 0.0106726
0.7055 0.0704187 -0.586807 0.00526105
0.727236 0.0435556 -0.574183 0.00122339
0.722318 0.0714269 -0.571298 0.00322662
-0.416846 0.0886685 0.693334 0.00177578
-0.411773 0.120975 0.695507 0.00199655
-0.388872 0.102228 0.701358 0.000707717
-0.385008 0.132365 0.703362 0.000214111
-0.500126 0.396283 -0.484902 0.00284449
-0.480356 0.417021 -0.486688 0.00443458
-0.494843 0.419995 -0.462015 0.000269576
-0.475372 0.44266 -0.464262 0.00341075
-0.152967 -0.833534 -0.0460198 0.000428968
-0.125407 -0.829012 -0.0692562 0.00449689
-0.133175 -0.83496 -0.0323906 0.00310172
-0.112165 -0.831022 -0.0479083 0.00124395
-0.15732 0.677015 0.44866 0.00211839
-0.141174 0.684441 0.436271 0.000398748
-0.131913 0.677415 0.459272 0.00204263
-0.115329 0.685364 0.446786 0.00501192
-0.519564 -0.312606 -0.541345 0.00165759
-0.541551 -0.302226 -0.535961 0.00193609
-0.521773 -0.332745 -0.51975 0.00122252
-0.543795 -0.322149 -0.514098 0.00211115
-0.124949 -0.569221 0.681607 0.000350764
-0.13723 -0.552001 0.702597 0.00891589
-0.100579 -0.567182 0.699149 0.00546964
-0.112079 -0.551537 0.718222 0.00314928
-0.59699 0.660121 0.0019781 0.00142138
-0.588502 0.681261 0.00120236 0.00180528
-0.595048 0.66625 0.0267103 0.00104786
-0.587602 0.686939 0.0256391 0.000619109
-0.494827 0.525203 -0.351794 0.00263447
-0.473092 0.550482 -0.352158 0.000377832
-0.49514 0.550693 -0.330272 0.000161897
-0.473588 0.573115 -0.331114 0.000826939
-0.570383 -0.0261626 0.634776 0.00185798
-0.56452 0.0011178 0.635502 0.000443548
-0.546382 -0.0277181 0.640259 0.00158261
-0.538049 -0.00129181 0.641603 0.00329942
-0.183836 0.506299 -0.688701 0.00141365
-0.163082 0.520953 -0.692481 7.50915e-05
-0.185028 0.526002 -0.66803 0.00154312
-0.165532 0.540832 -0.669265 0.000438266
-0.258536 -0.479476 -0.636373 0.00115374
-0.278561 -0.468986 -0.631688 0.00164584
-0.255237 -0.4985 -0.6196 0.00175917
-0.275688 -0.488577 -0.614741 0.00151324
-0.47302 -0.173454 0.669739 0.000221506
-0.468421 -0.146819 0.672572 0.000784138
-0.447916 -0.165327 0.67832 0.00116501
-0.443359 -0.139613 0.681456 0.0001389
-0.6759 -0.445188 -0.151635 0.00439894
-0.690444 -0.419365 -0.14759 2.52399e-05
-0.676008 -0.453414 -0.122244 0.00136315
-0.689731 -0.427696 -0.117977 0.00228135
0.523049 -0.621532 -0.236884 0.00293212
0.53714 -0.592548 -0.244403 0.00132413
0.541248 -0.618344 -0.211593 0.00300433
0.556421 -0.588799 -0.218399 0.00737099
0.671561 0.333472 -0.370616 0.000423443
0.657393 0.355032 -0.365799 0.00106386
0.688023 0.334199 -0.352892 0.000733694
0.673602 0.356726 -0.347967 0.0011049
-0.284128 0.656466 -0.440755 0.00286472
-0.303638 0.665597 -0.412952 0.00334959
-0.273319 0.675116 -0.420274 0.00443254
-0.294059 0.684505 -0.391057 0.00390459
-0.781499 0.189452 0.374219 0.00299953
-0.771238 0.21568 0.371482 0.00276985
-0.772841 0.200338 0.399042 0.00120541
-0.762518 0.226484 0.395035 0.00441629
-0.240029 0.657225 0.483795 0.00269252
-0.228405 0.671746 0.470887 0.000892426
-0.221065 0.655686 0.498904 0.000421724
-0.207331 0.668027 0.485919 0.00278265
-0.247888 0.593308 0.535676 0.000280994
-0.232857 0.615489 0.527666 0.000214423
-0.231151 0.600677 0.551739 0.00414543
-0.214979 0.621071 0.544015 0.00212434
0.230375 0.707598 -0.371977 0.000905993
0.211192 0.71549 -0.354524 0.000236709
0.252013 0.715761 -0.359789 0.00236916
0.234231 0.723125 -0.339488 0.00200304
-0.0984719 0.517195 -0.755879 0.00279404
-0.0981419 0.533453 -0.747947 0.00182325
-0.0993974 0.534138 -0.737241 0.00323771
-0.0885623 0.551122 -0.736907 0.000120258
0.021095 -0.0949721 -0.837842 0.00443872
0.0330941 -0.069581 -0.837449 0.000525273
0.0511107 -0.0848453 -0.832317 0.0011079
0.0622603 -0.0602049 -0.831588 0.00440615
-0.355518 0.367737 -0.65322 5.39589e-05
-0.337373 0.385196 -0.65376 3.11268e-05
-0.353194 0.391693 -0.635055 0.00205468
-0.336584 0.4088 -0.633616 0.00151041
0.738715 -0.164939 0.477399 0.00269598
0.761335 -0.142926 0.475447 0.00191992
0.734602 -0.142693 0.496923 0.00125003
0.755788 -0.119641 0.497739 0.0018574
-0.00218094 -0.033698 -0.84438 0.00507884
0.00614779 -0.0032075 -0.845768 0.00236715
0.0276993 -0.0317813 -0.841574 0.00140369
0.0370149 -0.00199606 -0.841884 0.00501634
-0.765885 0.224477 0.0324481 0.000907675
-0.757937 0.247779 0.0336525 0.0017975
-0.760753 0.233515 0.0525322 0.000662194
-0.752215 0.257469 0.0542347 8.88046e-05
0.247434 -0.410813 -0.720062 0.00111051
0.253178 -0.386157 -0.726823 0.00590448
0.268414 -0.407209 -0.704468 0.00213855
0.273826 -0.382878 -0.710909 0.0050658
0.18146 -0.6896 0.439507 0.0063729
0.167887 -0.673748 0.469521 0.00227534
0.202434 -0.677687 0.455498 0.000949478
0.187973 -0.662685 0.484363 0.00276339
0.00473871 -0.382618 0.845238 0.00336477
0.00843349 -0.359666 0.845693 0.00162231
0.0362552 -0.3716 0.842842 0.00564002
0.0392426 -0.349089 0.843716 0.007523
-0.488881 -0.0501279 0.665069 0.00107593
-0.481158 -0.0254307 0.667398 0.000496654
-0.463031 -0.0495082 0.671849 0.00181517
-0.456786 -0.026469 0.674178 0.00186842
-0.65044 -0.434024 0.289459 0.00142284
-0.668711 -0.41004 0.288842 0.00507571
-0.627041 -0.438553 0.309558 0.000711826
-0.645298 -0.416412 0.312033 0.00152676
-0.073586 0.788955 0.151787 0.00347462
-0.0470344 0.796439 0.132518 0.00336167
-0.0454145 0.790057 0.167324 0.0030998
-0.0198226 0.79833 0.146877 0.00353058
0.338336 0.662521 -0.378668 0.00181371
0.31826 0.680489 -0.372635 0.00288618
0.355846 0.657964 -0.366921 0.00251012
0.337717 0.67748 -0.359362 0.0010524
-0.728015 0.179449 -0.470736 0.00104772
-0.705935 0.197803 -0.475747 0.00178865
-0.724069 0.198368 -0.45167 0.00131573
-0.703902 0.216964 -0.456195 0.000389249
0.649201 -0.513215 -0.182994 0.00506439
0.662463 -0.494014 -0.184345 0.000472406
0.652618 -0.510267 -0.158178 0.00292434
0.666006 -0.491895 -0.158981 0.00302679
-0.583733 0.564855 -0.225678 0.0012239
-0.559338 0.584582 -0.231001 0.000846134
-0.580006 0.588032 -0.205968 0.00137698
-0.556115 0.607998 -0.211823 0.000260667
-0.745405 -0.264321 0.360038 0.0038237
-0.755286 -0.240094 0.369874 0.00342161
-0.731204 -0.268817 0.384846 0.00489673
-0.741602 -0.243537 0.394882 0.00209755
-0.302098 0.633278 -0.444855 0.0022203
-0.317991 0.643159 -0.419562 0.00249687
-0.293802 0.651674 -0.424025 0.00397525
-0.310056 0.661599 -0.397883 0.00395382
0.731723 0.201013 -0.442949 0.000405114
0.714709 0.226526 -0.440088 0.00284928
0.749161 0.194613 -0.423314 0.00536818
0.733309 0.221146 -0.418515 0.00197351
0.812629 0.0809276 -0.166887 0.00664161
0.811099 0.115297 -0.171987 0.00419055
0.811849 0.090166 -0.138876 0.0040747
0.810381 0.122483 -0.141644 0.00608335
0.0921725 0.650409 -0.523729 0.000183114
0.0811373 0.659902 -0.502447 0.00108885
0.11266 0.655887 -0.510422 0.000184061
0.100219 0.665771 -0.490202 0.00220321
-0.672468 0.436681 -0.262135 0.00294692
-0.655693 0.462925 -0.270239 0.00720081
-0.673724 0.456187 -0.239375 0.00250705
-0.656076 0.480791 -0.24589 0.00367843
0.471867 -0.620986 -0.288073 0.0026217
0.483588 -0.595544 -0.296288 0.000556357
0.492841 -0.616318 -0.266168 0.000610672
0.502842 -0.590035 -0.274094 0.00543486
-0.569332 0.23242 -0.572084 0.00147301
-0.545682 0.249355 -0.573812 0.00435163
-0.566911 0.253579 -0.555274 0.0003618
-0.54316 0.271307 -0.557686 0.00244292
-0.731398 0.018155 -0.577155 0.00548515
-0.738024 0.03891 -0.57064 0.00176424
-0.710016 0.0324411 -0.580413 0.000898431
-0.717874 0.0535792 -0.568545 0.00738476
0.718724 0.351959 0.111938 0.00234202
0.710125 0.37352 0.123439 0.0020051
0.71591 0.354048 0.136425 0.000458686
0.706293 0.375004 0.149035 0.00104548
-0.758688 0.228016 0.137694 0.00455343
-0.754903 0.246095 0.142379 0.00163763
-0.757448 0.237921 0.163547 0.00217805
-0.752476 0.256938 0.167286 3.49931e-05
0.464376 -0.833197 -0.0684106 0.00810431
0.481188 -0.822017 -0.0796747 0.00375151
0.478517 -0.830815 -0.054709 0.000989036
0.497161 -0.820089 -0.0628326 0.00213519
-0.798069 -0.133798 0.0181549 0.00138173
-0.805761 -0.114661 0.0293458 0.0010229
-0.800157 -0.130722 0.0456828 0.000529373
-0.807904 -0.111294 0.0567413 0.000222262
0.593191 0.062309 0.625149 0.00100138
0.593755 0.0847636 0.624259 0.000371509
0.617633 0.0633245 0.61653 0.00166989
0.617905 0.0849817 0.615634 0.000930261
0.526048 -0.224656 0.627119 0.000830669
0.516617 -0.204926 0.648047 0.00392294
0.537409 -0.209305 0.632479 0.00162173
0.531531 -0.189921 0.650859 0.00302188
0.391816 -0.659536 -0.319139 0.00340276
0.409459 -0.630613 -0.33235 0.00228731
0.416813 -0.65324 -0.300374 0.00343936
0.434556 -0.62543 -0.312727 0.00211901
-0.153259 -0.373954 0.790388 0.00161048
-0.150459 -0.346016 0.794896 0.00160144
-0.124708 -0.366604 0.801691 0.00124144
-0.120496 -0.33924 0.805692 0.000993733
0.0938024 0.735769 -0.297419 0.00119707
0.0843922 0.744928 -0.272006 0.0017086
0.113617 0.747205 -0.280811 0.00356042
0.104201 0.755976 -0.256677 0.0031415
0.52176 -0.781017 0.06454 0.00523458
0.539708 -0.765147 0.0636191 0.00456647
0.522884 -0.771472 0.0871924 0.00298161
0.541437 -0.754706 0.0863755 0.00354194
0.733366 -0.301593 0.147967 0.00195263
0.746055 -0.278407 0.146511 0.00162761
0.736871 -0.28734 0.17696 0.00376447
0.749217 -0.26318 0.176886 0.00085124
-0.319383 -0.601114 0.454375 0.000873635
-0.340562 -0.579575 0.459861 0.00208489
-0.29369 -0.603042 0.47278 0.00396951
-0.313473 -0.582527 0.480008 0.000217552
0.16713 0.603636 0.607333 0.000985713
0.154867 0.610008 0.60566 0.00338189
0.176312 0.590649 0.618752 0.00538363
0.160074 0.595712 0.621924 0.000761286
-0.167414 -0.64667 0.558053 0.00856955
-0.182635 -0.631453 0.573088 0.0062283
-0.142184 -0.639437 0.567126 0.00505037
-0.160905 -0.625257 0.586109 0.00142392
-0.00392206 -0.786271 -0.174812 0.00223398
0.0130197 -0.775492 -0.194469 0.000822565
0.0168325 -0.791598 -0.158229 0.00129432
0.0332945 -0.781049 -0.1772 0.00179172
-0.483726 0.519289 -0.371138 0.00128918
-0.461578 0.544059 -0.371678 0.000535471
-0.48341 0.545792 -0.34993 0.00158518
-0.461918 0.568078 -0.350463 0.00235201
0.385361 0.260486 0.703648 0.000178546
0.382115 0.286666 0.700459 0.00395874
0.405348 0.265835 0.699325 0.003271
0.402624 0.290966 0.694941 0.00701222
0.22746 -0.601857 0.541663 0.00312142
0.211276 -0.593197 0.567292 0.00266858
0.23391 -0.580267 0.562669 0.00026481
0.21908 -0.571551 0.587407 0.000952281
-0.393419 -0.226226 0.700576 0.000184067
-0.389526 -0.20243 0.702943 0.0010063
-0.372528 -0.223352 0.706008 0.00219488
-0.368244 -0.200172 0.708176 0.00169893
0.594224 -0.566981 0.217438 0.001303
0.605338 -0.550556 0.21415 0.0036616
0.592587 -0.555116 0.237938 0.00534268
0.606533 -0.538346 0.231963 0.000263572
0.0443851 -0.695112 0.404249 0.00105624
0.0332728 -0.685448 0.432735 7.74415e-05
0.0695125 -0.686233 0.419433 0.0039349
0.0587216 -0.675944 0.448674 0.00311378
0.277765 0.66517 0.428653 0.00277015
0.279967 0.679048 0.411747 0.00324688
0.295582 0.644117 0.441385 0.00271193
0.286432 0.657498 0.43249 1.87666e-05
-0.401433 -0.807539 0.12578 0.00460445
-0.419697 -0.792423 0.14068 0.0041997
-0.374662 -0.804436 0.136698 0.00560079
-0.394846 -0.790548 0.150497 0.00244652
-0.74772 -0.0959268 -0.531323 0.000816696
-0.759517 -0.0773548 -0.533515 0.00346211
-0.739321 -0.118776 -0.524407 0.00353386
-0.755792 -0.102124 -0.522697 0.00244063
-0.737793 0.166923 -0.470423 0.000719
-0.716161 0.18533 -0.475378 0.000278988
-0.733559 0.187332 -0.452271 0.00186174
-0.713556 0.205841 -0.456752 0.000137156
-0.342774 0.840779 0.0125589 0.00474092
-0.317219 0.844797 -0.000778665 0.00519019
-0.332013 0.842146 0.0317943 0.0033983
-0.308403 0.845904 0.016473 0.00144377
0.28185 -0.593233 0.503578 0.00131469
0.298694 -0.578976 0.500948 0.00129034
0.281484 -0.571232 0.526738 0.00177267
0.296972 -0.555177 0.524834 0.000345357
-0.594124 0.177214 -0.59681 0.00475883
-0.578446 0.195602 -0.596195 0.00354903
-0.593365 0.205215 -0.577096 0.00041283
-0.573393 0.222974 -0.578152 0.00107843
0.320096 0.0782475 -0.723589 0.00448223
0.322135 0.102345 -0.72512 0.00232377
0.345123 0.0803005 -0.714253 0.00427437
0.347114 0.104902 -0.715293 0.0025923
-0.347199 0.419915 -0.605609 0.00211438
-0.330938 0.436763 -0.604456 0.0024412
-0.354999 0.440182 -0.584006 0.00161732
-0.335939 0.457814 -0.58551 0.00166158
-0.795109 0.156006 0.393163 0.00378068
-0.784501 0.180779 0.390026 0.00271026
-0.783074 0.166667 0.415055 0.00365782
-0.771476 0.191106 0.409632 0.0024078
-0.575245 0.00794793 -0.635449 0.00422141
-0.576029 0.0296971 -0.630248 0.000357421
-0.548644 0.00733607 -0.643605 0.00235033
-0.547636 0.0304961 -0.641068 0.000379951
-0.497348 0.410632 -0.471892 0.00201284
-0.477778 0.43278 -0.474174 0.0048187
-0.495378 0.433562 -0.448189 0.00042884
-0.475274 0.456048 -0.450659 0.00323055
0.824903 -0.0721039 -0.32138 0.00167506
0.833175 -0.0482456 -0.319201 0.000887219
0.827764 -0.0638927 -0.291027 0.00141713
0.836998 -0.0403979 -0.289918 0.00165896
0.224209 -0.0643383 -0.763257 0.00164279
0.232478 -0.0363491 -0.761382 0.000443956
0.249654 -0.0501623 -0.754502 0.000741954
0.258424 -0.0221442 -0.752873 0.000866342
0.559381 0.404869 0.416078 0.00227681
0.536428 0.41485 0.42515 2.46321e-05
0.557657 0.387087 0.434311 0.00154034
0.534943 0.396974 0.442811 0.000956115
-0.580239 0.500434 -0.294533 0.000679867
-0.562245 0.519146 -0.294 0.000573532
-0.582057 0.522988 -0.270195 0.00065963
-0.56387 0.540948 -0.270459 0.000638892
0.628855 0.0108846 0.609659 0.000743018
0.626587 0.0324351 0.610695 0.000584648
0.655294 0.0166771 0.600344 1.06075e-05
0.653242 0.0377592 0.602171 0.000964757
0.780675 -0.178162 -0.257754 0.0017982
0.787792 -0.156127 -0.258338 0.00301125
0.79001 -0.168474 -0.232743 0.00346662
0.797561 -0.147372 -0.232517 0.00298896
-0.739306 0.287206 0.151778 0.00153811
-0.731848 0.309129 0.154891 0.000680528
-0.739268 0.295099 0.180333 0.00124336
-0.730395 0.318051 0.181734 0.00114638
0.248066 0.189399 0.753259 0.00246989
0.233862 0.216622 0.761334 4.50662e-06
0.269683 0.191749 0.744434 0.00299887
0.254482 0.218163 0.753157 0.000275664
-0.249642 -0.314954 0.749157 0.00573866
-0.249072 -0.285564 0.758702 0.00297347
-0.224165 -0.312538 0.763605 0.00133362
-0.219779 -0.283068 0.768342 0.00152681
-0.468246 -0.359964 0.54757 0.00034811
-0.492665 -0.333472 0.549935 0.000179901
-0.446955 -0.361731 0.563616 0.00235804
-0.472799 -0.334084 0.564593 0.00283339
0.668791 0.441639 0.259889 0.00350353
0.650814 0.455775 0.274877 0.00293277
0.662481 0.428502 0.285362 2.41099e-05
0.643167 0.441347 0.297873 0.00346415
-0.432432 -0.849046 -0.0280242 0.00849995
-0.457662 -0.8475 -0.0102177 0.000702723
-0.418188 -0.850279 -0.0120305 0.00394578
-0.435578 -0.848558 0.0120813 0.00235594
-0.231972 0.457302 -0.686939 9.91208e-05
-0.20695 0.472113 -0.697704 0.000220072
-0.228896 0.476292 -0.67028 0.000529481
-0.203991 0.490423 -0.679974 0.00115358
0.758401 -0.249684 0.0166033 0.00291106
0.767079 -0.226142 0.0176748 0.00261692
0.761618 -0.236531 0.0447541 0.00122255
0.770233 -0.212962 0.0449878 0.00086118
