0.150746 0.71816 0.151432 0.000608916
0.158347 0.713286 0.169779 0.000568727
0.161739 0.715464 0.163159 0.000183266
0.279415 -0.131255 0.101109 0.00396479
0.287317 -0.114271 0.0997732 0.000974302
0.284019 -0.125397 0.119296 0.000960645
0.290366 -0.108887 0.11828 0.00140514
-0.10131 0.593299 -0.21774 0.00179152
-0.114663 0.599504 -0.199134 0.00106005
-0.0939472 0.607383 -0.203986 0.00133035
-0.10608 0.613043 -0.186311 0.000104674
0.182321 0.725596 0.0615787 0.00193183
0.197406 0.726557 0.0602171 0.00101788
0.191808 0.727627 0.0760723 0.00143528
0.209634 0.729421 0.0707908 0.00230799
0.14905 0.595357 -0.264554 0.00186812
0.13904 0.605475 -0.256821 0.00276508
0.167105 0.600216 -0.258723 0.00138453
0.157948 0.610729 -0.250365 0.000566516
0.0881121 -0.576415 -0.214019 0.000905549
0.089815 -0.557992 -0.215785 0.000842801
0.0930663 -0.570704 -0.199659 0.00021602
0.0952908 -0.55321 -0.200923 0.00142507
0.467467 0.214225 -0.110307 7.87169e-05
0.471565 0.231588 -0.109648 0.00192747
0.47493 0.21871 -0.0871102 0.00213012
0.479226 0.236807 -0.0872224 0.000522444
-0.0930967 -0.0837801 0.00109278 0.003125
-0.108838 -0.0754595 0.00982584 0.00288075
-0.0845652 -0.088957 0.0182936 0.000473276
-0.101112 -0.0785071 0.0242766 0.000888661
0.230254 -0.532868 -0.0247501 6.1373e-05
0.236376 -0.515974 -0.0253635 0.00120256
0.234889 -0.530259 -0.00740605 0.00183379
0.24073 -0.513613 -0.00787262 0.00259327
-0.408446 -0.413868 0.0656778 3.2788e-06
-0.405722 -0.399935 0.0624468 0.000638353
-0.398614 -0.4105 0.0776578 0.0009957
-0.395453 -0.396247 0.0752007 0.00176099
-0.10922 -0.0873602 0.0923136 0.00351245
-0.126146 -0.0767979 0.102791 0.00270611
-0.0985355 -0.0931552 0.111452 0.00215758
-0.114898 -0.0824489 0.121369 0.00120448
-0.327438 0.349754 0.103997 0.00379882
-0.321037 0.367676 0.105061 0.000545777
-0.323359 0.349717 0.123576 0.00201901
-0.319142 0.367576 0.122986 0.000846625
0.260785 -0.437775 -0.0222743 0.00165777
0.266334 -0.418444 -0.0248867 8.77296e-05
0.271089 -0.434745 -0.00215596 0.00423999
0.277172 -0.415169 -0.00480269 0.00162776
-0.421503 0.47003 -0.173926 0.000385968
-0.412515 0.490477 -0.174779 0.00130405
-0.419639 0.488467 -0.169546 0.000181393
-0.410744 0.508627 -0.170491 0.00227509
-0.0182645 0.707419 0.0161663 0.00312036
-0.00339978 0.712789 0.016608 0.00200683
-0.00208527 0.71527 0.0331749 0.00065366
0.0138242 0.71971 0.032745 0.000497311
0.0667707 -0.317773 -0.154567 0.0013004
0.0629891 -0.306796 -0.147736 0.000156158
0.0773623 -0.317569 -0.140774 0.00278574
0.0737811 -0.306183 -0.133848 0.000671449
0.154498 0.725082 0.104629 0.000385406
0.152549 0.722888 0.114741 0.00160281
0.166733 0.725308 0.120159 0.00234323
0.167998 0.72362 0.127479 0.00163858
0.151079 0.293166 0.491182 0.00303357
0.158246 0.306714 0.47237 0.00727379
0.165012 0.269187 0.495357 0.000531268
0.170844 0.283328 0.47739 0.00142223
0.347475 0.247164 -0.28037 0.00141825
0.350905 0.264796 -0.280927 0.000351408
0.360682 0.250727 -0.268959 0.00163372
0.363389 0.269324 -0.27049 0.000354066
0.494384 0.178413 0.0714469 0.00107208
0.497602 0.19439 0.0676205 0.000446426
0.495622 0.180136 0.08477 0.000287117
0.498676 0.196402 0.0819369 9.68982e-05
-0.221192 0.522856 -0.201343 0.000723419
-0.213646 0.532618 -0.199443 0.00161272
-0.21994 0.535088 -0.189642 0.000378261
-0.212358 0.54464 -0.187928 0.00215281
0.0782431 -0.595857 -0.242721 8.20482e-05
0.0787734 -0.575434 -0.247378 0.00271845
0.0824056 -0.594208 -0.231958 0.00104754
0.083178 -0.574024 -0.235097 0.0018611
-0.180725 0.456354 0.348794 0.00153111
-0.179858 0.475609 0.34236 0.00188802
-0.165315 0.455472 0.36012 0.00131198
-0.164094 0.472899 0.353236 0.000219264
-0.237948 -0.685894 0.191128 0.00823679
-0.234333 -0.664219 0.188007 0.00277624
-0.221387 -0.678255 0.201209 0.00504115
-0.216987 -0.658299 0.196743 0.00671374
0.277872 0.573411 0.335277 0.00151745
0.261345 0.579487 0.336504 0.00145503
0.287079 0.556045 0.340439 0.000137743
0.272013 0.562648 0.341254 0.00331596
0.282701 -0.0816951 -0.0392724 0.00306759
0.29483 -0.0684066 -0.0396772 0.00105183
0.293502 -0.0765123 -0.0253712 0.000283527
0.305613 -0.0629576 -0.0252253 0.00345628
-0.372097 -0.391224 0.0916813 4.00689e-05
-0.366126 -0.37642 0.0886291 0.000500922
-0.355605 -0.38765 0.101915 4.85437e-06
-0.349558 -0.373144 0.0972366 0.000261467
0.191285 -0.269951 0.327329 0.00238329
0.19528 -0.252588 0.316326 0.000412316
0.203276 -0.282226 0.323977 0.00224094
0.207076 -0.264503 0.312438 0.00108998
-0.0637521 -0.776736 0.282591 0.000753966
-0.066627 -0.763842 0.288784 0.00124849
-0.0478262 -0.775373 0.291582 0.00255325
-0.0506693 -0.762313 0.297881 0.000560203
-0.0563028 0.602096 -0.238542 0.00154866
-0.0659502 0.609297 -0.222633 0.00125106
-0.0473632 0.616098 -0.227696 0.000195499
-0.0569229 0.622727 -0.212113 0.000103333
-0.0444693 0.336395 0.433329 0.00215932
-0.0436015 0.355739 0.43137 0.000157365
-0.0336665 0.336977 0.43748 0.00124275
-0.0325728 0.3547 0.434455 0.00102947
0.0487575 0.350956 0.455716 0.00128784
0.0527613 0.363822 0.45248 0.000723609
0.0632272 0.354623 0.456824 0.00115369
0.0684288 0.367529 0.452612 0.00199564
0.0818865 -0.102604 0.30076 0.000940152
0.0771535 -0.0944356 0.312055 0.000271563
0.0954243 -0.0973927 0.306629 0.00309623
0.0912011 -0.0894999 0.318548 0.00149017
-0.0586152 0.112004 -0.318157 0.000876565
-0.0495915 0.123579 -0.329672 0.000225151
-0.0401432 0.105809 -0.319456 0.00209498
-0.0306549 0.118692 -0.330945 0.00133148
-0.307388 0.131194 -0.288932 0.0086203
-0.306471 0.151894 -0.288421 0.00183232
-0.292554 0.141095 -0.288202 0.00775505
-0.290567 0.160055 -0.288209 0.00193279
0.340056 0.595488 0.226631 0.00105941
0.326022 0.603799 0.23457 0.000536664
0.344347 0.582426 0.241532 0.000174982
0.330604 0.590294 0.248389 0.00233337
-0.218346 -0.229896 -0.0283645 0.00157653
-0.205876 -0.223674 -0.043458 0.000234575
-0.203615 -0.231253 -0.0184609 0.00174443
-0.191829 -0.224896 -0.0331424 0.00354118
-0.406335 0.481827 -0.178758 0.000612638
-0.397345 0.502133 -0.179443 0.00251888
-0.399189 0.495204 -0.17798 0.00032552
-0.392551 0.513936 -0.176824 0.00325776
-0.0141976 -0.750946 -0.287546 0.000886969
-0.00792278 -0.738011 -0.290577 0.000831944
0.00456474 -0.749728 -0.285318 0.00202513
0.0111825 -0.736646 -0.28865 0.000322704
0.0149048 -0.525191 0.28656 0.00236953
0.006308 -0.506462 0.292142 0.00329794
0.0350873 -0.525791 0.286934 0.000688348
0.0253611 -0.507135 0.294127 0.00142998
-0.112429 -0.338647 0.150705 0.00282175
-0.107208 -0.3196 0.141547 0.000852994
-0.10331 -0.335119 0.165292 0.00246147
-0.0970053 -0.316979 0.157428 0.00258478
0.137749 0.126309 0.52248 0.00228327
0.132104 0.147121 0.530969 0.00318564
0.157383 0.124339 0.516906 0.00125206
0.151346 0.145812 0.525052 0.000916909
0.0851554 0.471858 0.43377 0.000414259
0.0925501 0.485103 0.428411 0.00135145
0.103011 0.467081 0.433434 0.000664259
0.108319 0.482217 0.428401 0.0012354
-0.106075 0.528333 -0.287547 0.00332493
-0.114214 0.539292 -0.270781 0.000654178
-0.0954385 0.545024 -0.278401 0.00139711
-0.101961 0.556007 -0.262233 0.0002472
-0.230679 -0.79032 -0.0542846 0.00217869
-0.2465 -0.79154 -0.0396785 0.00139265
-0.215949 -0.790157 -0.0421931 0.000854786
-0.231583 -0.791783 -0.0255892 2.63741e-05
-0.469307 0.346158 -0.0795657 0.0020724
-0.476981 0.363159 -0.0752224 0.000341119
-0.47271 0.343104 -0.0629954 0.00195556
-0.479335 0.359688 -0.0589732 0.000674066
0.203683 -0.508743 0.239596 0.00180984
0.191487 -0.498855 0.254904 0.00196301
0.211373 -0.491989 0.250445 5.12935e-05
0.198815 -0.482258 0.26573 0.00302384
-0.442517 -0.577207 -0.103715 0.00130176
-0.445346 -0.559119 -0.103802 0.00181389
-0.443674 -0.578373 -0.0877039 0.00185679
-0.446104 -0.560557 -0.0876223 0.00179524
-0.271353 -0.203938 -0.207902 0.000617307
-0.264863 -0.200849 -0.205888 0.000596
-0.259918 -0.19844 -0.196005 0.000214656
-0.25581 -0.196228 -0.192059 0.000455278
-0.214333 0.00668464 0.183797 0.00165157
-0.220448 0.0167087 0.190623 0.00157388
-0.204532 0.00360754 0.197368 0.00208947
-0.210524 0.0133823 0.204466 0.0022608
-0.151177 -0.311857 0.0932079 0.00747555
-0.144483 -0.294062 0.0821369 0.00222761
-0.14049 -0.308149 0.109253 0.00208605
-0.134217 -0.289763 0.0983746 0.00789342
0.147783 -0.123718 0.285249 0.00133672
0.14917 -0.110377 0.290667 0.000980569
0.161903 -0.116705 0.280669 0.0021172
0.160856 -0.104025 0.288333 0.00222215
-0.330187 -0.758184 0.0132053 0.00250766
-0.3383 -0.7422 0.0296592 0.00332332
-0.317309 -0.757844 0.035012 0.000652241
-0.325643 -0.740948 0.0541457 0.000756974
-0.169851 -0.00696669 -0.0989302 0.00278391
-0.184691 0.00155495 -0.0922792 0.00374727
-0.159742 -0.0119601 -0.0834463 0.00217418
-0.174287 -0.00358615 -0.0788135 0.00132564
0.457993 0.478339 0.153072 0.00226287
0.449983 0.494233 0.155907 0.00195372
0.453056 0.476171 0.166528 0.00139227
0.444824 0.491765 0.169696 0.000902504
0.416967 0.019688 0.0116642 0.001469
0.429464 0.0404695 0.00571464 0.000155965
0.428331 0.0303644 0.0300333 0.0017836
0.440627 0.0514946 0.0252964 0.000399355
0.501195 0.297583 0.0688948 0.000742676
0.504484 0.321421 0.0712741 0.00389367
0.500911 0.30885 0.0846595 7.77159e-05
0.503222 0.331209 0.088417 0.00376451
0.26145 -0.221026 0.228143 0.00204987
0.258018 -0.20272 0.230923 0.00220332
0.25095 -0.218242 0.244225 0.00132777
0.248163 -0.200772 0.247547 0.00400277
-0.11995 -0.357126 0.160804 2.45384e-05
-0.115513 -0.337831 0.151461 0.000100891
-0.109882 -0.354574 0.175794 0.00426609
-0.104448 -0.33599 0.167696 0.00421388
-0.106395 -0.0607269 -0.0623766 0.0010757
-0.121959 -0.0528807 -0.0607789 0.00358168
-0.0930759 -0.0667947 -0.0514112 0.00353408
-0.10976 -0.059353 -0.0490411 0.000997582
-0.274058 -0.224285 -0.0546916 0.00164427
-0.262202 -0.217499 -0.0672205 0.000651861
-0.258909 -0.224259 -0.043066 9.27855e-05
-0.245768 -0.217578 -0.0574879 0.000468548
0.148344 0.170528 -0.365667 0.00112914
0.156067 0.191444 -0.370211 0.000823473
0.168648 0.174801 -0.362727 9.14131e-05
0.174737 0.194634 -0.366914 0.000213176
0.0828656 -0.407137 -0.196463 0.000674647
0.0839979 -0.396442 -0.193929 0.000601796
0.0929546 -0.405834 -0.184953 0.000871863
0.0941043 -0.394913 -0.182777 0.00236549
-0.0178523 -0.414921 -0.386642 0.00223691
-0.0223894 -0.399895 -0.384045 0.00170602
-0.00696206 -0.412881 -0.376675 0.00245112
-0.0119543 -0.397541 -0.373428 0.00268567
0.0860718 -0.422563 0.340822 0.00249674
0.0849005 -0.403069 0.344193 0.00196132
0.101702 -0.415862 0.340805 0.000722047
0.100931 -0.396024 0.345135 0.000781879
-0.45178 -0.417218 -0.285545 0.0029197
-0.456659 -0.404228 -0.280758 0.00233843
-0.454672 -0.417681 -0.268017 0.00110287
-0.458444 -0.404526 -0.263143 0.000261095
-0.341558 -0.460525 0.134226 0.00116385
-0.336048 -0.443256 0.13196 0.000108448
-0.324075 -0.457772 0.141343 0.000262671
-0.318036 -0.440196 0.138999 0.000188682
-0.07952 -0.249299 0.0070931 0.000794649
-0.0657082 -0.240284 -0.00889832 0.00317648
-0.0676815 -0.246199 0.0209419 9.85573e-05
-0.0535329 -0.235054 0.00325597 0.00570373
-0.433087 0.579606 0.0129124 0.0014862
-0.428389 0.592949 0.0127691 0.0014779
-0.417059 0.577653 0.0168121 0.00149317
-0.414039 0.590995 0.015448 0.00199323
0.130682 -0.254294 0.338973 0.00330367
0.134452 -0.238628 0.328956 0.000480475
0.144238 -0.259333 0.336478 7.63378e-05
0.148263 -0.243724 0.326723 0.00296146
-0.466183 -0.180288 -0.380565 0.000999707
-0.457852 -0.158814 -0.383098 0.00321338
-0.475662 -0.166892 -0.362154 0.00148039
-0.466288 -0.144733 -0.366198 0.000556827
-0.422545 -0.627968 -0.105706 0.00297435
-0.428245 -0.611231 -0.0994655 0.00041082
-0.422451 -0.627202 -0.0876954 0.00145883
-0.427889 -0.61038 -0.0821652 0.00114082
0.49052 0.586614 -0.119451 7.73867e-06
0.491072 0.610003 -0.121466 0.000250078
0.504826 0.593899 -0.107353 0.000635527
0.505232 0.617297 -0.110282 0.000116639
-0.467683 -0.372626 -0.20697 0.000259166
-0.467046 -0.350018 -0.209922 0.00120549
-0.466739 -0.365505 -0.193677 0.000101301
-0.465908 -0.342855 -0.196589 0.00122049
0.290367 -0.0813817 -0.0246957 0.00231306
0.302917 -0.0676866 -0.0247314 0.00117487
0.302614 -0.0742175 -0.0104013 0.000173678
0.314039 -0.0606095 -0.0105913 0.00418447
0.179679 0.703229 -0.0964002 0.00050182
0.170268 0.707686 -0.0825517 0.00114609
0.196745 0.706516 -0.0875374 0.000924061
0.187959 0.711115 -0.0726748 0.000460804
-0.0238722 -0.157858 0.130978 0.0022409
-0.0262962 -0.143412 0.13591 0.00171237
-0.0224217 -0.155225 0.145674 0.00118175
-0.0238568 -0.140312 0.151318 0.00395285
0.217838 0.171385 -0.342009 0.00325333
0.223737 0.188241 -0.344814 0.00245175
0.239863 0.174456 -0.336332 0.000529283
0.245372 0.190951 -0.339158 0.000633967
-0.0893193 0.670055 -0.0637921 0.000884913
-0.0662178 0.677301 -0.0713066 0.000457077
-0.0783528 0.678832 -0.046881 0.000416597
-0.0554421 0.685781 -0.0541978 0.000592204
0.146531 -0.548444 -0.120186 0.000657716
0.150025 -0.532093 -0.119647 0.00082933
0.161085 -0.546759 -0.107375 0.000684186
0.165527 -0.529974 -0.1061 0.000767517
0.468715 0.153103 -0.0666903 0.00228737
0.480008 0.177514 -0.0714603 0.0039818
0.47564 0.15936 -0.0501457 0.00152187
0.485514 0.182684 -0.0527475 0.00371827
-0.357793 0.179606 -0.0675458 0.00388129
-0.371223 0.198736 -0.0638554 0.00235022
-0.351624 0.174445 -0.0486809 0.00013552
-0.365376 0.193979 -0.0455281 0.00181165
0.11453 -0.794637 0.127636 0.00216449
0.133883 -0.786142 0.125856 0.000615391
0.119696 -0.786493 0.143504 0.00103862
0.140628 -0.777115 0.140139 0.00513038
-0.364431 -0.237604 -0.137225 0.00185386
-0.352976 -0.225048 -0.141406 0.00396923
-0.355034 -0.230951 -0.122546 0.00174273
-0.343883 -0.219474 -0.127729 0.00703226
0.0903644 0.00170633 0.462287 0.00330627
0.0865383 0.0183039 0.472706 0.00255386
0.107568 0.00385855 0.462396 0.00158853
0.10409 0.0210268 0.47311 0.000763333
0.483521 0.394165 0.173006 0.00106073
0.477469 0.411549 0.177767 0.000251437
0.474125 0.393403 0.190897 0.00155799
0.467137 0.410731 0.196078 0.00280009
-0.467128 0.401027 -0.117633 0.00221691
-0.472026 0.418318 -0.112349 0.00403613
-0.478747 0.403862 -0.102586 0.000203992
-0.483273 0.421625 -0.0978778 0.00154033
-0.0793377 -0.794557 -0.10882 0.000855179
-0.0864737 -0.794745 -0.0922308 0.000783405
-0.0665537 -0.7906 -0.0944984 0.00360407
-0.0736445 -0.790747 -0.0784265 0.00940689
0.0414029 0.716077 0.114892 0.00371229
0.0655446 0.72273 0.104927 0.00106746
0.0559238 0.721391 0.129931 0.00174314
0.0803721 0.727225 0.119219 0.00378199
0.179371 0.259398 0.494123 0.00125702
0.184263 0.273213 0.477905 0.00290315
0.192454 0.237166 0.497291 0.00218381
0.19542 0.251924 0.484404 0.000789109
0.143745 0.729684 0.00805496 0.000727496
0.132884 0.727127 0.0247292 0.00275597
0.157349 0.732434 0.0217999 0.00322952
0.145816 0.728944 0.0391515 0.00118625
-0.0481131 -0.689932 -0.331394 0.000121355
-0.0418208 -0.676972 -0.336076 0.000207714
-0.0342395 -0.690836 -0.321906 0.000962078
-0.0281188 -0.678075 -0.326045 0.000363146
-0.39471 -0.671218 -0.145693 0.00215856
-0.401457 -0.655983 -0.142927 0.000693629
-0.394506 -0.675393 -0.126776 0.00163218
-0.401195 -0.659446 -0.123435 0.000225579
0.229547 -0.537488 0.156022 0.00415386
0.240845 -0.519981 0.154189 0.000980515
0.227327 -0.526025 0.173195 0.000401203
0.241927 -0.507843 0.170875 0.00157119
-0.0536154 -0.0267623 -0.183081 0.00147187
-0.061018 -0.0210098 -0.19132 0.000515381
-0.0458231 -0.0416123 -0.166426 0.000169215
-0.0456 -0.0327187 -0.183863 0.00115775
0.286042 0.0799533 -0.270212 0.000259862
0.291064 0.0972285 -0.276121 0.00105062
0.305646 0.0799053 -0.254374 0.00151291
0.310779 0.0984509 -0.258414 0.00375901
0.173203 0.416027 0.427833 0.00183571
0.174101 0.431315 0.427031 0.00120802
0.19092 0.423716 0.422227 0.00214831
0.192091 0.439461 0.421849 0.00190496
-0.0382679 -0.273455 -0.257853 0.000133798
-0.0501361 -0.265532 -0.246824 0.00230047
-0.0271646 -0.273465 -0.244151 0.00177424
-0.0399569 -0.265168 -0.233828 0.000250551
0.0578542 0.0249632 0.461513 0.000481502
0.0522593 0.0405482 0.471885 0.00254476
0.0765506 0.0281104 0.460836 0.0102085
0.071349 0.0441333 0.471134 0.00404358
0.497499 0.655625 -0.110434 0.00317539
0.503992 0.676582 -0.106854 0.00105588
0.514086 0.660443 -0.0972776 0.00119908
0.521246 0.6808 -0.0940374 0.00321456
-0.19794 0.304568 0.329051 0.00293666
-0.199624 0.319454 0.332922 0.00111825
-0.185556 0.309921 0.334033 0.000131518
-0.187064 0.3244 0.338039 0.00181394
0.056051 -0.501627 0.307864 0.00431722
0.0466432 -0.483492 0.314104 0.00292668
0.0759818 -0.500442 0.30412 0.000268778
0.0673065 -0.484081 0.312618 0.000290943
0.260135 0.0296046 0.420418 0.00175436
0.252498 0.0373698 0.4345 0.000230307
0.276681 0.0380889 0.420526 0.00135
0.269426 0.046418 0.434919 0.0029708
0.256461 -0.0297645 0.351292 0.000896283
0.264243 -0.0214581 0.358393 0.00119168
0.265769 -0.0145598 0.364145 0.000543495
0.271695 -0.00639531 0.372019 0.000672431
0.0936951 -0.349341 -0.155519 0.00134361
0.09251 -0.338205 -0.149769 0.00072782
0.102357 -0.34746 -0.144526 0.00281391
0.100818 -0.336057 -0.138714 0.00143833
-0.253216 -0.244711 -0.326755 0.00379795
-0.256172 -0.235005 -0.311836 0.000566895
-0.23728 -0.241501 -0.316124 0.00353034
-0.240255 -0.231809 -0.301402 2.8041e-05
-0.445991 -0.451348 -0.253813 0.00223232
-0.451332 -0.439211 -0.248456 0.00161594
-0.454385 -0.451139 -0.233605 0.000509176
-0.459284 -0.437799 -0.229724 0.00145199
0.0756141 0.305048 0.522954 0.00139108
0.0805408 0.318864 0.507885 0.00196744
0.098506 0.303267 0.522814 0.00159234
0.103404 0.317059 0.507754 0.00476033
-0.0507065 -0.244506 -0.0496297 0.000471512
-0.0628864 -0.2413 -0.0397101 0.000405785
-0.0366915 -0.247798 -0.0378395 6.06204e-06
-0.0478298 -0.244119 -0.0261084 0.00105987
-0.111693 -0.514565 -0.431109 0.000755192
-0.110932 -0.501486 -0.433829 0.000512452
-0.0952714 -0.518218 -0.427922 6.21077e-05
-0.0944108 -0.5049 -0.430806 0.000997064
0.180948 -0.438976 0.312055 0.00114978
0.187165 -0.420398 0.31991 0.00110794
0.19799 -0.427879 0.313247 0.000788543
0.20439 -0.409084 0.321154 0.00305405
0.487559 0.150612 0.143981 0.00157135
0.491513 0.168753 0.146366 0.00118071
0.483323 0.156591 0.161468 0.000989732
0.486959 0.174449 0.163924 0.00140464
0.15181 -0.795251 0.0810696 0.00405826
0.147856 -0.789098 0.0980813 0.00030324
0.159341 -0.784596 0.096616 0.00147336
0.159744 -0.777107 0.108487 0.00418592
0.23614 -0.646627 0.0290355 0.00114563
0.235623 -0.629866 0.0329166 0.00339631
0.227782 -0.638886 0.0448932 0.00188579
0.228285 -0.621236 0.0489286 0.00100738
-0.248325 0.0595665 -0.118089 0.00151906
-0.257155 0.0681287 -0.108195 0.000241497
-0.240861 0.0557177 -0.108401 0.00100966
-0.251503 0.0641549 -0.0988513 0.00174587
0.322662 0.194683 -0.289611 0.00207688
0.325323 0.212734 -0.292865 0.000633672
0.341061 0.196245 -0.275643 0.00180833
0.343285 0.214373 -0.278872 0.000679725
0.2241 0.641502 0.288811 0.000613362
0.205884 0.646932 0.288195 0.00221287
0.232873 0.630103 0.299245 0.000573657
0.218552 0.637447 0.295732 0.00180957
-0.401597 -0.0751962 -0.376299 0.00399311
-0.394372 -0.0575481 -0.369272 0.000504724
-0.395161 -0.0623138 -0.369731 0.00287603
-0.386325 -0.0451595 -0.36337 1.57e-05
-0.329112 0.187164 -0.293314 0.00324062
-0.332166 0.212581 -0.287522 0.000775996
-0.31744 0.198817 -0.292847 0.000614986
-0.320303 0.223744 -0.287134 0.00602857
0.0181229 -0.301118 0.30448 0.000299835
0.0211884 -0.282336 0.301838 0.00107619
0.032079 -0.298439 0.314994 0.000382762
0.0351782 -0.27992 0.312462 0.000803835
-0.217534 -0.462644 0.151871 0.00326321
-0.211494 -0.443839 0.151195 0.000288116
-0.200881 -0.461339 0.156002 4.81708e-05
-0.195181 -0.442815 0.155759 0.00208623
0.471932 0.74335 -0.104817 0.000194644
0.469561 0.759211 -0.0993387 0.000759329
0.489518 0.743193 -0.0934519 0.00184028
0.485315 0.758397 -0.0897446 0.000618544
0.334988 0.676111 0.0945239 0.00155658
0.322041 0.68728 0.0992419 0.00526148
0.345786 0.664056 0.0966396 0.00562757
0.330625 0.674905 0.102973 0.0027591
0.00585635 0.149893 0.525079 0.000441141
0.00663302 0.173278 0.525803 0.000955068
0.0235073 0.152914 0.531541 0.00572314
0.0237146 0.176202 0.532515 0.00456879
-0.210536 0.290239 0.318683 0.000973618
-0.21303 0.304786 0.322372 0.000626679
-0.195377 0.293052 0.324974 0.00159378
-0.196853 0.307942 0.328703 0.00109825
-0.181944 -0.0119491 -0.0236411 0.000459374
-0.194917 -0.00379766 -0.0148418 0.00101857
-0.176742 -0.0161133 -0.0107662 0.00149146
-0.189806 -0.00785737 -0.00192339 0.00113369
-0.225183 0.149866 0.284374 0.00555859
-0.226998 0.167518 0.28454 0.00516404
-0.207054 0.150806 0.297847 0.00362931
-0.208423 0.168369 0.29734 0.00939231
-0.260947 -0.37838 -0.427245 2.29187e-05
-0.26111 -0.358913 -0.421831 0.0025185
-0.242466 -0.371656 -0.429306 0.00249161
-0.242932 -0.354054 -0.423835 0.00114041
0.510822 0.691324 -0.0915243 0.00426762
0.518015 0.711183 -0.0884606 0.00197785
0.527163 0.690238 -0.0773077 0.00304193
0.533136 0.710029 -0.0743938 0.00238622
0.412041 0.300343 -0.218603 0.000908299
0.413257 0.317067 -0.216449 0.00124666
0.422329 0.306731 -0.205025 0.00192422
0.423822 0.323607 -0.202675 0.00220428
-0.153263 -0.691609 0.233157 0.00401494
-0.149034 -0.675931 0.227259 0.0026885
-0.135219 -0.689486 0.234541 0.000801678
-0.13134 -0.674633 0.227652 0.00355187
-0.394021 -0.415014 -0.373793 0.000946238
-0.405344 -0.398864 -0.368646 0.000859489
-0.406343 -0.421674 -0.358742 0.00176789
-0.41813 -0.405307 -0.352946 0.00128095
0.0365225 -0.768772 -0.0296443 0.00528582
0.0236397 -0.764613 -0.0236728 0.00309721
0.0445725 -0.771655 -0.0199118 0.00666082
0.0318191 -0.767156 -0.0142826 0.00397814
0.19316 -0.553184 0.190176 0.00207296
0.203799 -0.539382 0.190515 0.000354244
0.19525 -0.538951 0.201311 0.000916768
0.202884 -0.526263 0.205091 0.00331626
-0.423262 0.453439 0.0119876 0.000530678
-0.416687 0.475564 0.00909911 0.00171621
-0.400242 0.457512 0.0144577 0.00390551
-0.393931 0.479907 0.0107374 0.000155638
0.100488 0.398098 -0.377261 0.0028121
0.100386 0.416151 -0.371864 0.00359995
0.12069 0.405728 -0.374877 0.000429026
0.120576 0.423072 -0.369336 0.00131067
-0.377222 -0.690181 -0.171122 0.000413286
-0.384907 -0.67476 -0.167599 0.000860224
-0.379317 -0.694519 -0.152985 0.000848657
-0.386242 -0.678992 -0.150172 0.000802555
0.233405 0.273755 0.414566 0.00111378
0.212405 0.287747 0.421014 0.0002912
0.249197 0.258943 0.407293 0.0077426
0.231079 0.272785 0.411956 0.0043803
0.244889 -0.146441 0.216696 0.00240334
0.243014 -0.130768 0.221916 0.000230864
0.231899 -0.146322 0.234392 0.00195134
0.231086 -0.130327 0.238565 0.000802547
0.108888 -0.0429969 0.420779 0.00225953
0.105822 -0.0298356 0.435197 0.00139248
0.124932 -0.0353481 0.424474 0.000345619
0.122789 -0.0212497 0.438443 0.00225175
0.199892 -0.379906 -0.082918 0.0032756
0.206776 -0.361903 -0.0807365 0.00178787
0.216751 -0.375004 -0.0710953 0.00138252
0.220797 -0.357384 -0.0698067 0.00221951
-0.151457 -0.0253498 -0.0654195 0.000244711
-0.166201 -0.0166058 -0.0634372 0.00116149
-0.141224 -0.030199 -0.0529478 0.00438123
-0.155938 -0.0215509 -0.0522121 0.0029985
-0.364579 -0.532883 -0.343904 0.00229959
-0.37458 -0.518646 -0.341804 0.00246615
-0.373777 -0.537543 -0.332713 0.00294796
-0.383261 -0.523521 -0.330154 0.00291809
-0.266879 -0.319077 -0.414676 0.00231586
-0.26758 -0.300689 -0.401843 0.000571367
-0.250501 -0.312298 -0.407793 0.000917352
-0.251675 -0.293951 -0.394498 2.1622e-05
0.526133 0.454381 -0.0135114 0.00400962
0.530789 0.475943 -0.0185455 0.00155957
0.536197 0.458969 0.00684778 0.00818512
0.540666 0.480561 0.0019453 0.00573056
-0.0273959 -0.0933269 0.280089 0.00301257
-0.0550964 -0.0794245 0.288037 0.000878318
-0.011943 -0.0946957 0.291847 0.00475208
-0.038913 -0.0809435 0.299681 0.00149414
-0.372167 0.333951 -0.214845 0.00574674
-0.372348 0.357603 -0.212169 0.00135629
-0.359745 0.342456 -0.217854 0.00143903
-0.360037 0.366414 -0.214769 0.00249328
-0.0264161 -0.801928 0.259228 0.00319544
-0.0331812 -0.797749 0.276948 0.00193561
-0.0127254 -0.797827 0.270308 0.000810903
-0.018944 -0.792432 0.286283 0.00242538
-0.0618643 -0.728447 -0.307572 0.00188453
-0.0573241 -0.716073 -0.31303 0.00267236
-0.0484811 -0.729898 -0.30324 0.00292417
-0.0432171 -0.71746 -0.307735 0.00216761
-0.456795 -0.536688 -0.0806833 0.0019655
-0.458658 -0.519363 -0.0781934 0.000212232
-0.454466 -0.538258 -0.0628045 0.000848988
-0.456312 -0.520615 -0.0599051 0.00129616
-0.437673 -0.169231 -0.417243 0.00328411
-0.428708 -0.14781 -0.417908 0.00501289
-0.437183 -0.156555 -0.405441 0.00269701
-0.427869 -0.135693 -0.406746 0.000742521
-0.342437 -0.620432 -0.313494 0.00270491
-0.351579 -0.605603 -0.312153 0.00174328
-0.34491 -0.629404 -0.301675 0.00139503
-0.354671 -0.614504 -0.299864 0.000582251
0.108158 -0.475738 0.31528 0.000689711
0.102617 -0.460607 0.324512 0.00117318
0.127013 -0.47628 0.309432 0.000513823
0.122161 -0.461667 0.320245 0.000407908
-0.0230392 -0.0527608 -0.158715 0.000928691
-0.0168975 -0.0419064 -0.18245 4.15377e-05
-0.00929488 -0.0643799 -0.147532 0.000359662
-0.00377128 -0.0542873 -0.168412 0.00017407
0.0567185 0.321145 0.496121 0.00124824
0.0648358 0.333025 0.484376 0.00414557
0.0798905 0.323493 0.49539 0.000829996
0.0890851 0.335064 0.483298 0.00733422
-0.150092 -0.686483 0.229318 0.00338156
-0.145664 -0.67089 0.221808 0.00278914
-0.130538 -0.683751 0.23002 0.000189913
-0.126402 -0.66873 0.223021 0.00242925
-0.252135 -0.533104 0.168395 0.000552783
-0.248243 -0.515847 0.168915 0.0028835
-0.230068 -0.527412 0.168449 0.00133993
-0.227125 -0.510355 0.168435 0.00367401
0.295741 0.0627377 0.42427 1.21221e-05
0.302392 0.0798287 0.430479 0.000314472
0.296975 0.0788006 0.433094 0.000378821
0.302561 0.0963858 0.439286 0.000297252
0.166479 0.554851 -0.291215 0.00215082
0.161281 0.568933 -0.280942 0.00325847
0.181004 0.561492 -0.284953 0.000952465
0.177865 0.575419 -0.273864 0.000141654
0.0711813 -0.351155 0.342903 0.000909933
0.0727669 -0.332643 0.342118 0.000681596
0.0890232 -0.349403 0.346347 0.00054434
0.091106 -0.33139 0.345516 0.000843209
0.13459 0.69633 -0.125737 0.000375704
0.11956 0.703358 -0.111792 0.000429421
0.15293 0.699878 -0.11415 0.00062599
0.1395 0.706006 -0.100176 0.000536792
-0.0240369 -0.413323 -0.391889 0.000917148
-0.0282428 -0.398211 -0.389677 0.00027107
-0.0133665 -0.413565 -0.381166 0.00331137
-0.0177923 -0.398478 -0.378602 0.00260461
0.478825 0.34827 0.201292 0.000528863
0.473011 0.370061 0.20756 0.000320091
0.469432 0.350999 0.221885 0.0012984
0.462388 0.372831 0.228503 0.00254864
0.420359 0.249991 -0.197602 0.00206068
0.421882 0.270532 -0.201141 4.13109e-05
0.43064 0.258846 -0.181442 0.00296815
0.43217 0.279467 -0.184917 0.00091589
-0.140993 -0.796386 -0.275882 0.00301442
-0.124323 -0.792261 -0.284127 0.00206406
-0.123716 -0.794057 -0.266681 0.000105534
-0.108036 -0.789796 -0.273333 0.00180823
0.172448 0.158625 0.524875 0.000157056
0.166725 0.178838 0.52654 0.000841713
0.189114 0.154671 0.519625 0.000286177
0.183412 0.174599 0.521365 0.00142741
-0.0318849 0.288778 0.450123 0.00256827
-0.0255495 0.303139 0.449568 0.000769772
-0.0222331 0.294405 0.463142 0.000119363
-0.0148587 0.309109 0.461157 0.00441529
-0.321942 0.236538 0.138349 0.00149083
-0.327032 0.257691 0.133581 0.00126413
-0.313171 0.237005 0.159491 0.00491721
-0.319196 0.258818 0.153108 0.0022058
-0.249661 -0.553639 0.171036 0.00106975
-0.246325 -0.536761 0.171534 0.00299338
-0.227731 -0.547583 0.170687 0.00161188
-0.225544 -0.531045 0.170989 0.00361558
-0.354189 -0.122195 -0.254258 0.00312896
-0.357343 -0.10667 -0.249964 0.00893022
-0.342721 -0.123869 -0.252174 0.00675364
-0.345932 -0.107883 -0.247751 0.00109579
0.477181 0.229042 -0.0866608 0.000973108
0.480718 0.2463 -0.0862501 0.00139986
0.482747 0.228538 -0.0664439 0.00109225
0.487017 0.248831 -0.0669759 0.00205407
-0.0247582 -0.218967 0.14443 0.002114
-0.0192245 -0.204581 0.144093 0.000934778
-0.020157 -0.210301 0.155973 0.00103302
-0.016679 -0.195678 0.157405 0.00106149
-0.471698 -0.355668 -0.267737 0.00173167
-0.474079 -0.342413 -0.267896 0.000793303
-0.473109 -0.358369 -0.254267 0.0025963
-0.475529 -0.344416 -0.254312 0.00284632
0.037392 -0.237883 -0.0353968 0.0019749
0.0273449 -0.230768 -0.0206765 0.00156589
0.0493952 -0.225396 -0.0299623 0.00173934
0.0402173 -0.217643 -0.0169783 0.0035427
0.070482 -0.457158 0.329833 0.00439695
0.0673763 -0.438315 0.333496 0.00181525
0.0890831 -0.455804 0.327758 0.00119626
0.0857581 -0.438005 0.333055 0.000390631
-0.333832 -0.369304 -0.422154 0.000412796
-0.336518 -0.347664 -0.419085 0.0050573
-0.317454 -0.366391 -0.429036 0.00513465
-0.319754 -0.344693 -0.425022 0.000299099
0.245643 -0.0320563 0.355307 2.98999e-05
0.250127 -0.0241121 0.364783 7.14905e-05
0.256193 -0.0170602 0.3688 0.000953763
0.260047 -0.0092687 0.378147 0.000438735
0.309653 0.599462 0.276043 0.002509
0.293251 0.605736 0.280201 0.000782097
0.314787 0.583353 0.288096 0.000107808
0.299114 0.589679 0.292301 0.00281493
0.306385 0.219597 -0.306772 0.00154889
0.310077 0.237431 -0.309584 0.000451788
0.323264 0.218441 -0.293918 0.00181529
0.32652 0.236235 -0.296322 0.000359964
-0.00270736 -0.0552845 0.371483 0.000996199
-0.0175096 -0.0425091 0.379679 0.000700327
0.0141641 -0.0522675 0.380469 0.00126983
0.00308437 -0.039075 0.389973 0.00339209
0.102257 0.198253 -0.381783 0.000386764
0.105589 0.212601 -0.384183 0.000250536
0.119324 0.20036 -0.3806 0.000471372
0.123161 0.215545 -0.382819 0.00016846
0.46333 0.168491 -0.10134 0.000416254
0.472258 0.191332 -0.10478 0.00519729
0.468726 0.173531 -0.0820223 0.00270858
0.477933 0.196514 -0.0848267 0.00267536
0.452743 0.328909 0.278194 0.00313138
0.439435 0.349217 0.286379 0.00139952
0.433881 0.325985 0.292636 0.00534117
0.420341 0.346373 0.300831 0.00747285
0.0315622 -0.664025 -0.277048 0.00209428
0.0344972 -0.646767 -0.282532 0.000755198
0.0440149 -0.658068 -0.263736 0.00212412
0.0458743 -0.640229 -0.269974 0.000770707
0.441492 0.560279 -0.148262 0.00129739
0.445588 0.58073 -0.149682 0.000686914
0.456782 0.565006 -0.138683 0.00192295
0.460538 0.586226 -0.13951 0.000589859
0.0261112 -0.185758 0.254269 0.00137448
0.0259168 -0.167038 0.251762 0.00291407
0.0352144 -0.190436 0.262885 0.00430753
0.0352441 -0.17282 0.259784 0.000265846
0.100778 0.712304 -0.086671 0.00150022
0.0891974 0.71452 -0.0683639 0.000372511
0.111426 0.714921 -0.0733531 0.000892048
0.100149 0.717177 -0.0554673 0.000696392
0.360314 0.000792698 -0.107231 0.00292015
0.371931 0.0195834 -0.114183 0.000411562
0.3719 0.00826722 -0.0898964 0.000812207
0.383436 0.0280698 -0.0974045 0.00334344
-0.384264 0.465142 0.0124993 0.00197113
-0.378795 0.487971 0.00825963 0.00235524
-0.361286 0.465 0.0169636 0.0039293
-0.357743 0.488856 0.0129562 0.00207461
-0.365109 -0.235796 -0.145156 0.000890621
-0.353175 -0.223833 -0.149193 0.00359094
-0.355269 -0.229677 -0.129659 0.00208462
-0.344185 -0.218202 -0.134841 0.00750637
0.147991 0.335416 -0.381504 0.000389353
0.147468 0.35259 -0.380025 0.000249571
0.167049 0.334625 -0.37749 0.000827073
0.166358 0.351758 -0.377082 0.00153074
-0.142393 -0.0448234 -0.0173285 0.00166791
-0.155866 -0.0377369 -0.00828359 0.00231387
-0.133748 -0.0485473 -0.00450636 0.00261695
-0.147816 -0.0409339 0.00525843 0.00214158
0.0404795 -0.309413 0.325473 0.00215416
0.0443592 -0.291581 0.324102 0.00217458
0.0562029 -0.307432 0.334727 0.00282352
0.0618192 -0.290283 0.332613 0.00225665
0.365713 -0.000237752 0.254807 0.00207652
0.3771 0.0151231 0.252587 0.00187596
0.366114 0.0123633 0.275058 2.78014e-05
0.378749 0.0279401 0.272473 0.0027237
0.0171413 -0.303783 0.304507 0.000366603
0.0202069 -0.285001 0.301866 0.00097449
0.0318321 -0.30334 0.316272 0.000577911
0.0348928 -0.284739 0.314301 0.00119235
-0.128697 -0.0673966 0.18989 0.000906057
-0.144931 -0.0548742 0.200917 0.00194002
-0.116994 -0.0691209 0.205348 0.0012803
-0.132258 -0.0567564 0.219547 0.000778234
-0.195744 0.0416912 -0.186391 0.00282732
-0.189481 0.0488461 -0.193424 0.00229318
-0.183453 0.0445873 -0.17864 0.00713677
-0.1794 0.0509532 -0.183558 0.0120173
-0.169247 0.593468 -0.154932 0.000370132
-0.177673 0.597001 -0.13863 0.000726943
-0.159491 0.604942 -0.139969 0.00094907
-0.165647 0.608404 -0.124943 0.000708109
0.0336444 -0.667661 -0.267736 0.00047941
0.0358647 -0.650115 -0.273539 0.00251351
0.0468989 -0.664095 -0.256649 0.00144425
0.047929 -0.646939 -0.261436 0.000121014
0.558659 0.578421 -0.0162378 0.0016015
0.563106 0.600783 -0.0210501 0.00392543
0.56025 0.581553 0.0041507 0.000436302
0.564078 0.603179 4.04913e-05 0.000661912
0.258298 0.580969 0.341983 0.00193814
0.249109 0.588189 0.337747 0.000137845
0.269913 0.563467 0.345992 0.000403028
0.257977 0.570364 0.344041 0.00310286
-0.0166407 -0.473554 0.289247 0.00245716
-0.0178247 -0.456511 0.291951 0.00305676
0.00284472 -0.470555 0.300329 0.00120341
0.00178131 -0.452077 0.30301 0.000495716
-0.0455263 0.255427 0.461926 0.00122611
-0.0397985 0.269886 0.46307 6.26437e-05
-0.0343859 0.261934 0.476251 0.00218358
-0.0286876 0.276591 0.476615 0.00061276
-0.0935403 -0.571495 0.196252 0.00360749
-0.0926689 -0.553837 0.196582 9.14319e-05
-0.0776659 -0.57 0.207744 0.000395921
-0.0766894 -0.552452 0.208015 0.0034477
0.13344 0.296972 -0.385936 0.00107998
0.132718 0.314802 -0.385802 0.000642622
0.14957 0.295429 -0.383908 0.000252967
0.149097 0.313089 -0.383637 0.000716657
-0.00884172 -0.80298 0.233366 0.00372403
-0.0163078 -0.799049 0.251761 9.84999e-05
0.00411148 -0.798132 0.242789 0.000913298
-0.00333071 -0.794284 0.261125 0.00441221
-0.311676 0.464239 0.0389159 0.000982043
-0.306039 0.480187 0.0373631 0.00622087
-0.303656 0.464532 0.0501066 0.00125048
-0.298109 0.479867 0.0486599 0.00515189
-0.105793 0.554448 0.343519 0.00122378
-0.102744 0.568383 0.336506 0.000646782
-0.0929489 0.558357 0.352642 0.00199184
-0.0912208 0.572816 0.343278 0.00322301
-0.142901 -0.328348 0.113772 0.00703022
-0.137423 -0.309152 0.102644 0.00357933
-0.132524 -0.326784 0.129364 0.00025271
-0.12691 -0.306908 0.118651 0.00413209
-0.232484 -0.306563 -0.399622 0.000819363
-0.235967 -0.289419 -0.386491 0.00132019
-0.212033 -0.299237 -0.391935 0.00020963
-0.22013 -0.28368 -0.38061 0.000574341
-0.295074 0.267571 -0.246216 0.000533143
-0.295385 0.288994 -0.24483 0.00190699
-0.277927 0.27276 -0.25238 0.000490932
-0.278802 0.29359 -0.250335 0.000363657
0.019283 -0.541044 0.278918 0.0021064
0.0100859 -0.52298 0.284828 0.00170382
0.0386543 -0.542399 0.27795 0.000711766
0.0293288 -0.524115 0.285162 0.00209114
-0.302761 0.521764 -0.18652 0.0012569
-0.30267 0.534723 -0.17432 0.000698932
-0.284049 0.526148 -0.185602 0.00252201
-0.28375 0.539092 -0.17357 0.0021988
-0.155353 -0.041725 0.0178679 0.00111005
-0.169134 -0.0332291 0.0263878 0.00144414
-0.148259 -0.0456935 0.0327479 0.00227837
-0.162329 -0.0368633 0.0413368 0.0019059
-0.452084 -0.560635 -0.0665817 0.00373905
-0.454406 -0.543302 -0.0651014 0.00190024
-0.44851 -0.563625 -0.0486932 0.00187626
-0.451659 -0.546033 -0.0489477 0.000675438
0.313717 -0.403495 0.101259 0.000281321
0.319459 -0.385577 0.100267 0.0025793
0.313812 -0.40353 0.118492 0.000118022
0.318674 -0.386663 0.119979 0.00118155
0.189483 -0.167744 -0.0362383 0.000636872
0.196564 -0.151178 -0.0401587 0.000961792
0.204837 -0.16263 -0.0280141 0.00193705
0.211241 -0.146543 -0.0318245 0.000411288
0.220688 -0.570947 0.107845 0.000441832
0.227699 -0.554946 0.108749 7.72234e-05
0.220042 -0.560216 0.125214 0.000683584
0.229081 -0.543196 0.123868 0.00131526
-0.136332 9.06782e-05 0.338782 0.000925783
-0.145806 0.0140475 0.341773 0.00106389
-0.125932 0.00163734 0.352749 0.00101275
-0.136962 0.0158836 0.35444 0.00127574
-0.256943 -0.237265 -0.316628 0.00095822
-0.261432 -0.227672 -0.303203 0.00329978
-0.244253 -0.235765 -0.309497 0.00122296
-0.248553 -0.226544 -0.294764 0.00220094
-0.403858 -0.452103 -0.338033 0.00179512
-0.4146 -0.435426 -0.332076 0.00249967
-0.416539 -0.456441 -0.32306 0.00136846
-0.426983 -0.439585 -0.317159 0.0011137
0.425784 0.492537 0.224315 0.00196301
0.416589 0.503984 0.230185 0.00175241
0.419689 0.487064 0.240109 0.0004873
0.410158 0.498503 0.245883 0.000754212
-0.00520691 0.501433 0.417653 0.00108028
0.00113261 0.51587 0.41079 0.000268629
0.0164427 0.502155 0.42279 0.00271742
0.0237092 0.51615 0.416296 0.000925238
-0.315211 0.425286 -0.228449 0.00188391
-0.312589 0.442087 -0.220728 0.00179208
-0.29968 0.435389 -0.228677 0.00148233
-0.29712 0.451633 -0.220886 0.00179717
0.409934 0.546515 0.151074 0.00140094
0.395516 0.560277 0.15624 0.000726048
0.409386 0.531475 0.170205 0.00413687
0.396337 0.545074 0.175058 0.00409743
0.240119 -0.535061 0.0097356 0.000384251
0.246206 -0.518242 0.00946273 0.000990068
0.245086 -0.531862 0.0285607 0.000304477
0.251341 -0.514741 0.0272484 0.00127293
-0.0995893 -0.291055 0.103259 0.00407784
-0.0921498 -0.274711 0.0951897 0.00157224
-0.0894197 -0.288717 0.119523 0.000730308
-0.0822045 -0.272025 0.111779 0.00438466
0.456768 0.493083 -0.130089 0.000425413
0.461472 0.514033 -0.131051 0.000740232
0.472945 0.498763 -0.117829 0.000398176
0.478458 0.520786 -0.119491 0.000871133
-0.154147 -0.271077 0.0544606 0.00260761
-0.144126 -0.262156 0.0406261 0.00203764
-0.133714 -0.276709 0.0655464 0.00080449
-0.124173 -0.266138 0.0510691 0.00271629
0.0201424 -0.664896 0.264262 0.0040785
0.0226322 -0.647332 0.258134 0.00254588
0.0367308 -0.665933 0.263614 0.00273353
0.0408994 -0.648482 0.257746 0.00370754
0.202785 0.0276781 -0.274648 0.000209981
0.21616 0.0416706 -0.280875 0.000319265
0.226503 0.0327196 -0.266471 0.00141632
0.236781 0.0480238 -0.273366 0.00194856
-0.277037 0.0916644 -0.2775 0.00303592
-0.274095 0.110026 -0.278069 0.000488303
-0.260545 0.0930435 -0.273054 0.00384328
-0.257541 0.111868 -0.273769 0.00139769
-0.222918 -0.578585 -0.408542 0.00168533
-0.215759 -0.554912 -0.418429 0.00219184
-0.19977 -0.583967 -0.409304 0.00160591
-0.192965 -0.558596 -0.418674 0.00162746
-0.0314586 -0.80272 0.235707 0.00397609
-0.0395593 -0.799203 0.253544 0.00111598
-0.0182022 -0.798834 0.244554 0.000231688
-0.0252264 -0.795082 0.262518 0.00359943
-0.183014 0.592879 -0.135 0.00146401
-0.196495 0.596944 -0.115413 0.000628822
-0.171784 0.604776 -0.121121 0.00214237
-0.183178 0.608049 -0.103614 0.000127314
-0.300691 0.0730716 -0.145717 0.00108816
-0.303924 0.0836494 -0.139306 0.00106801
-0.289519 0.0745451 -0.136351 0.00247854
-0.29268 0.0853193 -0.128798 0.00546263
-0.360881 0.119681 -0.185527 0.000578575
-0.36563 0.133321 -0.179973 0.00330175
-0.352832 0.116998 -0.174089 0.00125203
-0.357931 0.13127 -0.166513 0.000217103
-0.112865 0.0117003 -0.202196 0.000312867
-0.130616 0.0175751 -0.202466 0.00224485
-0.100435 0.00164175 -0.194211 0.00213339
-0.120115 0.00687095 -0.192197 0.000752767
-0.162984 0.588297 -0.172132 0.000414502
-0.171374 0.592755 -0.155703 0.00116011
-0.157445 0.599417 -0.155004 0.000419772
-0.160585 0.603314 -0.142649 0.000682652
0.0940941 -0.379685 -0.17401 0.000425212
0.094774 -0.369317 -0.169789 0.000209675
0.103073 -0.375876 -0.161253 0.00127615
0.103288 -0.364384 -0.157416 0.00079342
0.173809 0.615265 0.347125 0.00442793
0.178876 0.630659 0.32814 0.00338346
0.185896 0.59681 0.353251 0.00156755
0.191063 0.612655 0.334205 0.00323794
-0.148236 -0.730734 -0.334711 0.00229054
-0.142429 -0.718084 -0.34374 0.000473346
-0.129708 -0.732061 -0.333666 0.000280787
-0.124786 -0.718974 -0.342627 0.00166532
-0.124185 -0.0623366 0.233352 0.00241831
-0.13806 -0.0498274 0.248457 0.00330338
-0.111302 -0.0605414 0.251409 0.00214824
-0.125263 -0.0479283 0.267051 0.000317353
-0.143196 -0.654394 0.210649 0.00678138
-0.138184 -0.638119 0.20198 0.00785032
-0.121182 -0.65171 0.212268 8.07621e-05
-0.116297 -0.635487 0.203965 0.00568716
-0.113447 -0.554226 -0.423327 0.000172955
-0.112917 -0.54008 -0.427518 0.000555539
-0.0953047 -0.558577 -0.420598 0.00203249
-0.0941859 -0.543815 -0.424714 0.0021206
0.432306 0.368516 -0.175969 0.000133101
0.430804 0.385133 -0.177333 0.00185474
0.441594 0.368248 -0.161194 0.000568987
0.440091 0.385145 -0.163336 0.00261644
-0.183849 -0.632875 0.176527 0.00200992
-0.175249 -0.613964 0.172062 5.17713e-05
-0.164598 -0.628979 0.177576 0.000184837
-0.155445 -0.610413 0.172619 0.000231692
-0.0311908 -0.524418 0.263485 0.00256452
-0.0387033 -0.507959 0.265127 0.00378494
-0.0123051 -0.524749 0.270285 0.00174042
-0.0202944 -0.507661 0.272484 0.000974824
-0.244971 -0.215805 -0.266122 0.00419513
-0.26104 -0.209648 -0.252556 0.0058512
-0.229791 -0.214547 -0.25376 0.000326212
-0.24566 -0.208802 -0.240465 0.000503119
-0.383564 -0.43757 -0.371766 0.000776153
-0.394482 -0.4209 -0.367672 0.000999726
-0.39614 -0.443194 -0.357368 0.00134347
-0.407639 -0.426967 -0.352236 0.000688345
0.01512 0.589255 0.364875 0.000896236
0.0241952 0.602595 0.355528 3.29041e-05
0.0313834 0.586742 0.371674 0.000789533
0.0404931 0.59974 0.362126 0.000913132
0.344031 0.804148 -0.0154346 0.000617122
0.365124 0.816274 -0.0257899 0.00136497
0.352606 0.81425 0.000456408 0.000517801
0.372809 0.82581 -0.0084807 0.000433454
0.104592 0.541043 -0.317663 0.0011381
0.0958787 0.556107 -0.309071 0.00120448
0.130345 0.5449 -0.313242 0.00173234
0.120232 0.559609 -0.306261 0.00206061
-0.319101 0.155782 0.0793721 0.000670524
-0.32627 0.167056 0.0874762 0.00139241
-0.313091 0.157027 0.0944345 0.0016051
-0.320167 0.168589 0.10278 0.00135982
0.159575 -0.228114 0.321786 0.000409549
0.164472 -0.212225 0.310717 0.00185166
0.172653 -0.232625 0.319689 0.000752789
0.177854 -0.217008 0.308579 0.000885772
0.452881 0.325365 0.28167 0.00455672
0.439439 0.345634 0.289791 6.82652e-05
0.43598 0.320569 0.291463 0.00502062
0.422441 0.340957 0.299657 0.00769313
0.0569766 -0.660674 0.242992 0.00825439
0.0592196 -0.643679 0.242452 0.00124461
0.0719892 -0.655475 0.239258 0.0012177
0.074211 -0.638617 0.2412 0.00559899
0.195818 0.143314 -0.343193 0.000681846
0.201347 0.160867 -0.347044 0.00167163
0.214791 0.143596 -0.338583 0.000697531
0.220832 0.160472 -0.342087 0.000608014
0.0564729 -0.611015 0.241953 0.000864844
0.0579147 -0.593469 0.247272 0.00113019
0.0724913 -0.604892 0.239647 0.000188274
0.0733002 -0.588085 0.24611 0.00109529
-0.35299 -0.745982 -0.0643681 0.00144337
-0.364221 -0.732353 -0.0605331 0.000382389
-0.342388 -0.754986 -0.0480982 0.00296874
-0.354238 -0.74147 -0.0430357 0.00143001
-0.3293 -0.623062 0.132085 0.00139194
-0.332388 -0.608259 0.132754 0.000374172
-0.318148 -0.621602 0.13819 0.000442533
-0.320208 -0.606779 0.139194 0.00179598
-0.477786 0.338385 -0.0227576 0.00197438
-0.482491 0.356059 -0.0169237 0.00300039
-0.472668 0.333073 -0.00528742 0.00159843
-0.476548 0.35145 0.000164089 0.00644814
0.19346 0.607979 -0.241382 0.00251601
0.185814 0.619793 -0.231813 0.00182698
0.210011 0.604844 -0.231915 0.00078396
0.203411 0.618525 -0.221746 0.000461155
0.249252 0.159587 0.49364 0.00121056
0.242754 0.1739 0.493511 0.00179453
0.26201 0.147142 0.488595 0.00420848
0.253907 0.161355 0.49088 0.00115267
-0.356029 0.178497 -0.0738969 0.00401866
-0.369459 0.197626 -0.0702066 0.00253688
-0.349457 0.175137 -0.0539399 0.00150914
-0.363257 0.194614 -0.0507864 0.00316819
0.435668 0.485065 0.205361 0.000670678
0.426769 0.498466 0.210749 0.00121974
0.430514 0.480065 0.220095 0.00125232
0.421111 0.492237 0.225565 0.00162419
-0.19434 -0.677606 0.219429 0.00232595
-0.189311 -0.660676 0.211331 0.00608751
-0.179187 -0.675815 0.218634 0.00301967
-0.174032 -0.659344 0.209557 0.00430148
0.0420391 -0.026707 0.421958 0.000660258
0.0407302 -0.0113064 0.438351 0.00166601
0.0625138 -0.0191994 0.432364 0.00243119
0.0615003 -0.0031888 0.448891 0.0015277
-0.33459 0.285992 0.105129 0.00424807
-0.324852 0.308164 0.107079 0.00376805
-0.328471 0.290976 0.124176 0.00141147
-0.320003 0.312722 0.126118 0.00552593
-0.0436085 0.173487 -0.353314 0.000923662
-0.041623 0.19257 -0.362182 0.00123464
-0.0244064 0.168738 -0.356559 0.00185728
-0.0205728 0.186621 -0.36509 0.000133169
0.149118 0.530493 0.405859 0.000400845
0.150397 0.55121 0.39735 0.00172518
0.168527 0.526199 0.407359 0.00227558
0.168464 0.547266 0.398865 0.00394784
0.0702572 0.18097 -0.379078 0.00216791
0.0753291 0.194468 -0.381228 0.000292488
0.0878729 0.181831 -0.378515 0.00132128
0.0925309 0.196187 -0.380943 0.000571908
-0.308159 0.436935 0.0904104 0.00210014
-0.302518 0.450419 0.0874628 0.000443583
-0.304694 0.439924 0.103016 0.000880324
-0.29973 0.453565 0.10031 0.000814024
-0.0490477 0.656538 -0.147725 0.00252188
-0.0330513 0.66415 -0.149857 0.0013985
-0.0386289 0.667263 -0.133273 0.00207221
-0.0248857 0.67492 -0.134078 0.000240693
-0.426782 -0.308908 -0.0755345 0.000350072
-0.417156 -0.29217 -0.0797908 0.000624463
-0.416493 -0.299146 -0.0603813 0.000465384
-0.406208 -0.282439 -0.0645709 0.00250999
0.291119 -0.329218 0.0221246 0.00398452
0.291933 -0.312384 0.0215093 0.000518563
0.30292 -0.324117 0.0372928 0.000951137
0.300957 -0.306276 0.0351137 0.00340237
-0.0124459 -0.558201 -0.384136 0.00028124
-0.00671644 -0.540217 -0.388587 0.00260041
-0.00249523 -0.560001 -0.37432 0.00255075
0.00257515 -0.541642 -0.379263 0.000144071
0.392019 0.0208695 -0.0854003 0.00377287
0.403167 0.0410174 -0.0932383 0.00201394
0.403072 0.0303225 -0.067876 0.00058782
0.414035 0.0504665 -0.0761759 0.000885934
0.48652 0.158603 0.030056 0.00272182
0.492474 0.175062 0.0295692 0.000424457
0.49033 0.160233 0.0471538 0.000315737
0.494431 0.175762 0.0438954 0.000452057
0.226098 -0.668814 0.0586566 0.000872062
0.227055 -0.650003 0.0624394 0.00424061
0.211486 -0.663258 0.0764222 0.00183178
0.213294 -0.644573 0.0800769 0.000280687
-0.339589 -0.193129 -0.322643 0.00131581
-0.343796 -0.182572 -0.319284 0.00517469
-0.334831 -0.189532 -0.308711 0.0052636
-0.339553 -0.179906 -0.303658 0.00188424
-0.200406 -0.794339 -0.118279 0.000814402
-0.214533 -0.796344 -0.101665 0.00239941
-0.188211 -0.792255 -0.106182 0.000333837
-0.200775 -0.79501 -0.0902313 0.00169305
0.458353 0.474471 0.158604 0.001711
0.450232 0.490319 0.161447 0.00205164
0.453406 0.471307 0.171379 0.00161857
0.445491 0.487058 0.174275 0.000176844
0.333396 0.628025 0.168003 0.00238328
0.319294 0.635967 0.174049 0.000321894
0.337432 0.616778 0.180347 0.000952982
0.323257 0.625178 0.188047 0.00111623
-0.188899 0.597153 -0.116447 0.00217111
-0.202233 0.600899 -0.0974446 0.000234162
-0.178087 0.607356 -0.102929 0.00327091
-0.188543 0.610909 -0.0859334 0.000368296
0.330736 -0.0354611 0.237227 0.00151756
0.34308 -0.0228178 0.235594 0.00104873
0.334022 -0.0236258 0.257312 0.000482392
0.347586 -0.0106475 0.254941 0.00177414
-0.0093572 -0.685299 -0.305463 0.00079643
-0.00459374 -0.672332 -0.308928 0.000765543
0.00421448 -0.681549 -0.296967 0.00325564
0.0083921 -0.668307 -0.300385 0.000529285
-0.289315 0.460762 0.157554 0.00062005
-0.28246 0.477207 0.156001 0.000121007
-0.285248 0.464817 0.17226 0.00111512
-0.277988 0.481915 0.170375 0.000831501
-0.0464038 -0.256865 0.120117 0.00127867
-0.0383872 -0.241815 0.117264 0.000908247
-0.0390629 -0.249048 0.135076 0.00184473
-0.0315418 -0.234859 0.133019 0.000269592
0.499027 0.334914 0.112959 0.000669592
0.499017 0.355274 0.118281 0.00151535
0.494954 0.344299 0.133898 0.000686795
0.49417 0.363938 0.13956 0.000290262
-0.420763 -0.602374 0.0171181 0.000359959
-0.426595 -0.585191 0.0160999 0.00154602
-0.414086 -0.60274 0.0333498 0.000924565
-0.41988 -0.585858 0.0324053 0.00272158
-0.345191 0.327858 0.0500259 0.00342264
-0.335844 0.347604 0.0518363 0.000159316
-0.334983 0.330568 0.0705414 0.0034448
-0.324913 0.350764 0.0728039 0.00193886
-0.0638285 0.312362 0.41807 0.00011311
-0.0627366 0.331949 0.418762 0.0013179
-0.051864 0.316481 0.429483 0.00216764
-0.049899 0.334726 0.428855 0.00102384
-0.0999632 -0.491435 0.206827 0.00250479
-0.0963577 -0.472785 0.207529 0.00105602
-0.0854182 -0.483294 0.220142 0.000488814
-0.081835 -0.464668 0.220865 0.00267887
-0.111513 0.255885 -0.348221 0.00169841
-0.10836 0.274862 -0.348432 0.000901948
-0.0939325 0.263432 -0.355405 0.000316618
-0.0903004 0.282424 -0.355336 0.00213012
-0.323926 0.140611 -0.0578495 0.000805977
-0.334793 0.155226 -0.0502652 0.000617691
-0.318553 0.136876 -0.0373017 0.00176666
-0.32983 0.151962 -0.029391 0.00335012
-0.29114 0.0620187 -0.14827 0.0020567
-0.294109 0.0723994 -0.141025 0.00206415
-0.275573 0.0643465 -0.140061 0.00211648
-0.28011 0.0744766 -0.132754 0.00545818
-0.236026 -0.312233 0.0855627 2.47388e-05
-0.222792 -0.300197 0.0787675 0.00164803
-0.217721 -0.316695 0.0900556 0.000193013
-0.203855 -0.303867 0.0834391 0.00138737
0.23697 0.296369 0.399715 0.00102429
0.216152 0.310585 0.406884 0.000315445
0.254817 0.285672 0.392607 0.00360615
