0.312687 0.155743 -0.0487597 0.000352904
0.303944 0.142336 -0.0331113 0.00500786
0.304338 0.157506 -0.0315276 0.00577041
0.149319 -0.46277 0.405363 0.00127605
0.145353 -0.444333 0.409649 0.00471997
0.164313 -0.461187 0.399644 0.0110175
0.159508 -0.443381 0.404611 0.00570788
0.128208 0.589041 0.289256 0.00740223
0.108771 0.599645 0.295226 0.0106578
0.130823 0.575931 0.304651 0.00623685
0.113985 0.587019 0.310225 0.00221225
-0.169458 -0.372067 0.397339 0.00224061
-0.166315 -0.349115 0.396099 0.00373305
-0.148368 -0.364097 0.40938 0.00142816
-0.145526 -0.340905 0.407963 0.00269579
0.00168269 0.946206 -0.262191 0.00105805
-0.010901 0.952859 -0.253755 0.000726918
0.0143092 0.95142 -0.255583 0.000450689
0.00123736 0.957933 -0.247425 0.000583235
-0.215631 0.528404 -0.0557186 0.000537285
-0.213956 0.545404 -0.0537469 0.00127183
-0.216202 0.532638 -0.0373531 0.000689092
-0.214955 0.550011 -0.0356521 0.000674867
-0.380116 -0.503228 -0.0343892 0.00140789
-0.37846 -0.482995 -0.0319928 0.00104682
-0.380515 -0.495454 -0.0195412 0.00200094
-0.377842 -0.476502 -0.0164001 0.000590016
-0.236392 -0.557226 0.334743 0.0033844
-0.236961 -0.541143 0.335907 0.000580438
-0.222851 -0.557415 0.345085 0.00141548
-0.223909 -0.540911 0.345914 0.00148782
0.160656 0.64625 -0.276336 0.00432668
0.16423 0.663961 -0.276675 0.00204713
0.182047 0.649442 -0.275445 0.0035872
0.185097 0.666432 -0.275836 0.00170933
-0.314324 -0.154511 0.0985037 0.00228193
-0.312044 -0.133858 0.102062 0.00138408
-0.310848 -0.150701 0.117374 5.56625e-05
-0.308396 -0.129559 0.120943 0.00128324
-0.211247 0.422198 0.110556 2.66816e-05
-0.210733 0.440814 0.112238 0.00155495
-0.211321 0.428957 0.125003 1.42858e-05
-0.210825 0.444266 0.127815 0.00106637
0.227614 0.67816 -0.0830006 0.00368866
0.226174 0.697917 -0.0815633 0.00234413
0.224006 0.682891 -0.0676433 0.00063823
0.22362 0.702557 -0.066873 0.000736754
0.272978 -0.687005 -0.00239296 0.00252841
0.264751 -0.688098 0.0185939 0.00451478
0.286387 -0.680971 0.0149382 0.00407021
0.279421 -0.681619 0.0351448 0.0023443
-0.309668 -0.111938 0.126135 0.0010755
-0.306511 -0.0870253 0.124748 0.000500783
-0.302215 -0.100998 0.145147 0.000247137
-0.299343 -0.0759293 0.143227 0.000965059
-0.0837678 0.920492 -0.278534 0.00513614
-0.0850184 0.935231 -0.270542 0.000422575
-0.0683934 0.925188 -0.275546 0.00249084
-0.0725434 0.938281 -0.266066 0.00356979
0.195514 0.0377107 -0.289074 0.00354797
0.202016 0.0570999 -0.289503 0.00146684
0.216357 0.0392149 -0.289026 0.000555286
0.223854 0.058525 -0.288706 0.000250965
0.20605 0.265761 0.183723 0.00145239
0.2079 0.282736 0.185498 0.000134041
0.204167 0.270281 0.200664 0.000729285
0.205955 0.287142 0.202237 0.00180955
-0.373302 -0.304897 -0.143193 0.00121971
-0.369989 -0.287435 -0.140239 0.00179538
-0.373694 -0.299376 -0.123186 0.00115117
-0.370218 -0.281617 -0.120443 0.000947974
0.16288 -0.685992 0.238697 0.00016103
0.155096 -0.687155 0.250901 0.00134389
0.173562 -0.684684 0.249325 0.00175791
0.166602 -0.685506 0.261393 0.00027959
0.105697 -0.695852 -0.284376 0.000510024
0.121495 -0.694904 -0.28664 0.000475811
0.122835 -0.694914 -0.275474 0.00145867
0.136632 -0.695014 -0.275292 0.00154708
0.179933 -0.37016 0.41164 0.000226594
0.181494 -0.348892 0.410458 0.000742456
0.191682 -0.367863 0.407241 0.00233007
0.193605 -0.346467 0.405612 0.00320524
-0.263379 0.199766 -0.000335688 0.0113914
-0.250381 0.216541 -0.00350468 9.86337e-05
-0.252759 0.207393 0.0140861 0.00318775
-0.240596 0.224759 0.0105664 0.00963618
0.35626 -0.470977 0.116463 0.000836763
0.358835 -0.455554 0.119822 0.00117668
0.351252 -0.464361 0.135285 0.00204272
0.353325 -0.448931 0.140231 0.000728399
0.148015 0.214888 0.311602 0.000460403
0.13565 0.224071 0.329357 0.00146165
0.16037 0.228745 0.320401 0.00195871
0.147273 0.236938 0.339293 0.000930168
0.0778901 0.466308 -0.28774 0.00190053
0.083108 0.482528 -0.287806 0.000948585
0.0957379 0.468555 -0.288372 1.23437e-05
0.101031 0.485244 -0.288202 0.000577924
-0.263513 0.265372 -0.258984 0.00745604
-0.246573 0.276841 -0.262594 0.00235199
-0.257411 0.271967 -0.24551 0.000887029
-0.241064 0.283548 -0.249626 0.00434553
0.0445138 -0.21753 -0.286191 0.00225934
0.0451398 -0.201026 -0.288117 0.00251148
0.0635878 -0.220978 -0.286508 0.0018337
0.0664213 -0.203472 -0.288543 0.00134742
0.376181 -0.412225 -0.0567544 0.000606664
0.37781 -0.393749 -0.0504047 0.00190416
0.375677 -0.4097 -0.0359431 0.000946918
0.377558 -0.391196 -0.0296434 0.00137314
0.211843 0.267698 -0.0244284 0.00134061
0.208166 0.283692 -0.0215931 0.00191106
0.212791 0.2671 -0.00940529 0.00187402
0.208533 0.282679 -0.00623919 0.00244889
-0.205651 0.341272 0.133962 0.00123376
-0.20605 0.357859 0.134927 7.70957e-05
-0.20542 0.340369 0.154257 0.000850121
-0.205635 0.356456 0.156281 0.000511961
0.096641 0.616215 0.320245 0.00750361
0.0818418 0.624292 0.326109 0.00349515
0.0989019 0.601551 0.334606 0.00291149
0.0879382 0.612241 0.342396 0.00159455
-0.207802 0.413727 -0.144582 0.000632825
-0.210787 0.429588 -0.140406 0.000426288
-0.21287 0.416441 -0.125825 0.00343881
-0.213706 0.433873 -0.123345 0.00318115
-0.331711 -0.218338 -0.279677 0.00799769
-0.328339 -0.196907 -0.281157 0.00452013
-0.341719 -0.212409 -0.266865 0.00108391
-0.339958 -0.192096 -0.264778 0.00506541
0.233364 0.646489 0.115559 0.00453879
0.226208 0.657193 0.122559 0.00101339
0.228296 0.645206 0.130537 0.00106758
0.222019 0.655385 0.135942 0.00234335
-0.115421 0.427487 0.379389 0.00324202
-0.10999 0.444039 0.373603 0.000107578
-0.0982957 0.430198 0.385551 0.00323548
-0.092275 0.447076 0.378498 0.00257065
-0.338708 -0.48647 -0.204228 0.00367679
-0.333282 -0.46719 -0.202143 0.00330011
-0.345779 -0.476757 -0.189288 0.000424459
-0.340806 -0.457436 -0.187211 0.0092797
-0.117072 -0.432567 -0.304874 0.00123333
-0.113168 -0.41505 -0.30022 0.000552232
-0.100731 -0.423703 -0.303965 0.000178661
-0.0970657 -0.406861 -0.299697 0.00120622
-0.312177 -0.488025 0.228404 0.00343866
-0.314504 -0.466566 0.223692 0.0033825
-0.303434 -0.487835 0.246975 0.00239496
-0.305523 -0.467227 0.242413 0.00224185
0.182306 0.508163 0.307804 0.00138895
0.168367 0.521628 0.311868 0.00817351
0.179032 0.494959 0.318353 0.00177873
0.166989 0.509108 0.321989 0.00339207
0.126914 0.102547 0.314195 0.00419671
0.131026 0.119293 0.304785 0.00224107
0.142879 0.0916075 0.309221 0.00100775
0.147828 0.107513 0.298932 0.00246944
0.164609 -0.174009 -0.287609 0.000898653
0.166791 -0.15709 -0.288549 0.000631372
0.184851 -0.173466 -0.286518 0.000437054
0.186951 -0.156029 -0.287138 0.000119589
0.33936 -0.518744 -0.204174 7.94909e-05
0.336456 -0.501952 -0.203817 0.00179478
0.345253 -0.518104 -0.184898 0.00073456
0.342324 -0.500608 -0.185593 0.00392338
0.289973 0.172124 0.141568 0.000526828
0.279776 0.187006 0.149789 0.00340839
0.283365 0.169027 0.158707 0.000776044
0.273466 0.183764 0.166563 0.00129939
0.243478 -0.681208 0.224505 0.00227496
0.235628 -0.680835 0.237449 0.00150539
0.245848 -0.67968 0.238756 0.00618288
0.243169 -0.673953 0.247478 0.00456052
0.183399 0.715517 -0.276595 0.000838904
0.184638 0.730977 -0.277233 0.000723834
0.200693 0.71589 -0.271975 0.00501293
0.2032 0.731487 -0.274011 0.00160309
0.208787 0.254714 -0.290142 0.0017253
0.203089 0.269734 -0.282196 0.00571338
0.226412 0.254301 -0.288706 0.00169197
0.219585 0.268942 -0.279964 0.00749423
0.295744 -0.694013 -0.185354 0.00162308
0.315775 -0.691297 -0.19175 0.000896425
0.306075 -0.692675 -0.171167 0.000290472
0.32504 -0.690074 -0.177021 0.00203508
-0.303258 0.0506067 0.0775505 0.00152887
-0.300792 0.0683107 0.0767729 0.00261686
-0.300373 0.0576925 0.0962706 0.00106349
-0.298375 0.0749936 0.0966112 0.00043104
0.101066 0.100685 0.31824 0.000721841
0.104539 0.118613 0.310578 0.000167957
0.118231 0.0945409 0.315426 0.00039945
0.121839 0.112138 0.306522 0.00104399
0.135471 0.952107 0.0121038 0.00407966
0.117448 0.954226 0.0207152 0.000437303
0.139544 0.946703 0.0269649 0.00605216
0.122382 0.951971 0.0334842 0.000757137
-0.0925403 -0.0040282 -0.306227 0.000642385
-0.0902257 0.0192997 -0.307111 0.000488432
-0.0672295 -0.00305686 -0.306168 0.000341584
-0.0670349 0.0205813 -0.307611 0.000414572
0.129876 0.277626 -0.289965 0.000608382
0.130805 0.293016 -0.289685 0.000521323
0.152025 0.279604 -0.286627 0.00293733
0.152492 0.295847 -0.286452 0.00176582
0.0269545 0.274633 -0.29424 0.00353345
0.0266166 0.291517 -0.294045 0.000999589
0.0491144 0.275336 -0.293883 0.00130452
0.0494003 0.291526 -0.29398 0.000555359
-0.0445143 -0.328519 -0.278711 0.00263001
-0.0448302 -0.311364 -0.278411 0.00391305
-0.0285719 -0.324976 -0.280377 0.000739104
-0.028854 -0.308598 -0.279858 0.00338948
-0.134372 -0.682397 -0.0635297 0.00676921
-0.140981 -0.684586 -0.0440257 0.00100481
-0.123201 -0.678104 -0.0509043 0.00485567
-0.128978 -0.680378 -0.031534 0.00278783
-0.344436 0.0807017 -0.173845 0.00160831
-0.341505 0.0995607 -0.17425 0.000475578
-0.342548 0.0879092 -0.157629 0.00130888
-0.339509 0.107199 -0.158344 0.000721967
-0.0765659 0.598543 0.365646 0.00246048
-0.0670545 0.611232 0.35963 0.00309113
-0.0653279 0.600575 0.375206 0.00333011
-0.0573144 0.613008 0.369279 0.00265216
-0.113057 0.102261 0.311339 0.00077957
-0.109545 0.11631 0.308037 0.00217636
-0.0971081 0.101794 0.315397 4.12625e-05
-0.0925111 0.115633 0.312628 0.000634367
-0.189724 -0.692882 -0.219707 0.00294411
-0.202179 -0.694394 -0.205076 0.00132815
-0.175116 -0.691332 -0.204199 0.00355815
-0.186633 -0.692221 -0.190825 0.00912577
-0.339178 0.043062 -0.106481 0.000370168
-0.337225 0.062063 -0.105855 0.00102567
-0.337204 0.0448503 -0.0915159 0.000262676
-0.334877 0.0639507 -0.090375 0.000444838
-0.213587 0.60163 0.0790703 0.00179093
-0.212621 0.61944 0.076467 0.0013598
-0.210099 0.601064 0.0973883 0.000799897
-0.209228 0.618815 0.0940427 0.00121322
0.265051 -0.0913457 0.279373 0.000198519
0.258167 -0.0735806 0.282162 0.000801022
0.252887 -0.104094 0.292604 0.00194106
0.244045 -0.086886 0.296887 0.00216091
-0.300274 -0.692697 0.132603 0.00446358
-0.310255 -0.680926 0.138184 0.000316938
-0.289959 -0.694839 0.144435 0.00513313
-0.300248 -0.685226 0.152704 0.00191612
-0.208408 0.390529 0.0978129 0.00119203
-0.208185 0.410734 0.100192 0.00271735
-0.208782 0.397418 0.110837 0.000811454
-0.208471 0.414863 0.114928 0.0022148
0.172358 0.528344 -0.273681 0.00606827
0.179325 0.547096 -0.279819 0.00162531
0.189381 0.52664 -0.271029 0.00625514
0.196934 0.545564 -0.277754 0.00172498
0.0101807 -0.69713 -0.293925 0.00217678
0.0250269 -0.692402 -0.303552 0.00375375
0.0256266 -0.696368 -0.289398 0.000809526
0.0347127 -0.69473 -0.2905 0.000916437
-0.277002 -0.48939 0.292402 2.97027e-05
-0.279836 -0.471448 0.289122 6.7753e-05
-0.268033 -0.489089 0.306619 0.000239267
-0.270498 -0.47184 0.304301 0.00180104
0.216983 0.367177 0.135111 0.000553989
0.220047 0.383198 0.134745 0.000262496
0.216592 0.370657 0.149969 0.00143525
0.219471 0.386617 0.149767 0.00114835
-0.366069 -0.419017 0.0614587 0.000332544
-0.363038 -0.398757 0.0622241 0.00180355
-0.362549 -0.40983 0.0803852 0.000513643
-0.35983 -0.391112 0.0817681 0.000990896
-0.0753038 0.279559 -0.300792 0.000478557
-0.0816287 0.299236 -0.297091 0.00207973
-0.0565963 0.28452 -0.299243 0.000295287
-0.0631122 0.303869 -0.295789 0.00310385
-0.0795372 0.73347 0.103336 0.00456084
-0.0717834 0.749073 0.0970081 0.00118173
-0.0621584 0.736115 0.109959 0.00173518
-0.0554875 0.75251 0.104013 0.002813
-0.35744 -0.620888 -0.184844 0.00148296
-0.35602 -0.604061 -0.1835 0.00152608
-0.360323 -0.614977 -0.170885 0.00129896
-0.35789 -0.597495 -0.169654 0.000117157
-0.30075 -0.593197 0.203937 0.00135313
-0.304004 -0.574547 0.20233 0.00234538
-0.293049 -0.597064 0.220728 0.00269569
-0.297059 -0.578368 0.219087 0.000599959
0.167694 -0.517136 -0.317107 0.00248815
0.167581 -0.501327 -0.309647 0.000193426
0.186417 -0.514338 -0.313058 0.00171983
0.185506 -0.499254 -0.306639 0.00046907
-0.20898 0.279688 -0.242802 0.00844841
-0.199666 0.295129 -0.246372 0.00141619
-0.206363 0.284051 -0.228176 0.00445776
-0.197815 0.299842 -0.231217 0.00183885
0.194093 -0.689496 0.267029 0.00178493
0.188684 -0.689549 0.279108 0.00278683
0.200133 -0.685182 0.278082 0.000568494
0.196442 -0.68333 0.289267 0.000978479
-0.354076 -0.677047 -0.210822 0.000113112
-0.36107 -0.667 -0.205672 0.0035169
-0.349786 -0.677444 -0.198603 0.00534655
-0.359149 -0.668334 -0.191679 0.000778422
-0.149649 -0.682406 0.344911 0.000566058
-0.157733 -0.670816 0.355003 0.00146671
-0.13552 -0.682444 0.350029 0.00156965
-0.142525 -0.670194 0.359837 0.00146772
-0.0382118 0.655637 0.333355 0.00300944
-0.0253991 0.663853 0.324045 0.00192413
-0.0259469 0.655962 0.34364 0.000949061
-0.0134898 0.663629 0.334263 0.00212992
0.243391 -0.107299 0.304464 0.000712709
0.234046 -0.090075 0.308461 0.00116712
0.231592 -0.123947 0.317437 0.00248697
0.225099 -0.107346 0.318662 0.00228716
-0.186319 -0.00520437 -0.300828 0.00121779
-0.187201 0.0150572 -0.300772 0.00135028
-0.165885 -0.00452268 -0.300769 0.00193191
-0.165435 0.0159409 -0.301213 0.00243556
0.135345 -0.493035 -0.312069 0.0023852
0.136177 -0.475295 -0.305287 0.00193106
0.149279 -0.486701 -0.30843 0.00150104
0.150509 -0.469928 -0.301434 0.00275582
0.264665 0.61465 -0.143834 0.00175529
0.26243 0.628994 -0.141118 0.000237553
0.260784 0.617478 -0.125075 0.00811062
0.258205 0.631415 -0.120553 0.0131592
0.182044 -0.68675 0.237273 0.00141191
0.174724 -0.687437 0.249272 0.000953592
0.194429 -0.683919 0.248857 0.00332039
0.187141 -0.684432 0.260945 0.00234987
0.366718 -0.367316 -0.11925 0.00331509
0.368414 -0.3504 -0.117545 0.00115317
0.369564 -0.366319 -0.102759 0.00161703
0.370194 -0.350083 -0.100308 0.000393874
-0.120032 -0.68402 0.215868 6.83252e-05
-0.13139 -0.686437 0.233366 0.00507281
-0.107014 -0.681076 0.231347 0.00219959
-0.117565 -0.683333 0.248994 0.00148801
-0.0136463 0.021821 -0.300455 0.00356275
-0.0180675 0.043974 -0.30197 0.00196738
0.00767407 0.0228342 -0.300587 0.00141117
0.00427869 0.0441027 -0.301924 0.000326475
0.312845 -0.117909 -0.0024696 0.00240015
0.311453 -0.0955669 0.00099942 0.001642
0.305868 -0.111779 0.0129272 0.00182871
0.304741 -0.0887435 0.0162491 0.00312703
0.274569 0.266029 -0.208595 0.00139487
0.257824 0.269391 -0.199753 0.000201956
0.281941 0.258357 -0.194724 0.00116237
0.266401 0.264416 -0.186687 0.000767659
-0.197899 0.266859 0.0893072 0.00144894
-0.19585 0.286253 0.0849304 0.00321712
-0.19637 0.26523 0.108585 0.000744305
-0.194157 0.284584 0.10409 0.00305629
-0.1881 0.775312 -0.271249 0.00137029
-0.187042 0.790215 -0.270908 0.000222373
-0.171011 0.779475 -0.274088 0.00018756
-0.172305 0.795121 -0.273044 0.00175441
0.0870009 0.764682 -0.280863 0.00142815
0.091237 0.784487 -0.280854 0.000327838
0.104409 0.767863 -0.28186 6.44769e-05
0.107911 0.786915 -0.282185 0.00288976
-0.308381 0.15458 -0.0341437 0.00187936
-0.304495 0.171192 -0.0307047 0.000600083
-0.305906 0.159655 -0.0154175 0.000529222
-0.301777 0.176129 -0.0120224 0.00211595
-0.265309 -0.0971382 -0.294515 0.00187446
-0.262282 -0.0803737 -0.296919 0.000804135
-0.249176 -0.0944143 -0.296451 0.000712435
-0.24598 -0.0779854 -0.298753 0.00118057
-0.280986 -0.560551 0.270625 0.0027445
-0.284051 -0.544558 0.267532 0.00125177
-0.271386 -0.558569 0.285383 0.0012838
-0.273413 -0.543273 0.283423 0.00366404
0.0736202 -0.224864 0.414256 0.00204882
0.0810911 -0.21187 0.40996 0.000538716
0.0902376 -0.221221 0.413217 0.000122814
0.0975821 -0.2081 0.408586 0.000938035
-0.0863944 -0.562838 0.412199 0.00463551
-0.0824359 -0.544479 0.414875 0.00326843
-0.0688087 -0.555582 0.417754 0.00200418
-0.0654288 -0.538304 0.420122 0.0024347
-0.247056 0.495507 -0.191848 0.000573342
-0.254882 0.50968 -0.188214 0.00112095
-0.247315 0.492187 -0.176005 0.00495118
-0.25476 0.506822 -0.17283 0.00188241
-0.295683 -0.434217 0.254162 0.000912085
-0.295323 -0.414345 0.252124 0.00104962
-0.284629 -0.428226 0.274 0.00198598
-0.284584 -0.408337 0.271395 0.000218496
0.357525 -0.506776 0.0854726 0.000445484
0.362566 -0.492341 0.0817066 0.000631013
0.357565 -0.501356 0.0989076 0.00129106
0.361879 -0.48665 0.0966523 0.00171843
-0.21534 0.639243 0.0679731 0.00412236
-0.211874 0.660277 0.0633405 9.9305e-05
-0.208164 0.638737 0.0860895 0.000787929
-0.204355 0.658376 0.080677 0.00556285
-0.147462 0.792425 -0.275608 0.00177015
-0.150132 0.808557 -0.273554 0.00225842
-0.129826 0.796654 -0.27769 0.00255221
-0.132753 0.813073 -0.27559 0.000266302
0.201946 0.159449 -0.289831 0.00115161
0.200984 0.17632 -0.289927 0.00102975
0.223868 0.15912 -0.288354 5.41037e-05
0.221855 0.175774 -0.287711 0.00134163
-0.170471 0.05606 -0.303804 0.00074638
-0.166236 0.0778125 -0.30449 0.000936398
-0.148186 0.0609663 -0.303609 0.00203239
-0.143592 0.0826078 -0.304128 0.00112925
-0.248768 0.0521248 0.215007 0.00273562
-0.244729 0.072225 0.216106 0.000157177
-0.238328 0.0596541 0.237868 0.00473518
-0.233835 0.0803084 0.238058 0.00600972
0.132559 -0.412153 -0.285808 0.00348743
0.130492 -0.396289 -0.282582 0.000645901
0.150649 -0.412771 -0.283618 0.00113703
0.148445 -0.396832 -0.280262 0.000173961
-0.0281372 0.834342 0.153197 0.00411271
-0.0250599 0.850935 0.15646 0.00162858
-0.0150078 0.8366 0.153808 0.00117664
-0.0119443 0.854422 0.158407 0.00363061
0.341656 -0.0755198 -0.186044 0.000636701
0.34376 -0.0569441 -0.182027 0.00250963
0.343126 -0.0705863 -0.166684 1.09707e-05
0.344887 -0.0522322 -0.162479 0.00212707
-0.213693 0.659932 -0.0740518 0.000178571
-0.213214 0.6755 -0.0725296 0.000476036
-0.212271 0.665919 -0.0568305 0.000346573
-0.211617 0.681868 -0.0554298 0.000363644
-0.33499 -0.055021 -0.287755 0.00474946
-0.330457 -0.0361231 -0.285994 0.000243188
-0.341727 -0.0435337 -0.276085 0.000306949
-0.338129 -0.025525 -0.273613 0.00316492
0.028495 -0.689061 0.11614 0.00422124
0.0201225 -0.69045 0.12899 0.00208114
0.0363135 -0.69007 0.128326 0.00111866
0.0325621 -0.691284 0.139005 0.00299312
0.176949 -0.679163 0.0126064 0.001756
0.1836 -0.678964 0.0161521 0.000841797
0.190532 -0.679631 0.027425 0.0011046
0.192199 -0.681526 0.0344858 0.00325653
0.0439481 0.396866 0.426223 0.00179006
0.0473916 0.40721 0.421267 0.00134798
0.0577546 0.393217 0.426583 0.00090986
0.0611156 0.403621 0.421846 0.00101618
0.376077 -0.406075 -0.0452172 0.000146335
0.377334 -0.387595 -0.0386558 0.001433
0.375807 -0.402599 -0.0249409 0.000549132
0.377599 -0.384642 -0.0188677 0.00268377
-0.212963 0.759368 -0.269731 2.72737e-05
-0.211067 0.773972 -0.270313 0.000295796
-0.202524 0.762502 -0.270349 2.79472e-05
-0.20124 0.776752 -0.270655 0.000294242
-0.210339 0.451326 0.202182 0.000320384
-0.210198 0.466485 0.201338 2.72288e-05
-0.207956 0.453659 0.217322 0.00172641
-0.207855 0.46937 0.216076 0.00249439
-0.341247 0.0751745 -0.140508 0.000870365
-0.338509 0.0948732 -0.141478 0.000988023
-0.339813 0.0843623 -0.124766 0.000168356
-0.337168 0.103981 -0.124829 8.29653e-05
-0.00915 0.562733 0.40114 0.00159278
-0.00901553 0.575596 0.407766 0.00100385
0.0032976 0.565707 0.401483 0.000690288
0.003101 0.578293 0.408785 0.00052769
-0.336815 -0.625595 0.0706646 0.00199316
-0.338099 -0.604963 0.0718861 0.00037687
-0.335526 -0.620261 0.0895327 0.00197938
-0.337203 -0.599775 0.0900628 0.00308743
0.258696 -0.214048 -0.271651 0.00231273
0.264305 -0.195127 -0.272287 0.000198794
0.275416 -0.212009 -0.266812 0.000954386
0.281427 -0.193945 -0.267685 0.00141441
-0.0509024 -0.668917 0.397338 0.00338806
-0.0515708 -0.655621 0.404721 0.000104155
-0.0347253 -0.667117 0.397613 0.00273179
-0.0383309 -0.655875 0.407267 0.000630614
-0.178139 -0.135924 0.341137 0.00103516
-0.176023 -0.116353 0.336653 0.00114677
-0.159155 -0.136384 0.351485 0.000517774
-0.156811 -0.116556 0.347416 0.000154184
-0.00514705 0.540106 -0.290728 0.00176674
-0.00427651 0.559184 -0.288205 0.00176749
0.00882895 0.542641 -0.292298 0.00340367
0.0104246 0.561889 -0.289734 9.67091e-05
-0.0909848 0.0235748 0.341426 0.00215033
-0.0841321 0.0371927 0.340226 0.00221606
-0.0720822 0.02518 0.344758 0.000618986
-0.0655227 0.0381314 0.343774 0.00117593
-0.335749 0.104921 -0.105634 0.00166656
-0.332935 0.124122 -0.103283 0.000491544
-0.330846 0.110837 -0.0882303 1.1773e-05
-0.328194 0.129535 -0.0852641 2.3787e-05
-0.311727 0.0380388 0.0302305 0.00237002
-0.309666 0.0549768 0.0279266 0.000443012
-0.310027 0.039036 0.0472277 0.00100994
-0.307975 0.0562098 0.0462922 0.000328234
0.185007 -0.0209162 0.327865 0.000657823
0.189896 -0.00712168 0.318825 0.00117417
0.191827 -0.0373556 0.326888 0.000590234
0.19606 -0.0240037 0.319233 0.00118989
-0.37995 -0.516481 -0.0624542 0.00226333
-0.379138 -0.495495 -0.0603421 0.000537778
-0.380492 -0.514137 -0.04428 0.00391414
-0.379095 -0.493422 -0.0422591 0.000647473
-0.244935 -0.201633 0.293995 0.00409833
-0.242412 -0.182947 0.29322 0.00153608
-0.23266 -0.196042 0.309822 0.0012745
-0.229519 -0.176491 0.30722 0.00034818
0.21128 0.894326 -0.0971242 0.000221307
0.20741 0.910199 -0.098256 0.000317486
0.209571 0.89722 -0.0807705 0.000376628
0.205979 0.914114 -0.0822882 0.00206451
-0.122448 -0.668926 0.368075 0.00259814
-0.128832 -0.655811 0.377895 0.00379788
-0.109016 -0.667014 0.371038 0.00212302
-0.115808 -0.654374 0.381412 0.0046608
-0.0350814 0.897125 -0.278603 0.000942533
-0.0351088 0.913576 -0.273086 0.0011587
-0.0192678 0.899752 -0.279376 0.00214211
-0.0214648 0.914691 -0.273567 0.000398921
0.224824 0.558699 -0.0348766 0.000791825
0.226659 0.57583 -0.0338245 0.000587517
0.224101 0.561599 -0.0146343 0.00223349
0.22652 0.579848 -0.0157034 0.000205396
-0.278235 -0.699017 -0.19765 0.00150649
-0.294002 -0.699823 -0.179926 0.00136266
-0.262122 -0.697417 -0.182719 0.000453947
-0.27706 -0.699086 -0.164416 0.00233778
0.0124671 -0.687476 0.117636 0.00252961
0.00209487 -0.688213 0.131465 0.00153308
0.023476 -0.688534 0.127585 0.000528865
0.0140028 -0.689689 0.140827 0.003597
-0.0694394 0.629492 0.300404 0.00771918
-0.055577 0.64394 0.296123 0.000674433
-0.0597407 0.632555 0.316062 0.00225164
-0.0462733 0.646409 0.311275 0.00224448
0.227994 0.448955 0.285643 0.00497814
0.221456 0.465209 0.290817 0.00079487
0.222191 0.44452 0.300783 0.00115631
0.213829 0.460789 0.306415 0.00170045
0.00822513 0.165622 0.312181 0.00129978
0.0108185 0.18086 0.320322 0.00119899
0.0228434 0.173207 0.315259 0.000440666
0.0256591 0.18837 0.32354 0.00469273
-0.0583817 0.566306 0.395199 0.00320489
-0.058069 0.580122 0.394963 0.00319128
-0.0456782 0.571004 0.400826 0.00401512
-0.0446932 0.585009 0.40086 0.00148565
0.31411 -0.250661 0.0989604 0.000588197
0.312211 -0.229333 0.1009 0.000423148
0.312436 -0.24712 0.117092 0.000422559
0.310528 -0.226229 0.119324 0.00239301
0.241282 -0.34278 0.367124 0.00202254
0.238433 -0.323846 0.367759 0.000459403
0.230124 -0.349644 0.378377 0.00243278
0.229968 -0.33063 0.37658 0.000927606
0.186454 -0.482932 -0.300505 0.000814487
0.185228 -0.468148 -0.294838 0.000406399
0.20589 -0.479458 -0.296114 0.00144214
0.203158 -0.464821 -0.291126 0.00357224
-0.0133675 0.655969 -0.28621 0.000365033
-0.0116951 0.674266 -0.286006 0.000866321
0.00642422 0.658425 -0.28581 0.000298736
0.00785278 0.676905 -0.285533 0.000502824
0.326133 0.0408151 -0.0470391 0.00251023
0.3267 0.0564956 -0.0441842 0.00156171
0.31927 0.0452955 -0.0320168 0.00405847
0.320036 0.0617461 -0.0297653 0.00876054
-0.197315 0.608277 0.1758 0.0023228
-0.195418 0.626666 0.169266 0.00108716
-0.189023 0.607671 0.192396 0.0018881
-0.18626 0.624758 0.184536 0.00540951
-0.160829 0.159189 0.244283 0.0106037
-0.162293 0.176151 0.237041 0.00226642
-0.151643 0.157002 0.254561 0.0103585
-0.15625 0.172998 0.248289 0.000578837
-0.0337332 -0.67721 0.0584994 0.00559472
-0.0441771 -0.678174 0.0749927 0.00175913
-0.0181659 -0.675824 0.0724029 0.00327146
-0.0294154 -0.67741 0.0891064 0.00249724
-0.223711 -0.239438 0.328653 7.90999e-05
-0.221784 -0.221514 0.325336 0.000975799
-0.213031 -0.23391 0.340737 0.0017542
-0.211464 -0.215103 0.336867 0.00194214
-0.371336 -0.385602 0.0214258 0.000622354
-0.368921 -0.362515 0.0172939 0.000354826
-0.366596 -0.37963 0.0369556 0.00106174
-0.363455 -0.356412 0.0334772 0.00281082
0.219519 0.351007 0.305932 0.00296677
0.223164 0.368866 0.308776 0.00443043
0.216543 0.36137 0.322731 0.00114822
0.220202 0.379108 0.325073 0.00269451
-0.3483 -0.0727598 -0.098895 0.000415235
-0.347373 -0.0530031 -0.100317 0.000900561
-0.345874 -0.0731496 -0.0823615 3.53185e-05
-0.345402 -0.0534722 -0.0855678 0.000867272
0.0301655 0.915179 0.144069 0.000690683
0.0391245 0.926814 0.128229 0.00171134
0.0480202 0.912319 0.14351 0.000330919
0.0561852 0.9242 0.128927 0.000728927
-0.269349 -0.284707 0.281042 0.00168531
-0.267205 -0.265673 0.278853 0.000690319
-0.261979 -0.28163 0.295283 0.000916296
-0.259372 -0.262792 0.293613 0.000102646
-0.30762 0.229442 -0.129376 0.00192749
-0.293703 0.238028 -0.13663 0.00103516
-0.296492 0.23191 -0.118003 0.00068604
-0.282967 0.240557 -0.125008 0.00318831
0.091431 0.88849 -0.275343 0.00159516
0.0888086 0.903451 -0.271208 0.0042601
0.109556 0.89312 -0.275506 0.000873208
0.107377 0.908075 -0.270575 0.00454102
0.355991 -0.211548 -0.108658 0.000104631
0.355356 -0.188962 -0.108319 0.00160737
0.354453 -0.205407 -0.0895105 0.000565523
0.352986 -0.182756 -0.0894721 0.00130144
0.221521 -0.197051 -0.279099 0.000380226
0.224825 -0.177673 -0.279993 0.000201841
0.238936 -0.199194 -0.276335 0.000742244
0.242453 -0.180144 -0.277783 0.000797168
-0.305378 -0.694592 -0.0209689 0.00053799
-0.318623 -0.6912 -0.00821687 0.00594254
-0.297631 -0.694308 -0.00976329 0.000419183
-0.310639 -0.692869 0.00435193 0.00395953
-0.200467 0.325198 -0.143377 0.00118289
-0.198734 0.345619 -0.138469 0.00302575
-0.202574 0.33166 -0.12434 0.00167833
-0.200985 0.351361 -0.119328 0.00133529
-0.0120809 -0.682255 -0.159411 0.00924414
-0.0278523 -0.683627 -0.142038 0.000226159
0.00132577 -0.678069 -0.144024 0.00224303
-0.0140095 -0.67958 -0.126138 0.00142094
-0.227256 -0.554345 0.34595 0.00343921
-0.228314 -0.53784 0.346779 0.00158127
-0.213071 -0.55247 0.357026 0.000978328
-0.214297 -0.535417 0.357717 0.00113525
0.0578501 -0.687798 0.0545208 0.00423123
0.0736491 -0.686716 0.0487849 0.00238269
0.065969 -0.685646 0.0684235 0.00246604
0.0818021 -0.684552 0.062717 0.00551825
0.0979178 -0.587898 -0.33647 0.00414863
0.10287 -0.568881 -0.331927 0.00299031
0.115485 -0.580063 -0.334904 0.00168397
0.120334 -0.561305 -0.330048 0.00108298
0.211313 0.369641 -0.174701 0.00300887
0.211905 0.385114 -0.171441 0.00200115
0.212858 0.373048 -0.155168 0.00228112
0.214477 0.389721 -0.151065 0.00226773
-0.24409 -0.349077 0.329318 0.00176681
-0.2459 -0.330942 0.324611 0.00122591
-0.233265 -0.348265 0.342549 0.00335712
-0.235268 -0.329027 0.337318 0.000540691
-0.257711 -0.0840758 0.247964 0.000725848
-0.254683 -0.0661601 0.246461 0.000681056
-0.247891 -0.0806907 0.264431 0.000787328
-0.244361 -0.0608507 0.264658 0.00258514
0.145195 0.584221 0.30447 0.0035295
0.128357 0.595309 0.310044 0.0124634
0.145661 0.5685 0.318335 0.00962385
0.131179 0.579922 0.324062 0.00169266
-0.21147 0.597834 0.0883001 0.000141545
-0.210806 0.615298 0.0852758 0.00052428
-0.209077 0.599455 0.106575 0.00161801
-0.207967 0.617132 0.102732 0.00188203
0.0749493 -0.234054 0.418724 0.00133042
0.0822395 -0.220896 0.414416 0.000537967
0.090215 -0.232907 0.418461 0.000468957
0.0969014 -0.219583 0.413711 0.00228681
0.197091 0.267133 0.267411 0.000629397
0.203263 0.285671 0.266687 0.00019793
0.194348 0.271675 0.286299 0.00214727
0.202581 0.291383 0.283464 0.000691178
-0.320574 -0.00455703 -0.0539874 0.00454993
-0.317538 0.0151663 -0.0516847 0.00318841
-0.319115 -8.96687e-05 -0.0384072 0.007318
-0.315936 0.0188179 -0.0357044 0.00768004
0.0874127 0.300328 0.432056 0.00156993
0.088556 0.316423 0.435797 0.00256462
0.103223 0.307086 0.430381 0.000247455
0.104572 0.323945 0.433085 0.0038985
-0.113658 -0.6838 -0.0697567 0.00790008
-0.121001 -0.685681 -0.0515799 0.00181786
-0.102927 -0.679318 -0.0531309 0.00368417
-0.105391 -0.681738 -0.0362093 0.00134817
0.371386 -0.446105 0.0111984 0.00352941
0.375465 -0.428622 0.0131107 0.00136469
0.370115 -0.441638 0.0292826 0.00313016
0.374104 -0.42359 0.0316265 0.00174364
0.33004 -0.0159133 -0.239963 0.00370666
0.335278 0.00314285 -0.236127 0.00201796
0.333506 -0.0102621 -0.221696 0.0031215
0.338557 0.00909161 -0.217439 0.00233015
-0.173278 0.39449 0.350886 0.00197343
-0.170576 0.409287 0.349586 0.000569776
-0.160098 0.395727 0.363135 0.00033781
-0.157341 0.410478 0.363101 0.00300322
-0.306169 -0.698661 -0.0911326 0.0024564
-0.316876 -0.694231 -0.0771623 0.00142394
-0.296161 -0.699836 -0.0800108 0.00574716
-0.306902 -0.694976 -0.0661951 0.00112921
-0.0067346 0.163197 0.308004 0.00294129
-0.00798254 0.17633 0.317493 0.00185939
0.00644857 0.170124 0.312813 0.000413368
0.00639744 0.184032 0.322459 0.00162884
-0.0572512 -0.517925 0.428592 0.00138642
-0.05403 -0.500866 0.430237 0.00148865
-0.0381118 -0.515193 0.431695 0.00117681
-0.0343429 -0.498763 0.432707 9.04319e-05
0.267742 -0.686459 -0.0125019 0.000568513
0.259045 -0.687995 0.0086615 0.00167752
0.280327 -0.681011 0.00508862 0.00385681
0.272641 -0.681741 0.0256757 0.0012272
0.0601541 -0.669983 0.411743 0.000594315
0.0558306 -0.655078 0.422211 0.00173475
0.0767866 -0.664771 0.408128 0.00270126
0.0730802 -0.650874 0.418867 0.000269673
-0.213246 0.512568 0.131171 0.00105524
-0.210583 0.5318 0.134712 5.00336e-05
-0.209676 0.52053 0.14701 0.000867145
-0.206628 0.539247 0.150146 0.00373873
0.239576 0.732169 -0.159713 0.00669135
0.23615 0.749316 -0.154961 0.00729014
0.233578 0.73721 -0.141309 0.00562796
0.229949 0.754593 -0.136402 0.0112242
0.0821858 0.461702 0.366375 0.00767293
0.0849609 0.475226 0.362649 0.00279831
0.0953221 0.463088 0.366275 0.00547865
0.0971136 0.477764 0.361697 0.00482324
-0.247086 -0.271694 -0.279328 0.000713825
-0.24428 -0.257649 -0.281773 0.0002081
-0.22657 -0.273447 -0.280025 0.00153228
-0.223158 -0.259512 -0.282176 0.000720818
-0.0183152 0.955962 -0.0363873 0.000199629
-0.0258148 0.953399 -0.0192732 0.000974377
-0.00822489 0.956972 -0.0225375 0.000673152
-0.015951 0.954324 -0.00640954 0.000364431
-0.303842 -0.139275 -0.296545 0.00660029
-0.298919 -0.117146 -0.298879 0.00473657
-0.315979 -0.133868 -0.286619 0.00103697
-0.311383 -0.111416 -0.288351 0.00328657
-0.135507 -0.684633 0.261953 0.00198948
-0.145545 -0.684506 0.279451 0.00027689
-0.126292 -0.682956 0.271865 0.00093477
-0.137207 -0.681694 0.288999 0.00305104
-0.311491 -0.344641 0.218868 0.00299671
-0.308227 -0.326824 0.217114 0.00109925
-0.30466 -0.338104 0.2371 0.000242728
-0.301279 -0.320699 0.235549 0.00522821
-0.355621 -0.134843 -0.0833835 0.0031348
-0.357551 -0.112747 -0.0918099 0.00597106
-0.348114 -0.139642 -0.0623576 0.00239423
-0.350765 -0.11722 -0.0717847 0.00117806
0.202831 0.305935 -0.210901 0.00208456
0.191846 0.311923 -0.20622 0.0133982
0.20816 0.30065 -0.198023 0.00153066
0.197618 0.307008 -0.193517 0.00845269
-0.143786 0.468127 -0.285239 0.00146734
-0.149352 0.484006 -0.280901 0.00270782
-0.125925 0.468296 -0.287519 0.00134343
-0.130927 0.485915 -0.284519 0.00293751
0.0334412 -0.685196 -0.171252 0.00515606
0.0215734 -0.68753 -0.153061 0.00101491
0.0497433 -0.680127 -0.156952 0.00246714
0.0385441 -0.681704 -0.139175 0.000295905
-0.213924 0.481805 -0.0184451 0.000982378
-0.212399 0.499995 -0.0162629 0.00284568
-0.215502 0.486593 0.000479231 0.000512807
-0.213535 0.505416 0.00232638 0.00184344
-0.0630541 0.950705 0.0415341 0.00127123
-0.0452758 0.953136 0.0352551 0.00131346
-0.0477955 0.951478 0.0564478 0.00117628
-0.030176 0.954897 0.0492381 0.00245708
-0.213291 0.714163 -0.070399 0.000927349
-0.212652 0.729772 -0.0689073 0.00116202
-0.21287 0.720331 -0.0549259 0.000362076
-0.211455 0.735772 -0.0529296 0.000232781
0.253022 -0.691578 -0.212372 1.10648e-05
0.270638 -0.690693 -0.213605 0.000389028
0.262283 -0.69131 -0.195589 0.000553739
0.285751 -0.689979 -0.202335 0.00214373
0.203456 -0.507436 -0.299973 0.00366081
0.201256 -0.492906 -0.295131 0.00353882
0.224532 -0.504065 -0.29428 0.000168668
0.221187 -0.489718 -0.290223 0.00127366
-0.182441 0.282883 0.278354 0.000799919
-0.186304 0.295246 0.282346 7.30298e-05
-0.178243 0.282916 0.295982 0.000416493
-0.182326 0.295825 0.30006 0.000430388
-0.0604198 -0.696257 -0.328394 0.00096604
-0.0474629 -0.6892 -0.339895 0.00115757
-0.0447188 -0.697832 -0.323979 0.00143495
-0.0327431 -0.690553 -0.334968 0.00199167
0.284769 -0.680625 -0.306553 0.00559862
0.299154 -0.669407 -0.31288 0.000832146
0.296014 -0.685334 -0.294161 0.00536655
0.31026 -0.673945 -0.300591 0.00313272
0.236122 0.563001 0.150464 0.00590168
0.230945 0.576555 0.157803 0.00101409
0.229959 0.560344 0.167432 0.000666142
0.22492 0.574014 0.174889 0.00345118
-0.256167 -0.689685 -0.326512 0.000808401
-0.248106 -0.681913 -0.340806 0.00700044
-0.241507 -0.693868 -0.319971 0.00169462
-0.233808 -0.685556 -0.334289 0.00061518
0.186939 0.940561 -0.0148891 0.00211168
0.176793 0.951911 -0.00894132 0.00331148
0.185995 0.933587 0.00237614 0.00130371
0.176516 0.944257 0.00906937 0.00333584
0.17791 -0.693827 -0.275964 0.000287676
0.169143 -0.696391 -0.256323 0.00201291
0.192265 -0.691959 -0.265451 0.00241149
0.179465 -0.694514 -0.242663 0.000501979
-0.0612446 0.449473 0.393555 0.00196617
-0.0569811 0.463685 0.38515 0.00340317
-0.0415988 0.451451 0.396539 0.000266759
-0.0381407 0.464277 0.387871 0.00363755
0.30045 -0.149583 0.219334 0.00223776
0.297172 -0.130664 0.223106 0.00201672
0.29147 -0.145139 0.237872 0.00162397
0.28836 -0.126224 0.241114 0.000265363
0.157478 0.478378 0.340192 0.00197991
0.145034 0.492283 0.343534 0.00232978
0.154849 0.463849 0.348958 0.00433372
0.144669 0.478144 0.351056 0.00369623
-0.111186 -0.195017 0.391686 0.00169334
-0.10571 -0.17558 0.387895 0.00104027
-0.0857169 -0.198706 0.399692 0.000584025
-0.0789617 -0.178763 0.39552 0.00138074
-0.258548 -0.232083 0.28692 0.00119741
-0.25724 -0.213754 0.285479 0.000316247
-0.249689 -0.229207 0.303389 0.00271601
-0.24817 -0.210781 0.301246 0.00309959
-0.14564 0.924437 0.0613732 0.000902197
-0.134508 0.937387 0.0556554 0.00126329
-0.132322 0.930533 0.0742234 0.0039205
-0.121225 0.942368 0.0654838 0.000203696
-0.368702 -0.263558 -0.217568 3.47705e-05
-0.366879 -0.249357 -0.218134 0.00147872
-0.370021 -0.258498 -0.203029 0.00147525
-0.368457 -0.243925 -0.203734 0.00143166
-0.168693 -0.69718 -0.0993928 0.00474142
-0.177459 -0.69894 -0.08267 0.00317941
-0.15453 -0.694188 -0.0863465 0.00331354
-0.161583 -0.695686 -0.0688159 0.00335287
0.106658 -0.225974 0.4115 0.000192574
0.111626 -0.211827 0.406608 0.000641751
0.123883 -0.225614 0.410261 0.00306703
0.127432 -0.20942 0.404472 0.00265148
-0.214496 0.479009 -0.0999258 0.000730373
-0.214638 0.496293 -0.0984271 6.04005e-05
-0.214326 0.480402 -0.0804195 0.000147566
-0.214451 0.497576 -0.0787437 0.000571853
-0.153873 -0.680693 0.146296 0.00469595
-0.171399 -0.683352 0.160548 0.00178071
-0.140277 -0.678697 0.160793 0.00560981
-0.157592 -0.681242 0.174976 0.00112149
-0.0868503 -0.673968 -0.352189 0.000308905
-0.0741345 -0.665026 -0.360935 0.0075959
-0.0696173 -0.671349 -0.347211 0.00390601
-0.0572368 -0.662483 -0.35712 0.00412299
-0.31967 -0.11115 0.0655794 0.00613343
-0.315494 -0.0888512 0.0658973 0.00249822
-0.314951 -0.106225 0.0877899 0.00244267
-0.310275 -0.0830933 0.088842 0.00127782
0.289725 -0.250332 0.27133 0.00182174
0.289332 -0.233243 0.273769 0.00189492
0.282769 -0.2477 0.287144 0.00188029
0.281664 -0.230384 0.289445 0.000886677
0.293858 0.0781212 0.163094 0.00120568
0.290076 0.0945624 0.171159 5.8685e-05
0.283916 0.0765807 0.183128 0.00191056
0.27996 0.0929063 0.190857 0.000689508
-0.331009 -0.113125 -0.287358 0.0048594
-0.325992 -0.0920157 -0.288055 0.00146518
-0.343401 -0.106147 -0.276475 0.00237967
-0.339436 -0.0858098 -0.275187 0.00208285
-0.212783 0.439409 -0.00733808 0.000249819
-0.210733 0.460897 -0.00478097 0.0027291
-0.214961 0.445386 0.0134403 0.00104019
-0.212983 0.467407 0.0151162 0.00135318
0.364075 -0.415 -0.156551 0.00247571
0.367293 -0.396745 -0.154562 0.00165314
0.369001 -0.404454 -0.140577 0.000861921
0.372241 -0.386788 -0.138407 0.00417277
0.100041 0.961678 -0.132681 0.000194183
0.0822761 0.959951 -0.118024 0.00134072
0.11738 0.960202 -0.114968 0.00143129
0.0974916 0.960177 -0.104578 0.00134216
-0.348167 -0.000792656 -0.163213 0.00120339
-0.344496 0.0188428 -0.163384 0.00173134
-0.346609 0.00633296 -0.14804 0.00125197
-0.343447 0.0250101 -0.146929 0.00106928
0.159724 0.962549 -0.156737 0.000964875
0.135898 0.965803 -0.150827 0.00392331
0.176382 0.961309 -0.142326 0.0011949
0.152584 0.964787 -0.136191 0.00307864
0.289424 -0.237171 0.273132 0.00179901
0.288772 -0.220112 0.275481 0.00225856
0.281656 -0.234253 0.289652 0.000832521
0.280576 -0.21723 0.29186 0.000634869
0.00405277 0.278745 -0.296666 0.000471935
0.00344757 0.295344 -0.296512 1.11877e-05
0.0252767 0.280274 -0.296333 0.000777016
0.0249388 0.297158 -0.296137 0.00129146
0.239805 -0.515496 0.347244 0.0013415
0.246255 -0.498284 0.346844 0.000860051
0.233287 -0.505453 0.357154 0.000583019
0.239191 -0.487785 0.357145 0.00298076
-0.159872 -0.682791 0.169 0.000804709
-0.176932 -0.685629 0.183316 0.00389969
-0.147479 -0.680942 0.183094 0.00158485
-0.163209 -0.684029 0.197951 0.00186721
-0.370617 -0.298194 -0.194217 0.000401913
-0.3684 -0.28446 -0.190508 0.00178544
-0.372596 -0.294663 -0.180377 0.00196223
-0.370393 -0.280768 -0.176667 0.000377236
-0.0448514 -0.566751 0.428569 0.00239592
-0.0416399 -0.550881 0.43029 0.00193858
-0.028291 -0.55945 0.432791 0.00203265
-0.0256794 -0.544329 0.434158 0.00252086
-0.216145 0.609617 -0.0837052 0.00325129
-0.212922 0.628412 -0.080448 2.20926e-05
-0.214604 0.611701 -0.0660882 0.00118908
-0.211117 0.631697 -0.0628197 0.0023328
-0.0233555 0.837028 -0.279083 0.00147754
-0.0260726 0.857338 -0.278586 0.00136815
-0.00304119 0.838563 -0.281628 0.000783419
-0.00473657 0.858302 -0.280551 5.92886e-05
0.167907 -0.556231 0.396705 0.00309373
0.164031 -0.540453 0.404035 0.00414337
0.184212 -0.554947 0.390047 0.00204242
0.180028 -0.538654 0.397749 0.000382941
-0.347365 -0.117213 -0.0570672 0.000934413
-0.350415 -0.0950131 -0.0665647 0.0034859
-0.340996 -0.12214 -0.0380969 0.0024047
-0.344126 -0.100635 -0.0471132 0.00354416
0.31182 -0.121151 0.140027 3.74641e-06
0.312712 -0.102759 0.14262 0.00244493
0.31052 -0.109614 0.157136 0.00192142
0.311618 -0.091207 0.159346 0.00444223
0.219 0.370634 0.252279 0.000984457
0.221561 0.389955 0.257531 0.0022249
0.21576 0.377824 0.276339 0.00328202
0.218373 0.396656 0.281271 0.00228189
-0.102031 0.0662442 0.327311 0.00371701
-0.0952016 0.0775953 0.325748 0.00181592
-0.0847009 0.0657946 0.331308 0.000892346
-0.0781474 0.0769615 0.329467 6.62136e-05
-0.0102264 0.0982797 0.329873 0.000978314
-0.00807897 0.112863 0.326664 0.00199622
0.0070465 0.0992585 0.331614 0.00498745
0.00918487 0.114247 0.32839 0.00743373
-0.014914 0.956554 -0.139902 0.000954898
-0.0276864 0.953792 -0.12035 0.00214521
-0.000304642 0.957992 -0.121033 0.000771023
-0.0141349 0.954612 -0.102475 0.00170342
0.370486 -0.356297 -0.0724743 0.000865284
0.370477 -0.340073 -0.0694136 0.00218376
0.369257 -0.35447 -0.0561189 0.0021374
0.368995 -0.338098 -0.0525134 0.000343587
-0.0953917 -0.409678 -0.302111 0.00281227
-0.0921339 -0.392638 -0.297821 0.00137666
-0.0774615 -0.402897 -0.30111 0.00102298
-0.074161 -0.385874 -0.296672 0.000486491
-0.0490016 -0.633381 -0.351254 0.000188962
-0.0440407 -0.621027 -0.353953 0.00187959
-0.0261556 -0.636714 -0.353573 0.000483279
-0.0244149 -0.62185 -0.35436 0.00226977
-0.277035 -0.321534 -0.26905 0.00123256
-0.274515 -0.302548 -0.273603 0.000698814
-0.259287 -0.321821 -0.271453 1.97851e-05
-0.257881 -0.304237 -0.27582 0.000721225
-0.357956 -0.630372 -0.144798 0.00255842
-0.359503 -0.614225 -0.138867 0.000204469
-0.358807 -0.622901 -0.130232 0.00159619
-0.360202 -0.606611 -0.124443 0.000968674
-0.289231 0.153846 0.0990932 0.00202835
-0.282631 0.174259 0.0931339 0.0022831
-0.279713 0.156899 0.116863 0.000459225
-0.273528 0.177647 0.1116 0.00324308
-0.0991638 -0.408922 0.429708 0.00257066
-0.100412 -0.387747 0.429628 0.000167841
-0.0775245 -0.405223 0.435486 0.016665
-0.0789 -0.386045 0.435017 0.00877211
-0.0861831 -0.103081 -0.302574 2.23691e-05
-0.0800473 -0.0789518 -0.304719 0.00160749
-0.057387 -0.0984535 -0.303549 0.00167441
-0.0523864 -0.0736586 -0.305067 0.00134099
0.158505 -0.674638 0.0337562 0.00104255
0.176519 -0.673245 0.0279751 0.00390646
0.166561 -0.674723 0.0474408 0.0025482
0.183778 -0.674142 0.0424026 0.00485241
-0.105007 0.310461 -0.300465 0.00152489
-0.109465 0.330133 -0.295884 0.000305972
-0.0862164 0.315926 -0.301206 0.00212603
-0.0916134 0.335761 -0.296835 0.000479785
-0.195184 0.811219 0.0658179 0.00191281
-0.19354 0.828984 0.0686385 0.000315113
-0.183451 0.816134 0.0839699 0.00363945
-0.18213 0.834265 0.0871462 0.00277605
-0.342528 -0.609962 0.0345934 0.00290572
-0.343201 -0.589569 0.0349992 0.000115449
-0.340715 -0.605888 0.052428 0.00155135
-0.341435 -0.58572 0.0534322 1.90458e-05
0.180129 0.124171 0.286902 0.00275505
0.19269 0.133545 0.273224 0.000807161
0.191968 0.106035 0.282273 0.000101373
0.205696 0.114537 0.268062 0.00123574
-0.312106 -0.0355938 -0.0162218 0.00468683
-0.309072 -0.0191513 -0.0146326 0.00135365
-0.311173 -0.0363929 0.000764507 0.00120044
-0.308397 -0.01981 0.00249736 0.000342613
-0.236708 -0.686707 0.15174 0.00112118
-0.246808 -0.688099 0.168439 0.00192207
-0.226029 -0.685819 0.16472 0.00013398
-0.237305 -0.687815 0.181694 0.00173731
-0.0636939 0.952753 -0.251466 0.00113765
-0.0802931 0.958431 -0.237535 0.0015269
-0.0531407 0.958525 -0.245346 0.000941983
-0.0697733 0.964113 -0.231512 0.00714322
0.0433568 0.689772 -0.28217 0.0016178
0.0479966 0.708953 -0.282625 0.000832469
0.0627731 0.692335 -0.282094 0.00288597
0.0687194 0.711588 -0.283069 0.00133229
0.283355 0.155455 0.16599 0.000322393
0.275086 0.16952 0.172882 0.00297284
0.276308 0.153236 0.183328 0.00114961
0.267868 0.167553 0.18946 4.00664e-05
0.262419 -0.586592 0.271172 0.00700225
0.27166 -0.568175 0.269791 0.00249801
0.261953 -0.574421 0.285082 0.0024696
0.270981 -0.555746 0.283594 0.000518759
0.0798107 -0.388525 0.416978 0.00453623
0.0796514 -0.367023 0.416063 0.00204828
0.099287 -0.389222 0.415531 0.000737973
0.0984566 -0.367756 0.415488 0.00407948
0.1539 -0.618895 -0.339141 0.000502535
0.159881 -0.599571 -0.333518 0.002259
0.169745 -0.611348 -0.337424 0.00157422
0.174945 -0.5921 -0.332167 0.000120621
0.112663 0.962011 -0.0570423 0.00417896
0.0992904 0.960324 -0.0416674 0.00034621
0.122776 0.961643 -0.0433446 0.000687595
0.108522 0.9615 -0.030111 0.000465976
-0.0350818 0.252168 -0.301152 0.000143443
-0.0354183 0.269326 -0.300395 0.00056663
-0.013973 0.252397 -0.301459 0.00118967
-0.013919 0.268948 -0.301171 0.00286866
0.014059 0.815752 0.141046 0.00108487
0.0142909 0.830203 0.146974 0.00338185
0.0303306 0.817465 0.142547 0.00141197
0.0303896 0.831947 0.149253 0.000262108
-0.0636507 0.648354 0.262248 0.00321978
-0.0520434 0.662679 0.256906 0.00169378
-0.0536957 0.653659 0.27721 0.00047154
-0.0421872 0.667765 0.271626 0.00457676
-0.0781211 0.340549 0.422753 0.000488086
-0.0765755 0.360837 0.421746 0.00269726
-0.0633804 0.347996 0.425656 2.32946e-05
-0.0622191 0.368398 0.424247 0.00294745
-0.364074 -0.376927 0.0686166 0.000224287
-0.360566 -0.355042 0.0653769 0.00113549
-0.361638 -0.373698 0.09028 0.00331012
-0.358471 -0.352338 0.0865594 3.69096e-05
-0.207353 -0.260471 -0.28378 0.00228071
-0.204047 -0.246781 -0.285168 0.000475867
-0.186309 -0.259378 -0.284547 0.000341354
-0.18375 -0.245402 -0.285726 0.000866869
-0.295763 -0.560611 0.241451 0.0031647
-0.299488 -0.542639 0.238178 0.000708274
-0.288188 -0.560063 0.25553 0.0017951
-0.292079 -0.543214 0.252293 0.00147986
-0.370387 -0.284019 -0.199194 0.000446984
-0.368476 -0.270885 -0.195698 0.0010658
-0.372196 -0.279636 -0.185692 0.00183516
-0.37006 -0.266519 -0.18264 0.00160223
-0.0048571 0.150968 -0.301983 0.000469488
-0.00475406 0.169221 -0.301826 0.00205559
0.0130553 0.152017 -0.301423 0.000425223
0.0144313 0.170125 -0.301563 0.00052337
0.0117227 0.559159 -0.290074 4.40581e-05
0.0132931 0.577299 -0.28683 0.00158165
0.0262091 0.563243 -0.2913 0.00238709
0.0280759 0.582267 -0.288792 0.000650436
-0.333104 -0.691748 -0.0280163 0.000544924
-0.343326 -0.684774 -0.0196295 0.00203061
-0.328615 -0.691375 -0.0173467 5.76069e-05
-0.340744 -0.685764 -0.00723024 0.00157998
0.266865 -0.686628 -0.0394864 0.00133009
0.257297 -0.688704 -0.0185643 0.000953912
0.279684 -0.682633 -0.0219746 0.00356144
0.270737 -0.684418 -0.000781998 0.000205514
0.128522 -0.253837 0.412925 0.000938352
0.131885 -0.23788 0.407333 1.87507e-05
0.143693 -0.255462 0.411316 0.00230017
0.146948 -0.238893 0.40564 0.00247015
-0.314404 -0.167503 0.0565592 0.000760892
-0.312584 -0.148131 0.0568068 0.000313247
-0.312923 -0.164417 0.0734818 0.000791737
-0.311034 -0.144648 0.0753606 0.000951509
0.149143 0.656378 -0.278917 0.00189103
0.152624 0.673942 -0.279341 0.00110277
0.170749 0.656673 -0.278559 0.000641998
0.174279 0.674164 -0.278636 0.000666747
0.226525 -0.393109 -0.243454 0.00248109
0.224874 -0.377908 -0.242569 0.00010666
0.243359 -0.39565 -0.235856 0.00397311
0.242625 -0.379465 -0.235781 7.79208e-05
-0.0827382 0.603717 0.27915 0.00484265
-0.0679546 0.618605 0.27453 0.00221074
-0.0729258 0.608903 0.293401 0.00144849
-0.0591488 0.624033 0.289141 0.00503514
-0.314765 -0.223428 0.0910398 0.00205809
-0.311473 -0.206746 0.092101 0.00134139
-0.315061 -0.217553 0.108871 0.00379142
-0.312663 -0.200741 0.10968 0.00151486
0.0731498 -0.671899 -0.348554 8.18197e-05
0.080792 -0.658529 -0.349761 0.00183272
0.089002 -0.671348 -0.346748 0.000929343
0.0977101 -0.658551 -0.348227 0.000412174
-0.00682503 0.791281 -0.279791 0.00371032
-0.00839335 0.810424 -0.280022 0.00192205
0.0138825 0.79221 -0.281024 0.00233006
0.0133582 0.808712 -0.281639 0.000875721
-0.312141 -0.0592775 0.0562025 0.000435814
-0.309082 -0.0395042 0.0586532 0.00140419
-0.312084 -0.0559478 0.0734244 0.00121171
-0.30901 -0.03639 0.076285 0.000839543
0.0543306 -0.223389 0.417554 0.000717876
0.0618585 -0.210222 0.413117 0.000570313
0.071311 -0.219033 0.415541 0.00100405
0.0791878 -0.206194 0.411278 0.00205998
0.0990316 -0.339838 0.434685 0.00499903
0.0993568 -0.317832 0.434687 0.000391921
0.115614 -0.337009 0.431456 0.000969369
0.115518 -0.315129 0.431678 0.00127704
-0.211171 0.463738 0.138641 4.52255e-07
-0.210692 0.478048 0.140532 0.000238046
-0.209423 0.466264 0.156169 0.00135401
-0.20895 0.48088 0.157822 0.00179487
0.212595 -0.462288 0.37745 0.00607177
0.206382 -0.444722 0.383308 0.00260928
0.216103 -0.453736 0.379119 0.00341452
0.209873 -0.435943 0.385123 0.00249178
0.0621916 -0.293044 -0.282172 0.0037371
0.0651139 -0.278748 -0.281255 0.000186432
0.0803581 -0.287743 -0.281528 0.00344351
0.0836906 -0.272787 -0.281134 5.33889e-06
0.0935519 -0.493503 -0.317865 0.00119479
0.0922287 -0.474097 -0.311583 0.00159044
0.109643 -0.487317 -0.315006 0.000394687
0.108986 -0.467733 -0.3084 0.00196635
-0.238758 0.698279 -0.148105 0.00307558
-0.237637 0.710758 -0.147925 0.00215129
-0.232432 0.70106 -0.132172 0.00757269
-0.231404 0.714066 -0.132276 0.00892271
-0.214713 0.618365 -0.0763598 0.00149317
-0.211464 0.637126 -0.0734517 0.00166348
-0.2135 0.621854 -0.0588817 2.90082e-05
-0.209787 0.641712 -0.0555714 0.00395015
-0.309349 0.0636828 -0.0269559 0.00215384
-0.30745 0.0797137 -0.0244457 0.000232954
-0.306613 0.0689033 -0.0091509 0.00113919
-0.304302 0.084572 -0.00866278 0.00359703
-0.208421 0.849225 -0.193757 0.00154199
-0.204518 0.862403 -0.191212 0.000786638
-0.208321 0.852607 -0.178435 0.00172125
-0.20456 0.865936 -0.176124 0.000976315
0.322418 -0.561574 0.113015 0.00215125
0.328545 -0.548058 0.112899 1.0142e-05
0.323014 -0.554203 0.128226 0.000746662
0.328297 -0.540738 0.129316 0.00192034
0.368358 -0.37243 0.0652827 0.00060367
0.368342 -0.355824 0.0692793 0.00198342
0.365894 -0.365505 0.085361 0.00152597
0.364754 -0.348393 0.0890584 0.00187753
0.177967 0.874076 0.0803832 0.000850701
0.168718 0.884483 0.0829373 0.000387785
0.175113 0.860183 0.0888417 0.00435075
0.167935 0.872486 0.0902513 0.00114722
-0.226494 -0.532291 0.351596 0.00242938
-0.227783 -0.514984 0.351793 0.000627547
-0.214342 -0.531609 0.360473 4.18788e-05
-0.215314 -0.514265 0.360933 0.00234023
-0.22761 -0.516191 0.354771 0.00271347
-0.228409 -0.498835 0.355161 0.00257369
-0.215877 -0.514422 0.363905 0.000216596
-0.21624 -0.496877 0.36462 0.00290735
-0.353736 -0.582524 -0.213135 0.000214439
