-0.0814602 -0.9758 0.00229744 0.0017908
0.406975 -0.533788 -0.139904 0.000791145
0.419737 -0.512272 -0.142695 0.00180077
0.417828 -0.527391 -0.120571 2.45685e-05
0.430892 -0.505571 -0.123813 0.00309613
0.579065 -0.147716 -0.371971 0.00260707
0.584862 -0.121975 -0.37496 0.00138961
0.598328 -0.142628 -0.354417 0.00116211
0.602024 -0.117003 -0.359258 0.00191295
0.753689 0.20153 0.201032 0.0011439
0.745688 0.214488 0.196933 0.00231485
0.763187 0.176973 0.208365 0.00281971
0.75634 0.191007 0.203191 0.00217955
0.0781517 -0.957585 -0.0803951 0.000723206
0.093496 -0.940776 -0.0872251 0.00321634
0.089922 -0.95722 -0.062154 0.00196322
0.107044 -0.939503 -0.0671847 0.00481777
0.132608 0.215702 -0.798602 0.000155282
0.11958 0.231722 -0.78899 0.00110197
0.152365 0.214419 -0.785246 0.000195014
0.139602 0.230362 -0.778009 0.00177152
-5.04267e-05 -0.764821 -0.275532 0.000309718
0.0120654 -0.74833 -0.28689 0.00119738
0.0217737 -0.765502 -0.273146 0.00098266
0.0334671 -0.74895 -0.28446 0.000534535
0.62392 0.0811088 -0.351052 0.00316295
0.623606 0.104931 -0.348544 0.000859145
0.645592 0.079368 -0.341809 0.000791087
0.644762 0.102305 -0.337378 0.000941238
-0.224424 0.752976 -0.18088 0.00125678
-0.209458 0.768921 -0.178317 0.00116616
-0.223424 0.773025 -0.160117 0.00153586
-0.207623 0.790887 -0.156927 0.000819794
0.172333 0.335091 0.604046 0.000198664
0.151547 0.343484 0.604739 0.00077686
0.182453 0.316658 0.619862 0.0016388
0.160239 0.32438 0.624267 0.00165285
-0.211509 -0.134039 -0.81127 0.00199826
-0.227277 -0.111905 -0.806295 0.0021776
-0.223055 -0.138434 -0.795384 0.0027782
-0.239024 -0.11838 -0.790538 0.0047794
-0.708288 -0.283013 0.134927 0.000369813
-0.727625 -0.267332 0.147291 0.00263541
-0.69068 -0.281843 0.157651 0.00261327
-0.709919 -0.265943 0.169327 0.000757043
0.0123634 -0.521745 0.443127 0.00283196
0.00647889 -0.507271 0.458068 0.00446599
0.0287192 -0.515138 0.445936 0.00124997
0.0251055 -0.499337 0.462618 0.00235743
-0.52585 0.116251 0.418577 0.000691469
-0.519982 0.14289 0.416215 0.000514993
-0.505483 0.126168 0.433386 9.49646e-05
-0.499795 0.153411 0.431793 0.0024645
-0.397782 0.571436 -0.0396387 0.000580198
-0.381988 0.594348 -0.0459206 0.00102877
-0.389516 0.583376 -0.0189516 0.00126462
-0.37493 0.60601 -0.0249958 0.000211517
0.218674 0.7642 -0.177027 0.00343455
0.208686 0.782994 -0.168726 0.00322542
0.233447 0.755701 -0.154281 0.00168676
0.223905 0.774683 -0.147045 0.00131302
0.419808 -0.387582 -0.337834 0.00438915
0.429664 -0.369649 -0.339163 0.00015721
0.43671 -0.378524 -0.319777 0.000893415
0.447287 -0.360322 -0.321348 0.00497204
0.194291 -0.0370612 -0.869464 0.00109273
0.198498 -0.0166351 -0.871475 0.00106601
0.21328 -0.0298738 -0.848517 0.000689752
0.21707 -0.00786204 -0.850673 0.00215588
0.335403 0.188063 -0.593404 0.00167172
0.329143 0.210514 -0.592487 0.00294288
0.344785 0.192441 -0.576996 0.00219453
0.339397 0.214313 -0.575929 0.00264592
0.187025 -0.0240933 0.878006 0.00183617
0.194271 -0.00139368 0.875316 0.00172846
0.175483 -0.0203614 0.891437 0.00151315
0.178804 0.00286044 0.888746 0.00101614
-0.82858 -0.191839 0.134839 0.000172964
-0.835254 -0.178214 0.145256 5.39287e-05
-0.812586 -0.193932 0.148433 0.00208352
-0.81886 -0.180431 0.159073 0.00127045
-0.925625 0.0847891 -0.129873 0.00298053
-0.918707 0.101082 -0.129066 0.00426621
-0.930845 0.0937268 -0.113334 0.00165376
-0.92188 0.108422 -0.114917 0.00268169
-0.392088 0.568502 0.0904466 0.00042123
-0.3806 0.588079 0.087476 0.0013844
-0.380155 0.579544 0.109324 0.000644938
-0.368744 0.598536 0.105897 0.00172636
-0.0113118 -0.506717 -0.455506 0.000406586
-0.00562207 -0.494206 -0.4673 0.000142816
0.0116481 -0.51154 -0.448422 0.00182174
0.0176854 -0.49886 -0.459915 0.00199723
-0.054238 -0.546556 -0.418574 5.61448e-05
-0.045772 -0.533743 -0.432045 0.00164217
-0.0310369 -0.555257 -0.413665 2.77294e-05
-0.0213573 -0.542092 -0.425108 0.000113733
0.145078 -0.872943 -0.148084 0.0061438
0.157781 -0.84928 -0.156153 0.00248642
0.159479 -0.875074 -0.123903 0.0037496
0.1739 -0.851968 -0.13061 0.000883258
-0.171567 0.79171 -0.199075 0.0017676
-0.164579 0.804199 -0.18984 0.000756151
-0.168388 0.81456 -0.177673 0.000326285
-0.15855 0.827776 -0.171057 0.00119097
0.444045 0.243762 -0.425855 0.00311823
0.442285 0.260255 -0.418022 0.00167005
0.46537 0.248207 -0.407564 0.000170038
0.463918 0.265038 -0.398828 0.00168136
-0.652024 0.340893 -0.0232138 0.00184248
-0.636033 0.354195 -0.0353378 0.000889597
-0.645886 0.347407 -0.00628722 0.000119461
-0.628993 0.361135 -0.0171102 0.00203464
0.0174326 -0.233762 0.826787 0.00168609
0.0155121 -0.218859 0.846518 0.00123635
0.0343238 -0.226036 0.833326 0.000725156
0.0330311 -0.211277 0.852884 0.000741355
-0.616808 -0.276127 -0.256763 0.000134989
-0.638181 -0.266106 -0.251841 0.00294385
-0.612461 -0.290565 -0.247193 0.00181335
-0.632836 -0.281271 -0.242339 0.00444942
-0.113671 0.647035 -0.335727 0.00302552
-0.119369 0.665751 -0.317088 7.37785e-05
-0.0842168 0.653999 -0.33585 0.000930039
-0.0893658 0.674828 -0.31679 0.00235541
0.473799 -0.426693 -0.21982 0.00437384
0.484062 -0.412742 -0.220455 0.0017668
0.486808 -0.419296 -0.202315 0.000593619
0.49716 -0.405074 -0.202937 0.00298921
0.156498 -0.919821 0.00100085 0.002022
0.171778 -0.901183 -0.000388646 0.000575004
0.164536 -0.908537 0.0212605 0.000544776
0.178901 -0.890523 0.0195716 0.000754686
-0.0357594 -0.350562 0.644313 0.00197199
-0.0449 -0.335306 0.663103 0.000207246
-0.00711709 -0.344599 0.649578 0.00148626
-0.0166322 -0.330061 0.669362 0.00256289
-0.0779594 0.269295 0.750617 0.00142733
-0.0656403 0.284148 0.73485 0.000228488
-0.0573604 0.268471 0.764291 0.00177619
-0.0457216 0.282762 0.746172 0.00239188
-0.110108 -0.669574 0.318958 0.00145326
-0.129731 -0.648914 0.325516 0.00065476
-0.0789303 -0.673144 0.325322 0.00210017
-0.0956953 -0.652011 0.334487 0.00104845
0.0159853 0.617525 -0.363761 0.00262192
0.0185364 0.641427 -0.346756 0.00317074
0.0523122 0.637065 -0.355091 0.00360904
0.053668 0.660052 -0.338327 0.00238227
-0.336245 0.335638 -0.462208 0.00272369
-0.318507 0.354989 -0.463331 0.000156407
-0.339124 0.358303 -0.440465 0.000159523
-0.322735 0.377582 -0.441591 0.00316922
-0.503405 -0.460305 -0.0184328 0.0016442
-0.521941 -0.444369 -0.010603 0.00205199
-0.491262 -0.467786 0.00389104 0.00184603
-0.509989 -0.451367 0.0116315 0.000584888
0.718934 0.0960345 -0.284534 0.00319694
0.717119 0.119459 -0.278597 0.00253893
0.741244 0.100584 -0.272165 0.000242925
0.737585 0.123796 -0.267409 0.000975834
0.00497109 -0.955673 -0.111577 0.001372
0.0196532 -0.943708 -0.125462 0.00209785
0.0294358 -0.95583 -0.104426 0.00298001
0.0446668 -0.943286 -0.11675 0.00316699
0.710689 -0.0196271 -0.303139 0.00347895
0.711681 0.00493868 -0.307957 0.000807983
0.731135 -0.0140642 -0.290526 0.00370314
0.730285 0.0105283 -0.295989 0.000734672
0.72967 -0.151713 -0.26184 0.00162934
0.735186 -0.133992 -0.265984 0.000976413
0.744588 -0.144522 -0.252665 6.60665e-05
0.750436 -0.126348 -0.256384 0.000826544
-0.0968778 -0.248865 -0.776422 0.00250847
-0.0917377 -0.23786 -0.796481 0.00140998
-0.0730711 -0.263198 -0.768746 0.00102857
-0.0673063 -0.252899 -0.787175 0.000482952
0.151691 0.00169732 0.920737 0.000761911
0.149582 0.024886 0.917556 0.00112257
0.149409 -0.0106938 0.927094 0.0041986
0.147506 0.0124424 0.924247 0.000744197
-0.284666 0.44915 0.390088 0.00308617
-0.271815 0.468534 0.385201 0.000945865
-0.262441 0.453589 0.410277 0.00142833
-0.252724 0.472524 0.40407 0.00467814
0.646451 0.0134658 0.344703 0.00103688
0.653743 0.0433157 0.33819 0.000847544
0.653594 0.01119 0.340786 0.000434393
0.661664 0.041836 0.333748 0.000333345
0.104088 -0.584721 0.377638 0.000450963
0.107607 -0.565935 0.392803 0.00226818
0.126151 -0.571025 0.380496 7.07076e-05
0.128938 -0.552591 0.395828 0.00151145
-0.437672 0.199636 0.468191 0.0016611
-0.424525 0.225599 0.458238 0.00331904
-0.421549 0.194656 0.494301 0.00497606
-0.408414 0.222166 0.485144 0.00127594
0.593472 -0.194903 -0.335768 0.000133275
0.595209 -0.169454 -0.343391 0.00295449
0.609137 -0.196998 -0.321629 0.00116307
0.610081 -0.171593 -0.330057 0.00351407
-0.136991 0.872184 -0.149434 0.00217892
-0.120563 0.886303 -0.149463 0.0034271
-0.12628 0.887881 -0.132491 0.00234617
-0.118021 0.902002 -0.126618 0.000168667
-0.257156 -0.243251 -0.646592 0.00279889
-0.274198 -0.231455 -0.643992 0.000481819
-0.26084 -0.259339 -0.630382 0.000337664
-0.278631 -0.248066 -0.627519 0.002669
-0.103557 -0.617347 0.357088 0.00237689
-0.122305 -0.598652 0.363602 0.00130898
-0.0726904 -0.621839 0.360878 0.00255887
-0.090539 -0.603159 0.369208 0.00142312
0.84676 0.0471879 -0.213031 0.000234555
0.842016 0.0726482 -0.210754 0.00171163
0.861045 0.0501981 -0.196557 0.00277592
0.856184 0.074291 -0.1947 0.00138274
-0.789897 0.228222 -0.120371 0.0016232
-0.773005 0.246391 -0.122511 0.00344368
-0.781248 0.242384 -0.103919 0.000843879
-0.764871 0.258705 -0.105353 0.00331035
-0.147939 -0.361055 0.593757 0.00245239
-0.156611 -0.342834 0.611305 0.0013407
-0.121115 -0.358271 0.608621 0.00163156
-0.128264 -0.340283 0.625991 0.000998582
0.0448256 -0.905663 0.163011 0.000875306
0.0409181 -0.889605 0.180778 0.00228756
0.0669585 -0.893758 0.165145 0.00106581
0.0624142 -0.878006 0.183011 0.000393846
-0.0337463 -0.26223 -0.784218 0.000631511
-0.0252661 -0.251012 -0.800724 0.000207031
-0.00946749 -0.272276 -0.774981 0.00270042
0.000971546 -0.259808 -0.791313 0.00112821
0.688919 0.146952 -0.285926 0.00257108
0.685521 0.168839 -0.278927 0.0015957
0.709312 0.149867 -0.274995 0.00112215
0.704255 0.171508 -0.267948 0.00174124
-0.446018 0.481158 0.148145 0.00139701
-0.429431 0.504799 0.141316 0.000646706
-0.43377 0.485478 0.173839 0.000686054
-0.418815 0.510828 0.167017 0.0038789
-0.480798 -0.48116 -0.0391089 0.00182495
-0.499944 -0.464937 -0.0310409 0.00315073
-0.471102 -0.487744 -0.0176752 0.0010853
-0.489884 -0.471355 -0.00973505 0.000313662
-0.0308907 -0.913226 -0.155069 0.00334402
-0.0217694 -0.902299 -0.174043 0.00144323
-0.00720715 -0.92411 -0.144503 0.00507494
0.00544152 -0.912183 -0.162388 0.000791273
-0.588098 0.373104 0.0967649 0.00211493
-0.57052 0.394242 0.0862064 0.00210364
-0.575709 0.380611 0.114591 0.000221398
-0.558173 0.402469 0.103069 0.00444616
-0.514088 -0.0176483 -0.448755 0.000461314
-0.521746 0.00661633 -0.44081 0.00100462
-0.533598 -0.00505082 -0.434093 0.00139877
-0.541319 0.017699 -0.427999 0.0021272
0.441522 -0.0734272 -0.512744 0.000219444
0.448204 -0.0504501 -0.510736 0.00126279
0.45903 -0.0649928 -0.492052 0.00221983
0.465807 -0.041918 -0.490216 0.00047971
0.21061 -0.381484 -0.536866 0.00687721
0.220365 -0.361486 -0.545633 0.00182339
0.229405 -0.375977 -0.515658 0.00147868
0.23808 -0.354527 -0.526132 0.00603103
0.1818 0.461618 0.450774 0.0013633
0.191197 0.477332 0.429353 0.000456166
0.201056 0.439751 0.457168 0.00170463
0.207794 0.453779 0.437238 0.00293033
0.407151 0.532439 -0.132227 0.000385826
0.393484 0.552315 -0.127587 0.000206202
0.416209 0.529 -0.111943 0.00031312
0.403323 0.548545 -0.107102 0.000799981
-0.935273 0.117036 -0.0766636 0.000357983
-0.923597 0.13329 -0.0825183 0.00382348
-0.931716 0.12908 -0.0567231 0.00113081
-0.91887 0.144471 -0.0636006 0.00130268
-0.103436 0.341302 0.618769 0.00847004
-0.0937384 0.366041 0.606054 0.00285187
-0.0816747 0.344429 0.63025 0.0034983
-0.0715962 0.369368 0.617802 0.00827868
0.448926 -0.40231 0.280288 0.00177816
0.466548 -0.383136 0.274839 0.00285441
0.453769 -0.384206 0.298314 0.00196787
0.470184 -0.364398 0.293169 0.0032918
-0.838708 -0.178978 0.141653 0.000841059
-0.845905 -0.165048 0.151259 0.00136179
-0.821776 -0.180426 0.157087 0.000640623
-0.828496 -0.166693 0.167206 0.00100601
-0.521512 -0.292419 0.32832 0.00159948
-0.538852 -0.271445 0.333442 0.00345084
-0.503935 -0.290729 0.343481 0.000147628
-0.521763 -0.26887 0.346497 0.00130491
-0.410528 0.339198 0.379978 0.00298216
-0.403084 0.362131 0.372499 0.000615964
-0.394391 0.343608 0.397489 4.46014e-05
-0.386458 0.366012 0.390664 0.00370887
0.339053 0.655768 -0.0189508 0.000341944
0.326818 0.675994 -0.0108134 3.80309e-05
0.340768 0.652123 0.00312867 0.00105562
0.329309 0.670467 0.0122317 0.000571034
0.254557 0.172048 0.718351 0.00161722
0.23884 0.181843 0.722874 0.00220093
0.251393 0.155752 0.734625 0.00154988
0.236347 0.167411 0.739953 0.00155539
0.311979 -0.401107 -0.430509 0.00480139
0.319395 -0.378593 -0.439423 0.000213998
0.327419 -0.401453 -0.407057 0.000604199
0.335502 -0.379466 -0.415673 0.00419238
-0.346489 -0.274243 -0.518848 0.00075143
-0.370126 -0.261623 -0.507889 0.00376162
-0.351805 -0.279536 -0.504892 0.000939655
-0.376682 -0.267157 -0.494317 0.00288899
0.0799247 0.285751 -0.720748 0.00406156
0.0744792 0.29755 -0.704098 0.00427471
0.0996302 0.29081 -0.712197 0.000159987
0.0936863 0.303044 -0.695856 5.1013e-05
0.693875 -0.320127 -0.0333088 0.00255322
0.709984 -0.303855 -0.0368552 0.00207019
0.704196 -0.311585 -0.0162039 5.3835e-05
0.720458 -0.295651 -0.0201716 0.00482073
-0.311321 -0.332171 0.494324 0.000941074
-0.323547 -0.314975 0.500656 0.000559963
-0.293678 -0.333866 0.510509 0.000434645
-0.303773 -0.317415 0.516561 0.00175506
-0.594318 -0.251435 0.300516 0.00228935
-0.599561 -0.231138 0.308778 0.000285593
-0.578705 -0.24719 0.312331 0.000242453
-0.581998 -0.227521 0.320361 0.00317639
-0.0875831 -0.129883 -0.921883 0.000758654
-0.0838967 -0.11603 -0.935141 0.00149101
-0.0702982 -0.144485 -0.917122 0.000530722
-0.0633325 -0.13161 -0.933709 0.00231908
0.330822 0.602326 -0.196388 0.00361345
0.319809 0.619966 -0.18997 0.0026276
0.341763 0.597619 -0.173494 0.000922702
0.332542 0.614759 -0.164548 5.82408e-06
0.082921 0.650466 0.33652 0.00155691
0.097652 0.664955 0.322428 0.000776244
0.109011 0.638935 0.337702 0.00130119
0.122625 0.652846 0.323751 0.00145274
-0.305397 0.680621 0.105679 0.00451405
-0.291771 0.705472 0.105916 0.00186222
-0.295341 0.690767 0.129076 0.000329682
-0.282113 0.715749 0.129525 0.00271517
0.451243 -0.466386 -0.181787 0.00281202
0.46337 -0.451995 -0.182778 0.00142297
0.461633 -0.461261 -0.162608 1.146e-05
0.474694 -0.4459 -0.163863 0.00195031
-0.495907 -0.316032 -0.32893 0.000595939
-0.516592 -0.303664 -0.323512 0.000992815
-0.492474 -0.334617 -0.314761 1.90322e-05
-0.51281 -0.322998 -0.310191 0.00198375
0.106771 -0.487752 -0.460562 0.00137197
0.120492 -0.471534 -0.469181 0.000567052
0.12849 -0.491238 -0.448854 0.000682293
0.142905 -0.474197 -0.460005 0.000689703
0.255886 -0.486667 -0.392757 0.00490136
0.267797 -0.464607 -0.400057 0.00203371
0.277636 -0.474846 -0.381295 0.000990886
0.286347 -0.452628 -0.38793 0.00349628
0.631509 -0.271946 -0.248237 0.00190115
0.641191 -0.250152 -0.264699 0.00404335
0.649023 -0.26166 -0.236346 0.00147602
0.658849 -0.240097 -0.252041 9.40958e-05
0.607166 0.206085 0.318064 0.00275318
0.584348 0.217822 0.324253 0.000674851
0.606696 0.18149 0.329997 0.000747681
0.583466 0.195213 0.336912 0.00158044
-0.0477236 0.92358 0.140645 0.000899078
-0.0416719 0.941856 0.119588 0.000563008
-0.0245843 0.911874 0.158043 0.000498088
-0.0185935 0.930659 0.136699 0.00130502
-0.484414 0.243712 -0.393441 0.0010732
-0.466987 0.260158 -0.395348 0.0028581
-0.486465 0.265578 -0.376085 0.00128197
-0.468484 0.282495 -0.378625 0.00176473
-0.0493315 -0.263641 0.779792 0.00262791
-0.0674179 -0.252326 0.794521 0.00447907
-0.0273339 -0.260089 0.788557 0.00218302
-0.0447902 -0.248512 0.803469 0.00247155
-0.457437 -0.453047 0.188342 0.000662107
-0.471932 -0.435805 0.193483 0.00140934
-0.442338 -0.456577 0.207326 0.00152081
-0.456498 -0.439546 0.213149 0.000829659
0.0635729 0.525405 -0.4331 0.00112485
0.0563048 0.54044 -0.419435 0.000851722
0.090036 0.530921 -0.425072 0.00189066
0.0822602 0.545786 -0.412144 0.000193457
0.187352 -0.0856827 -0.862937 0.000138008
0.191748 -0.0641288 -0.866129 0.000835093
0.206373 -0.0752879 -0.841274 0.0022689
0.211099 -0.0526503 -0.845228 0.00104324
-0.178471 -0.179082 -0.803631 0.000809386
-0.190978 -0.16473 -0.806772 8.8681e-05
-0.182411 -0.194495 -0.788792 0.00183589
-0.195054 -0.181815 -0.790838 0.00255678
0.502576 -0.0701755 0.448534 0.000207378
0.505318 -0.0461763 0.452454 0.00197812
0.486112 -0.0499611 0.463978 0.00200839
0.489156 -0.0259506 0.467716 0.000835326
0.369865 0.510069 -0.239965 0.00194347
0.351462 0.531749 -0.242201 0.00126292
0.38382 0.509316 -0.222469 0.00031462
0.365619 0.531081 -0.224998 0.00033589
-0.647275 -0.316281 -0.148645 0.00367057
-0.668823 -0.304455 -0.143262 0.00272371
-0.638756 -0.33631 -0.128508 0.0017387
-0.659857 -0.324422 -0.122987 0.0019108
0.658882 0.111345 0.326153 0.00384492
0.662675 0.130953 0.312614 0.000179602
0.670249 0.0870537 0.319141 0.000991863
0.676162 0.107375 0.304317 0.005379
-0.4606 -0.502604 0.0310139 0.00193083
-0.478716 -0.483982 0.0378894 0.00246768
-0.451317 -0.506576 0.0543508 0.000549307
-0.469757 -0.486611 0.0595831 1.52112e-05
0.177245 0.313643 -0.630228 0.00194498
0.166442 0.329169 -0.614986 0.00260774
0.193741 0.318334 -0.616915 0.000973412
0.182313 0.333735 -0.602657 0.000242571
-0.158558 0.272896 -0.704654 6.74982e-05
-0.171384 0.281991 -0.682079 0.000425744
-0.147503 0.290772 -0.688668 0.000864066
-0.161593 0.300057 -0.664314 8.22941e-05
0.341111 -0.642214 -0.0620211 0.00404496
0.356314 -0.621628 -0.0629561 0.00266363
0.348831 -0.635571 -0.0414717 0.00329073
0.363268 -0.615729 -0.0429724 0.00217499
0.34959 0.612836 -0.11202 0.00287156
0.342058 0.630887 -0.0976035 0.00208258
0.359875 0.612983 -0.0842615 0.00017963
0.350993 0.630886 -0.0716489 0.000652031
-0.142792 -0.328851 -0.631372 0.00466043
-0.164866 -0.320847 -0.630054 0.00420006
-0.13496 -0.347886 -0.617001 0.000335786
-0.153889 -0.339693 -0.618746 0.000455419
0.414452 0.46501 0.236956 0.000771654
0.395911 0.475882 0.243762 0.00184482
0.415287 0.452486 0.255253 0.00162371
0.396527 0.463556 0.262155 0.000117211
0.45571 -0.0313439 0.491534 0.00586609
0.459069 -0.00664303 0.495375 0.00162515
0.442033 -0.0195762 0.509446 0.00421196
0.445755 0.00473815 0.513236 0.000910932
-0.992591 0.0180132 -0.0227518 0.00229403
-0.985224 0.0447291 -0.0166761 0.00458719
-0.995727 0.0287591 0.00223568 2.80273e-05
-0.988232 0.0552059 0.00621507 0.00108766
0.0965455 -0.510473 -0.442601 0.00150479
0.11186 -0.494316 -0.451656 0.00060602
0.122913 -0.512343 -0.431388 0.000133864
0.137757 -0.496285 -0.440164 0.000399008
-0.143574 0.648868 0.319643 0.00160949
-0.137599 0.668128 0.30876 0.00150767
-0.119433 0.647446 0.327876 0.00033781
-0.113172 0.666133 0.317357 0.000389878
-0.861753 -0.165941 0.127024 0.000235023
-0.870906 -0.151384 0.134647 0.000736724
-0.846431 -0.167473 0.144611 0.000356448
-0.854417 -0.153525 0.153219 0.00129334
0.511271 -0.455032 0.0111246 0.00421263
0.525419 -0.435706 0.00403504 0.00141817
0.522809 -0.443234 0.026834 0.00410564
0.539149 -0.423998 0.0194188 0.0011396
-0.705132 0.0441717 -0.310191 0.000505924
-0.716638 0.0645958 -0.298601 0.000385119
-0.687013 0.057709 -0.318756 0.000477513
-0.698333 0.0786236 -0.307133 0.000796388
-0.31668 0.44765 -0.372852 0.000478779
-0.326102 0.460877 -0.354372 0.00242617
-0.306014 0.465685 -0.357359 0.00425271
-0.319945 0.478544 -0.335429 0.00268462
0.297023 0.386067 -0.448021 0.000702335
0.277109 0.405865 -0.444737 0.000280011
0.321515 0.381467 -0.433447 0.0016588
0.301187 0.402276 -0.429376 0.000669931
-0.175427 0.115611 0.854911 0.00182866
-0.166864 0.13992 0.85154 0.00186582
-0.155511 0.121837 0.871401 0.000839228
-0.147285 0.146535 0.866137 0.00341313
0.16104 -0.226312 0.76547 0.000695537
0.178839 -0.212904 0.765449 0.000529104
0.160204 -0.209049 0.78703 0.000920844
0.18362 -0.194064 0.783763 0.00198319
-0.688132 -0.102155 0.309933 0.00210441
-0.689721 -0.0803455 0.311209 1.45902e-05
-0.674258 -0.0954716 0.316707 0.0010428
-0.677709 -0.073965 0.317519 0.00249818
-0.444326 0.0160939 0.518189 0.00133707
-0.439711 0.0402929 0.51845 0.00117321
-0.426831 0.0219626 0.537286 0.000301075
-0.422499 0.0457713 0.535991 0.00257524
0.680418 -0.328671 0.0328021 0.00286004
0.699362 -0.312278 0.0305691 0.00116274
0.691857 -0.316703 0.0473041 3.69241e-06
0.709697 -0.300636 0.0439163 0.00421903
-0.152833 0.0428764 -0.918082 0.000718991
-0.144854 0.0630262 -0.915299 0.00208112
-0.160426 0.0641282 -0.903278 0.000689828
-0.151465 0.0821094 -0.901152 0.00124746
0.327932 -0.662431 -0.0856234 0.000186756
0.343736 -0.641245 -0.0874081 0.00122647
0.336189 -0.652757 -0.0681357 0.00142422
0.351215 -0.631896 -0.0693012 0.000314313
0.0296424 -0.24251 -0.819136 0.00383836
0.0484076 -0.222321 -0.837002 0.000512355
0.0538693 -0.237971 -0.810872 0.00125137
0.0723181 -0.217925 -0.828627 0.00277304
-0.0122315 -0.760093 0.276733 0.000642434
-0.0243463 -0.740381 0.287082 0.000714076
0.0101483 -0.762428 0.274462 0.000135236
0.00378411 -0.73969 0.289009 0.000361921
-0.0859435 -0.923897 -0.124401 0.00175168
-0.108398 -0.916104 -0.124315 0.00182621
-0.0795703 -0.944496 -0.103485 0.000362432
-0.0913995 -0.936004 -0.111976 0.00311261
-0.553118 0.35363 -0.223913 0.00284197
-0.5347 0.370423 -0.226361 0.00530839
-0.548254 0.370628 -0.197065 0.00128475
-0.529737 0.386101 -0.201838 0.00348973
0.470133 -0.203385 -0.43661 0.00216004
0.476992 -0.181745 -0.437758 0.000158439
0.48629 -0.201027 -0.417854 0.00133035
0.495618 -0.178684 -0.418532 0.002444
-0.365236 0.463446 0.299689 0.00293475
-0.351244 0.485528 0.294549 0.00181331
-0.348491 0.462886 0.323999 0.000292482
-0.332677 0.483966 0.320598 0.000212738
-0.490182 0.0373394 0.466136 0.000629846
-0.485264 0.0613346 0.467963 3.77407e-05
-0.469414 0.0501572 0.483588 0.00171354
-0.464212 0.074764 0.485761 0.000909294
0.0021253 0.968915 -0.0944013 0.00166284
-0.0168465 0.975646 -0.0727719 0.00208586
0.0165371 0.984673 -0.0687531 0.00487622
-0.0030336 0.991167 -0.0477398 0.00277316
0.725979 0.152039 0.260996 0.00200559
0.733691 0.170921 0.243373 0.00155952
0.73881 0.120096 0.260299 0.00307389
0.745974 0.139266 0.244668 0.00427272
-0.7478 -0.281643 0.0565095 0.000730706
-0.764542 -0.268426 0.0657452 0.000179264
-0.731028 -0.285526 0.0764842 0.00165243
-0.747402 -0.2713 0.0871389 0.00248042
-0.388982 -0.549082 -0.168513 0.00323528
-0.403359 -0.533247 -0.164437 0.0028184
-0.386378 -0.557237 -0.151114 0.000660398
-0.400232 -0.540569 -0.147311 1.13782e-05
0.0671262 -0.858546 0.195483 0.00169679
0.0579149 -0.842026 0.214553 0.000936043
0.0893321 -0.841828 0.199229 0.00265833
0.0802115 -0.825163 0.21818 0.00106672
-0.388939 0.136229 -0.557924 0.000390391
-0.382894 0.158591 -0.554054 0.000451765
-0.400732 0.153549 -0.537957 0.00172721
-0.393212 0.175605 -0.534444 0.000985588
-0.245905 0.18724 0.715573 0.000361002
-0.232475 0.207913 0.710604 0.00103234
-0.227112 0.190508 0.734936 9.37544e-05
-0.215498 0.211183 0.729541 0.00051595
-0.656059 -0.295452 0.1843 2.72795e-05
-0.672796 -0.278023 0.192553 0.000186688
-0.635386 -0.296896 0.202747 0.00223326
-0.649628 -0.278477 0.210071 0.00428019
0.472982 -0.136269 -0.46128 0.000263365
0.478811 -0.115334 -0.462369 0.000494506
0.492552 -0.135471 -0.443731 0.000775473
0.498644 -0.113999 -0.444137 0.00046531
-0.674461 0.232274 0.239297 0.00240652
-0.664209 0.253933 0.232118 0.00134907
-0.656707 0.235099 0.255825 4.95271e-05
-0.64929 0.255136 0.248745 0.00363088
-0.168565 0.00701247 0.903605 0.00062797
-0.163027 0.03832 0.905675 0.000488331
-0.149971 0.0111866 0.922185 0.000698655
-0.144026 0.0418793 0.923697 0.000359851
0.180107 -0.371518 0.557253 0.00136086
0.173316 -0.360139 0.576266 0.00112423
0.194762 -0.355123 0.570929 0.00241604
0.191108 -0.344184 0.587901 0.00282398
0.854307 -0.155739 -0.14579 0.00118343
0.867582 -0.133575 -0.152263 0.001222
0.868473 -0.150292 -0.12712 0.0048936
0.88179 -0.127574 -0.13369 0.00558566
-0.104555 0.745695 0.268492 0.00148351
-0.0875459 0.765862 0.259253 0.00115198
-0.0764324 0.740542 0.279247 0.00111626
-0.0601135 0.760054 0.269505 0.000739031
-0.311611 0.134719 0.661001 0.00191023
-0.304627 0.165368 0.655573 0.000438542
-0.290897 0.147384 0.683476 0.00189266
-0.283154 0.177937 0.678455 0.00172686
-0.358349 0.515841 -0.253433 0.00193245
-0.343984 0.53459 -0.255595 0.000346726
-0.360478 0.533442 -0.228469 0.00169331
-0.347231 0.552812 -0.231001 0.000899662
0.659218 -0.0972743 -0.32736 0.00107359
0.669444 -0.0749469 -0.329491 0.00226621
0.675502 -0.0921857 -0.317713 0.00130144
0.685858 -0.0701184 -0.320096 0.00246195
-0.185018 0.821028 -0.152624 0.000106931
-0.166946 0.838228 -0.151342 0.00155537
-0.185145 0.840893 -0.127677 0.000397652
-0.162841 0.860482 -0.129598 0.000926522
-0.0792984 0.871251 -0.191159 0.00608288
-0.0850035 0.886991 -0.172023 0.0043841
-0.0550654 0.885839 -0.179975 0.00122196
-0.064167 0.901395 -0.159561 0.000479676
0.150968 -0.898473 0.0945538 0.00216391
0.16386 -0.882907 0.095334 0.000141029
0.149395 -0.880358 0.117511 0.0011409
0.162658 -0.86449 0.118269 0.00276693
0.0353997 -0.920329 0.148791 0.000441152
0.0310832 -0.904398 0.165714 0.000678397
0.0540965 -0.910344 0.151024 0.00188281
0.0529541 -0.895244 0.166768 0.00213858
0.309801 -0.431911 -0.399214 0.00314339
0.318484 -0.409987 -0.40746 0.000308363
0.328135 -0.429832 -0.376702 0.00134693
0.337014 -0.408425 -0.384616 0.00438437
-0.352228 -0.454716 -0.328316 0.00324284
-0.371551 -0.444537 -0.321913 0.00122433
-0.355174 -0.471417 -0.309549 0.00205152
-0.375071 -0.46097 -0.303468 0.000757088
-0.211896 -0.670066 0.269321 0.00238925
-0.219957 -0.6464 0.276893 0.00121567
-0.193229 -0.669174 0.28162 0.00146503
-0.20102 -0.645654 0.289373 0.00215717
-0.102315 -0.111426 -0.934303 0.0058576
-0.100935 -0.0923065 -0.941129 0.00125066
-0.0855249 -0.1238 -0.9275 0.000456317
-0.0780715 -0.110089 -0.942293 0.00171244
-0.409694 0.314585 -0.407257 0.00244691
-0.391936 0.330328 -0.412362 0.00127968
-0.417336 0.332725 -0.383408 0.00216941
-0.397431 0.349788 -0.389323 0.000962743
-0.258417 -0.12307 0.754238 0.00188151
-0.26329 -0.104354 0.751877 0.00127327
-0.245087 -0.122374 0.769954 0.00013967
-0.251322 -0.10356 0.767883 0.00187257
-0.0425179 0.234584 0.823284 0.00427403
-0.032856 0.248477 0.803198 0.00312177
-0.0187349 0.218206 0.837513 0.00205443
-0.00929586 0.231865 0.812223 0.00681642
-0.204939 -0.579615 0.342483 0.0013642
-0.21653 -0.562243 0.351271 0.00313219
-0.185584 -0.577305 0.352729 0.00043574
-0.198211 -0.559272 0.362334 0.00214185
-0.225224 -0.188828 0.741248 0.00107354
-0.237352 -0.173532 0.743313 0.00106736
-0.207534 -0.191582 0.758759 0.000625573
-0.219602 -0.175712 0.760852 0.000420399
0.0503061 -0.568817 0.400367 0.00106222
0.05231 -0.549463 0.417795 0.00315891
0.0702902 -0.55589 0.405312 0.000511255
0.0719753 -0.537052 0.422456 0.00116438
-0.39813 -0.568604 0.073392 0.000327232
-0.417546 -0.54613 0.0732065 0.0017196
-0.38363 -0.575872 0.0966019 0.00316533
-0.403958 -0.553252 0.0972243 0.00051684
-0.406079 -0.0811151 -0.558103 0.000860923
-0.411851 -0.0615471 -0.554737 0.00089907
-0.424638 -0.0778763 -0.540589 0.00375437
-0.43014 -0.0578833 -0.53718 0.0035826
0.712502 -0.306107 0.0662114 0.00467856
0.727964 -0.291328 0.0603158 0.000355236
0.724474 -0.292265 0.0793139 0.00182421
0.739045 -0.277607 0.0716906 0.00404922
0.442332 -0.342057 -0.360059 0.00338271
0.448113 -0.323374 -0.367197 0.000757544
0.455742 -0.336775 -0.346069 0.000327537
0.462968 -0.31795 -0.352234 0.00285449
-0.278812 0.750526 0.0563071 0.000981759
-0.267182 0.770125 0.0498652 0.000875444
-0.270103 0.754534 0.0753153 0.000353168
-0.25895 0.773682 0.0694233 0.000288452
-0.685559 0.291127 0.134075 0.00397491
-0.67323 0.316608 0.120271 0.00533483
-0.670222 0.296874 0.156296 0.000420284
-0.657629 0.322286 0.142435 0.00767613
-0.0522425 0.60462 0.373459 0.00234258
-0.0431785 0.625559 0.359992 0.0018226
-0.0297084 0.607215 0.37532 0.00353557
-0.0208801 0.627362 0.361711 0.0032024
0.173813 0.23824 0.741003 0.00324034
0.151868 0.246618 0.74412 0.00100351
0.183123 0.218853 0.754743 0.00237201
0.16168 0.227504 0.758048 0.000498867
-0.511788 -0.263555 0.356546 0.000354883
-0.529522 -0.242084 0.359894 0.00199268
-0.495506 -0.260894 0.370697 0.00180619
-0.512922 -0.238788 0.37411 0.00029836
-0.217877 -0.784411 -0.159751 0.00225943
-0.233844 -0.767934 -0.156554 0.00281468
-0.218326 -0.795571 -0.143245 0.00129075
-0.23372 -0.778754 -0.139822 0.00183738
0.545503 -0.306626 -0.292804 0.00142486
0.554864 -0.287894 -0.297856 0.00145435
0.563375 -0.298535 -0.278281 0.00172557
0.573288 -0.278374 -0.287493 0.00311097
0.0170745 0.223419 -0.833647 0.00206084
0.00153423 0.236488 -0.817033 0.0014527
0.0345681 0.2253 -0.82548 0.00397344
0.0181071 0.239372 -0.808104 0.00338264
-0.84038 0.216788 0.0428913 0.0002338
-0.825138 0.236811 0.035676 0.00551286
-0.824858 0.222082 0.0666369 0.00122165
-0.810763 0.24313 0.0574112 0.00528576
-0.24149 -0.504408 -0.379762 0.00123139
-0.266226 -0.493827 -0.375644 0.00143237
-0.232501 -0.52882 -0.373098 0.00443418
-0.257479 -0.518322 -0.368107 0.00610312
0.0349185 0.793268 0.254441 0.00302652
0.0391836 0.807281 0.242083 0.00140934
0.053135 0.785293 0.254833 0.00122343
0.0577889 0.798511 0.242949 0.000543998
0.787986 -0.110312 -0.238507 0.00116667
0.790409 -0.0873361 -0.24456 0.000589439
0.800789 -0.104503 -0.227696 0.0018339
0.803731 -0.0809294 -0.234439 0.00148538
-0.253934 -0.372265 0.5054 0.00148538
-0.262681 -0.354494 0.520489 0.00231288
-0.231758 -0.368994 0.522683 0.000948212
-0.240384 -0.351158 0.539013 0.00041802
0.172901 0.150675 -0.827882 0.00294462
0.158962 0.173504 -0.830169 0.00278456
0.192742 0.150383 -0.810836 0.000452343
0.178781 0.173342 -0.812657 0.00362208
0.679242 -0.32278 0.0925585 0.00562967
0.69742 -0.307376 0.0872079 0.00153815
0.691444 -0.308398 0.106028 0.00352417
0.709487 -0.292426 0.0993512 0.00137686
-0.364969 0.174273 -0.566353 0.00183687
-0.353666 0.197318 -0.564902 0.00209814
-0.370447 0.198067 -0.547272 0.000708615
-0.360541 0.220325 -0.54469 0.00101307
-0.319898 0.0979261 -0.674542 0.000978973
-0.309588 0.12449 -0.677411 0.00111797
-0.326427 0.116132 -0.658276 0.00177637
-0.316518 0.143354 -0.660957 0.00310066
0.189337 0.712394 -0.246031 0.00106071
0.186303 0.732061 -0.231679 0.0013201
0.212164 0.717592 -0.225603 0.000696577
0.207749 0.736385 -0.213007 0.00122331
-0.0138251 0.43026 -0.53112 0.000851362
-0.0187278 0.443585 -0.513713 0.00201103
0.00661941 0.439021 -0.525722 0.00247909
0.00333037 0.452275 -0.509962 0.00191472
0.200637 0.541061 -0.373497 0.00144489
0.180183 0.561975 -0.365421 0.000510519
0.226334 0.535961 -0.359304 0.0011078
0.204449 0.557045 -0.355046 0.00147901
-0.245476 -0.541622 -0.344325 0.00213159
-0.269931 -0.530536 -0.33924 0.000246806
-0.235402 -0.563798 -0.33553 0.000373787
-0.257965 -0.552633 -0.330953 0.00114164
0.542847 0.414626 0.0486336 0.00209691
0.525317 0.428835 0.058557 0.000970063
0.556908 0.404484 0.0707365 0.00128936
0.537367 0.418261 0.0776572 0.000557919
-0.43363 0.139347 0.497531 0.00191758
-0.428696 0.166202 0.493594 0.000212424
-0.420001 0.145555 0.518583 0.00300601
-0.412535 0.17128 0.511016 0.00112464
-0.767235 0.195308 -0.196603 0.000625501
-0.744613 0.212102 -0.200836 0.000493879
-0.769091 0.216829 -0.17342 0.00201697
-0.748417 0.233484 -0.177461 0.00323763
-0.612362 -0.249364 -0.279958 0.00405235
-0.634627 -0.238847 -0.274968 0.000920161
-0.611708 -0.268358 -0.270706 0.000847491
-0.633703 -0.257789 -0.265692 0.00366605
0.593832 -0.0808818 -0.375649 0.00102296
0.601269 -0.0569099 -0.37713 0.00129294
0.613472 -0.0808422 -0.363904 0.000572281
0.620518 -0.0568672 -0.365221 0.00253392
-0.913105 -0.0169467 -0.166053 0.00325552
-0.915177 0.00446111 -0.15847 0.00134699
-0.931983 -0.00504989 -0.146861 0.00217755
-0.933438 0.0169116 -0.138797 0.000883751
0.727436 -0.137791 -0.266945 0.00115519
0.732579 -0.120495 -0.271132 0.000690118
0.745605 -0.1325 -0.256165 0.00142295
0.750603 -0.11487 -0.259809 0.00150973
-0.997606 0.0047543 -0.0172791 0.000530112
-0.990387 0.0314173 -0.0113225 0.00369948
-0.997089 0.0127175 0.00622445 0.000331303
-0.989495 0.0392145 0.0103996 0.0025791
0.109145 0.469412 0.47428 0.00277215
0.120503 0.485842 0.453483 0.00174677
0.132361 0.452034 0.477014 0.00192341
0.143655 0.468586 0.455345 0.00247367
0.168606 0.473892 -0.439801 0.0042231
0.160062 0.489522 -0.427619 0.00512661
0.189423 0.480091 -0.429755 0.000199445
0.179375 0.49559 -0.418612 0.00123018
-0.452804 -0.502895 -0.0888806 0.00222359
-0.467168 -0.487598 -0.0821696 0.001241
-0.445329 -0.511564 -0.0685235 0.000237417
-0.459585 -0.495302 -0.0616836 0.00146211
0.334463 0.656969 -0.0628599 1.64142e-05
0.323691 0.676452 -0.0538654 0.000389173
0.340986 0.650699 -0.0405582 0.000267432
0.32934 0.670015 -0.0317582 0.00033592
-0.407044 -0.428601 0.296965 0.000285722
-0.421474 -0.409158 0.307956 0.00211846
-0.395809 -0.429128 0.309554 0.000585602
-0.409221 -0.408622 0.321663 0.00191837
-0.449498 0.0385541 -0.510948 0.000379163
-0.448419 0.0634371 -0.503421 0.00301658
-0.469587 0.0539453 -0.488066 0.00054428
-0.469251 0.0797245 -0.480983 0.00137793
-0.229597 0.787945 -0.12408 0.000759976
-0.216147 0.808327 -0.118157 0.00115059
-0.22949 0.808705 -0.0968632 0.00195214
-0.213261 0.829619 -0.0918311 0.000115813
-0.631697 0.198946 -0.305637 0.000503925
-0.618993 0.214252 -0.30583 0.000526526
-0.633834 0.219483 -0.288466 0.000856989
-0.620553 0.23468 -0.288583 0.000381084
-0.892923 0.175 -0.0353806 0.000309206
-0.877746 0.191189 -0.0384764 0.00186618
-0.884241 0.189143 -0.0166571 0.00233639
-0.8672 0.20658 -0.0190499 0.00479636
-0.0710457 0.740888 -0.282822 0.00128751
-0.0696998 0.763208 -0.266174 0.000937119
-0.050489 0.756695 -0.279658 0.00389343
-0.0497816 0.778807 -0.264243 0.00280038
-0.008857 0.553268 0.413721 0.00200562
-3.87654e-05 0.569408 0.399047 0.000183114
0.0166455 0.550826 0.41523 0.00148734
0.0255491 0.566587 0.40034 0.000314801
-0.142661 0.914983 0.0470924 0.00588343
-0.122056 0.93649 0.0440597 0.00321322
-0.125881 0.929222 0.0690401 0.000358026
-0.106507 0.950355 0.0652728 0.00456252
0.295873 0.376432 -0.455968 0.00258949
0.275608 0.39623 -0.452744 0.00175331
0.319021 0.3743 -0.443247 0.00158581
0.298967 0.394663 -0.439788 0.000830655
0.0945758 -0.951492 0.07475 0.00158098
0.115155 -0.937689 0.0711915 0.000421373
0.0982849 -0.937874 0.0942301 0.000584831
0.11877 -0.922345 0.0913767 0.00173288
-0.118215 -0.133036 -0.905351 0.00378084
-0.135579 -0.114654 -0.900588 0.000324776
-0.126776 -0.142949 -0.891545 0.00405078
-0.145959 -0.124269 -0.88622 0.000962426
0.220146 0.823816 0.0887499 0.00371003
0.201156 0.836573 0.0984028 0.000135813
0.225065 0.806817 0.103562 0.00192444
0.205753 0.818589 0.112442 0.00193803
-0.103655 -0.257274 -0.763995 0.0008486
-0.0988048 -0.24605 -0.784276 9.725e-05
-0.0827171 -0.269697 -0.756608 0.000277811
-0.0775722 -0.260115 -0.773236 0.000347642
0.274599 -0.753962 -0.0534436 0.000890864
0.290141 -0.731396 -0.0594658 0.00105765
0.284351 -0.746784 -0.0269253 0.000959487
0.298438 -0.723763 -0.034442 0.00108585
-0.860311 -0.204487 0.0536545 0.00216004
-0.876247 -0.186275 0.0637414 0.000907707
-0.844851 -0.211394 0.0701689 0.000709105
-0.858171 -0.194353 0.0801757 0.000828064
-0.0642296 -0.0399313 0.982976 0.0044024
-0.0594009 -0.0158713 0.981302 0.00269899
-0.0429471 -0.0353397 0.987037 0.000521812
-0.0395093 -0.0128175 0.985776 0.00503923
0.227242 -0.442314 0.443861 0.000345978
0.214272 -0.430928 0.466276 0.00140893
0.240553 -0.425748 0.453749 0.000617794
0.228304 -0.415206 0.475112 0.0018774
-0.843162 -0.0471644 -0.222604 0.00394176
-0.842665 -0.0217329 -0.221051 0.000497225
-0.855438 -0.0409725 -0.21428 0.00420908
-0.856658 -0.0162163 -0.211288 0.000112778
-0.222618 0.704306 0.222105 0.0017912
-0.208361 0.727059 0.216895 0.00172208
-0.20039 0.710036 0.24465 0.00285778
-0.186345 0.733513 0.239261 0.00467302
0.375621 0.14633 0.566093 0.000285704
0.367581 0.161892 0.568104 0.000272294
0.363555 0.144184 0.581519 0.000670355
0.356483 0.160256 0.583489 5.20357e-05
-0.105971 -0.231439 0.803733 0.00313274
-0.11981 -0.21725 0.814515 0.00343888
-0.0843364 -0.229256 0.813593 0.000992813
-0.0989832 -0.215762 0.826406 0.00163995
-0.808057 0.209379 -0.133354 0.000100937
-0.790425 0.227421 -0.13579 0.00400964
-0.799149 0.223756 -0.115047 0.00145605
-0.781975 0.241688 -0.117114 0.00298704
-0.701314 0.194628 -0.252745 0.00110132
-0.686865 0.212534 -0.252801 0.000224607
-0.70493 0.218907 -0.230515 0.000172002
-0.688686 0.237159 -0.231226 0.00199026
0.158634 -0.0475977 -0.906899 0.001206
0.162332 -0.0275867 -0.909641 0.00011889
0.176283 -0.0413621 -0.886966 0.0030719
0.180696 -0.021237 -0.888985 0.000738942
-0.768051 -0.0589434 0.267365 0.00153273
-0.768332 -0.0425718 0.267705 0.000350398
-0.750485 -0.0561944 0.277775 0.000484452
-0.750224 -0.0391222 0.278397 0.00146965
-0.680609 -0.315761 0.109269 0.00325718
-0.697714 -0.299926 0.121151 0.0028088
-0.663663 -0.315583 0.129899 0.000406332
-0.679511 -0.300015 0.141722 0.000226099
0.390444 -0.0612768 -0.579808 0.000946741
0.393597 -0.0346985 -0.580978 0.00133111
0.407945 -0.0586845 -0.558451 0.00139218
0.412707 -0.0322585 -0.558184 0.00276147
-0.182251 -0.223294 -0.752011 0.00070363
-0.198751 -0.212611 -0.749595 6.05101e-05
-0.178656 -0.242027 -0.735033 0.00102369
-0.192267 -0.230383 -0.738593 0.00163664
-0.326656 -0.195335 -0.608518 0.00015394
-0.342875 -0.178619 -0.598881 0.000748234
-0.33893 -0.19521 -0.592127 0.000152048
-0.355255 -0.178195 -0.582418 0.000572298
0.110443 -0.666691 -0.320679 0.000193288
0.118503 -0.64854 -0.331249 0.000792029
0.130707 -0.669236 -0.307188 0.0038026
0.140799 -0.649568 -0.31857 0.00219719
-0.495925 -0.265939 -0.371415 0.000116435
-0.518707 -0.251365 -0.361572 0.000634928
-0.501077 -0.27982 -0.356184 0.000460047
-0.523337 -0.265553 -0.347127 0.000968914
-0.634022 0.348132 0.0471119 0.00395354
-0.617291 0.36465 0.038658 0.00046452
-0.622348 0.354993 0.0676397 0.00224657
-0.605119 0.372658 0.0590523 0.00171546
0.84356 0.140584 -0.171501 0.000707325
0.830673 0.158322 -0.169967 0.000868561
0.853017 0.142003 -0.157944 0.00160822
0.839984 0.15943 -0.156865 0.000709863
0.14884 0.0469277 -0.911988 0.00385602
0.147651 0.068421 -0.910952 0.000857096
0.168133 0.0485847 -0.897658 0.00013568
0.167338 0.0700887 -0.896489 0.00373638
0.633132 0.077638 0.347551 5.96121e-05
0.622742 0.096482 0.346352 0.00296483
0.636076 0.061979 0.348586 0.000311116
0.63948 0.0854162 0.340297 0.000886883
0.689149 -0.156737 -0.285406 0.000752099
0.693422 -0.138824 -0.292728 0.00104461
0.704512 -0.157189 -0.27485 0.000147647
0.708945 -0.139475 -0.28092 0.000357677
-0.182543 0.0840653 -0.870125 0.000654116
-0.173679 0.102304 -0.8684 0.00129593
-0.191961 0.104153 -0.850589 0.00102618
-0.181511 0.121549 -0.849471 0.000142041
-0.0119453 -0.970869 -0.0952206 0.00144521
0.00178433 -0.958764 -0.109868 2.97532e-05
0.0111921 -0.970746 -0.0871401 0.00224277
0.0269389 -0.958833 -0.0996174 0.00344952
-0.31973 0.687117 0.0348887 0.000620837
-0.308001 0.707186 0.0366815 0.000236519
-0.315762 0.692429 0.0627752 0.00208944
-0.303062 0.714704 0.0638871 0.00364746
-0.52592 0.330204 0.27451 0.00218443
-0.516485 0.349081 0.265676 0.000313037
-0.5114 0.334656 0.290177 0.000314911
-0.502359 0.353687 0.280999 0.00225416
-0.279652 -0.410703 0.439132 0.000248414
-0.285125 -0.392969 0.453258 0.000501842
-0.257252 -0.411623 0.457671 0.000894555
-0.260356 -0.39351 0.473465 0.000507214
-0.613356 0.32929 0.167371 0.00278988
-0.59931 0.349955 0.1576 0.00178015
-0.598454 0.334458 0.185209 0.000474182
-0.583908 0.35321 0.176513 0.00190044
-0.256046 0.0593804 -0.785347 0.000198779
-0.250883 0.081781 -0.781952 0.000861287
-0.265184 0.0795355 -0.766038 0.00131017
-0.259452 0.100782 -0.763114 0.000613779
0.48272 0.162342 -0.436873 0.0026821
0.476051 0.184153 -0.433404 0.0020234
0.503345 0.165081 -0.422741 0.00151754
0.49651 0.187194 -0.41968 0.00249532
-0.777698 -0.267161 -0.0517739 0.00344164
-0.799123 -0.254642 -0.0445687 0.00363795
-0.761551 -0.272001 -0.034871 0.00331644
-0.783297 -0.259399 -0.0283293 0.00253398
0.0943014 -0.320484 0.67511 0.00207729
0.089526 -0.311045 0.691848 0.00227163
0.114521 -0.308223 0.682629 0.00123869
0.10874 -0.299895 0.69892 0.00169289
-0.0309448 -0.0725893 -0.978579 0.000357189
-0.0195869 -0.0556857 -0.98977 0.0022267
-0.00274087 -0.0771191 -0.979689 0.00118965
0.0081543 -0.0570093 -0.989272 0.00140793
-0.551156 -0.124738 0.402009 0.00363307
-0.555385 -0.103169 0.402283 0.00189662
-0.528864 -0.127382 0.411671 0.00228323
-0.533548 -0.106716 0.410338 0.00443285
-0.804761 -0.15811 -0.194298 0.00224694
-0.827251 -0.143096 -0.187284 0.00123002
-0.807461 -0.17452 -0.180681 0.000751892
-0.828829 -0.160407 -0.174759 0.000862282
-0.619512 0.13543 -0.345184 0.000710495
-0.630498 0.153126 -0.330273 0.000397464
-0.617421 0.155027 -0.336748 0.0010868
-0.622457 0.172183 -0.325129 0.00153111
-0.192627 0.337723 0.583405 0.00291883
-0.182815 0.356209 0.573457 0.00128527
-0.17273 0.340638 0.596347 0.00118743
-0.163118 0.360605 0.585416 0.00453153
0.369558 0.484261 -0.270425 0.00267241
0.349945 0.507335 -0.268595 0.00324651
0.388772 0.483889 -0.249778 0.000335965
0.369583 0.506511 -0.249004 1.18362e-05
0.113147 -0.333226 0.645836 0.000544005
0.111385 -0.32152 0.661733 0.00044045
0.132518 -0.318884 0.656087 0.000437557
0.129667 -0.30803 0.672036 0.000359155
0.253568 -0.762318 -0.110459 0.000926027
0.269546 -0.739498 -0.114385 0.000305382
0.263314 -0.756831 -0.0854399 0.00251149
0.278778 -0.734498 -0.0896686 0.00119738
-0.200198 -0.826955 -0.133358 0.00304377
-0.216443 -0.811455 -0.12904 0.00334785
-0.199594 -0.838598 -0.11588 0.00212493
-0.215636 -0.822088 -0.11168 0.00244683
-0.283285 0.408142 -0.436997 0.00085381
-0.285668 0.424997 -0.419828 0.000130201
-0.271729 0.428849 -0.424528 0.00164317
-0.28079 0.445356 -0.401798 0.00145296
0.62743 0.176978 0.31844 0.00157457
0.604342 0.190165 0.324934 0.000490071
0.628103 0.1521 0.328085 0.000154582
0.606048 0.166544 0.333732 0.00224137
0.756238 0.108682 0.259932 0.00236312
0.760504 0.128456 0.246193 0.000787958
0.765685 0.0784332 0.260806 0.000401481
0.769594 0.0992499 0.249467 0.00132433
-0.631079 -0.114727 -0.343879 0.000180812
-0.626242 -0.0893268 -0.359666 0.00450738
-0.615159 -0.143766 -0.349745 0.00370187
-0.611671 -0.118315 -0.364351 0.0057766
0.165267 0.561357 -0.373573 0.000407936
0.147536 0.581506 -0.362493 0.00232049
0.1901 0.557956 -0.363378 0.000545501
0.171035 0.579115 -0.354366 0.00227281
0.247679 -0.0864229 0.783802 0.00121141
0.252157 -0.0551694 0.78922 0.00151162
0.232778 -0.0624434 0.807279 0.00287988
0.238312 -0.0339624 0.810332 0.00153401
0.54516 -0.294207 0.300553 0.000874035
0.562158 -0.278643 0.300928 0.000972696
0.544616 -0.275596 0.317033 0.000477469
0.562517 -0.259715 0.318229 0.00217274
0.370184 -0.523618 -0.232502 0.00105986
0.382072 -0.5088 -0.23125 4.85083e-05
0.38381 -0.517643 -0.212037 0.00149754
0.395857 -0.502746 -0.21131 0.00182705
-0.270484 0.576843 0.291803 0.00100779
-0.257023 0.596231 0.288254 0.000187445
-0.252656 0.579613 0.310591 0.00289566
-0.240846 0.599195 0.305279 0.00414013
-0.74877 -0.276034 -0.106225 0.00686333
-0.773341 -0.264227 -0.0979636 0.0081576
-0.73198 -0.281691 -0.0875997 0.00269845
-0.756354 -0.269816 -0.0803341 0.00103381
0.399139 -0.29508 0.437947 0.000755137
0.41087 -0.2799 0.440114 0.0021392
0.393343 -0.277793 0.455099 0.00116687
0.40438 -0.262532 0.457027 0.000350224
0.855532 0.151778 -0.152209 0.00197543
0.842299 0.169107 -0.151773 0.00401244
0.868954 0.1486 -0.13471 0.000171206
0.855937 0.165525 -0.134454 0.00195774
-0.56962 -0.183651 0.366425 0.00525746
-0.572549 -0.161986 0.370475 0.00282991
-0.548949 -0.180107 0.376049 0.000877836
-0.552493 -0.158642 0.379753 0.00317258
-0.327737 0.674922 0.00348693 0.00182812
-0.316873 0.693596 0.00488392 0.00111676
-0.324164 0.686571 0.0309443 0.00244665
-0.313155 0.706267 0.0330464 0.00374578
-0.494303 -0.35395 0.289297 0.000670201
-0.503436 -0.338059 0.300226 0.00167284
-0.476885 -0.353049 0.304039 0.00203992
-0.483561 -0.33718 0.31573 0.0014776
-0.613352 0.221898 0.298497 0.00233106
-0.607912 0.24029 0.292481 0.000161583
-0.599905 0.222034 0.315553 0.00242545
-0.593659 0.241048 0.309374 0.00403878
0.152738 0.905956 0.0642322 0.000463044
0.130368 0.918964 0.0729734 0.00225234
0.161379 0.892413 0.0855603 0.00335566
0.140665 0.904391 0.0938749 0.00161834
0.177944 -0.808438 0.17422 0.000853678
0.194513 -0.788259 0.174601 0.00037177
0.174655 -0.792111 0.195811 0.00292166
0.191872 -0.772029 0.196037 0.00146122
0.355745 0.250684 -0.520261 0.00109069
0.351973 0.266635 -0.512704 9.28705e-05
0.369901 0.256041 -0.503605 0.00132573
0.365932 0.27202 -0.496093 0.00216011
-0.834972 0.133168 0.181819 0.00170856
-0.825536 0.153535 0.176537 0.000752456
-0.816904 0.142515 0.1984 0.00258282
-0.808532 0.162881 0.191838 0.00300072
0.119105 0.326952 -0.648007 0.000602566
0.113623 0.341091 -0.630043 0.000513132
0.135714 0.332002 -0.635767 0.000976688
0.128822 0.347515 -0.618832 0.00220602
0.599811 0.0286245 0.371081 0.00428683
0.593941 0.0532738 0.375077 0.00241655
0.582603 0.0290199 0.384926 0.00316654
0.573451 0.0521647 0.390727 0.00233399
-0.515886 -0.401936 -0.189658 0.00022479
-0.53609 -0.392998 -0.180513 0.00244521
-0.510173 -0.414746 -0.170633 0.000967182
-0.530565 -0.405671 -0.16064 0.00196302
-0.168267 0.756698 0.22353 0.00214332
-0.1586 0.780182 0.212715 0.000849436
-0.150113 0.759152 0.238699 0.00188337
-0.139553 0.782094 0.227984 0.00235378
-0.297399 -0.300874 0.544902 0.000507522
-0.306944 -0.28452 0.550807 0.000254879
-0.277444 -0.300694 0.561418 0.0016099
-0.287603 -0.283709 0.567115 0.00287977
-0.311958 0.403393 0.414019 0.001769
-0.296228 0.422524 0.411183 0.000148975
-0.28922 0.407369 0.432402 0.000213208
-0.273324 0.426521 0.429313 0.00261648
-0.328942 -0.302632 0.506322 0.000898719
-0.339633 -0.28592 0.510706 0.00103616
-0.309101 -0.30238 0.526758 0.00153037
-0.319005 -0.2855 0.532026 0.00204512
-0.361174 0.351661 0.418676 0.00270282
-0.352312 0.37316 0.41257 0.00126658
-0.345976 0.355996 0.434725 0.000176643
-0.33522 0.376617 0.429606 0.00381679
0.241839 0.3583 -0.520928 0.00315558
0.223864 0.376706 -0.517653 0.000526448
0.263254 0.360885 -0.504175 0.000793708
0.245376 0.379423 -0.50111 0.00141234
-0.925692 0.073651 0.123153 0.00305453
-0.917118 0.098866 0.118378 0.00223079
-0.913488 0.0824469 0.14054 0.00146785
-0.90438 0.108909 0.136739 0.00346711
0.103837 -0.095263 0.927533 0.0030718
0.106499 -0.0753425 0.937551 0.0026011
0.12234 -0.0818959 0.927456 0.00105601
0.1262 -0.0603273 0.934267 0.00179476
-0.297342 0.383543 0.448507 0.00144543
-0.28128 0.403208 0.445951 0.0013662
-0.277842 0.384997 0.466647 0.000600472
-0.262275 0.404727 0.462992 0.00336022
0.0598719 0.837389 -0.21873 0.00152773
0.0464806 0.856925 -0.203681 0.000616942
0.0864568 0.837605 -0.208373 0.00092078
0.0718093 0.857947 -0.19417 0.0015842
0.41581 0.294559 0.417298 0.000282356
0.39685 0.305298 0.426064 0.000674971
0.407631 0.281924 0.435222 0.000921017
0.389654 0.292084 0.443492 0.00147547
0.179689 0.767842 0.206741 0.000113439
0.15941 0.779123 0.209406 0.00157808
0.184671 0.749112 0.21857 3.04305e-05
0.170614 0.762926 0.21562 0.00145703
-0.0172973 0.162148 0.911787 0.002759
-0.0145134 0.176664 0.891404 0.00112774
0.010752 0.152368 0.918808 0.000255271
0.0141232 0.16655 0.898084 0.00371153
-0.207905 0.0472532 0.852718 0.000166603
-0.200158 0.0786841 0.853587 0.00194625
-0.187324 0.0515876 0.876117 0.000151897
-0.179248 0.0823677 0.87637 0.00227647
0.818941 0.197367 0.137077 0.00215561
0.801918 0.203977 0.14441 5.66979e-05
0.822006 0.185092 0.152805 0.00325705
0.805031 0.191847 0.160007 0.00150114
-0.444287 -0.501294 0.108553 0.000509925
-0.463818 -0.4768 0.107077 0.00342768
-0.433246 -0.508681 0.129022 0.000454253
-0.452438 -0.484662 0.126901 0.00182318
0.0784204 0.328046 -0.661559 0.00114637
0.0737455 0.342174 -0.643529 0.000357075
0.09465 0.333123 -0.650461 7.53761e-05
0.0900048 0.34753 -0.63245 0.000845328
-0.827576 -0.236317 -0.0214317 0.0028175
-0.847814 -0.219879 -0.00977624 0.000928496
-0.814444 -0.240823 -0.00388369 0.00187138
-0.835018 -0.223554 0.0074607 0.00370099
-0.210979 0.141103 0.799227 0.000482997
-0.20166 0.158943 0.792869 0.0013199
-0.195213 0.145133 0.815865 0.000911395
-0.185449 0.161896 0.809763 0.000456538
-0.0734694 0.294163 -0.715679 0.00147737
-0.073842 0.309596 -0.691913 0.00133462
-0.052318 0.308831 -0.70125 2.37244e-05
-0.0523803 0.324798 -0.677321 0.000576763
-0.341302 -0.663802 0.0102638 0.00245995
-0.351411 -0.643352 0.0179895 9.97491e-05
-0.339067 -0.662633 0.0339494 0.00139858
