7.007589936256408691e-01 1.153779029846191406e-01 1.213032752275466919e-01
6.902557611465454102e-01 9.161884337663650513e-02 1.229098960757255554e-01
7.228871583938598633e-01 1.080003082752227783e-01 1.214222088456153870e-01
7.121533751487731934e-01 8.483728766441345215e-02 1.226501837372779846e-01
8.499408364295959473e-01 1.281643658876419067e-01 3.078306280076503754e-02
8.526237607002258301e-01 1.041665226221084595e-01 3.458897769451141357e-02
8.469367623329162598e-01 1.267986446619033813e-01 5.452735349535942078e-02
8.494315743446350098e-01 1.029273122549057007e-01 5.823105946183204651e-02
-4.742790013551712036e-02 -7.205625176429748535e-01 1.218565329909324646e-01
-5.627377331256866455e-02 -7.434176206588745117e-01 1.218391135334968567e-01
-2.500003203749656677e-02 -7.346757650375366211e-01 1.221416518092155457e-01
-3.383297845721244812e-02 -7.567986249923706055e-01 1.222947761416435242e-01
7.035138607025146484e-01 5.192577838897705078e-01 -3.829095140099525452e-02
6.886603236198425293e-01 5.238101482391357422e-01 -2.276794984936714172e-02
7.168807983398437500e-01 5.144531130790710449e-01 -1.715996116399765015e-02
7.023012638092041016e-01 5.192305445671081543e-01 -1.137368846684694290e-03
3.206017315387725830e-01 4.909815788269042969e-01 -1.282975822687149048e-01
3.082591593265533447e-01 4.672359228134155273e-01 -1.263468265533447266e-01
3.465318679809570312e-01 4.860660433769226074e-01 -1.280529201030731201e-01
3.328206837177276611e-01 4.627650380134582520e-01 -1.260995566844940186e-01
-2.238743156194686890e-01 -1.638606190681457520e-04 1.208319813013076782e-01
-2.376634925603866577e-01 -2.662130445241928101e-02 1.244523823261260986e-01
-1.984481662511825562e-01 -5.856294184923171997e-03 1.187533140182495117e-01
-2.147593349218368530e-01 -2.893882244825363159e-02 1.235684826970100403e-01
-5.172262787818908691e-01 -3.663193881511688232e-01 -1.268971860408782959e-01
-5.254017114639282227e-01 -3.903620839118957520e-01 -1.268607676029205322e-01
-4.942459762096405029e-01 -3.802742063999176025e-01 -1.263200789690017700e-01
-5.020675063133239746e-01 -4.043032526969909668e-01 -1.267235130071640015e-01
-1.971585005521774292e-01 4.586905241012573242e-01 1.232888102531433105e-01
-2.074463367462158203e-01 4.373131990432739258e-01 1.239894405007362366e-01
-1.730017960071563721e-01 4.558096230030059814e-01 1.216217875480651855e-01
-1.834427565336227417e-01 4.341835379600524902e-01 1.224494576454162598e-01
5.018803477287292480e-02 -8.564311265945434570e-01 -9.806124866008758545e-02
3.417556360363960266e-02 -8.598113656044006348e-01 -8.084802329540252686e-02
6.743029505014419556e-02 -8.600686192512512207e-01 -7.635872811079025269e-02
4.994834586977958679e-02 -8.621821403503417969e-01 -5.956087633967399597e-02
-3.734157681465148926e-01 -3.160085976123809814e-01 -1.285149604082107544e-01
-3.955832719802856445e-01 -3.301084935665130615e-01 -1.263587772846221924e-01
-3.468972146511077881e-01 -3.192009925842285156e-01 -1.289028674364089966e-01
-3.690962195396423340e-01 -3.354340195655822754e-01 -1.260088533163070679e-01
-2.505527734756469727e-01 7.664164900779724121e-01 1.215254515409469604e-01
-2.629640400409698486e-01 7.445528507232666016e-01 1.246910765767097473e-01
-2.265642285346984863e-01 7.591899633407592773e-01 1.212101802229881287e-01
-2.374341338872909546e-01 7.344703078269958496e-01 1.240487396717071533e-01
8.505597114562988281e-01 2.600703835487365723e-01 5.371681228280067444e-02
8.517810106277465820e-01 2.328254282474517822e-01 5.963233485817909241e-02
8.487314581871032715e-01 2.568752765655517578e-01 8.097716420888900757e-02
8.474847078323364258e-01 2.306071370840072632e-01 8.660283684730529785e-02
-8.547893762588500977e-01 4.677599668502807617e-01 5.148832127451896667e-02
-8.600943088531494141e-01 4.472054243087768555e-01 5.731517449021339417e-02
-8.477542400360107422e-01 4.783245027065277100e-01 6.579267233610153198e-02
-8.534460663795471191e-01 4.568588435649871826e-01 7.211949676275253296e-02
-8.103821873664855957e-01 -1.276120096445083618e-01 1.197781264781951904e-01
-8.190096616744995117e-01 -1.495382785797119141e-01 1.205571070313453674e-01
-7.941415309906005859e-01 -1.309404075145721436e-01 1.225501298904418945e-01
-8.027049303054809570e-01 -1.516408175230026245e-01 1.238302513957023621e-01
8.495228886604309082e-01 -3.770566284656524658e-01 -8.117197453975677490e-02
8.506777882575988770e-01 -3.968387842178344727e-01 -7.196896523237228394e-02
8.517053723335266113e-01 -3.834929168224334717e-01 -5.829030647873878479e-02
8.531743884086608887e-01 -4.037657678127288818e-01 -4.776673018932342529e-02
6.074495911598205566e-01 -2.808204293251037598e-01 -1.269054561853408813e-01
5.958198904991149902e-01 -3.067728877067565918e-01 -1.256562173366546631e-01
6.313156485557556152e-01 -2.918099761009216309e-01 -1.275554597377777100e-01
6.182246804237365723e-01 -3.173786401748657227e-01 -1.256710439920425415e-01
7.591090798377990723e-01 4.864904284477233887e-01 1.178483739495277405e-01
7.472761273384094238e-01 4.793768525123596191e-01 1.245032027363777161e-01
7.768116593360900879e-01 4.786298871040344238e-01 1.230483278632164001e-01
7.649269700050354004e-01 4.711908698081970215e-01 1.301064193248748779e-01
1.864337325096130371e-01 -1.393106952309608459e-02 -1.263146102428436279e-01
1.748598664999008179e-01 -3.499318659305572510e-02 -1.244138330221176147e-01
2.056479156017303467e-01 -1.936752349138259888e-02 -1.282356530427932739e-01
1.945406645536422729e-01 -4.023715108633041382e-02 -1.266113668680191040e-01
-4.065009951591491699e-01 -8.561787605285644531e-01 -8.396882563829421997e-02
-4.236397147178649902e-01 -8.593872189521789551e-01 -7.269570231437683105e-02
-3.928557336330413818e-01 -8.607439994812011719e-01 -7.310114055871963501e-02
-4.108517169952392578e-01 -8.632174730300903320e-01 -6.196774169802665710e-02
-6.833805888891220093e-02 8.232470750808715820e-01 -1.244729161262512207e-01
-7.583371549844741821e-02 7.960800528526306152e-01 -1.270800828933715820e-01
-4.669776186347007751e-02 8.345950245857238770e-01 -1.240877509117126465e-01
-5.582419782876968384e-02 8.065500259399414062e-01 -1.265211701393127441e-01
-2.069263905286788940e-01 -3.194316029548645020e-01 -1.271965056657791138e-01
-2.193493992090225220e-01 -3.437738120555877686e-01 -1.240003257989883423e-01
-1.808113902807235718e-01 -3.300656378269195557e-01 -1.294637769460678101e-01
-1.929563581943511963e-01 -3.541984260082244873e-01 -1.258620619773864746e-01
-5.240291953086853027e-01 5.060985088348388672e-01 1.198530718684196472e-01
-5.357440710067749023e-01 4.808290302753448486e-01 1.210162341594696045e-01
-4.996657073497772217e-01 4.951048195362091064e-01 1.202626302838325500e-01
-5.109860301017761230e-01 4.706138074398040771e-01 1.214981079101562500e-01
-3.746952712535858154e-01 7.680975794792175293e-01 -1.240883693099021912e-01
-3.787880837917327881e-01 7.537696957588195801e-01 -1.201189756393432617e-01
-3.523856401443481445e-01 7.621024847030639648e-01 -1.237214356660842896e-01
-3.589126467704772949e-01 7.458384037017822266e-01 -1.191794276237487793e-01
-4.363586902618408203e-01 4.845706820487976074e-01 1.208650320768356323e-01
-4.460949599742889404e-01 4.568306803703308105e-01 1.222976893186569214e-01
-4.106636643409729004e-01 4.696643054485321045e-01 1.211388856172561646e-01
-4.201419651508331299e-01 4.402810633182525635e-01 1.228679716587066650e-01
-6.713215112686157227e-01 -2.584448829293251038e-02 1.209658086299896240e-01
-6.843355298042297363e-01 -4.656260460615158081e-02 1.233237907290458679e-01
-6.450452804565429688e-01 -3.372295200824737549e-02 1.193011924624443054e-01
-6.579964756965637207e-01 -5.543546006083488464e-02 1.220715716481208801e-01
-1.452879160642623901e-01 -4.419692754745483398e-01 -1.277630627155303955e-01
-1.814289987087249756e-01 -4.649284780025482178e-01 -1.236062943935394287e-01
-1.104373112320899963e-01 -4.336027801036834717e-01 -1.289597898721694946e-01
-1.466975510120391846e-01 -4.570185244083404541e-01 -1.245841979980468750e-01
5.314979553222656250e-01 6.080462336540222168e-01 3.038798924535512924e-03
5.224570631980895996e-01 6.245188713073730469e-01 1.968691684305667877e-02
5.336277484893798828e-01 6.068078875541687012e-01 2.655378542840480804e-02
5.236989259719848633e-01 6.232349276542663574e-01 4.219419509172439575e-02
1.214793995022773743e-01 8.413664996623992920e-02 -1.280898749828338623e-01
1.057657450437545776e-01 5.910400301218032837e-02 -1.245236918330192566e-01
1.473357677459716797e-01 8.929295092821121216e-02 -1.278099119663238525e-01
1.313648819923400879e-01 6.446108222007751465e-02 -1.241951063275337219e-01
-2.627769112586975098e-01 -1.409710645675659180e-01 1.219440028071403503e-01
-2.768326997756958008e-01 -1.635730415582656860e-01 1.243403330445289612e-01
-2.395554482936859131e-01 -1.485634297132492065e-01 1.205340176820755005e-01
-2.537195086479187012e-01 -1.693068444728851318e-01 1.232160553336143494e-01
-6.826978921890258789e-01 3.980696797370910645e-01 -1.279432624578475952e-01
-6.942780613899230957e-01 3.789204657077789307e-01 -1.258257776498794556e-01
-6.643936038017272949e-01 3.958106338977813721e-01 -1.273279190063476562e-01
-6.762792468070983887e-01 3.768871128559112549e-01 -1.251334100961685181e-01
-2.881397604942321777e-01 -7.419115900993347168e-01 -1.252261251211166382e-01
-2.959077060222625732e-01 -7.610723376274108887e-01 -1.246164813637733459e-01
-2.716112732887268066e-01 -7.516010403633117676e-01 -1.279422044754028320e-01
-2.783452868461608887e-01 -7.707619071006774902e-01 -1.268049478530883789e-01
-5.440961122512817383e-01 6.011103987693786621e-01 -9.038504213094711304e-03
-5.497453808784484863e-01 5.867338180541992188e-01 7.093816064298152924e-03
-5.402619242668151855e-01 6.073952317237854004e-01 1.065397355705499649e-02
-5.449784398078918457e-01 5.924476981163024902e-01 2.519480697810649872e-02
-9.174167364835739136e-02 3.474430739879608154e-01 -1.289607584476470947e-01
-1.062611564993858337e-01 3.325798213481903076e-01 -1.267323791980743408e-01
-6.856435537338256836e-02 3.357556164264678955e-01 -1.273061186075210571e-01
-8.598189055919647217e-02 3.203818500041961670e-01 -1.253311485052108765e-01
7.626031041145324707e-01 2.846564352512359619e-01 1.264065355062484741e-01
7.568313479423522949e-01 2.560765147209167480e-01 1.271609812974929810e-01
7.835694551467895508e-01 2.726287245750427246e-01 1.216100305318832397e-01
7.778515815734863281e-01 2.431764751672744751e-01 1.211673542857170105e-01
1.122840270400047302e-01 6.796423196792602539e-01 -1.280585527420043945e-01
9.753413498401641846e-02 6.613080501556396484e-01 -1.248571872711181641e-01
1.378078907728195190e-01 6.746558547019958496e-01 -1.279059648513793945e-01
1.235530450940132141e-01 6.564014554023742676e-01 -1.252777576446533203e-01
-6.255517601966857910e-01 -5.265177041292190552e-02 1.212841123342514038e-01
-6.382256746292114258e-01 -7.451665401458740234e-02 1.247877106070518494e-01
-6.005260348320007324e-01 -6.081867963075637817e-02 1.184180229902267456e-01
-6.137127876281738281e-01 -8.364352583885192871e-02 1.228752061724662781e-01
5.326780676841735840e-01 -1.910448074340820312e-01 1.216979548335075378e-01
5.221045613288879395e-01 -2.143544554710388184e-01 1.227132305502891541e-01
5.561039447784423828e-01 -1.998622864484786987e-01 1.208166778087615967e-01
5.456796884536743164e-01 -2.237163186073303223e-01 1.218296289443969727e-01
5.237286090850830078e-01 -7.708268761634826660e-01 2.292163856327533722e-02
5.157983899116516113e-01 -7.892698645591735840e-01 3.471239656209945679e-02
5.221736431121826172e-01 -7.677583098411560059e-01 5.045571923255920410e-02
5.161702036857604980e-01 -7.872804403305053711e-01 6.207688152790069580e-02
-2.573755979537963867e-01 -8.518841266632080078e-01 -1.246906816959381104e-01
-2.625487446784973145e-01 -8.689782023429870605e-01 -1.207401156425476074e-01
-2.430896461009979248e-01 -8.563684821128845215e-01 -1.205466091632843018e-01
-2.484356611967086792e-01 -8.741340041160583496e-01 -1.164951846003532410e-01
1.534669548273086548e-01 -3.237052559852600098e-01 1.227653995156288147e-01
1.416158378124237061e-01 -3.493421971797943115e-01 1.247562393546104431e-01
1.733906865119934082e-01 -3.309753835201263428e-01 1.208942681550979614e-01
1.623858660459518433e-01 -3.552044034004211426e-01 1.225161105394363403e-01
-1.512051820755004883e-01 -2.861723303794860840e-01 1.211496964097023010e-01
-1.636713445186614990e-01 -3.020045459270477295e-01 1.237336769700050354e-01
-1.299967914819717407e-01 -2.927471995353698730e-01 1.206004321575164795e-01
-1.413164734840393066e-01 -3.105555176734924316e-01 1.226937696337699890e-01
2.454872280359268188e-01 5.998145937919616699e-01 1.238023787736892700e-01
2.340288460254669189e-01 5.688796043395996094e-01 1.268459558486938477e-01
2.701447606086730957e-01 5.906051397323608398e-01 1.213002130389213562e-01
2.595964074134826660e-01 5.604170560836791992e-01 1.229743435978889465e-01
8.460147380828857422e-01 -2.075170427560806274e-01 -1.287294030189514160e-01
8.465471863746643066e-01 -2.275419384241104126e-01 -1.279785633087158203e-01
8.513794541358947754e-01 -2.061577886343002319e-01 -1.098197177052497864e-01
8.519223332405090332e-01 -2.260894030332565308e-01 -1.093169301748275757e-01
-8.572860956192016602e-01 -7.996398210525512695e-02 -6.720724701881408691e-02
-8.564286231994628906e-01 -1.020926833152770996e-01 -6.133811548352241516e-02
-8.583793640136718750e-01 -8.156736195087432861e-02 -4.305945336818695068e-02
-8.572255969047546387e-01 -1.042254120111465454e-01 -3.774000704288482666e-02
-5.134109258651733398e-01 -2.076179981231689453e-01 -1.276015639305114746e-01
-5.278066396713256836e-01 -2.285814285278320312e-01 -1.253680288791656494e-01
-4.881258308887481689e-01 -2.144140303134918213e-01 -1.292139887809753418e-01
-5.033335685729980469e-01 -2.362984865903854370e-01 -1.267794519662857056e-01
4.895417988300323486e-01 2.819239795207977295e-01 -1.279607564210891724e-01
4.776606261730194092e-01 2.598387300968170166e-01 -1.251132339239120483e-01
5.124186277389526367e-01 2.743669152259826660e-01 -1.287966817617416382e-01
5.020754337310791016e-01 2.527495622634887695e-01 -1.264684945344924927e-01
-2.541526257991790771e-01 -5.444337725639343262e-01 1.202553883194923401e-01
-2.671601176261901855e-01 -5.658636689186096191e-01 1.222064867615699768e-01
-2.298198640346527100e-01 -5.494850873947143555e-01 1.193722486495971680e-01
-2.421579658985137939e-01 -5.699560046195983887e-01 1.215773001313209534e-01
-5.567677617073059082e-01 5.895448327064514160e-01 -9.614391624927520752e-02
-5.615486502647399902e-01 5.775792002677917480e-01 -8.537321537733078003e-02
-5.461532473564147949e-01 5.909659266471862793e-01 -8.977300673723220825e-02
-5.507729053497314453e-01 5.790888071060180664e-01 -7.906483858823776245e-02
-2.230138182640075684e-01 7.294288873672485352e-01 1.229439675807952881e-01
-2.331642955541610718e-01 7.020092606544494629e-01 1.246620789170265198e-01
-1.993317753076553345e-01 7.166453599929809570e-01 1.222532391548156738e-01
-2.085781693458557129e-01 6.882244944572448730e-01 1.232640594244003296e-01
7.938301563262939453e-02 6.396588087081909180e-01 1.210960447788238525e-01
5.985142290592193604e-02 6.166849732398986816e-01 1.244677901268005371e-01
1.033814921975135803e-01 6.369230747222900391e-01 1.198583394289016724e-01
8.461040258407592773e-02 6.152987480163574219e-01 1.229380145668983459e-01
2.757372558116912842e-01 -1.571112573146820068e-01 1.231213286519050598e-01
2.665245532989501953e-01 -1.798725277185440063e-01 1.230265051126480103e-01
2.934736311435699463e-01 -1.662909537553787231e-01 1.220889165997505188e-01
2.840428650379180908e-01 -1.892140805721282959e-01 1.218433454632759094e-01
1.765122115612030029e-01 -8.602642416954040527e-01 1.094925776124000549e-02
1.553553342819213867e-01 -8.592333793640136719e-01 1.704537495970726013e-02
1.948945671319961548e-01 -8.605777621269226074e-01 2.803442813456058502e-02
1.740232259035110474e-01 -8.591095209121704102e-01 3.427661210298538208e-02
2.915813624858856201e-01 2.260722517967224121e-01 -1.272661536931991577e-01
2.771570980548858643e-01 2.053051143884658813e-01 -1.259220689535140991e-01
3.136307299137115479e-01 2.199388891458511353e-01 -1.266970932483673096e-01
2.988170683383941650e-01 1.991319358348846436e-01 -1.251683384180068970e-01
3.961078226566314697e-01 -1.998675912618637085e-01 1.204500049352645874e-01
3.849785029888153076e-01 -2.221452444791793823e-01 1.222298964858055115e-01
4.165431857109069824e-01 -2.101587355136871338e-01 1.211522892117500305e-01
4.058238267898559570e-01 -2.320350557565689087e-01 1.228715032339096069e-01
-4.022627174854278564e-01 1.337006390094757080e-01 1.222461760044097900e-01
-4.150428473949432373e-01 1.137666627764701843e-01 1.247442811727523804e-01
-3.841814100742340088e-01 1.219289973378181458e-01 1.215149387717247009e-01
-3.958932459354400635e-01 1.010793745517730713e-01 1.236499473452568054e-01
-3.196088075637817383e-01 -1.518385298550128937e-02 1.226967200636863708e-01
-3.299645781517028809e-01 -4.357559233903884888e-02 1.243894994258880615e-01
-2.968981862068176270e-01 -1.415695436298847198e-02 1.218689233064651489e-01
-3.072463572025299072e-01 -4.361990466713905334e-02 1.235304251313209534e-01
8.100623488426208496e-01 -2.607021331787109375e-01 -1.373662948608398438e-01
8.092700839042663574e-01 -2.827154397964477539e-01 -1.372060477733612061e-01
8.152510523796081543e-01 -2.653410732746124268e-01 -1.230619028210639954e-01
8.158977031707763672e-01 -2.859457433223724365e-01 -1.229138895869255066e-01
4.875939786434173584e-01 4.152430891990661621e-01 1.232078522443771362e-01
4.762750566005706787e-01 3.903367221355438232e-01 1.241199895739555359e-01
5.115846991539001465e-01 4.009085595607757568e-01 1.206903755664825439e-01
4.997678697109222412e-01 3.785289824008941650e-01 1.216002255678176880e-01
2.037655711174011230e-01 8.745307102799415588e-03 1.220793873071670532e-01
1.937840729951858521e-01 -1.059056166559457779e-02 1.232413873076438904e-01
2.258326709270477295e-01 -6.438906304538249969e-03 1.217631921172142029e-01
2.156232148408889771e-01 -2.634177356958389282e-02 1.230948492884635925e-01
2.788085043430328369e-01 -6.327124238014221191e-01 1.216922551393508911e-01
2.666836977005004883e-01 -6.509314179420471191e-01 1.237364336848258972e-01
2.986472249031066895e-01 -6.411309242248535156e-01 1.210048496723175049e-01
2.870114147663116455e-01 -6.592191457748413086e-01 1.228408589959144592e-01
6.052690148353576660e-01 2.747307419776916504e-01 -1.267534494400024414e-01
5.969088673591613770e-01 2.548872828483581543e-01 -1.269923150539398193e-01
6.312925815582275391e-01 2.767789959907531738e-01 -1.253097206354141235e-01
6.222051382064819336e-01 2.565583586692810059e-01 -1.264041811227798462e-01
8.493275046348571777e-01 3.656892478466033936e-01 -7.881057262420654297e-02
8.514059185981750488e-01 3.374893367290496826e-01 -7.319372147321701050e-02
8.552282452583312988e-01 3.651198148727416992e-01 -5.859173089265823364e-02
8.573106527328491211e-01 3.377534747123718262e-01 -5.221668630838394165e-02
-3.836778998374938965e-01 -1.951679028570652008e-02 1.212752461433410645e-01
-3.960727751255035400e-01 -4.419143870472908020e-02 1.228468790650367737e-01
-3.590036034584045410e-01 -2.270381152629852295e-02 1.223582923412322998e-01
-3.701878488063812256e-01 -4.771430790424346924e-02 1.227954402565956116e-01
2.352513372898101807e-03 5.365599989891052246e-01 1.211283579468727112e-01
-1.761931926012039185e-02 5.213933587074279785e-01 1.244973242282867432e-01
3.171640262007713318e-02 5.318377614021301270e-01 1.197486370801925659e-01
1.142125669866800308e-02 5.158935785293579102e-01 1.225420832633972168e-01
-5.898044705390930176e-01 4.571937024593353271e-01 -1.246522814035415649e-01
-6.041465401649475098e-01 4.403291940689086914e-01 -1.237655803561210632e-01
-5.733125209808349609e-01 4.608170390129089355e-01 -1.273481994867324829e-01
-5.817127823829650879e-01 4.434206187725067139e-01 -1.258559823036193848e-01
-8.436912298202514648e-02 5.123202204704284668e-01 1.232986748218536377e-01
-9.318913519382476807e-02 4.907604455947875977e-01 1.249642670154571533e-01
-6.551183015108108521e-02 5.036448240280151367e-01 1.201526150107383728e-01
-7.461583614349365234e-02 4.823710918426513672e-01 1.222089827060699463e-01
6.228246688842773438e-01 3.677913546562194824e-01 1.221149042248725891e-01
6.072471737861633301e-01 3.511269092559814453e-01 1.237985417246818542e-01
6.462484598159790039e-01 3.610185980796813965e-01 1.210275292396545410e-01
6.301437020301818848e-01 3.434683084487915039e-01 1.229228675365447998e-01
4.452797174453735352e-01 1.215148046612739563e-01 -1.270758509635925293e-01
4.339530169963836670e-01 9.928007423877716064e-02 -1.255782097578048706e-01
4.660889208316802979e-01 1.085067465901374817e-01 -1.270439475774765015e-01
4.550426006317138672e-01 8.702079951763153076e-02 -1.256758719682693481e-01
-1.701094061136245728e-01 8.493450880050659180e-01 -7.760338485240936279e-02
-1.809526830911636353e-01 8.447401523590087891e-01 -7.528702914714813232e-02
-1.525422632694244385e-01 8.497672080993652344e-01 -7.376662641763687134e-02
-1.658225804567337036e-01 8.470995426177978516e-01 -6.954611837863922119e-02
3.114388287067413330e-01 8.523944020271301270e-01 1.031526997685432434e-01
3.020589053630828857e-01 8.453110456466674805e-01 1.123991981148719788e-01
3.256508409976959229e-01 8.518169522285461426e-01 1.149311140179634094e-01
3.174543380737304688e-01 8.414031863212585449e-01 1.217344179749488831e-01
-5.931787192821502686e-03 5.718482136726379395e-01 1.215555518865585327e-01
-2.788334339857101440e-02 5.573047399520874023e-01 1.249229162931442261e-01
2.320754900574684143e-02 5.673876404762268066e-01 1.204030811786651611e-01
1.236233860254287720e-03 5.530266761779785156e-01 1.239785999059677124e-01
7.628142833709716797e-01 2.592767477035522461e-01 -1.258694678544998169e-01
7.530052065849304199e-01 2.396581321954727173e-01 -1.255472451448440552e-01
7.861918807029724121e-01 2.577935755252838135e-01 -1.246388554573059082e-01
7.753695845603942871e-01 2.384871542453765869e-01 -1.247261688113212585e-01
2.776138484477996826e-01 -3.610141873359680176e-01 1.219486072659492493e-01
2.703596353530883789e-01 -3.782398998737335205e-01 1.229264214634895325e-01
2.981549799442291260e-01 -3.812044262886047363e-01 1.222855821251869202e-01
2.908062338829040527e-01 -3.989596962928771973e-01 1.230385601520538330e-01
8.488981723785400391e-01 2.981214821338653564e-01 -2.123608626425266266e-02
8.499176502227783203e-01 2.735306918621063232e-01 -6.294688209891319275e-03
8.513351678848266602e-01 2.951724827289581299e-01 3.073730971664190292e-03
8.518344759941101074e-01 2.706324756145477295e-01 1.869397610425949097e-02
-7.502198219299316406e-01 -4.962531328201293945e-01 -1.341229677200317383e-01
-7.676969766616821289e-01 -4.949418008327484131e-01 -1.238325908780097961e-01
-7.308807373046875000e-01 -5.056226849555969238e-01 -1.244810670614242554e-01
-7.480767369270324707e-01 -5.031475424766540527e-01 -1.162623092532157898e-01
4.298135638236999512e-01 -4.348324537277221680e-01 -1.281009465456008911e-01
4.209409952163696289e-01 -4.556838870048522949e-01 -1.266904324293136597e-01
4.507113099098205566e-01 -4.489536285400390625e-01 -1.267267018556594849e-01
4.413549900054931641e-01 -4.695459008216857910e-01 -1.260929107666015625e-01
-8.564273118972778320e-01 -4.606978297233581543e-01 -1.296326071023941040e-01
-8.581135272979736328e-01 -4.779026210308074951e-01 -1.204644516110420227e-01
-8.581716418266296387e-01 -4.654200375080108643e-01 -1.110965758562088013e-01
-8.561947345733642578e-01 -4.847171604633331299e-01 -1.015665158629417419e-01
-2.243862450122833252e-01 2.868333756923675537e-01 -1.272404640913009644e-01
-2.342992722988128662e-01 2.665057182312011719e-01 -1.253640055656433105e-01
-2.031831741333007812e-01 2.760639190673828125e-01 -1.274818629026412964e-01
-2.126346230506896973e-01 2.553807497024536133e-01 -1.260642111301422119e-01
-7.018839120864868164e-01 -4.790865182876586914e-01 -1.310771554708480835e-01
-7.188016176223754883e-01 -4.749290943145751953e-01 -1.252823173999786377e-01
-6.823019981384277344e-01 -4.801592826843261719e-01 -1.210612431168556213e-01
-6.991528272628784180e-01 -4.765682220458984375e-01 -1.159078627824783325e-01
9.456365555524826050e-02 7.786006927490234375e-01 1.192421466112136841e-01
7.419294118881225586e-02 7.588939666748046875e-01 1.242086142301559448e-01
1.278169751167297363e-01 7.864976525306701660e-01 1.183746010065078735e-01
1.069201380014419556e-01 7.647966742515563965e-01 1.227896213531494141e-01
-5.087027549743652344e-01 -8.485580682754516602e-01 8.143801987171173096e-02
-5.055359601974487305e-01 -8.707863092422485352e-01 8.012036979198455811e-02
-5.004687905311584473e-01 -8.478195667266845703e-01 9.536855667829513550e-02
-4.977549910545349121e-01 -8.719346523284912109e-01 9.174934774637222290e-02
-1.017818748950958252e-01 2.930658459663391113e-01 1.224999800324440002e-01
-1.190042868256568909e-01 2.648651003837585449e-01 1.247541531920433044e-01
-7.592334598302841187e-02 2.931759357452392578e-01 1.221222728490829468e-01
-9.022928774356842041e-02 2.678495347499847412e-01 1.234857439994812012e-01
6.013259291648864746e-01 -9.238554537296295166e-02 1.213869005441665649e-01
5.876404047012329102e-01 -1.176410466432571411e-01 1.223530024290084839e-01
6.292883157730102539e-01 -1.018996313214302063e-01 1.210408210754394531e-01
6.159361004829406738e-01 -1.277373135089874268e-01 1.220333725214004517e-01
-1.919838786125183105e-01 6.755121946334838867e-01 -1.278085559606552124e-01
-2.106726616621017456e-01 6.567638516426086426e-01 -1.235320642590522766e-01
-1.642495244741439819e-01 6.659620404243469238e-01 -1.284492611885070801e-01
-1.837914437055587769e-01 6.476126909255981445e-01 -1.244980841875076294e-01
5.146576166152954102e-01 6.784615516662597656e-01 -5.087140575051307678e-02
5.194806456565856934e-01 6.592668294906616211e-01 -4.470248147845268250e-02
5.177218914031982422e-01 6.772413253784179688e-01 -2.821237407624721527e-02
5.223540067672729492e-01 6.612244844436645508e-01 -1.954588480293750763e-02
-7.558819651603698730e-01 -1.877876371145248413e-01 1.207109391689300537e-01
-7.640829682350158691e-01 -2.040541172027587891e-01 1.211258247494697571e-01
-7.390094399452209473e-01 -1.964435428380966187e-01 1.225762441754341125e-01
-7.469242811203002930e-01 -2.120008468627929688e-01 1.232765018939971924e-01
-4.328496456146240234e-01 8.481749892234802246e-01 -2.053015679121017456e-02
-4.485766291618347168e-01 8.491120338439941406e-01 -6.369482260197401047e-03
-4.219713807106018066e-01 8.493713140487670898e-01 -4.720402881503105164e-03
-4.369207918643951416e-01 8.501247167587280273e-01 9.522095322608947754e-03
-5.496014654636383057e-02 6.273901462554931641e-01 1.209534853696823120e-01
-7.699380069971084595e-02 6.066587567329406738e-01 1.249987110495567322e-01
-2.807721495628356934e-02 6.270202994346618652e-01 1.209262385964393616e-01
-5.083871260285377502e-02 6.061978936195373535e-01 1.250810325145721436e-01
-5.133106112480163574e-01 -1.913245469331741333e-01 -1.279300898313522339e-01
-5.270487666130065918e-01 -2.114648669958114624e-01 -1.256609559059143066e-01
-4.872618019580841064e-01 -1.981241703033447266e-01 -1.283397525548934937e-01
-5.022044777870178223e-01 -2.185997366905212402e-01 -1.260778307914733887e-01
-6.422403454780578613e-01 1.381308138370513916e-01 -1.278376281261444092e-01
-6.518149971961975098e-01 1.150942072272300720e-01 -1.268942952156066895e-01
-6.205741763114929199e-01 1.309916824102401733e-01 -1.274914443492889404e-01
-6.301842331886291504e-01 1.078928932547569275e-01 -1.267306208610534668e-01
-6.874105334281921387e-01 1.507242321968078613e-01 -1.284932792186737061e-01
-6.969790458679199219e-01 1.277587115764617920e-01 -1.271612346172332764e-01
-6.667939424514770508e-01 1.383265256881713867e-01 -1.270525753498077393e-01
-6.762983202934265137e-01 1.158803254365921021e-01 -1.260933727025985718e-01
4.029528051614761353e-02 -2.719106972217559814e-01 1.224699765443801880e-01
2.858336083590984344e-02 -2.974831461906433105e-01 1.233274862170219421e-01
6.762372702360153198e-02 -2.888711988925933838e-01 1.214866936206817627e-01
5.530545115470886230e-02 -3.144865632057189941e-01 1.232179254293441772e-01
-8.139870166778564453e-01 -4.785962700843811035e-01 -1.322951018810272217e-01
-8.260321617126464844e-01 -4.862541258335113525e-01 -1.191602572798728943e-01
-7.931746244430541992e-01 -4.908668696880340576e-01 -1.276586800813674927e-01
-8.078678846359252930e-01 -4.961465001106262207e-01 -1.137893199920654297e-01
2.475723475217819214e-01 -3.609980344772338867e-01 1.211338788270950317e-01
2.397530227899551392e-01 -3.785054683685302734e-01 1.224748790264129639e-01
2.663390636444091797e-01 -3.765598833560943604e-01 1.213516667485237122e-01
2.591015100479125977e-01 -3.936057984828948975e-01 1.222893893718719482e-01
5.966768860816955566e-01 2.863841652870178223e-01 -1.269465535879135132e-01
5.875737667083740234e-01 2.658896744251251221e-01 -1.274990737438201904e-01
6.246080994606018066e-01 2.934154570102691650e-01 -1.256748288869857788e-01
6.153919100761413574e-01 2.720426023006439209e-01 -1.266516447067260742e-01
-6.145614199340343475e-03 3.070433437824249268e-01 1.216934844851493835e-01
-1.940399408340454102e-02 2.863220274448394775e-01 1.233463510870933533e-01
1.551052741706371307e-02 3.032826781272888184e-01 1.200095191597938538e-01
2.062669955193996429e-03 2.820249795913696289e-01 1.219735220074653625e-01
-7.805278897285461426e-02 -8.663643002510070801e-01 4.080449789762496948e-02
-9.884463995695114136e-02 -8.586429953575134277e-01 5.149087682366371155e-02
-6.435807049274444580e-02 -8.629434108734130859e-01 5.314504355192184448e-02
-8.416783064603805542e-02 -8.557050228118896484e-01 6.334228068590164185e-02
3.757274448871612549e-01 3.565867543220520020e-01 -1.293781548738479614e-01
3.571709990501403809e-01 3.353219032287597656e-01 -1.236339136958122253e-01
4.026172459125518799e-01 3.480293154716491699e-01 -1.275457739830017090e-01
3.841310739517211914e-01 3.263933956623077393e-01 -1.215435639023780823e-01
-3.851136937737464905e-02 1.977775692939758301e-01 -1.265878677368164062e-01
-4.129716008901596069e-02 1.682120710611343384e-01 -1.259431391954421997e-01
-1.750708930194377899e-02 1.711065024137496948e-01 -1.288776397705078125e-01
-1.985608972609043121e-02 1.425313651561737061e-01 -1.287298947572708130e-01
-2.458047270774841309e-01 1.724237501621246338e-01 1.212264373898506165e-01
-2.545700073242187500e-01 1.533009111881256104e-01 1.228827536106109619e-01
-2.254923880100250244e-01 1.547482758760452271e-01 1.226646080613136292e-01
-2.338183224201202393e-01 1.351750046014785767e-01 1.239188909530639648e-01
-3.505384027957916260e-01 1.532386690378189087e-01 -1.263338029384613037e-01
-3.602754771709442139e-01 1.279314905405044556e-01 -1.263394653797149658e-01
-3.277930021286010742e-01 1.421270966529846191e-01 -1.278465390205383301e-01
-3.374699652194976807e-01 1.175366640090942383e-01 -1.278622746467590332e-01
-5.308879017829895020e-01 -5.865338444709777832e-01 1.147412210702896118e-01
-5.414927005767822266e-01 -5.882610082626342773e-01 1.171408444643020630e-01
-5.142571330070495605e-01 -5.782104730606079102e-01 1.256886571645736694e-01
-5.227566361427307129e-01 -5.900400876998901367e-01 1.263385415077209473e-01
-1.347349882125854492e-01 -5.868483185768127441e-01 -1.278520971536636353e-01
-1.470270156860351562e-01 -6.152096390724182129e-01 -1.247545182704925537e-01
-1.104895099997520447e-01 -5.899570584297180176e-01 -1.274657100439071655e-01
-1.226633638143539429e-01 -6.180923581123352051e-01 -1.244127899408340454e-01
-1.099846512079238892e-01 3.018195554614067078e-02 1.228137388825416565e-01
-1.278985291719436646e-01 1.632750965654850006e-03 1.254799365997314453e-01
-8.199331909418106079e-02 2.359762415289878845e-02 1.210699304938316345e-01
-9.977238625288009644e-02 -4.745392128825187683e-03 1.234279721975326538e-01
7.288076281547546387e-01 5.130403637886047363e-01 -2.956720627844333649e-02
7.146272063255310059e-01 5.173179507255554199e-01 -1.443743519484996796e-02
7.395713329315185547e-01 5.073828697204589844e-01 -1.012899819761514664e-02
7.255929112434387207e-01 5.114873647689819336e-01 5.122832022607326508e-03
-3.549899756908416748e-01 6.089702844619750977e-01 1.203840523958206177e-01
-3.641644716262817383e-01 5.862793922424316406e-01 1.234152764081954956e-01
-3.337463736534118652e-01 5.970261096954345703e-01 1.224822476506233215e-01
-3.427745401859283447e-01 5.732781887054443359e-01 1.249002143740653992e-01
1.007000133395195007e-01 1.751916557550430298e-01 1.217040717601776123e-01
8.572393655776977539e-02 1.487852334976196289e-01 1.235890761017799377e-01
1.292331218719482422e-01 1.628281921148300171e-01 1.198025196790695190e-01
1.144841834902763367e-01 1.361296772956848145e-01 1.220610588788986206e-01
5.288365483283996582e-01 -4.604949951171875000e-01 1.252248436212539673e-01
5.223890542984008789e-01 -4.863072931766510010e-01 1.240365356206893921e-01
5.465885400772094727e-01 -4.643506407737731934e-01 1.240590587258338928e-01
5.401122570037841797e-01 -4.897912144660949707e-01 1.220881789922714233e-01
-4.507188200950622559e-01 -5.020835399627685547e-01 -1.276625096797943115e-01
-4.629382491111755371e-01 -5.216549634933471680e-01 -1.245063468813896179e-01
-4.290567040443420410e-01 -5.048224329948425293e-01 -1.292448043823242188e-01
-4.417425692081451416e-01 -5.246323347091674805e-01 -1.271704435348510742e-01
5.802676081657409668e-01 3.607074022293090820e-01 -1.270813047885894775e-01
5.685914754867553711e-01 3.372003734111785889e-01 -1.289996355772018433e-01
6.062250733375549316e-01 3.743740618228912354e-01 -1.248880922794342041e-01
5.944588184356689453e-01 3.500518798828125000e-01 -1.263783276081085205e-01
-4.517123699188232422e-01 7.736496329307556152e-01 1.207343935966491699e-01
-4.583523273468017578e-01 7.538389563560485840e-01 1.234066486358642578e-01
-4.366995990276336670e-01 7.691036462783813477e-01 1.217905431985855103e-01
-4.441948831081390381e-01 7.497158646583557129e-01 1.247325465083122253e-01
6.048325300216674805e-01 -5.409481525421142578e-01 -2.898360043764114380e-02
5.916042923927307129e-01 -5.503939390182495117e-01 -1.619167998433113098e-02
6.205832958221435547e-01 -5.348343849182128906e-01 -1.125157065689563751e-02
6.066159009933471680e-01 -5.437445044517517090e-01 1.221023499965667725e-03
-5.743612647056579590e-01 -5.646213293075561523e-01 -5.683463066816329956e-02
-5.866565108299255371e-01 -5.585981607437133789e-01 -4.413319751620292664e-02
-5.647282004356384277e-01 -5.710933208465576172e-01 -4.012529924511909485e-02
-5.772594809532165527e-01 -5.623314976692199707e-01 -2.653150074183940887e-02
6.985578536987304688e-01 2.526137530803680420e-01 1.238665953278541565e-01
6.876028180122375488e-01 2.281191498041152954e-01 1.253591924905776978e-01
7.190719842910766602e-01 2.371228188276290894e-01 1.192912533879280090e-01
7.084633111953735352e-01 2.131076157093048096e-01 1.209261417388916016e-01
4.935662448406219482e-01 -5.797976255416870117e-01 -1.267473399639129639e-01
4.809639453887939453e-01 -5.967379808425903320e-01 -1.253652423620223999e-01
5.107129812240600586e-01 -5.745407938957214355e-01 -1.238583177328109741e-01
4.989320635795593262e-01 -5.906175971031188965e-01 -1.231641322374343872e-01
-4.673018157482147217e-01 7.756150960922241211e-01 1.191610544919967651e-01
-4.735136628150939941e-01 7.558754086494445801e-01 1.224847435951232910e-01
-4.524039030075073242e-01 7.701339721679687500e-01 1.219193339347839355e-01
-4.590438604354858398e-01 7.503232955932617188e-01 1.245915889739990234e-01
-9.485277533531188965e-02 4.764067530632019043e-01 1.217165663838386536e-01
-1.039356738328933716e-01 4.548301994800567627e-01 1.234963461756706238e-01
-7.481443881988525391e-02 4.676778614521026611e-01 1.206338331103324890e-01
-8.445535600185394287e-02 4.465154409408569336e-01 1.222093477845191956e-01
1.528792828321456909e-01 -2.713904678821563721e-01 -1.265898644924163818e-01
1.393955796957015991e-01 -2.958568036556243896e-01 -1.242254003882408142e-01
1.767088174819946289e-01 -2.824178040027618408e-01 -1.283642202615737915e-01
1.629986315965652466e-01 -3.064167797565460205e-01 -1.263880580663681030e-01
-5.315980408340692520e-03 -1.309149861335754395e-01 -1.287478059530258179e-01
-2.070857211947441101e-02 -1.530953347682952881e-01 -1.244878023862838745e-01
1.855402626097202301e-02 -1.407866477966308594e-01 -1.278966963291168213e-01
3.835818730294704437e-03 -1.622352004051208496e-01 -1.245921850204467773e-01
6.539131999015808105e-01 8.676885068416595459e-02 1.225833371281623840e-01
6.466957926750183105e-01 6.318720430135726929e-02 1.232861205935478210e-01
6.759059429168701172e-01 7.156259566545486450e-02 1.203595399856567383e-01
6.681944131851196289e-01 4.914919286966323853e-02 1.210469305515289307e-01
-7.598928809165954590e-01 1.416854709386825562e-01 1.195311099290847778e-01
-7.771112322807312012e-01 1.132573783397674561e-01 1.235644817352294922e-01
-7.299367189407348633e-01 1.465116590261459351e-01 1.200308278203010559e-01
-7.482249140739440918e-01 1.187348812818527222e-01 1.242355182766914368e-01
-7.055082321166992188e-01 -9.958009421825408936e-02 -1.259903013706207275e-01
-7.163591980934143066e-01 -1.199272274971008301e-01 -1.240241527557373047e-01
-6.854669451713562012e-01 -1.098698005080223083e-01 -1.271796822547912598e-01
-6.963724493980407715e-01 -1.306228488683700562e-01 -1.255786716938018799e-01
2.942155301570892334e-01 8.444547653198242188e-01 -1.084756553173065186e-01
2.750444710254669189e-01 8.468523621559143066e-01 -1.053604260087013245e-01
3.121654391288757324e-01 8.577547073364257812e-01 -1.070248037576675415e-01
2.948116958141326904e-01 8.601790666580200195e-01 -1.013067588210105896e-01
-1.650265455245971680e-01 4.975326657295227051e-01 1.221509501338005066e-01
-1.750226318836212158e-01 4.764370024204254150e-01 1.236942708492279053e-01
-1.444834172725677490e-01 4.884297847747802734e-01 1.220081225037574768e-01
-1.540980935096740723e-01 4.667610228061676025e-01 1.234853714704513550e-01
-1.839519590139389038e-01 9.025862812995910645e-02 -1.277512013912200928e-01
-1.928320527076721191e-01 6.817335635423660278e-02 -1.266960650682449341e-01
-1.675721555948257446e-01 7.306925952434539795e-02 -1.272624731063842773e-01
-1.748708039522171021e-01 5.199655517935752869e-02 -1.259555816650390625e-01
2.660670280456542969e-01 8.057282567024230957e-01 -1.281082183122634888e-01
2.483140528202056885e-01 8.030252456665039062e-01 -1.255046278238296509e-01
2.870067059993743896e-01 8.165136575698852539e-01 -1.258392333984375000e-01
2.699131369590759277e-01 8.137171268463134766e-01 -1.235240921378135681e-01
-4.224985837936401367e-01 -3.890880346298217773e-01 1.203051358461380005e-01
-4.363284409046173096e-01 -4.107174575328826904e-01 1.224553808569908142e-01
-3.988755941390991211e-01 -4.014366269111633301e-01 1.209661960601806641e-01
-4.126981496810913086e-01 -4.228376150131225586e-01 1.234256625175476074e-01
-2.485047578811645508e-01 -7.598049044609069824e-01 -1.274772584438323975e-01
-2.538604140281677246e-01 -7.796288132667541504e-01 -1.254863590002059937e-01
-2.322313785552978516e-01 -7.713323235511779785e-01 -1.279894560575485229e-01
-2.373343706130981445e-01 -7.913396954536437988e-01 -1.259658634662628174e-01
-8.583440780639648438e-01 -4.020586609840393066e-01 2.114498429000377655e-02
-8.572220802307128906e-01 -4.240805804729461670e-01 2.416791766881942749e-02
-8.571492433547973633e-01 -3.993390500545501709e-01 3.627228364348411560e-02
-8.558980226516723633e-01 -4.235889017581939697e-01 3.837581723928451538e-02
-1.678618788719177246e-02 2.726601660251617432e-01 1.206025704741477966e-01
-2.938576415181159973e-02 2.520420849323272705e-01 1.218420341610908508e-01
7.856914773583412170e-03 2.717909812927246094e-01 1.195224374532699585e-01
-5.797273013740777969e-03 2.504094839096069336e-01 1.215912774205207825e-01
1.591681540012359619e-01 5.613482594490051270e-01 1.226587221026420593e-01
1.451705992221832275e-01 5.425728559494018555e-01 1.242727413773536682e-01
1.814209520816802979e-01 5.459210872650146484e-01 1.214629486203193665e-01
1.676089316606521606e-01 5.264056324958801270e-01 1.229070872068405151e-01
1.749830543994903564e-01 -5.797035098075866699e-01 -1.285645067691802979e-01
1.608854681253433228e-01 -5.978657603263854980e-01 -1.273685544729232788e-01
1.961410194635391235e-01 -5.817053914070129395e-01 -1.277725845575332642e-01
1.810596287250518799e-01 -6.000233292579650879e-01 -1.267597824335098267e-01
5.479695796966552734e-01 1.358384042978286743e-01 1.217365264892578125e-01
5.378767251968383789e-01 1.155458986759185791e-01 1.235855594277381897e-01
5.687122344970703125e-01 1.140635311603546143e-01 1.227764263749122620e-01
5.587030053138732910e-01 9.336747974157333374e-02 1.245110183954238892e-01
7.692607641220092773e-01 -4.602843523025512695e-01 1.223970130085945129e-01
7.617806196212768555e-01 -4.809864163398742676e-01 1.216727793216705322e-01
7.888798713684082031e-01 -4.665935933589935303e-01 1.198778450489044189e-01
7.809875011444091797e-01 -4.845211803913116455e-01 1.213420331478118896e-01
8.517066836357116699e-01 -5.521581694483757019e-02 3.432692028582096100e-04
8.512355685234069824e-01 -7.502034306526184082e-02 4.046508111059665680e-03
8.522448539733886719e-01 -4.777020961046218872e-02 2.302541211247444153e-02
8.519454598426818848e-01 -6.769926846027374268e-02 2.647823467850685120e-02
7.088169455528259277e-03 8.512364029884338379e-01 3.193106502294540405e-03
-7.828230038285255432e-03 8.541405200958251953e-01 1.820242777466773987e-02
2.752158418297767639e-02 8.463666439056396484e-01 2.295091748237609863e-02
1.314038690179586411e-02 8.471537828445434570e-01 3.744190186262130737e-02
5.127840042114257812e-01 6.147814393043518066e-01 1.209525316953659058e-01
5.018905997276306152e-01 5.978628993034362793e-01 1.237334012985229492e-01
5.301342606544494629e-01 6.069112420082092285e-01 1.201762184500694275e-01
5.196093320846557617e-01 5.919432044029235840e-01 1.238444671034812927e-01
5.247242450714111328e-01 1.367353498935699463e-01 -1.279217302799224854e-01
5.136876702308654785e-01 1.211508959531784058e-01 -1.262313127517700195e-01
5.422045588493347168e-01 1.282558143138885498e-01 -1.261796802282333374e-01
5.313403606414794922e-01 1.126349866390228271e-01 -1.243935450911521912e-01
-1.121979951858520508e-02 5.269180536270141602e-01 1.204332411289215088e-01
-3.030008077621459961e-02 5.111674666404724121e-01 1.235428974032402039e-01
1.686890050768852234e-02 5.226138234138488770e-01 1.184515804052352905e-01
-1.162844710052013397e-03 5.056760311126708984e-01 1.216183155775070190e-01
5.193713307380676270e-01 5.229239463806152344e-01 -1.251701116561889648e-01
5.123521685600280762e-01 4.948657155036926270e-01 -1.262890696525573730e-01
5.411773324012756348e-01 5.235028266906738281e-01 -1.242238357663154602e-01
5.355197787284851074e-01 4.967698752880096436e-01 -1.251952499151229858e-01
-4.382135272026062012e-01 -4.483949244022369385e-01 -1.294496357440948486e-01
-4.500455558300018311e-01 -4.672318994998931885e-01 -1.263381838798522949e-01
-4.183250367641448975e-01 -4.566459357738494873e-01 -1.315380334854125977e-01
-4.304089546203613281e-01 -4.753893017768859863e-01 -1.282009333372116089e-01
-5.160895586013793945e-01 -7.020353674888610840e-01 1.191939264535903931e-01
-5.240250825881958008e-01 -7.371336817741394043e-01 1.104495301842689514e-01
-5.019324421882629395e-01 -6.998906135559082031e-01 1.301833987236022949e-01
-5.104302763938903809e-01 -7.344712018966674805e-01 1.221157163381576538e-01
-6.972537636756896973e-01 -3.355756998062133789e-01 4.774538427591323853e-02
-7.107205390930175781e-01 -3.397289216518402100e-01 5.906835570931434631e-02
-6.887224912643432617e-01 -3.456337153911590576e-01 5.948555842041969299e-02
-7.031860351562500000e-01 -3.496436178684234619e-01 7.065361738204956055e-02
6.355289220809936523e-01 -3.198028802871704102e-01 1.222799494862556458e-01
6.276058554649353027e-01 -3.395056426525115967e-01 1.231277361512184143e-01
6.563693881034851074e-01 -3.350819349288940430e-01 1.232690587639808655e-01
6.482822299003601074e-01 -3.553687036037445068e-01 1.236784234642982483e-01
6.927065849304199219e-01 -2.349958382546901703e-02 -1.295105814933776855e-01
6.799265146255493164e-01 -4.653190821409225464e-02 -1.272053718566894531e-01
7.183978557586669922e-01 -3.362406790256500244e-02 -1.288257986307144165e-01
7.065512537956237793e-01 -5.631681159138679504e-02 -1.266492158174514771e-01
-4.781748056411743164e-01 1.830215007066726685e-01 -1.277366131544113159e-01
-4.808683395385742188e-01 1.566555947065353394e-01 -1.277736276388168335e-01
-4.597711563110351562e-01 1.724006533622741699e-01 -1.252779215574264526e-01
-4.630589187145233154e-01 1.436149626970291138e-01 -1.253160834312438965e-01
-8.119971156120300293e-01 3.133389949798583984e-01 1.200973540544509888e-01
-8.157198429107666016e-01 2.868408262729644775e-01 1.176600158214569092e-01
-7.972478270530700684e-01 3.158189356327056885e-01 1.259110122919082642e-01
-8.066292405128479004e-01 2.896265387535095215e-01 1.233411580324172974e-01
-4.202193617820739746e-01 7.618200182914733887e-01 -2.417818456888198853e-02
-4.303041100502014160e-01 7.505480051040649414e-01 -1.346810068935155869e-02
-4.127824008464813232e-01 7.581101655960083008e-01 -3.095159307122230530e-03
-4.249155521392822266e-01 7.488977909088134766e-01 8.494133129715919495e-03
-3.312941789627075195e-01 1.775065958499908447e-01 1.209378167986869812e-01
-3.427228927612304688e-01 1.569940894842147827e-01 1.220261380076408386e-01
-3.108633458614349365e-01 1.727917641401290894e-01 1.215471029281616211e-01
-3.205145597457885742e-01 1.535546779632568359e-01 1.221976876258850098e-01
-5.526306629180908203e-01 6.029514074325561523e-01 -1.174220144748687744e-01
-5.586107969284057617e-01 5.867626070976257324e-01 -1.132537499070167542e-01
-5.383440852165222168e-01 6.020854115486145020e-01 -1.165217012166976929e-01
-5.442909598350524902e-01 5.855788588523864746e-01 -1.122565641999244690e-01
4.189838767051696777e-01 -3.891511559486389160e-01 -1.288240551948547363e-01
4.092836380004882812e-01 -4.105702340602874756e-01 -1.268700510263442993e-01
4.381917119026184082e-01 -4.004546105861663818e-01 -1.281723529100418091e-01
4.292963445186614990e-01 -4.219815731048583984e-01 -1.266269087791442871e-01
-2.872414886951446533e-01 1.442977190017700195e-01 1.211743429303169250e-01
-2.953104078769683838e-01 1.254772990942001343e-01 1.220067068934440613e-01
-2.677854299545288086e-01 1.300627738237380981e-01 1.219272017478942871e-01
-2.757131457328796387e-01 1.109603270888328552e-01 1.230231225490570068e-01
3.773842751979827881e-01 3.740920126438140869e-02 -1.290814131498336792e-01
3.624903559684753418e-01 1.250827219337224960e-02 -1.260574311017990112e-01
4.025345444679260254e-01 2.649748325347900391e-02 -1.296580731868743896e-01
3.878599107265472412e-01 1.298777759075164795e-03 -1.267206817865371704e-01
1.691420078277587891e-01 -8.303127884864807129e-01 1.152815446257591248e-01
1.504999250173568726e-01 -8.206417560577392578e-01 1.221775934100151062e-01
1.853355467319488525e-01 -8.219608664512634277e-01 1.257953941822052002e-01
1.669975966215133667e-01 -8.152431845664978027e-01 1.316810548305511475e-01
-5.903691053390502930e-01 -5.645990371704101562e-01 7.952602207660675049e-02
-6.064000725746154785e-01 -5.472208857536315918e-01 8.891439437866210938e-02
-5.763167738914489746e-01 -5.639500617980957031e-01 9.826668351888656616e-02
-5.933174490928649902e-01 -5.450742244720458984e-01 1.057251021265983582e-01
-3.085453808307647705e-01 2.434974908828735352e-01 1.193084120750427246e-01
-3.233915865421295166e-01 2.203199416399002075e-01 1.231807097792625427e-01
-2.860964834690093994e-01 2.448372393846511841e-01 1.177189424633979797e-01
-3.006144762039184570e-01 2.212974578142166138e-01 1.218104884028434753e-01
2.131613530218601227e-02 6.094760298728942871e-01 1.209207549691200256e-01
-5.064299330115318298e-04 5.925028324127197266e-01 1.245019063353538513e-01
4.933938756585121155e-02 6.016464233398437500e-01 1.201074346899986267e-01
