9.607578068971633911e-02 -3.287812769412994385e-01 5.415426194667816162e-02
1.046537607908248901e-01 -3.086412549018859863e-01 6.971262395381927490e-02
1.040093228220939636e-01 -3.261376917362213135e-01 6.717634201049804688e-02
9.480053931474685669e-02 1.332507878541946411e-01 5.693035125732421875e-01
9.353531152009963989e-02 1.243383362889289856e-01 5.743570327758789062e-01
9.713381528854370117e-02 1.318965554237365723e-01 5.857924818992614746e-01
9.605293720960617065e-02 1.229615136981010437e-01 5.909764170646667480e-01
1.315377503633499146e-01 2.700565755367279053e-01 3.938354179263114929e-02
1.263492703437805176e-01 2.793620526790618896e-01 4.840097948908805847e-02
1.311264634132385254e-01 2.695568799972534180e-01 5.573685094714164734e-02
1.263427585363388062e-01 2.780475616455078125e-01 6.492182612419128418e-02
-1.005125492811203003e-01 -4.796425998210906982e-01 -7.460332512855529785e-01
-1.088724210858345032e-01 -4.917702376842498779e-01 -7.405189871788024902e-01
-9.152555465698242188e-02 -4.878647923469543457e-01 -7.390829324722290039e-01
-1.009624451398849487e-01 -4.976026415824890137e-01 -7.328596711158752441e-01
4.764422401785850525e-02 -1.072148308157920837e-01 2.846941053867340088e-01
3.303933888673782349e-02 -1.109409630298614502e-01 2.871673107147216797e-01
5.315604060888290405e-02 -8.726913481950759888e-02 2.917970418930053711e-01
3.928223624825477600e-02 -9.211199730634689331e-02 2.949017584323883057e-01
1.454406827688217163e-01 -1.261538118124008179e-01 1.817752569913864136e-01
1.399728059768676758e-01 -1.355990767478942871e-01 1.848920136690139771e-01
1.458986699581146240e-01 -1.166560500860214233e-01 1.871035546064376831e-01
1.395438760519027710e-01 -1.247679069638252258e-01 1.907425522804260254e-01
-1.071102842688560486e-01 2.963354587554931641e-01 3.038753569126129150e-01
-1.101961508393287659e-01 2.844946682453155518e-01 3.155746459960937500e-01
-1.000406518578529358e-01 3.036364018917083740e-01 3.203837275505065918e-01
-1.037793308496475220e-01 2.921860218048095703e-01 3.298787474632263184e-01
-8.339365571737289429e-02 3.604986965656280518e-01 2.203419208526611328e-01
-8.951564133167266846e-02 3.502901196479797363e-01 2.218465059995651245e-01
-7.700517773628234863e-02 3.653703033924102783e-01 2.285529673099517822e-01
-8.334034681320190430e-02 3.555357456207275391e-01 2.296256124973297119e-01
-1.903221383690834045e-02 3.539049029350280762e-01 6.363741755485534668e-01
-2.404399402439594269e-02 3.502796292304992676e-01 6.445573568344116211e-01
-9.316399693489074707e-03 3.506361842155456543e-01 6.448298096656799316e-01
-1.419579423964023590e-02 3.470587730407714844e-01 6.535325050354003906e-01
1.799255907535552979e-01 1.996736973524093628e-01 -4.821003079414367676e-01
1.796475052833557129e-01 1.885159760713577271e-01 -4.756080806255340576e-01
1.764689385890960693e-01 1.946996003389358521e-01 -4.626087546348571777e-01
1.762102842330932617e-01 1.830630302429199219e-01 -4.556034505367279053e-01
-2.824756875634193420e-02 4.174799844622612000e-02 7.530255317687988281e-01
-3.576558083295822144e-02 5.116761848330497742e-02 7.625555992126464844e-01
-1.949569582939147949e-02 3.784501180052757263e-02 7.631112337112426758e-01
-2.736587449908256531e-02 4.681568220257759094e-02 7.715147733688354492e-01
4.373325780034065247e-02 -4.381657242774963379e-01 9.950657188892364502e-02
4.232089966535568237e-02 -4.516437947750091553e-01 1.047599390149116516e-01
4.873115569353103638e-02 -4.348815679550170898e-01 1.109777241945266724e-01
4.767541587352752686e-02 -4.481936693191528320e-01 1.143883243203163147e-01
1.815348267555236816e-01 -5.548037290573120117e-01 -7.383108139038085938e-01
1.656747758388519287e-01 -5.578578710556030273e-01 -7.299854755401611328e-01
1.918554008007049561e-01 -5.554631352424621582e-01 -7.300651073455810547e-01
1.753513067960739136e-01 -5.580328702926635742e-01 -7.217963337898254395e-01
-2.098175138235092163e-01 1.333787143230438232e-01 -6.233471035957336426e-01
-2.095678895711898804e-01 1.225711032748222351e-01 -6.135032773017883301e-01
-2.130526900291442871e-01 1.334624886512756348e-01 -6.036232113838195801e-01
-2.130199819803237915e-01 1.219810992479324341e-01 -5.920783877372741699e-01
-1.739773750305175781e-01 -1.861714012920856476e-02 -7.632949948310852051e-02
-1.780050843954086304e-01 -6.606512703001499176e-03 -6.389206647872924805e-02
-1.704565435647964478e-01 -2.365331724286079407e-02 -6.229288876056671143e-02
-1.747962087392807007e-01 -1.181279122829437256e-02 -5.036024376749992371e-02
-2.181024998426437378e-01 2.241651527583599091e-02 -2.546950578689575195e-01
-2.169982939958572388e-01 1.515840180218219757e-02 -2.500143945217132568e-01
-2.150472700595855713e-01 1.743226870894432068e-02 -2.451011389493942261e-01
-2.155223190784454346e-01 1.362180151045322418e-02 -2.393197417259216309e-01
3.110791184008121490e-02 -1.742528229951858521e-01 2.313338369131088257e-01
2.146309986710548401e-02 -1.801825612783432007e-01 2.375306934118270874e-01
3.560885414481163025e-02 -1.664683222770690918e-01 2.433137744665145874e-01
2.611191757023334503e-02 -1.721598654985427856e-01 2.500611841678619385e-01
7.715736329555511475e-02 1.843503564596176147e-01 7.109421491622924805e-01
6.945329904556274414e-02 1.898105442523956299e-01 7.220026254653930664e-01
7.459045201539993286e-02 1.725036650896072388e-01 7.219630479812622070e-01
6.603246182203292847e-02 1.787137985229492188e-01 7.341738343238830566e-01
-5.988362431526184082e-02 -3.832633197307586670e-01 -8.238456845283508301e-01
-5.724610760807991028e-02 -3.994002342224121094e-01 -8.241075873374938965e-01
-6.154378503561019897e-02 -3.895041644573211670e-01 -8.121085166931152344e-01
-5.822698399424552917e-02 -4.051862955093383789e-01 -8.113996386528015137e-01
8.599524199962615967e-02 1.773728579282760620e-01 5.209990143775939941e-01
8.649725466966629028e-02 1.633098423480987549e-01 5.255468487739562988e-01
9.078305959701538086e-02 1.795974969863891602e-01 5.373748540878295898e-01
9.188450127840042114e-02 1.654610186815261841e-01 5.412267446517944336e-01
-1.886037141084671021e-01 2.060528658330440521e-02 1.329124122858047485e-01
-1.869865506887435913e-01 1.102424599230289459e-02 1.374894231557846069e-01
-1.885772943496704102e-01 2.129183709621429443e-02 1.467805951833724976e-01
-1.867592185735702515e-01 1.082956232130527496e-02 1.519165486097335815e-01
-3.105187788605690002e-04 5.786480754613876343e-02 4.475438892841339111e-01
-1.235049031674861908e-02 6.117521598935127258e-02 4.530472457408905029e-01
8.425167761743068695e-03 6.697487831115722656e-02 4.593531489372253418e-01
-3.249238710850477219e-03 6.978239864110946655e-02 4.644266068935394287e-01
1.594565510749816895e-01 1.734849661588668823e-01 -7.339416146278381348e-01
1.602090150117874146e-01 1.640297770500183105e-01 -7.333093285560607910e-01
1.612882912158966064e-01 1.762114018201828003e-01 -7.209007740020751953e-01
1.620122343301773071e-01 1.670033931732177734e-01 -7.202347517013549805e-01
2.910893410444259644e-02 3.621381521224975586e-01 4.450658559799194336e-01
2.030352875590324402e-02 3.663083016872406006e-01 4.528062343597412109e-01
3.449106588959693909e-02 3.536688089370727539e-01 4.569733440876007080e-01
2.528819628059864044e-02 3.585588634014129639e-01 4.649780392646789551e-01
1.108239442110061646e-01 -1.014043092727661133e-01 -1.336596012115478516e-01
1.004585027694702148e-01 -1.115574836730957031e-01 -1.322413384914398193e-01
1.201379150152206421e-01 -9.121517091989517212e-02 -1.211022064089775085e-01
1.103019714355468750e-01 -1.006186753511428833e-01 -1.185345649719238281e-01
1.312834918498992920e-01 -4.931350052356719971e-01 1.063840463757514954e-01
1.238810345530509949e-01 -4.933608174324035645e-01 1.152108088135719299e-01
1.351223438978195190e-01 -5.052074790000915527e-01 1.133130714297294617e-01
1.279376298189163208e-01 -5.049895644187927246e-01 1.219058781862258911e-01
1.567806601524353027e-01 3.073073327541351318e-01 -4.435067772865295410e-01
1.488358378410339355e-01 3.176389634609222412e-01 -4.355637729167938232e-01
1.555687636137008667e-01 3.022796809673309326e-01 -4.282092750072479248e-01
1.467090100049972534e-01 3.142885267734527588e-01 -4.201564788818359375e-01
8.319598436355590820e-02 -2.009220123291015625e-01 1.729945093393325806e-01
7.199535518884658813e-02 -1.966791599988937378e-01 1.778405010700225830e-01
9.284668415784835815e-02 -1.918875724077224731e-01 1.821891218423843384e-01
8.214330673217773438e-02 -1.873716562986373901e-01 1.866166442632675171e-01
-1.406445205211639404e-01 -2.094836980104446411e-01 1.402149498462677002e-01
-1.381538063287734985e-01 -2.206497341394424438e-01 1.349813044071197510e-01
-1.312416791915893555e-01 -2.133674025535583496e-01 1.508194953203201294e-01
-1.316363066434860229e-01 -2.203493267297744751e-01 1.458075046539306641e-01
1.460832804441452026e-01 -4.570034444332122803e-01 -8.203586339950561523e-01
1.475235968828201294e-01 -4.716047942638397217e-01 -8.186610341072082520e-01
1.514459997415542603e-01 -4.606857001781463623e-01 -8.104929924011230469e-01
1.536873579025268555e-01 -4.751197993755340576e-01 -8.082861304283142090e-01
-3.401020169258117676e-02 -1.157678291201591492e-01 2.968714535236358643e-01
-4.902198910713195801e-02 -1.009559780359268188e-01 2.978384792804718018e-01
-2.171242982149124146e-02 -1.131330430507659912e-01 3.070786297321319580e-01
-3.620037063956260681e-02 -1.003645509481430054e-01 3.088274300098419189e-01
-8.630660176277160645e-02 -9.267314523458480835e-02 2.529583871364593506e-01
-9.491009265184402466e-02 -8.430965244770050049e-02 2.543179094791412354e-01
-7.757391780614852905e-02 -9.368104487657546997e-02 2.631417214870452881e-01
-8.852308988571166992e-02 -8.266676217317581177e-02 2.635504603385925293e-01
1.129454970359802246e-01 -5.432885885238647461e-01 1.822487711906433105e-01
1.034140288829803467e-01 -5.447472333908081055e-01 1.877649277448654175e-01
1.163182854652404785e-01 -5.451377630233764648e-01 1.880009770393371582e-01
1.067900359630584717e-01 -5.465859770774841309e-01 1.935321390628814697e-01
-1.051749736070632935e-01 -1.358168870210647583e-01 -6.598066091537475586e-01
-1.158230900764465332e-01 -1.325991004705429077e-01 -6.538335084915161133e-01
-1.032448485493659973e-01 -1.239395439624786377e-01 -6.534640192985534668e-01
-1.134068369865417480e-01 -1.207267045974731445e-01 -6.475661993026733398e-01
-1.423353999853134155e-01 2.352800667285919189e-01 2.477407604455947876e-01
-1.463655233383178711e-01 2.224215865135192871e-01 2.494165003299713135e-01
-1.357889473438262939e-01 2.374490201473236084e-01 2.612751722335815430e-01
-1.398978829383850098e-01 2.248432040214538574e-01 2.636572718620300293e-01
-1.821922361850738525e-01 3.111211061477661133e-01 5.622571706771850586e-01
-1.921029537916183472e-01 3.123308718204498291e-01 5.676085352897644043e-01
-1.708575487136840820e-01 3.109451532363891602e-01 5.678301453590393066e-01
-1.803392022848129272e-01 3.114834427833557129e-01 5.720521807670593262e-01
1.025628075003623962e-01 -1.034127399325370789e-01 -6.448953151702880859e-01
9.017688781023025513e-02 -9.749313443899154663e-02 -6.487769484519958496e-01
1.141741201281547546e-01 -9.953813254833221436e-02 -6.358181834220886230e-01
1.017532125115394592e-01 -9.411960840225219727e-02 -6.391493082046508789e-01
9.295491129159927368e-02 -9.185831248760223389e-02 2.390366494655609131e-01
8.197215199470520020e-02 -9.112913161516189575e-02 2.474705129861831665e-01
9.493578225374221802e-02 -7.581301778554916382e-02 2.470490485429763794e-01
8.463733643293380737e-02 -7.482585310935974121e-02 2.573433518409729004e-01
-1.391697824001312256e-01 -1.616372317075729370e-01 -6.829821467399597168e-01
-1.482607722282409668e-01 -1.464945524930953979e-01 -6.744258999824523926e-01
-1.354091018438339233e-01 -1.526594012975692749e-01 -6.708339452743530273e-01
-1.451319456100463867e-01 -1.372776031494140625e-01 -6.626117229461669922e-01
1.471657305955886841e-01 2.958775758743286133e-01 -2.079018056392669678e-01
1.414142847061157227e-01 3.032996952533721924e-01 -1.958592087030410767e-01
1.508637815713882446e-01 2.882316410541534424e-01 -1.915823966264724731e-01
1.450965553522109985e-01 2.964406311511993408e-01 -1.792125254869461060e-01
-3.907524049282073975e-02 -1.599955558776855469e-01 -7.403016090393066406e-02
-4.867080971598625183e-02 -1.576279997825622559e-01 -6.694053113460540771e-02
-2.818670496344566345e-02 -1.635280102491378784e-01 -6.636755913496017456e-02
-3.960456699132919312e-02 -1.611937135457992554e-01 -6.061311066150665283e-02
1.457674354314804077e-01 3.552709519863128662e-01 -5.231631994247436523e-01
1.383851468563079834e-01 3.630455732345581055e-01 -5.128434300422668457e-01
1.473156213760375977e-01 3.517296016216278076e-01 -5.053586363792419434e-01
1.403402537107467651e-01 3.600028157234191895e-01 -4.953393936157226562e-01
-7.178609818220138550e-02 -1.219900250434875488e-01 -8.014711141586303711e-01
-7.067206501960754395e-02 -1.339757889509201050e-01 -8.050265908241271973e-01
-6.606633961200714111e-02 -1.211963295936584473e-01 -7.901362180709838867e-01
-6.466134637594223022e-02 -1.338036507368087769e-01 -7.927832603454589844e-01
1.600145697593688965e-01 1.444204300642013550e-01 1.616239100694656372e-01
1.641160398721694946e-01 1.292927414178848267e-01 1.640225499868392944e-01
1.587010473012924194e-01 1.427248716354370117e-01 1.777577400207519531e-01
1.626442670822143555e-01 1.281861960887908936e-01 1.798163354396820068e-01
1.002388522028923035e-01 -1.006205379962921143e-01 -5.866224318742752075e-02
9.355416148900985718e-02 -1.060245335102081299e-01 -5.236500874161720276e-02
1.048336550593376160e-01 -9.255699068307876587e-02 -4.432210326194763184e-02
9.809859097003936768e-02 -9.771458804607391357e-02 -3.750937432050704956e-02
5.976133048534393311e-02 -1.898222714662551880e-01 -7.410363554954528809e-01
6.356021761894226074e-02 -2.065305709838867188e-01 -7.350238561630249023e-01
6.107750162482261658e-02 -1.867043226957321167e-01 -7.252275943756103516e-01
6.140726432204246521e-02 -1.994064748287200928e-01 -7.211512327194213867e-01
-5.633697658777236938e-02 -1.188354566693305969e-01 -7.036554813385009766e-01
-6.149253249168395996e-02 -1.288797557353973389e-01 -7.013610005378723145e-01
-5.508513748645782471e-02 -1.032284647226333618e-01 -6.953544020652770996e-01
-6.077193841338157654e-02 -1.131411343812942505e-01 -6.930131316184997559e-01
-3.230737987905740738e-03 4.220200777053833008e-01 6.280829012393951416e-02
-1.335443556308746338e-02 4.232843518257141113e-01 7.074945420026779175e-02
8.104702457785606384e-03 4.202820360660552979e-01 7.534934580326080322e-02
-2.602664753794670105e-03 4.210223555564880371e-01 8.209751546382904053e-02
-2.123153656721115112e-01 9.117727167904376984e-03 -2.875109910964965820e-01
-2.140066176652908325e-01 9.725834242999553680e-03 -2.788488566875457764e-01
-2.117773592472076416e-01 5.418512970209121704e-03 -2.754941880702972412e-01
-2.135230600833892822e-01 5.281737539917230606e-03 -2.668698430061340332e-01
-5.094476044178009033e-02 -5.787378177046775818e-02 -6.483810544013977051e-01
-6.097858026623725891e-02 -5.921780318021774292e-02 -6.433592438697814941e-01
-4.221258312463760376e-02 -5.600620061159133911e-02 -6.402192115783691406e-01
-5.343581736087799072e-02 -5.637064948678016663e-02 -6.350461840629577637e-01
1.453925669193267822e-01 -3.918615579605102539e-01 -8.006669282913208008e-01
1.467525213956832886e-01 -4.100604653358459473e-01 -7.942003607749938965e-01
1.482027173042297363e-01 -3.928131461143493652e-01 -7.894946932792663574e-01
1.491748392581939697e-01 -4.108060300350189209e-01 -7.834830880165100098e-01
1.007583662867546082e-01 1.306100636720657349e-01 6.537420153617858887e-01
1.001858562231063843e-01 1.185626536607742310e-01 6.573182344436645508e-01
9.964544326066970825e-02 1.322612315416336060e-01 6.665889024734497070e-01
9.950929135084152222e-02 1.199068948626518250e-01 6.696353554725646973e-01
1.587994396686553955e-01 -2.960026636719703674e-02 -2.992629706859588623e-01
1.546710729598999023e-01 -3.962346538901329041e-02 -2.931174337863922119e-01
1.632247716188430786e-01 -2.677407674491405487e-02 -2.885451614856719971e-01
1.591624915599822998e-01 -3.670115768909454346e-02 -2.816863656044006348e-01
-1.585439145565032959e-01 3.571125268936157227e-01 -4.683665335178375244e-01
-1.662014573812484741e-01 3.483533263206481934e-01 -4.615569412708282471e-01
-1.557134091854095459e-01 3.584483265876770020e-01 -4.515778422355651855e-01
-1.641716510057449341e-01 3.516365289688110352e-01 -4.435717761516571045e-01
7.302883267402648926e-02 -1.248427405953407288e-01 -3.297438323497772217e-01
6.535436213016510010e-02 -1.335655152797698975e-01 -3.233210444450378418e-01
8.225680887699127197e-02 -1.212455108761787415e-01 -3.172938227653503418e-01
7.436379790306091309e-02 -1.298418641090393066e-01 -3.111843466758728027e-01
-1.577911153435707092e-02 -1.108939349651336670e-01 -5.203027725219726562e-01
-2.500458434224128723e-02 -1.139442026615142822e-01 -5.133196115493774414e-01
-8.179781027138233185e-03 -1.111548095941543579e-01 -5.097956657409667969e-01
-1.710523851215839386e-02 -1.164027824997901917e-01 -5.041838288307189941e-01
1.180422976613044739e-01 2.357789129018783569e-01 -7.925438284873962402e-01
1.161854937672615051e-01 2.217495143413543701e-01 -7.945269346237182617e-01
1.289341896772384644e-01 2.338615953922271729e-01 -7.812279462814331055e-01
1.279008537530899048e-01 2.211603075265884399e-01 -7.828737497329711914e-01
-6.320132873952388763e-03 4.079282581806182861e-01 -4.294466972351074219e-01
-1.475291419774293900e-02 4.069668054580688477e-01 -4.200546443462371826e-01
5.057472269982099533e-03 4.058791399002075195e-01 -4.157267510890960693e-01
-4.739821888506412506e-03 4.047082960605621338e-01 -4.078258872032165527e-01
-1.057274080812931061e-02 3.758451044559478760e-01 4.008852243423461914e-01
-1.764320209622383118e-02 3.738167285919189453e-01 4.082705378532409668e-01
-4.342256579548120499e-04 3.729057013988494873e-01 4.112813174724578857e-01
-7.946509867906570435e-03 3.715392947196960449e-01 4.183589220046997070e-01
6.005889549851417542e-02 -2.634607553482055664e-01 -7.879729866981506348e-01
6.266752630472183228e-02 -2.757394015789031982e-01 -7.806713581085205078e-01
5.988096445798873901e-02 -2.633367180824279785e-01 -7.697890996932983398e-01
6.328961253166198730e-02 -2.776981890201568604e-01 -7.634753584861755371e-01
-7.507287710905075073e-02 1.757170706987380981e-01 -8.373127579689025879e-01
-7.652463763952255249e-02 1.568465530872344971e-01 -8.325234055519104004e-01
-5.998502671718597412e-02 1.656260937452316284e-01 -8.420811295509338379e-01
-6.372649967670440674e-02 1.482861936092376709e-01 -8.375537991523742676e-01
3.892358392477035522e-02 -6.036028265953063965e-02 -7.395422458648681641e-01
4.184123873710632324e-02 -6.866305321455001831e-02 -7.308808565139770508e-01
4.134089499711990356e-02 -6.764611601829528809e-02 -7.271224856376647949e-01
3.921592235565185547e-02 -6.428238749504089355e-02 -7.156878113746643066e-01
-8.089851588010787964e-02 1.606551408767700195e-01 5.056971311569213867e-01
-8.037307858467102051e-02 1.535717695951461792e-01 5.131095647811889648e-01
-8.081772178411483765e-02 1.552766412496566772e-01 5.220506191253662109e-01
-8.156404644250869751e-02 1.508055478334426880e-01 5.317891836166381836e-01
9.368561953306198120e-02 1.923014372587203979e-01 5.956187844276428223e-01
9.466819465160369873e-02 1.774788647890090942e-01 5.976620316505432129e-01
9.546573460102081299e-02 1.962438225746154785e-01 6.113611459732055664e-01
9.613396972417831421e-02 1.824056059122085571e-01 6.134495139122009277e-01
-7.237005978822708130e-02 3.839635848999023438e-01 -3.572148382663726807e-01
-7.995177060365676880e-02 3.791555166244506836e-01 -3.456620275974273682e-01
-6.478619575500488281e-02 3.850859403610229492e-01 -3.401864469051361084e-01
-7.249400019645690918e-02 3.806043863296508789e-01 -3.293540179729461670e-01
-7.088106870651245117e-02 -2.992312014102935791e-01 1.218645051121711731e-01
-7.696003466844558716e-02 -3.148144185543060303e-01 1.237664222717285156e-01
-6.808981299400329590e-02 -2.854413688182830811e-01 1.245775446295738220e-01
-7.397772371768951416e-02 -3.002994954586029053e-01 1.262165307998657227e-01
-1.188497915863990784e-01 3.088019192218780518e-01 5.492178797721862793e-01
-1.190550476312637329e-01 2.881500720977783203e-01 5.511631965637207031e-01
-1.063928157091140747e-01 3.052083253860473633e-01 5.555958151817321777e-01
-1.064232140779495239e-01 2.847452759742736816e-01 5.570126175880432129e-01
-9.220879524946212769e-02 -5.573452711105346680e-01 -7.242512702941894531e-01
-1.024325639009475708e-01 -5.571578741073608398e-01 -7.176418900489807129e-01
-8.531438559293746948e-02 -5.555775165557861328e-01 -7.126971483230590820e-01
-9.667515009641647339e-02 -5.555310249328613281e-01 -7.071651816368103027e-01
1.442377716302871704e-01 -6.098737940192222595e-02 3.284022957086563110e-02
1.409154534339904785e-01 -7.365028560161590576e-02 3.494067862629890442e-02
1.483325809240341187e-01 -6.297507882118225098e-02 4.966387897729873657e-02
1.466655731201171875e-01 -7.581071555614471436e-02 5.182928591966629028e-02
-1.658260226249694824e-01 2.933605909347534180e-01 -1.341578215360641479e-01
-1.740247607231140137e-01 2.825397551059722900e-01 -1.245491802692413330e-01
-1.592984348535537720e-01 2.997689247131347656e-01 -1.199121698737144470e-01
-1.674313098192214966e-01 2.893550992012023926e-01 -1.110088750720024109e-01
-2.477997168898582458e-02 -1.289093308150768280e-02 -7.216222286224365234e-01
-3.069693595170974731e-02 -2.221045829355716705e-02 -7.189609408378601074e-01
-1.817146502435207367e-02 -1.118278782814741135e-02 -7.129275202751159668e-01
-2.418961934745311737e-02 -2.041873522102832794e-02 -7.099473476409912109e-01
-7.762805372476577759e-02 -9.371065348386764526e-02 -8.091436028480529785e-01
-7.651812583208084106e-02 -1.059920936822891235e-01 -8.142770528793334961e-01
-7.081700861454010010e-02 -9.173563867807388306e-02 -7.995476722717285156e-01
-6.952864676713943481e-02 -1.039530858397483826e-01 -8.048248887062072754e-01
-1.510313004255294800e-01 -2.465352863073348999e-01 9.352570027112960815e-02
-1.452852189540863037e-01 -2.597256898880004883e-01 9.776606410741806030e-02
-1.479393839836120605e-01 -2.491946965456008911e-01 1.070432737469673157e-01
-1.421962678432464600e-01 -2.622732818126678467e-01 1.109338104724884033e-01
-1.328884214162826538e-01 2.704863250255584717e-01 5.816274285316467285e-01
-1.308498531579971313e-01 2.486075013875961304e-01 5.848594307899475098e-01
-1.276919692754745483e-01 2.660551071166992188e-01 5.903350114822387695e-01
-1.250406950712203979e-01 2.471749931573867798e-01 5.942127704620361328e-01
1.960159689188003540e-01 3.611948341131210327e-02 -1.406050473451614380e-01
1.914579719305038452e-01 2.523910626769065857e-02 -1.352089792490005493e-01
1.982724219560623169e-01 4.524164274334907532e-02 -1.265344172716140747e-01
1.942010521888732910e-01 3.420057892799377441e-02 -1.216979548335075378e-01
-6.729144603013992310e-02 3.759122490882873535e-01 -8.718482404947280884e-02
-7.514025270938873291e-02 3.721760213375091553e-01 -7.744978368282318115e-02
-6.095263734459877014e-02 3.822904825210571289e-01 -7.372632622718811035e-02
-6.860952824354171753e-02 3.795178532600402832e-01 -6.325685977935791016e-02
-1.275743395090103149e-01 -4.031639695167541504e-01 -8.010308146476745605e-01
-1.276314407587051392e-01 -4.252400696277618408e-01 -7.944133877754211426e-01
-1.266627162694931030e-01 -4.003018438816070557e-01 -7.916390895843505859e-01
-1.263233423233032227e-01 -4.251046180725097656e-01 -7.839785814285278320e-01
7.170690596103668213e-02 -4.876760840415954590e-01 1.666602492332458496e-02
6.493600457906723022e-02 -4.923759102821350098e-01 2.427719160914421082e-02
7.230322808027267456e-02 -4.889391660690307617e-01 2.540573850274085999e-02
6.566573679447174072e-02 -4.935964047908782959e-01 3.305317834019660950e-02
1.257197260856628418e-01 2.803009450435638428e-01 7.886523753404617310e-02
1.213506236672401428e-01 2.866568565368652344e-01 8.765999227762222290e-02
1.260153204202651978e-01 2.766316831111907959e-01 9.147221595048904419e-02
1.217827349901199341e-01 2.818439006805419922e-01 1.001560986042022705e-01
-1.283088177442550659e-01 1.234691217541694641e-01 3.449984192848205566e-01
-1.323568075895309448e-01 1.107364296913146973e-01 3.395952284336090088e-01
-1.187017560005187988e-01 1.212067082524299622e-01 3.593456149101257324e-01
-1.220076605677604675e-01 1.081320643424987793e-01 3.549064695835113525e-01
1.571575403213500977e-01 3.176727592945098877e-01 -5.507936477661132812e-01
1.519051641225814819e-01 3.284059166908264160e-01 -5.397809147834777832e-01
1.592216193675994873e-01 3.134051561355590820e-01 -5.356681942939758301e-01
1.540604829788208008e-01 3.252465724945068359e-01 -5.241200327873229980e-01
-1.532265543937683105e-01 -5.068883895874023438e-01 9.295728802680969238e-02
-1.562530249357223511e-01 -5.204902887344360352e-01 9.901869297027587891e-02
-1.491342186927795410e-01 -5.086853504180908203e-01 1.048427298665046692e-01
-1.542908400297164917e-01 -5.223571062088012695e-01 1.109132319688796997e-01
-1.644539535045623779e-01 -1.250679790973663330e-01 -7.121086120605468750e-01
-1.664996892213821411e-01 -1.197503730654716492e-01 -7.039914727210998535e-01
-1.623357832431793213e-01 -1.258835345506668091e-01 -6.969870328903198242e-01
-1.673183888196945190e-01 -1.136930584907531738e-01 -6.883427500724792480e-01
-2.124453634023666382e-01 1.163382604718208313e-01 -5.289058089256286621e-01
-2.091705799102783203e-01 1.016620770096778870e-01 -5.154622793197631836e-01
-2.076084762811660767e-01 1.122868359088897705e-01 -5.095795392990112305e-01
-2.050668448209762573e-01 9.618841856718063354e-02 -4.970133900642395020e-01
-5.107863619923591614e-02 -6.929909437894821167e-02 -7.351662516593933105e-01
-5.294923856854438782e-02 -8.247304707765579224e-02 -7.288780808448791504e-01
-4.650221019983291626e-02 -6.491074711084365845e-02 -7.255203723907470703e-01
-4.960385710000991821e-02 -7.668698579072952271e-02 -7.203576564788818359e-01
9.707342088222503662e-02 -3.583892285823822021e-01 9.922090172767639160e-02
9.682465344667434692e-02 -3.740180432796478271e-01 9.549491852521896362e-02
1.059711501002311707e-01 -3.521391749382019043e-01 1.044249534606933594e-01
1.059490814805030823e-01 -3.675691485404968262e-01 1.007784008979797363e-01
-8.609122782945632935e-02 -5.602860450744628906e-01 -7.603350281715393066e-01
-9.469810128211975098e-02 -5.589393377304077148e-01 -7.494629621505737305e-01
-7.913827151060104370e-02 -5.599414706230163574e-01 -7.466593980789184570e-01
-8.807413280010223389e-02 -5.585997700691223145e-01 -7.358998060226440430e-01
-1.622157543897628784e-01 7.511603645980358124e-03 5.386407487094402313e-03
-1.637045145034790039e-01 1.227459311485290527e-02 1.614960655570030212e-02
-1.622825413942337036e-01 3.876337548717856407e-03 2.104661054909229279e-02
-1.626122295856475830e-01 5.155180580914020538e-03 3.033295832574367523e-02
-1.769515722990036011e-01 -1.955590955913066864e-02 -8.027235418558120728e-02
-1.808898895978927612e-01 -7.606163620948791504e-03 -6.752256304025650024e-02
-1.731871813535690308e-01 -2.438389509916305542e-02 -6.797324120998382568e-02
-1.774855852127075195e-01 -1.237809471786022186e-02 -5.586390197277069092e-02
-1.897241473197937012e-01 2.707370221614837646e-01 -6.317944526672363281e-01
-1.940563023090362549e-01 2.614364624023437500e-01 -6.257930397987365723e-01
-1.900480985641479492e-01 2.766270935535430908e-01 -6.183153390884399414e-01
-1.938289254903793335e-01 2.674233615398406982e-01 -6.117299795150756836e-01
1.745284199714660645e-01 4.222118854522705078e-02 -6.658445000648498535e-01
1.745405495166778564e-01 2.555945143103599548e-02 -6.618466973304748535e-01
1.793379336595535278e-01 3.824825584888458252e-02 -6.489639878273010254e-01
1.791101694107055664e-01 2.234180457890033722e-02 -6.456586122512817383e-01
1.042068563401699066e-02 -1.915104687213897705e-01 8.861432224512100220e-02
3.115722443908452988e-03 -1.944592297077178955e-01 9.370476752519607544e-02
1.622693985700607300e-02 -1.881071031093597412e-01 9.922371059656143188e-02
9.148467332124710083e-03 -1.916569173336029053e-01 1.040160879492759705e-01
8.503095060586929321e-02 -2.158866226673126221e-01 -8.428254723548889160e-01
8.207362145185470581e-02 -2.313950806856155396e-01 -8.407557010650634766e-01
8.219829201698303223e-02 -2.125113755464553833e-01 -8.322299122810363770e-01
7.963304221630096436e-02 -2.266016751527786255e-01 -8.290755152702331543e-01
-9.051413089036941528e-02 -5.509983897209167480e-01 5.096976459026336670e-02
-9.833782911300659180e-02 -5.555663108825683594e-01 5.894378200173377991e-02
-8.197560906410217285e-02 -5.584737062454223633e-01 5.970440059900283813e-02
-8.983875066041946411e-02 -5.633474588394165039e-01 6.745330244302749634e-02
-9.450022876262664795e-02 3.704281449317932129e-01 -7.467287778854370117e-01
-1.029478013515472412e-01 3.678547143936157227e-01 -7.396986484527587891e-01
-8.753287792205810547e-02 3.792866468429565430e-01 -7.329999208450317383e-01
-9.688773006200790405e-02 3.753785789012908936e-01 -7.260410785675048828e-01
7.493302971124649048e-02 -4.523819684982299805e-01 -8.193070292472839355e-01
7.391607761383056641e-02 -4.656357169151306152e-01 -8.141235113143920898e-01
7.429878413677215576e-02 -4.513931274414062500e-01 -8.082893490791320801e-01
7.278096675872802734e-02 -4.637847840785980225e-01 -8.030359148979187012e-01
-1.047130152583122253e-01 -1.216022819280624390e-01 -7.476545125246047974e-02
-1.109426021575927734e-01 -1.108036562800407410e-01 -6.634524464607238770e-02
-9.859291464090347290e-02 -1.265112310647964478e-01 -6.218166276812553406e-02
-1.063243970274925232e-01 -1.135577708482742310e-01 -5.447252467274665833e-02
-5.383308604359626770e-02 -3.457760438323020935e-02 -7.750602364540100098e-01
-5.745923146605491638e-02 -4.494266957044601440e-02 -7.691879272460937500e-01
-4.937875643372535706e-02 -3.327238559722900391e-02 -7.649958729743957520e-01
-5.287317931652069092e-02 -4.375578835606575012e-02 -7.590394020080566406e-01
-1.139797568321228027e-01 -4.533855617046356201e-01 -8.569004535675048828e-01
-1.215001568198204041e-01 -4.548003077507019043e-01 -8.491894006729125977e-01
-1.078759431838989258e-01 -4.544356167316436768e-01 -8.557114601135253906e-01
-1.154062300920486450e-01 -4.558206796646118164e-01 -8.480413556098937988e-01
-6.419473886489868164e-02 3.049539923667907715e-01 -8.235512971878051758e-01
-7.989294826984405518e-02 3.070071339607238770e-01 -8.172430992126464844e-01
-5.810168385505676270e-02 3.179192841053009033e-01 -8.208767175674438477e-01
-7.288616895675659180e-02 3.183834254741668701e-01 -8.156109452247619629e-01
1.440781205892562866e-01 2.745934724807739258e-01 -7.312217354774475098e-01
1.436967849731445312e-01 2.609953582286834717e-01 -7.288074493408203125e-01
1.511627286672592163e-01 2.720013260841369629e-01 -7.201150059700012207e-01
1.506250053644180298e-01 2.589358389377593994e-01 -7.172353267669677734e-01
-9.071468561887741089e-02 -6.334374099969863892e-02 -8.039243817329406738e-01
-9.001805633306503296e-02 -7.708356529474258423e-02 -8.096392154693603516e-01
-8.402365446090698242e-02 -6.117725744843482971e-02 -7.954323291778564453e-01
-8.276502043008804321e-02 -7.417879253625869751e-02 -8.011989593505859375e-01
1.878482699394226074e-01 4.588834941387176514e-02 -6.058618426322937012e-01
1.862074583768844604e-01 3.338446095585823059e-02 -6.022163033485412598e-01
1.930285990238189697e-01 4.837664961814880371e-02 -5.918662548065185547e-01
1.908122897148132324e-01 3.647257760167121887e-02 -5.879499912261962891e-01
1.033512055873870850e-01 -2.462603896856307983e-01 -8.482965230941772461e-01
1.006565168499946594e-01 -2.603611946105957031e-01 -8.486433625221252441e-01
1.125408411026000977e-01 -2.458767294883728027e-01 -8.369907140731811523e-01
1.097396835684776306e-01 -2.596124112606048584e-01 -8.382455110549926758e-01
1.614127159118652344e-01 6.562276743352413177e-03 -5.288938879966735840e-01
1.555604189634323120e-01 2.660059835761785507e-04 -5.236601829528808594e-01
1.627821326255798340e-01 1.462805084884166718e-02 -5.135174393653869629e-01
1.571979671716690063e-01 7.819360122084617615e-03 -5.083721280097961426e-01
-4.712389037013053894e-02 -1.647976040840148926e-01 1.909374818205833435e-02
-5.800657719373703003e-02 -1.582138538360595703e-01 2.752083539962768555e-02
-3.693223744630813599e-02 -1.697927862405776978e-01 2.726847678422927856e-02
-4.796572029590606689e-02 -1.636454164981842041e-01 3.558716550469398499e-02
-1.896362304687500000e-01 5.611295998096466064e-02 -7.022054195404052734e-01
-1.897944360971450806e-01 4.483184590935707092e-02 -6.966760754585266113e-01
-1.961431950330734253e-01 5.713028833270072937e-02 -6.847103834152221680e-01
-1.960666775703430176e-01 4.623600840568542480e-02 -6.790848374366760254e-01
7.433693856000900269e-03 -1.855804622173309326e-01 -3.637294173240661621e-01
2.111606299877166748e-04 -1.887044459581375122e-01 -3.553881347179412842e-01
1.103404629975557327e-02 -1.852198839187622070e-01 -3.519249856472015381e-01
4.282972775399684906e-03 -1.896227300167083740e-01 -3.439422845840454102e-01
1.109805479645729065e-01 -1.721027791500091553e-01 1.922298818826675415e-01
1.045794785022735596e-01 -1.763422191143035889e-01 1.968167275190353394e-01
1.116938069462776184e-01 -1.604308485984802246e-01 1.989343613386154175e-01
1.041709929704666138e-01 -1.628064364194869995e-01 2.031613439321517944e-01
5.633543245494365692e-03 -1.851597130298614502e-01 -2.554565072059631348e-01
-3.081911709159612656e-03 -1.886036545038223267e-01 -2.487278431653976440e-01
1.379317231476306915e-02 -1.807714551687240601e-01 -2.462773919105529785e-01
4.718815442174673080e-03 -1.839517205953598022e-01 -2.403605729341506958e-01
1.530621796846389771e-01 -4.166290909051895142e-02 5.659612640738487244e-02
1.524137705564498901e-01 -5.447759479284286499e-02 6.140402704477310181e-02
1.576181352138519287e-01 -3.956723958253860474e-02 7.080671936273574829e-02
1.571955084800720215e-01 -5.271701142191886902e-02 7.590480148792266846e-02
9.756107628345489502e-02 -3.121266365051269531e-01 5.641204863786697388e-02
9.643970429897308350e-02 -3.293080627918243408e-01 5.367555469274520874e-02
1.038900837302207947e-01 -3.091191947460174561e-01 6.975241005420684814e-02
1.032456457614898682e-01 -3.266156315803527832e-01 6.721612811088562012e-02
1.196655854582786560e-01 -2.461441159248352051e-01 1.100433990359306335e-01
1.183442845940589905e-01 -2.618033289909362793e-01 1.108898892998695374e-01
1.171484291553497314e-01 -2.419934123754501343e-01 1.211649850010871887e-01
1.157286018133163452e-01 -2.570017278194427490e-01 1.226645782589912415e-01
-8.330729790031909943e-03 -2.713076211512088776e-02 3.602863252162933350e-01
-2.082129381597042084e-02 -1.674537174403667450e-02 3.658273220062255859e-01
-1.987912692129611969e-04 -1.221347227692604065e-02 3.647824227809906006e-01
-1.270440407097339630e-02 -4.992038942873477936e-03 3.708380162715911865e-01
2.028689086437225342e-01 1.433912813663482666e-01 -5.908553600311279297e-01
2.041944265365600586e-01 1.303967833518981934e-01 -5.893513560295104980e-01
2.023811787366867065e-01 1.433358788490295410e-01 -5.754548311233520508e-01
2.045100033283233643e-01 1.305154860019683838e-01 -5.740581154823303223e-01
8.037385344505310059e-02 -3.289421796798706055e-01 -8.182548880577087402e-01
8.052071928977966309e-02 -3.424278497695922852e-01 -8.156918883323669434e-01
7.639589160680770874e-02 -3.288279771804809570e-01 -8.060359358787536621e-01
7.795597612857818604e-02 -3.426625728607177734e-01 -8.036445379257202148e-01
7.128690183162689209e-02 -5.434721112251281738e-01 5.947840213775634766e-02
6.387208402156829834e-02 -5.449218153953552246e-01 6.690417975187301636e-02
8.078289031982421875e-02 -5.515522956848144531e-01 6.669048964977264404e-02
7.180896401405334473e-02 -5.514096021652221680e-01 7.431422173976898193e-02
-7.675336301326751709e-02 -3.696375489234924316e-01 -8.518093824386596680e-01
-7.824086397886276245e-02 -3.864903151988983154e-01 -8.535903096199035645e-01
-6.929505616426467896e-02 -3.736900985240936279e-01 -8.427501320838928223e-01
-7.016577571630477905e-02 -3.908501863479614258e-01 -8.445256948471069336e-01
-9.433343261480331421e-02 -4.981517419219017029e-02 -5.933449268341064453e-01
-1.067819967865943909e-01 -4.424257203936576843e-02 -5.801864862442016602e-01
-8.695434778928756714e-02 -4.783592745661735535e-02 -5.839510560035705566e-01
-9.919634461402893066e-02 -4.263110458850860596e-02 -5.711750984191894531e-01
2.744185924530029297e-02 2.093497216701507568e-01 -8.374009728431701660e-01
2.415899187326431274e-02 1.935561895370483398e-01 -8.379524350166320801e-01
4.096843674778938293e-02 2.032762616872787476e-01 -8.350694775581359863e-01
3.765619173645973206e-02 1.878838390111923218e-01 -8.362755775451660156e-01
9.458175301551818848e-02 -1.263204514980316162e-01 -2.628372311592102051e-01
8.359108865261077881e-02 -1.368261426687240601e-01 -2.549935281276702881e-01
1.019119322299957275e-01 -1.204146668314933777e-01 -2.477305233478546143e-01
9.100567549467086792e-02 -1.308528184890747070e-01 -2.395891696214675903e-01
-4.191600158810615540e-02 6.549977511167526245e-02 5.572254061698913574e-01
-5.282234027981758118e-02 7.072643190622329712e-02 5.674645304679870605e-01
-3.031272441148757935e-02 5.782542750239372253e-02 5.672154426574707031e-01
-4.251208901405334473e-02 6.329724937677383423e-02 5.766450762748718262e-01
1.756509095430374146e-01 1.348105520009994507e-01 -6.872277855873107910e-01
1.751238405704498291e-01 1.231654882431030273e-01 -6.888343095779418945e-01
1.785110086202621460e-01 1.400679051876068115e-01 -6.765120029449462891e-01
1.779130995273590088e-01 1.280662417411804199e-01 -6.782952547073364258e-01
1.127951219677925110e-01 -3.498332500457763672e-01 -7.591599822044372559e-01
1.134280189871788025e-01 -3.685447871685028076e-01 -7.552700042724609375e-01
1.137508079409599304e-01 -3.474712669849395752e-01 -7.483550310134887695e-01
1.145320460200309753e-01 -3.661566078662872314e-01 -7.449134588241577148e-01
-7.617159187793731689e-02 -1.273991316556930542e-01 -3.626247644424438477e-01
-8.417222648859024048e-02 -1.246473416686058044e-01 -3.503739237785339355e-01
-7.092782855033874512e-02 -1.324119567871093750e-01 -3.541454076766967773e-01
-7.869671285152435303e-02 -1.291813552379608154e-01 -3.425877392292022705e-01
8.598839491605758667e-02 1.882219463586807251e-01 6.830179691314697266e-01
8.019056171178817749e-02 1.908174008131027222e-01 6.917383074760437012e-01
8.455634117126464844e-02 1.792116165161132812e-01 6.963886022567749023e-01
7.700720429420471191e-02 1.841856986284255981e-01 7.063355445861816406e-01
1.269748806953430176e-01 -2.113342285156250000e-01 1.223489195108413696e-01
1.234952360391616821e-01 -2.222873717546463013e-01 1.274919658899307251e-01
1.285006254911422729e-01 -2.022708207368850708e-01 1.349309682846069336e-01
1.245536580681800842e-01 -2.129740118980407715e-01 1.411234885454177856e-01
-2.020656615495681763e-01 2.394032925367355347e-01 -3.281403481960296631e-01
-2.056882232427597046e-01 2.281543612480163574e-01 -3.249433338642120361e-01
-1.980338394641876221e-01 2.517772912979125977e-01 -3.135546743869781494e-01
-2.020455151796340942e-01 2.399126589298248291e-01 -3.118422031402587891e-01
1.600607186555862427e-01 2.672784030437469482e-02 6.738846004009246826e-02
1.581919938325881958e-01 1.577936299145221710e-02 7.672445476055145264e-02
1.627973616123199463e-01 2.969436347484588623e-02 8.218353241682052612e-02
1.609699428081512451e-01 1.767113432288169861e-02 9.138061851263046265e-02
1.133436411619186401e-01 -3.622359782457351685e-02 -5.498554110527038574e-01
1.023607552051544189e-01 -4.054545983672142029e-02 -5.443509221076965332e-01
1.237793713808059692e-01 -3.125060349702835083e-02 -5.385696291923522949e-01
1.128292158246040344e-01 -3.476576134562492371e-02 -5.334011316299438477e-01
-4.941468313336372375e-02 3.794235587120056152e-01 3.535399138927459717e-01
-5.548534914851188660e-02 3.730399608612060547e-01 3.650861382484436035e-01
-3.786893561482429504e-02 3.802849948406219482e-01 3.631713092327117920e-01
-4.497322440147399902e-02 3.751261234283447266e-01 3.737868666648864746e-01
2.475484833121299744e-02 7.078111637383699417e-03 7.215543985366821289e-01
1.415372453629970551e-02 7.758388295769691467e-03 7.305532097816467285e-01
3.218536823987960815e-02 1.945663127116858959e-03 7.325084805488586426e-01
2.163284830749034882e-02 2.798330038785934448e-03 7.409135699272155762e-01
2.039457410573959351e-01 8.112192153930664062e-02 -1.986262202262878418e-01
2.029315680265426636e-01 6.984879821538925171e-02 -1.970297396183013916e-01
2.053167372941970825e-01 8.750797808170318604e-02 -1.832827627658843994e-01
2.050678133964538574e-01 7.507588714361190796e-02 -1.827935129404067993e-01
-7.571788132190704346e-02 1.137104332447052002e-01 4.319350123405456543e-01
-6.841986626386642456e-02 8.957182615995407104e-02 4.304367303848266602e-01
-6.924661993980407715e-02 1.193592622876167297e-01 4.451817572116851807e-01
-6.217551976442337036e-02 9.502138197422027588e-02 4.434458613395690918e-01
-2.888769656419754028e-02 3.913030326366424561e-01 -7.939019799232482910e-01
-4.423700273036956787e-02 3.885685801506042480e-01 -7.898253202438354492e-01
-2.311304025352001190e-02 4.003371596336364746e-01 -7.837914228439331055e-01
-3.733068332076072693e-02 3.996632993221282959e-01 -7.789731621742248535e-01
-5.497584119439125061e-02 -4.522408545017242432e-01 -7.777950167655944824e-01
-6.162268668413162231e-02 -4.516571462154388428e-01 -7.700446844100952148e-01
-5.431692674756050110e-02 -4.634455144405364990e-01 -7.705698013305664062e-01
-6.159029155969619751e-02 -4.615766108036041260e-01 -7.630091309547424316e-01
-2.433523349463939667e-02 5.754250288009643555e-02 6.362941861152648926e-01
-3.304119408130645752e-02 5.891586467623710632e-02 6.537541747093200684e-01
-1.869861967861652374e-02 5.622024461627006531e-02 6.522328853607177734e-01
-2.733528986573219299e-02 5.710625275969505310e-02 6.690621972084045410e-01
-1.716697812080383301e-01 -1.956874318420886993e-02 -4.172622263431549072e-01
-1.803418695926666260e-01 -1.282171066850423813e-02 -4.071378111839294434e-01
-1.730496585369110107e-01 -2.539919130504131317e-02 -4.057668149471282959e-01
-1.813579797744750977e-01 -1.934943161904811859e-02 -3.954599201679229736e-01
7.632564008235931396e-02 -5.301462411880493164e-01 -8.065160512924194336e-01
6.937049329280853271e-02 -5.336515903472900391e-01 -7.970597147941589355e-01
8.566336333751678467e-02 -5.405887365341186523e-01 -7.964006066322326660e-01
7.737708836793899536e-02 -5.424038171768188477e-01 -7.865303754806518555e-01
1.503548026084899902e-01 -2.898624539375305176e-02 -3.802319467067718506e-01
1.459334790706634521e-01 -3.687172383069992065e-02 -3.748110532760620117e-01
1.554160416126251221e-01 -2.406940981745719910e-02 -3.639187216758728027e-01
1.506740152835845947e-01 -3.238059207797050476e-02 -3.599371314048767090e-01
1.528955101966857910e-01 -2.171971648931503296e-02 -4.667885601520538330e-02
1.443632096052169800e-01 -3.147107362747192383e-02 -4.000545665621757507e-02
1.560581922531127930e-01 -1.206515822559595108e-02 -3.547202050685882568e-02
1.490535587072372437e-01 -2.127232030034065247e-02 -2.762124128639698029e-02
-1.784693598747253418e-01 1.428077518939971924e-01 1.674377918243408203e-01
-1.807523816823959351e-01 1.312169134616851807e-01 1.788745373487472534e-01
-1.760008782148361206e-01 1.451694369316101074e-01 1.791804134845733643e-01
-1.780755966901779175e-01 1.336051225662231445e-01 1.908378154039382935e-01
4.272921755909919739e-02 -5.115396976470947266e-01 8.697034418582916260e-02
3.505603596568107605e-02 -5.154141187667846680e-01 9.403488785028457642e-02
4.899142310023307800e-02 -5.206905603408813477e-01 9.472426027059555054e-02
4.038583859801292419e-02 -5.237506031990051270e-01 1.018728017807006836e-01
5.918070673942565918e-02 -1.473086625337600708e-01 -1.664700657129287720e-01
4.843051731586456299e-02 -1.514495462179183960e-01 -1.588597595691680908e-01
6.573880463838577271e-02 -1.416965872049331665e-01 -1.522012501955032349e-01
5.490759760141372681e-02 -1.468087285757064819e-01 -1.444294303655624390e-01
-1.513922661542892456e-01 -5.069789290428161621e-02 -7.698814272880554199e-01
-1.544857472181320190e-01 -6.069002300500869751e-02 -7.648188471794128418e-01
-1.567544192075729370e-01 -4.581249132752418518e-02 -7.585509419441223145e-01
-1.596681028604507446e-01 -5.624032765626907349e-02 -7.536216378211975098e-01
-1.081584244966506958e-01 1.556813865900039673e-01 3.848338723182678223e-01
-1.065064519643783569e-01 1.427492797374725342e-01 3.874651789665222168e-01
-1.035461574792861938e-01 1.551256179809570312e-01 3.957127332687377930e-01
-1.009268611669540405e-01 1.431158185005187988e-01 3.999657928943634033e-01
-9.949830174446105957e-02 -1.430939137935638428e-01 -2.695099711418151855e-01
-1.058461964130401611e-01 -1.376768350601196289e-01 -2.581984698772430420e-01
-9.249138832092285156e-02 -1.482860893011093140e-01 -2.561461031436920166e-01
-9.998484700918197632e-02 -1.421186923980712891e-01 -2.456851750612258911e-01
-8.148856461048126221e-02 -4.843631386756896973e-01 -8.562966585159301758e-01
-8.951234072446823120e-02 -4.920634031295776367e-01 -8.517471551895141602e-01
-7.000409066677093506e-02 -4.918874204158782959e-01 -8.507106304168701172e-01
-7.771734893321990967e-02 -5.005744099617004395e-01 -8.467233180999755859e-01
-1.434399932622909546e-01 -2.236854135990142822e-01 1.287448406219482422e-01
-1.405730247497558594e-01 -2.328548133373260498e-01 1.275128126144409180e-01
-1.344758868217468262e-01 -2.276098728179931641e-01 1.381538361310958862e-01
-1.351765096187591553e-01 -2.315274178981781006e-01 1.363857090473175049e-01
-1.199280098080635071e-01 7.916062325239181519e-02 3.402435779571533203e-01
-1.257487386465072632e-01 7.577273249626159668e-02 3.331984877586364746e-01
-1.066617518663406372e-01 8.214674144983291626e-02 3.527725040912628174e-01
-1.116103306412696838e-01 7.628716528415679932e-02 3.449930846691131592e-01
-6.587236374616622925e-02 -1.985970586538314819e-01 1.510645449161529541e-01
-7.605663686990737915e-02 -1.873181909322738647e-01 1.566886007785797119e-01
-6.227537244558334351e-02 -1.920998394489288330e-01 1.557391583919525146e-01
-7.155298441648483276e-02 -1.810035556554794312e-01 1.612436324357986450e-01
1.445145457983016968e-01 1.436535418033599854e-01 -7.520051002502441406e-01
1.442917585372924805e-01 1.313031017780303955e-01 -7.514835596084594727e-01
1.510052680969238281e-01 1.398523896932601929e-01 -7.399727702140808105e-01
1.507960855960845947e-01 1.290370821952819824e-01 -7.395061850547790527e-01
-4.287265613675117493e-02 -5.315761268138885498e-02 -6.711471676826477051e-01
-5.284923315048217773e-02 -5.797561630606651306e-02 -6.680659055709838867e-01
-3.348218649625778198e-02 -4.790520295500755310e-02 -6.640039682388305664e-01
-4.366424679756164551e-02 -5.214982852339744568e-02 -6.610411405563354492e-01
-4.147582501173019409e-02 -1.630376130342483521e-01 -1.251853555440902710e-01
-5.092815309762954712e-02 -1.596316397190093994e-01 -1.194127500057220459e-01
-2.881834283471107483e-02 -1.653188318014144897e-01 -1.137156188488006592e-01
-4.033208265900611877e-02 -1.625848561525344849e-01 -1.098528131842613220e-01
-1.988840401172637939e-01 -1.832138374447822571e-02 -1.641059815883636475e-01
-2.009432315826416016e-01 -1.149930339306592941e-02 -1.518347412347793579e-01
-1.968325525522232056e-01 -1.867305673658847809e-02 -1.445894539356231689e-01
-1.996427476406097412e-01 -1.087463460862636566e-02 -1.323057562112808228e-01
4.164132103323936462e-02 1.584526896476745605e-01 7.855268120765686035e-01
3.282276168465614319e-02 1.444833427667617798e-01 7.909665107727050781e-01
5.579918250441551208e-02 1.521216481924057007e-01 7.911534905433654785e-01
4.727642238140106201e-02 1.413401067256927490e-01 7.975389957427978516e-01
-1.775020509958267212e-01 2.879586815834045410e-01 5.730137825012207031e-01
-1.820964515209197998e-01 2.689598500728607178e-01 5.763578414916992188e-01
-1.619477123022079468e-01 2.858999073505401611e-01 5.756157636642456055e-01
