4.345831573009490967e-01 -1.167286336421966553e-01 -5.010473728179931641e-01
4.277121424674987793e-01 -1.228534430265426636e-01 -4.901456534862518311e-01
4.382899999618530273e-01 -1.116281524300575256e-01 -4.868370294570922852e-01
4.315875172615051270e-01 -1.178497299551963806e-01 -4.762282967567443848e-01
-2.709874510765075684e-01 -1.431756615638732910e-01 6.641252636909484863e-01
-2.789114713668823242e-01 -1.485577225685119629e-01 6.771283149719238281e-01
-2.642042934894561768e-01 -1.425564438104629517e-01 6.785879731178283691e-01
-2.729361951351165771e-01 -1.494127959012985229e-01 6.910641193389892578e-01
-1.550101637840270996e-01 6.819705665111541748e-02 -3.355682790279388428e-01
-1.574873626232147217e-01 5.616002529859542847e-02 -3.379326462745666504e-01
-1.426684111356735229e-01 7.234403491020202637e-02 -3.265203535556793213e-01
-1.450581401586532593e-01 5.727109685540199280e-02 -3.290181457996368408e-01
4.415070265531539917e-02 -1.500526964664459229e-01 8.949513435363769531e-01
3.044964745640754700e-02 -1.445191800594329834e-01 9.043725132942199707e-01
4.952751100063323975e-02 -1.440552324056625366e-01 9.100794196128845215e-01
3.572418168187141418e-02 -1.378382295370101929e-01 9.195397496223449707e-01
1.223802417516708374e-01 -9.411895275115966797e-02 7.305322885513305664e-01
1.152549088001251221e-01 -1.045129895210266113e-01 7.438641786575317383e-01
1.332557201385498047e-01 -1.136440113186836243e-01 7.390098571777343750e-01
1.272561103105545044e-01 -1.219306960701942444e-01 7.513663172721862793e-01
9.007105976343154907e-02 -1.418677866458892822e-01 -8.057236671447753906e-01
7.502150535583496094e-02 -1.343767046928405762e-01 -7.949749827384948730e-01
1.024755015969276428e-01 -1.407831311225891113e-01 -7.899817228317260742e-01
8.645728230476379395e-02 -1.316794753074645996e-01 -7.806040048599243164e-01
3.675575554370880127e-01 -6.531509011983871460e-02 8.100171089172363281e-01
3.583380579948425293e-01 -7.095958292484283447e-02 8.164092302322387695e-01
3.657774925231933594e-01 -4.899270832538604736e-02 8.220289349555969238e-01
3.574047088623046875e-01 -5.474507808685302734e-02 8.289210200309753418e-01
1.667318791151046753e-01 1.460141390562057495e-01 -7.788280248641967773e-01
1.571135818958282471e-01 1.375115811824798584e-01 -7.689818739891052246e-01
1.817776113748550415e-01 1.445055752992630005e-01 -7.622752785682678223e-01
1.722367256879806519e-01 1.378982961177825928e-01 -7.526390552520751953e-01
-3.618080019950866699e-01 -8.442161232233047485e-02 2.081246227025985718e-01
-3.693004548549652100e-01 -8.748664706945419312e-02 2.292550802230834961e-01
-3.560872077941894531e-01 -1.009819880127906799e-01 2.254708409309387207e-01
-3.637806475162506104e-01 -1.039588227868080139e-01 2.466915845870971680e-01
3.921433687210083008e-01 1.937973871827125549e-02 2.201903015375137329e-01
3.953490555286407471e-01 1.030139252543449402e-02 2.193237841129302979e-01
3.971534967422485352e-01 2.224659733474254608e-02 2.349333614110946655e-01
4.014391899108886719e-01 8.282855153083801270e-03 2.344650030136108398e-01
2.864009737968444824e-01 -1.509925164282321930e-02 9.007360339164733887e-01
2.695710659027099609e-01 -1.504116412252187729e-02 9.122549295425415039e-01
2.939648032188415527e-01 6.850986974313855171e-04 9.006193876266479492e-01
2.773585319519042969e-01 -1.833852147683501244e-04 9.135570526123046875e-01
-3.624166250228881836e-01 1.191948801279067993e-01 -7.581439018249511719e-01
-3.761116564273834229e-01 1.138818934559822083e-01 -7.486743927001953125e-01
-3.521999120712280273e-01 1.313020139932632446e-01 -7.457678914070129395e-01
-3.656659722328186035e-01 1.268888711929321289e-01 -7.371461391448974609e-01
-2.002587318420410156e-01 2.832368202507495880e-02 6.197761893272399902e-01
-1.985680460929870605e-01 1.869317330420017242e-02 6.189569234848022461e-01
-1.906161904335021973e-01 3.207100927829742432e-02 6.369529366493225098e-01
-1.898967474699020386e-01 2.319268509745597839e-02 6.347076892852783203e-01
1.657365560531616211e-01 -9.076442569494247437e-03 -3.639967739582061768e-01
1.575732529163360596e-01 -1.360858697444200516e-02 -3.560947477817535400e-01
1.655142158269882202e-01 -1.782533153891563416e-02 -3.576847910881042480e-01
1.574352979660034180e-01 -2.282798662781715393e-02 -3.491028249263763428e-01
2.442727386951446533e-01 1.563656330108642578e-01 7.653116583824157715e-01
2.323484867811203003e-01 1.565577983856201172e-01 7.737858295440673828e-01
2.551849186420440674e-01 1.546556502580642700e-01 7.748354077339172363e-01
2.440131604671478271e-01 1.546124964952468872e-01 7.836076617240905762e-01
-3.961888253688812256e-01 -8.440059423446655273e-02 2.796383202075958252e-01
-4.043554961681365967e-01 -8.366221934556961060e-02 2.938309907913208008e-01
-3.935857415199279785e-01 -9.447827935218811035e-02 2.944341897964477539e-01
-4.013064503669738770e-01 -9.534975141286849976e-02 3.089995384216308594e-01
-1.963091343641281128e-01 -3.480727970600128174e-02 3.894338607788085938e-01
-2.015585154294967651e-01 -4.505017772316932678e-02 3.930616080760955811e-01
-1.995638757944107056e-01 -2.569778449833393097e-02 4.004001915454864502e-01
-2.042791098356246948e-01 -3.626460954546928406e-02 4.041741788387298584e-01
3.623761832714080811e-01 6.875004619359970093e-02 -8.051826953887939453e-01
3.515582084655761719e-01 7.784533500671386719e-02 -8.107131123542785645e-01
3.728670477867126465e-01 7.445202767848968506e-02 -7.904119491577148438e-01
3.625099956989288330e-01 8.660715818405151367e-02 -7.951449155807495117e-01
3.468410968780517578e-01 -3.180277533829212189e-03 -8.562968373298645020e-01
3.430590927600860596e-01 -1.811638101935386658e-02 -8.581815958023071289e-01
3.625827729701995850e-01 -9.531721472740173340e-03 -8.387632966041564941e-01
3.581810593605041504e-01 -2.288996428251266479e-02 -8.418794274330139160e-01
-3.065954148769378662e-01 -2.435230091214179993e-02 -8.875589370727539062e-01
-3.251529932022094727e-01 -2.049674466252326965e-02 -8.728008866310119629e-01
-3.132514357566833496e-01 -1.920959912240505219e-02 -8.785856366157531738e-01
-3.317379355430603027e-01 -1.522915251553058624e-02 -8.638294339179992676e-01
-4.692771732807159424e-01 3.599185124039649963e-02 -6.183269023895263672e-01
-4.722788333892822266e-01 2.887052297592163086e-02 -6.131180524826049805e-01
-4.709442853927612305e-01 4.178294539451599121e-02 -6.039528846740722656e-01
-4.737637341022491455e-01 3.403564542531967163e-02 -5.986754298210144043e-01
4.635562300682067871e-01 2.751812525093555450e-02 6.504546999931335449e-01
4.615665376186370850e-01 1.653530262410640717e-02 6.574212312698364258e-01
4.575054049491882324e-01 2.842898480594158173e-02 6.688868999481201172e-01
4.573710858821868896e-01 1.697045937180519104e-02 6.754917502403259277e-01
4.049744904041290283e-01 1.359306871891021729e-01 -5.104883909225463867e-01
3.972316384315490723e-01 1.389551013708114624e-01 -4.989067316055297852e-01
4.119385480880737305e-01 1.291356235742568970e-01 -4.976475536823272705e-01
4.040598273277282715e-01 1.328797042369842529e-01 -4.855309426784515381e-01
1.918670535087585449e-01 3.916207700967788696e-02 3.854469358921051025e-01
1.890086233615875244e-01 1.937770843505859375e-02 3.842788040637969971e-01
2.012356370687484741e-01 4.528314247727394104e-02 3.945035636425018311e-01
1.984592825174331665e-01 2.721175923943519592e-02 3.929409682750701904e-01
1.443713754415512085e-01 -1.864010095596313477e-01 1.104538887739181519e-01
1.276658922433853149e-01 -1.876422166824340820e-01 1.146120578050613403e-01
1.527837812900543213e-01 -1.858354210853576660e-01 1.250420063734054565e-01
1.376853436231613159e-01 -1.856996268033981323e-01 1.296732276678085327e-01
3.564167916774749756e-01 -1.083502322435379028e-01 -2.404391020536422729e-01
3.424228131771087646e-01 -1.146121621131896973e-01 -2.315586060285568237e-01
3.623232841491699219e-01 -1.030881181359291077e-01 -2.251521795988082886e-01
3.501602411270141602e-01 -1.097703427076339722e-01 -2.162689119577407837e-01
2.470755726099014282e-01 1.190717145800590515e-01 -8.720693588256835938e-01
2.370235174894332886e-01 1.277257949113845825e-01 -8.667109012603759766e-01
2.522595524787902832e-01 1.279745101928710938e-01 -8.558173179626464844e-01
2.415449917316436768e-01 1.361932903528213501e-01 -8.498827815055847168e-01
-3.117083907127380371e-01 2.949105203151702881e-02 8.799583315849304199e-01
-3.158690333366394043e-01 1.004931889474391937e-02 8.785290122032165527e-01
-2.967861890792846680e-01 3.105371817946434021e-02 8.900561332702636719e-01
-3.013933002948760986e-01 1.156844571232795715e-02 8.894992470741271973e-01
-1.681501269340515137e-01 1.935350522398948669e-02 -3.584120869636535645e-01
-1.710311472415924072e-01 5.555571988224983215e-03 -3.604796826839447021e-01
-1.580682396888732910e-01 2.171597443521022797e-02 -3.510062694549560547e-01
-1.609911769628524780e-01 6.275884341448545456e-03 -3.537868559360504150e-01
2.057086080312728882e-01 1.675104498863220215e-01 5.111009348183870316e-03
1.985093057155609131e-01 1.688314527273178101e-01 1.717768795788288116e-02
2.193143516778945923e-01 1.600962132215499878e-01 1.825923845171928406e-02
2.121792435646057129e-01 1.616315394639968872e-01 3.035501576960086823e-02
3.496743440628051758e-01 1.534067541360855103e-01 -5.967270731925964355e-01
3.387340605258941650e-01 1.572388857603073120e-01 -5.856537818908691406e-01
3.593642115592956543e-01 1.500935107469558716e-01 -5.822628140449523926e-01
3.489641845226287842e-01 1.531718224287033081e-01 -5.722833275794982910e-01
2.696376144886016846e-01 1.154865995049476624e-01 -4.813068211078643799e-01
2.631140351295471191e-01 1.125604882836341858e-01 -4.683218002319335938e-01
2.714322209358215332e-01 1.226645410060882568e-01 -4.628964662551879883e-01
2.648668289184570312e-01 1.200526878237724304e-01 -4.503703415393829346e-01
-1.193257123231887817e-01 1.715432852506637573e-02 -9.844602942466735840e-01
-1.291701942682266235e-01 5.775257013738155365e-03 -9.799935221672058105e-01
-1.027270630002021790e-01 1.243275683373212814e-02 -9.878330230712890625e-01
-1.128173321485519409e-01 8.229180239140987396e-04 -9.830058813095092773e-01
-1.476721651852130890e-02 -2.069100439548492432e-01 -1.625983230769634247e-02
-2.820324897766113281e-02 -2.062724083662033081e-01 -3.774260170757770538e-03
-1.209611073136329651e-04 -2.084009200334548950e-01 -2.307869493961334229e-03
-1.328418683260679245e-02 -2.067987471818923950e-01 9.994214400649070740e-03
1.767027378082275391e-02 -6.695673614740371704e-02 9.836453199386596680e-01
-1.157370395958423615e-03 -6.149059906601905823e-02 9.851245284080505371e-01
3.691723942756652832e-02 -5.405384302139282227e-02 9.880727529525756836e-01
1.798030361533164978e-02 -5.014337226748466492e-02 9.899275302886962891e-01
1.953988671302795410e-01 -8.250540494918823242e-02 -6.709230542182922363e-01
1.858659684658050537e-01 -6.783360987901687622e-02 -6.671482920646667480e-01
2.007156163454055786e-01 -7.712700217962265015e-02 -6.525520086288452148e-01
1.953924894332885742e-01 -6.941850483417510986e-02 -6.487562656402587891e-01
-2.358719259500503540e-01 7.978748530149459839e-02 -5.834228992462158203e-01
-2.427137941122055054e-01 8.553031831979751587e-02 -5.738899111747741699e-01
-2.362826019525527954e-01 7.577398419380187988e-02 -5.700011253356933594e-01
-2.424453794956207275e-01 8.163993805646896362e-02 -5.606349706649780273e-01
2.821642756462097168e-01 -1.319611072540283203e-01 4.301539659500122070e-01
2.720609307289123535e-01 -1.278406381607055664e-01 4.374179542064666748e-01
2.907633185386657715e-01 -1.359944939613342285e-01 4.479202628135681152e-01
2.802897393703460693e-01 -1.321844011545181274e-01 4.539511501789093018e-01
1.294771879911422729e-01 1.137120351195335388e-01 -2.780663669109344482e-01
1.179310604929924011e-01 1.130153685808181763e-01 -2.721600532531738281e-01
1.373286396265029907e-01 1.272753328084945679e-01 -2.620892524719238281e-01
1.259255558252334595e-01 1.278095990419387817e-01 -2.544252872467041016e-01
2.540790438652038574e-01 1.453166007995605469e-01 7.032238841056823730e-01
2.433677166700363159e-01 1.458004862070083618e-01 7.157440781593322754e-01
2.643979191780090332e-01 1.490078717470169067e-01 7.149313092231750488e-01
2.535303235054016113e-01 1.496895849704742432e-01 7.279130816459655762e-01
-3.172562718391418457e-01 1.415113657712936401e-01 2.657469213008880615e-01
-3.266794681549072266e-01 1.405426710844039917e-01 2.773563563823699951e-01
-3.081406056880950928e-01 1.488655954599380493e-01 2.776129841804504395e-01
-3.172377645969390869e-01 1.480893492698669434e-01 2.891825139522552490e-01
-8.878160268068313599e-02 -1.472006291151046753e-01 -8.956648707389831543e-01
-1.033748164772987366e-01 -1.479443162679672241e-01 -8.857005834579467773e-01
-7.706125080585479736e-02 -1.504715979099273682e-01 -8.783527016639709473e-01
-9.183175861835479736e-02 -1.516460329294204712e-01 -8.691697120666503906e-01
1.831578463315963745e-01 1.327983140945434570e-01 8.874065279960632324e-01
1.741519719362258911e-01 1.299485713243484497e-01 8.973147869110107422e-01
1.954187750816345215e-01 1.224061772227287292e-01 8.959354758262634277e-01
1.868995130062103271e-01 1.188051477074623108e-01 9.059291481971740723e-01
4.133901298046112061e-01 -4.974419623613357544e-02 2.726879715919494629e-01
4.055283367633819580e-01 -6.062655150890350342e-02 2.750590741634368896e-01
4.164616167545318604e-01 -4.850590601563453674e-02 2.878585159778594971e-01
4.113473892211914062e-01 -5.985897779464721680e-02 2.911170721054077148e-01
3.972291648387908936e-01 1.440425813198089600e-01 5.890130996704101562e-01
3.842602372169494629e-01 1.456012725830078125e-01 6.011403799057006836e-01
4.085575342178344727e-01 1.353801190853118896e-01 6.049886345863342285e-01
3.953999280929565430e-01 1.369251310825347900e-01 6.166303753852844238e-01
-2.284011393785476685e-01 9.474061429500579834e-02 -6.373999118804931641e-01
-2.393199354410171509e-01 1.010340973734855652e-01 -6.265966296195983887e-01
-2.208124250173568726e-01 8.528535068035125732e-02 -6.234326958656311035e-01
-2.309317588806152344e-01 9.158042073249816895e-02 -6.131105422973632812e-01
-1.447616368532180786e-01 8.957011997699737549e-02 7.151243686676025391e-01
-1.472247093915939331e-01 8.002292364835739136e-02 7.105206847190856934e-01
-1.244412958621978760e-01 8.407420665025711060e-02 7.234722971916198730e-01
-1.321768462657928467e-01 8.177051693201065063e-02 7.220396399497985840e-01
-3.525252938270568848e-01 -3.572773188352584839e-02 1.109965890645980835e-01
-3.611843585968017578e-01 -2.763986028730869293e-02 1.259455233812332153e-01
-3.539717495441436768e-01 -4.459802061319351196e-02 1.260733753442764282e-01
-3.631899654865264893e-01 -3.714640811085700989e-02 1.416869610548019409e-01
1.225769817829132080e-01 2.475434914231300354e-02 6.980614066123962402e-01
1.136406362056732178e-01 1.314782164990901947e-02 7.057232260704040527e-01
1.200750842690467834e-01 3.395407646894454956e-02 7.013887763023376465e-01
1.111425086855888367e-01 2.502004615962505341e-02 7.085643410682678223e-01
2.106771171092987061e-01 3.010815195739269257e-02 9.451858997344970703e-01
1.981225013732910156e-01 2.166312560439109802e-02 9.507863521575927734e-01
2.271021902561187744e-01 1.717973314225673676e-02 9.413498640060424805e-01
2.137949466705322266e-01 9.063187986612319946e-03 9.469425678253173828e-01
-7.319175638258457184e-03 2.058667391538619995e-01 -6.160904653370380402e-03
-1.498413737863302231e-02 2.053590863943099976e-01 5.496289115399122238e-03
2.846938092261552811e-03 2.069082409143447876e-01 1.339491177350282669e-02
-5.928255151957273483e-03 2.053308784961700439e-01 2.427507005631923676e-02
4.751629233360290527e-01 2.566365525126457214e-02 4.790393710136413574e-01
4.769393205642700195e-01 8.870936930179595947e-03 4.821731448173522949e-01
4.784356653690338135e-01 3.092555329203605652e-02 4.955906867980957031e-01
4.804586172103881836e-01 1.420863997191190720e-02 4.984830617904663086e-01
2.314828187227249146e-01 5.044037848711013794e-02 -5.242989063262939453e-01
2.289031147956848145e-01 4.229786247014999390e-02 -5.191593170166015625e-01
2.329905778169631958e-01 5.524307116866111755e-02 -5.079615712165832520e-01
2.288885414600372314e-01 4.722330346703529358e-02 -5.013263225555419922e-01
-3.375237882137298584e-01 -1.538144797086715698e-01 6.541259884834289551e-01
-3.476894497871398926e-01 -1.503466516733169556e-01 6.636906862258911133e-01
-3.311172425746917725e-01 -1.538816690444946289e-01 6.670042872428894043e-01
-3.410329520702362061e-01 -1.504915356636047363e-01 6.754215359687805176e-01
3.176888823509216309e-01 9.087205678224563599e-02 -8.567532896995544434e-02
3.114465773105621338e-01 9.480131417512893677e-02 -7.385022938251495361e-02
3.180495500564575195e-01 8.139235526323318481e-02 -6.994391232728958130e-02
3.117374181747436523e-01 8.654252439737319946e-02 -5.776432529091835022e-02
3.894838988780975342e-01 -1.075073182582855225e-01 3.232645094394683838e-01
3.820764720439910889e-01 -1.163889542222023010e-01 3.277141153812408447e-01
3.972359895706176758e-01 -1.035811007022857666e-01 3.388983905315399170e-01
3.898996412754058838e-01 -1.125729382038116455e-01 3.434066176414489746e-01
4.266976118087768555e-01 3.144392976537346840e-03 7.494918107986450195e-01
4.235790669918060303e-01 -1.179132610559463501e-02 7.556526064872741699e-01
4.223097860813140869e-01 1.442548446357250214e-02 7.616132497787475586e-01
4.180417954921722412e-01 2.758205402642488480e-03 7.684872150421142578e-01
1.805486716330051422e-02 -5.887335911393165588e-02 -9.851887226104736328e-01
4.715491551905870438e-03 -6.872677057981491089e-02 -9.810388684272766113e-01
3.229591622948646545e-02 -6.711956113576889038e-02 -9.814450144767761230e-01
1.904221810400485992e-02 -7.643234729766845703e-02 -9.770936965942382812e-01
1.947916448116302490e-01 -1.506344825029373169e-01 7.814590930938720703e-01
1.860113441944122314e-01 -1.509769409894943237e-01 7.914853692054748535e-01
2.006580233573913574e-01 -1.535816043615341187e-01 7.945687770843505859e-01
1.911377161741256714e-01 -1.538529247045516968e-01 8.042929768562316895e-01
-3.125462234020233154e-01 1.429005116224288940e-01 2.524319589138031006e-01
-3.220322430133819580e-01 1.418984830379486084e-01 2.643915712833404541e-01
-3.051645457744598389e-01 1.490231305360794067e-01 2.637931704521179199e-01
-3.145743906497955322e-01 1.484295427799224854e-01 2.758769690990447998e-01
2.541457414627075195e-01 3.687655925750732422e-02 -9.226912856101989746e-01
2.472004741430282593e-01 3.038690425455570221e-02 -9.270421862602233887e-01
2.702663540840148926e-01 3.720427304506301880e-02 -9.116307497024536133e-01
2.656018137931823730e-01 2.673405408859252930e-02 -9.185214638710021973e-01
2.940477728843688965e-01 -1.629803702235221863e-02 -8.932226896286010742e-01
2.894092500209808350e-01 -3.140123933553695679e-02 -8.940273523330688477e-01
3.084260821342468262e-01 -1.890872418880462646e-02 -8.851963281631469727e-01
3.039845228195190430e-01 -3.460051864385604858e-02 -8.853310942649841309e-01
2.601352334022521973e-01 -1.032391786575317383e-01 4.675529301166534424e-01
2.500042617321014404e-01 -9.860366582870483398e-02 4.801615178585052490e-01
2.655135095119476318e-01 -1.067613214254379272e-01 4.816543459892272949e-01
2.554290592670440674e-01 -1.022322624921798706e-01 4.939457774162292480e-01
2.632852457463741302e-02 -1.085951477289199829e-01 9.580169320106506348e-01
1.074454188346862793e-02 -1.050518304109573364e-01 9.589007496833801270e-01
4.149944335222244263e-02 -9.580411016941070557e-02 9.684345722198486328e-01
2.596233598887920380e-02 -9.240356832742691040e-02 9.689046144485473633e-01
2.357768565416336060e-01 -1.528120934963226318e-01 -9.251609444618225098e-02
2.267742455005645752e-01 -1.566264629364013672e-01 -8.135316520929336548e-02
2.401995211839675903e-01 -1.513082087039947510e-01 -7.514102756977081299e-02
2.308594137430191040e-01 -1.554528474807739258e-01 -6.313038617372512817e-02
4.973334074020385742e-02 1.543143540620803833e-01 8.721889257431030273e-01
3.876097872853279114e-02 1.530095338821411133e-01 8.807992935180664062e-01
6.137978658080101013e-02 1.525579243898391724e-01 8.815351724624633789e-01
4.983552545309066772e-02 1.491926461458206177e-01 8.893094062805175781e-01
2.189989984035491943e-01 6.378560513257980347e-02 5.960219502449035645e-01
2.122271209955215454e-01 5.123300850391387939e-02 6.032139062881469727e-01
2.150534540414810181e-01 7.259825617074966431e-02 6.096994280815124512e-01
2.084109038114547729e-01 6.072091683745384216e-02 6.168240904808044434e-01
2.622619867324829102e-01 -1.342840492725372314e-01 -2.177600562572479248e-02
2.533977329730987549e-01 -1.395311802625656128e-01 -9.068187326192855835e-03
2.690322399139404297e-01 -1.274264752864837646e-01 -5.549415946006774902e-03
2.603842318058013916e-01 -1.332471966743469238e-01 6.368355359882116318e-03
-4.078892469406127930e-01 -4.257789347320795059e-03 -7.804305553436279297e-01
-4.167702794075012207e-01 -9.771231561899185181e-04 -7.686352133750915527e-01
-4.115805923938751221e-01 -1.666733808815479279e-02 -7.670114636421203613e-01
-4.207320511341094971e-01 -1.365206576883792877e-02 -7.555611729621887207e-01
-6.035182625055313110e-02 -5.754511430859565735e-02 7.352243065834045410e-01
-6.543839722871780396e-02 -7.651816308498382568e-02 7.443950176239013672e-01
-4.700757563114166260e-02 -6.542983651161193848e-02 7.434090375900268555e-01
-5.242999270558357239e-02 -8.361377567052841187e-02 7.525621056556701660e-01
-2.917010784149169922e-01 -1.200270354747772217e-01 -1.212536841630935669e-01
-3.015249371528625488e-01 -1.109646111726760864e-01 -1.142325550317764282e-01
-2.827144563198089600e-01 -1.268571019172668457e-01 -1.049958691000938416e-01
-2.930419743061065674e-01 -1.176935508847236633e-01 -9.872001409530639648e-02
-4.430753588676452637e-01 5.720202624797821045e-02 -6.923543214797973633e-01
-4.506881833076477051e-01 4.825501143932342529e-02 -6.824858784675598145e-01
-4.480051696300506592e-01 6.543736159801483154e-02 -6.755951046943664551e-01
-4.553564786911010742e-01 5.857504531741142273e-02 -6.640627980232238770e-01
3.199985623359680176e-01 1.478722989559173584e-01 4.176189005374908447e-01
3.123979568481445312e-01 1.451095193624496460e-01 4.288165569305419922e-01
3.302973210811614990e-01 1.477600336074829102e-01 4.314624667167663574e-01
3.223798274993896484e-01 1.454743742942810059e-01 4.418141245841979980e-01
-2.826519310474395752e-01 1.505210101604461670e-01 2.556279599666595459e-01
-2.919320762157440186e-01 1.504344344139099121e-01 2.666043043136596680e-01
-2.752582132816314697e-01 1.548567414283752441e-01 2.716627717018127441e-01
-2.844081223011016846e-01 1.549570560455322266e-01 2.819457352161407471e-01
-3.045282363891601562e-01 9.152790904045104980e-02 5.602373927831649780e-02
-3.119050860404968262e-01 8.510234951972961426e-02 6.332826614379882812e-02
-3.036155104637145996e-01 9.914489090442657471e-02 7.078740000724792480e-02
-3.110021054744720459e-01 9.244062006473541260e-02 7.919224351644515991e-02
-4.191696047782897949e-01 1.200722903013229370e-01 5.995858311653137207e-01
-4.313658475875854492e-01 1.064398735761642456e-01 6.071745157241821289e-01
-4.103243350982666016e-01 1.288952678442001343e-01 6.160187721252441406e-01
-4.225643873214721680e-01 1.159342303872108459e-01 6.231577396392822266e-01
-3.892056941986083984e-01 9.046270698308944702e-02 7.561269998550415039e-01
-3.944145739078521729e-01 8.038880676031112671e-02 7.595959305763244629e-01
-3.788840770721435547e-01 9.594998508691787720e-02 7.642971873283386230e-01
-3.846449851989746094e-01 8.642335981130599976e-02 7.673210501670837402e-01
-4.702122211456298828e-01 -1.174914743751287460e-02 4.450004994869232178e-01
-4.718017280101776123e-01 -1.620577275753021240e-02 4.538933932781219482e-01
-4.712501168251037598e-01 -1.159119233489036560e-02 4.619497358798980713e-01
-4.736047983169555664e-01 -1.348897255957126617e-02 4.716325402259826660e-01
-3.038211166858673096e-02 -2.061882466077804565e-01 -9.454649873077869415e-03
-4.315895959734916687e-02 -2.049082964658737183e-01 3.259582445025444031e-03
-2.062519453465938568e-02 -2.066567242145538330e-01 8.758165873587131500e-03
-3.249400854110717773e-02 -2.043689340353012085e-01 2.236862480640411377e-02
4.734000861644744873e-01 4.834390431642532349e-02 -5.481317043304443359e-01
4.653245210647583008e-01 6.429515033960342407e-02 -5.368650555610656738e-01
4.732742607593536377e-01 4.566165059804916382e-02 -5.311526656150817871e-01
4.640734791755676270e-01 6.366936862468719482e-02 -5.197128653526306152e-01
-3.917723298072814941e-01 -1.048466339707374573e-01 2.926689982414245605e-01
-3.994748592376708984e-01 -1.058775112032890320e-01 3.074449300765991211e-01
-3.877168297767639160e-01 -1.147899478673934937e-01 3.076701462268829346e-01
-3.952189981937408447e-01 -1.161267980933189392e-01 3.223417103290557861e-01
-4.559433460235595703e-02 2.035824507474899292e-01 -1.472590491175651550e-02
-5.563391000032424927e-02 2.019424140453338623e-01 -1.160714775323867798e-03
-3.661676496267318726e-02 2.049356848001480103e-01 3.780832979828119278e-03
-4.395595565438270569e-02 2.036046534776687622e-01 1.729195006191730499e-02
-1.312013268470764160e-01 -2.803421020507812500e-02 3.277529180049896240e-01
-1.458990871906280518e-01 -2.785949781537055969e-02 3.373375833034515381e-01
-1.254906952381134033e-01 -8.598463609814643860e-03 3.286224007606506348e-01
-1.400548815727233887e-01 -9.257925674319267273e-03 3.382140696048736572e-01
-4.048606455326080322e-01 -1.094678491353988647e-01 3.453920185565948486e-01
-4.126423597335815430e-01 -1.086553484201431274e-01 3.593025803565979004e-01
-4.018874466419219971e-01 -1.190539225935935974e-01 3.571130335330963135e-01
-4.099144637584686279e-01 -1.175033226609230042e-01 3.701198697090148926e-01
1.045570373535156250e-01 -4.328685998916625977e-02 7.134298682212829590e-01
9.621983021497726440e-02 -5.387561395764350891e-02 7.230558395385742188e-01
1.098151728510856628e-01 -5.515889450907707214e-02 7.153433561325073242e-01
1.015865877270698547e-01 -6.670754402875900269e-02 7.263014316558837891e-01
4.643180966377258301e-01 6.238063797354698181e-02 6.079105138778686523e-01
4.672258198261260986e-01 5.154318362474441528e-02 6.189607977867126465e-01
4.597225487232208252e-01 5.908685550093650818e-02 6.276471614837646484e-01
4.625461995601654053e-01 4.860671982169151306e-02 6.384068131446838379e-01
3.797303438186645508e-01 -1.445211619138717651e-01 -6.553294658660888672e-01
3.695717155933380127e-01 -1.497030407190322876e-01 -6.432701945304870605e-01
3.857972621917724609e-01 -1.424694955348968506e-01 -6.411347389221191406e-01
3.757124841213226318e-01 -1.483842134475708008e-01 -6.293840408325195312e-01
-8.451327681541442871e-02 3.992238640785217285e-02 -9.842180609703063965e-01
-9.251862764358520508e-02 2.797621116042137146e-02 -9.808902740478515625e-01
-6.980343163013458252e-02 3.393877670168876648e-02 -9.863030910491943359e-01
-7.764345407485961914e-02 2.466821298003196716e-02 -9.843031764030456543e-01
-1.791248917579650879e-01 5.482316017150878906e-02 -6.624073982238769531e-01
-1.890333294868469238e-01 5.896063894033432007e-02 -6.531327962875366211e-01
-1.785010099411010742e-01 4.257271438837051392e-02 -6.544179320335388184e-01
-1.877061128616333008e-01 4.662305489182472229e-02 -6.453280448913574219e-01
2.355552911758422852e-01 1.516579687595367432e-01 -7.519970536231994629e-01
2.243295013904571533e-01 1.481381207704544067e-01 -7.428262829780578613e-01
2.507874071598052979e-01 1.503242850303649902e-01 -7.406537532806396484e-01
2.392679154872894287e-01 1.460205018520355225e-01 -7.315425276756286621e-01
1.649091392755508423e-01 1.590090245008468628e-01 2.028001397848129272e-01
1.572970002889633179e-01 1.559122502803802490e-01 2.103075683116912842e-01
1.736127585172653198e-01 1.565284132957458496e-01 2.132431417703628540e-01
1.665389388799667358e-01 1.530986428260803223e-01 2.207509577274322510e-01
-5.539361387491226196e-02 -1.389495879411697388e-01 8.083956241607666016e-01
-6.183952838182449341e-02 -1.450591981410980225e-01 8.205665946006774902e-01
-4.767270386219024658e-02 -1.437565684318542480e-01 8.200353384017944336e-01
-5.416984856128692627e-02 -1.482844650745391846e-01 8.324232697486877441e-01
-4.130070805549621582e-01 6.275621801614761353e-02 -2.834504842758178711e-01
-4.158834815025329590e-01 4.744190722703933716e-02 -2.834059298038482666e-01
-4.033587276935577393e-01 6.703973561525344849e-02 -2.708187103271484375e-01
-4.077996909618377686e-01 5.240698158740997314e-02 -2.709193229675292969e-01
4.534407556056976318e-01 -1.928086578845977783e-02 -3.809033334255218506e-01
4.506043493747711182e-01 -3.276728093624114990e-02 -3.763525485992431641e-01
4.500544965267181396e-01 -1.518860366195440292e-02 -3.669873178005218506e-01
4.469831883907318115e-01 -2.898341417312622070e-02 -3.627495169639587402e-01
-8.607891388237476349e-03 -1.501790732145309448e-01 -8.367189764976501465e-01
-1.728624850511550903e-02 -1.453497856855392456e-01 -8.227829337120056152e-01
-2.771352883428335190e-03 -1.442780941724777222e-01 -8.219546675682067871e-01
-1.142795197665691376e-02 -1.379531174898147583e-01 -8.057721853256225586e-01
1.615770608186721802e-01 -1.538445651531219482e-01 8.344891667366027832e-01
1.504492610692977905e-01 -1.518065929412841797e-01 8.436945676803588867e-01
1.704433858394622803e-01 -1.496488004922866821e-01 8.529986739158630371e-01
1.592285782098770142e-01 -1.474504470825195312e-01 8.623170852661132812e-01
-2.491634935140609741e-01 -1.256945133209228516e-01 -8.579011559486389160e-01
-2.551232576370239258e-01 -1.357750892639160156e-01 -8.404582142829895020e-01
-2.437760084867477417e-01 -1.396478116512298584e-01 -8.436266779899597168e-01
-2.499164342880249023e-01 -1.488157510757446289e-01 -8.263158798217773438e-01
-2.279416918754577637e-01 -2.772962674498558044e-03 -9.430875778198242188e-01
-2.381489723920822144e-01 -1.897772774100303650e-02 -9.347475171089172363e-01
-2.186053991317749023e-01 1.062334515154361725e-03 -9.478270411491394043e-01
-2.276146411895751953e-01 -1.763195730745792389e-02 -9.402656555175781250e-01
-2.374442666769027710e-01 1.194725707173347473e-01 -6.605274677276611328e-01
-2.478514760732650757e-01 1.241641119122505188e-01 -6.485736966133117676e-01
-2.289074212312698364e-01 1.078426316380500793e-01 -6.466171145439147949e-01
-2.395156770944595337e-01 1.133043915033340454e-01 -6.352740526199340820e-01
-7.810818403959274292e-02 6.869417428970336914e-02 7.345940470695495605e-01
-9.343800693750381470e-02 7.069156318902969360e-02 7.329442501068115234e-01
-5.846838280558586121e-02 7.407255470752716064e-02 7.457556724548339844e-01
-7.634278386831283569e-02 7.811492681503295898e-02 7.439435720443725586e-01
-2.266803681850433350e-01 7.535645365715026855e-02 6.015735268592834473e-01
-2.332037538290023804e-01 9.127747267484664917e-02 6.154635548591613770e-01
-2.214239984750747681e-01 7.771843671798706055e-02 6.195699572563171387e-01
-2.270318418741226196e-01 9.265808016061782837e-02 6.320196986198425293e-01
4.146618843078613281e-01 8.303087949752807617e-02 7.256290912628173828e-01
4.049362540245056152e-01 8.318916708230972290e-02 7.393348217010498047e-01
4.174928963184356689e-01 6.815268844366073608e-02 7.357733249664306641e-01
4.078396856784820557e-01 6.793227046728134155e-02 7.497994899749755859e-01
-1.985956877470016479e-01 -1.701707094907760620e-01 -1.818141341209411621e-01
-2.078667432069778442e-01 -1.712212264537811279e-01 -1.700918823480606079e-01
-1.876993179321289062e-01 -1.744696646928787231e-01 -1.667037755250930786e-01
-1.974834203720092773e-01 -1.730116605758666992e-01 -1.552288830280303955e-01
1.782139241695404053e-01 -4.779397323727607727e-02 -3.664800226688385010e-01
1.693992018699645996e-01 -5.148425698280334473e-02 -3.556945919990539551e-01
1.806834936141967773e-01 -6.426630169153213501e-02 -3.600066602230072021e-01
1.718307286500930786e-01 -6.675243377685546875e-02 -3.484727144241333008e-01
2.520203590393066406e-01 -1.393022090196609497e-01 3.524496257305145264e-01
2.424335479736328125e-01 -1.304372251033782959e-01 3.580944538116455078e-01
2.597171962261199951e-01 -1.398224830627441406e-01 3.667351305484771729e-01
2.502307295799255371e-01 -1.318509280681610107e-01 3.714776635169982910e-01
-2.477035224437713623e-01 -1.066851913928985596e-01 -4.249436259269714355e-01
-2.550083398818969727e-01 -1.151159331202507019e-01 -4.189634323120117188e-01
-2.397919893264770508e-01 -1.059041842818260193e-01 -4.087566137313842773e-01
-2.468096017837524414e-01 -1.141996234655380249e-01 -4.029793143272399902e-01
-2.317245453596115112e-01 6.707015633583068848e-02 -5.636218190193176270e-01
-2.376269847154617310e-01 7.317487895488739014e-02 -5.542214512825012207e-01
-2.321269512176513672e-01 6.215012073516845703e-02 -5.494309067726135254e-01
-2.378232181072235107e-01 6.880678981542587280e-02 -5.398928523063659668e-01
-1.346566975116729736e-01 1.585587486624717712e-02 3.324334323406219482e-01
-1.475872248411178589e-01 1.474987156689167023e-02 3.403564095497131348e-01
-1.287088245153427124e-01 2.060217224061489105e-02 3.335238695144653320e-01
-1.412781178951263428e-01 1.947124302387237549e-02 3.412719070911407471e-01
-4.438465461134910583e-02 1.371284276247024536e-01 2.236959338188171387e-01
-5.821354687213897705e-02 1.315832436084747314e-01 2.325879186391830444e-01
-3.654337301850318909e-02 1.309789270162582397e-01 2.308939248323440552e-01
-4.992119595408439636e-02 1.239279434084892273e-01 2.396875023841857910e-01
1.115821301937103271e-01 5.137792602181434631e-02 -3.105236291885375977e-01
9.815710783004760742e-02 4.732470586895942688e-02 -3.040554821491241455e-01
1.212155073881149292e-01 6.689462810754776001e-02 -3.105564415454864502e-01
1.077763810753822327e-01 6.280188262462615967e-02 -3.043579459190368652e-01
-4.738465249538421631e-01 6.223667412996292114e-03 -6.173784136772155762e-01
-4.760926961898803711e-01 -4.043372347950935364e-03 -6.134154796600341797e-01
-4.762297570705413818e-01 1.137894205749034882e-02 -6.035920977592468262e-01
-4.784239530563354492e-01 1.141462009400129318e-03 -5.997221469879150391e-01
9.887223690748214722e-02 1.539864987134933472e-01 -8.719252943992614746e-01
8.423579484224319458e-02 1.537892818450927734e-01 -8.619415760040283203e-01
1.106882765889167786e-01 1.507483869791030884e-01 -8.613895773887634277e-01
9.601300209760665894e-02 1.504272669553756714e-01 -8.515532016754150391e-01
5.645711347460746765e-02 3.412096947431564331e-02 -7.333936691284179688e-01
4.690534621477127075e-02 1.641534268856048584e-02 -7.320174574851989746e-01
7.590959221124649048e-02 3.683246672153472900e-02 -7.272523045539855957e-01
6.598111242055892944e-02 1.801212318241596222e-02 -7.267689108848571777e-01
2.568924129009246826e-01 1.021194308996200562e-01 -5.416359305381774902e-01
2.514065802097320557e-01 9.439547359943389893e-02 -5.324999690055847168e-01
2.608376741409301758e-01 1.059133484959602356e-01 -5.260057449340820312e-01
2.554537057876586914e-01 9.880493581295013428e-02 -5.159978866577148438e-01
2.125662714242935181e-01 -1.423429250717163086e-01 -2.724950909614562988e-01
2.033291757106781006e-01 -1.430547386407852173e-01 -2.638881504535675049e-01
2.230806648731231689e-01 -1.505245566368103027e-01 -2.607644796371459961e-01
2.130163908004760742e-01 -1.511570513248443604e-01 -2.523754239082336426e-01
1.024195626378059387e-01 1.468551456928253174e-01 8.185812830924987793e-01
9.133367985486984253e-02 1.474439054727554321e-01 8.272968530654907227e-01
1.139754503965377808e-01 1.505640000104904175e-01 8.289002180099487305e-01
1.024515554308891296e-01 1.504964232444763184e-01 8.374428749084472656e-01
5.234098434448242188e-02 1.232794672250747681e-01 -2.395335435867309570e-01
4.011422768235206604e-02 1.264580786228179932e-01 -2.343637049198150635e-01
6.095481663942337036e-02 1.315708607435226440e-01 -2.296659797430038452e-01
4.843880981206893921e-02 1.352035850286483765e-01 -2.246223390102386475e-01
-4.426029920578002930e-01 4.358482733368873596e-02 3.592756986618041992e-01
-4.472519159317016602e-01 3.733318299055099487e-02 3.702795207500457764e-01
-4.453034698963165283e-01 5.192769691348075867e-02 3.751398622989654541e-01
-4.499702751636505127e-01 4.525472223758697510e-02 3.869906961917877197e-01
3.326379954814910889e-01 -1.425240337848663330e-01 -2.912629246711730957e-01
3.185249865055084229e-01 -1.477828919887542725e-01 -2.815009653568267822e-01
3.462119400501251221e-01 -1.352818459272384644e-01 -2.817544341087341309e-01
3.308454751968383789e-01 -1.406936198472976685e-01 -2.718298435211181641e-01
3.787506520748138428e-01 -2.809697762131690979e-02 -8.083717226982116699e-01
3.743712902069091797e-01 -4.129203036427497864e-02 -8.100399971008300781e-01
3.849212527275085449e-01 -3.070007264614105225e-02 -8.007391691207885742e-01
3.821702897548675537e-01 -4.374183714389801025e-02 -7.970393896102905273e-01
1.548205018043518066e-01 1.630493104457855225e-01 -2.079316675662994385e-01
1.387833058834075928e-01 1.656040102243423462e-01 -1.998671144247055054e-01
1.695332378149032593e-01 1.672803908586502075e-01 -1.859282553195953369e-01
1.517282873392105103e-01 1.703557521104812622e-01 -1.786916851997375488e-01
1.864411234855651855e-01 9.537040255963802338e-03 -6.428502798080444336e-01
1.816931217908859253e-01 -2.641512779518961906e-03 -6.474443674087524414e-01
1.923033595085144043e-01 1.623848453164100647e-02 -6.233839988708496094e-01
1.886313855648040771e-01 2.685538725927472115e-03 -6.277511715888977051e-01
4.425906240940093994e-01 1.141327098011970520e-01 5.295290350914001465e-01
4.340585172176361084e-01 1.223470717668533325e-01 5.408939123153686523e-01
4.483755528926849365e-01 1.072675883769989014e-01 5.460255146026611328e-01
4.401149749755859375e-01 1.142597943544387817e-01 5.579079985618591309e-01
-1.304350644350051880e-01 8.071744441986083984e-02 -9.589203000068664551e-01
-1.467090249061584473e-01 8.247034996747970581e-02 -9.510392546653747559e-01
-1.203357055783271790e-01 9.155651926994323730e-02 -9.534867405891418457e-01
-1.369927525520324707e-01 9.267750382423400879e-02 -9.458113312721252441e-01
1.265281885862350464e-01 -1.361260563135147095e-01 9.062039256095886230e-01
1.147734224796295166e-01 -1.300274580717086792e-01 9.176638722419738770e-01
1.362190842628479004e-01 -1.238811388611793518e-01 9.193691015243530273e-01
1.233990713953971863e-01 -1.157152503728866577e-01 9.307453632354736328e-01
2.917196750640869141e-01 -1.548103839159011841e-01 6.938117742538452148e-01
2.807292342185974121e-01 -1.563122123479843140e-01 7.053654789924621582e-01
2.990235686302185059e-01 -1.544799059629440308e-01 7.108817100524902344e-01
2.869175970554351807e-01 -1.569309979677200317e-01 7.219882011413574219e-01
-6.707385927438735962e-02 -1.266870945692062378e-01 2.350513190031051636e-01
-8.118543773889541626e-02 -1.187349855899810791e-01 2.452241778373718262e-01
-6.013351306319236755e-02 -1.167560443282127380e-01 2.449806779623031616e-01
-7.346378266811370850e-02 -1.086425557732582092e-01 2.555594742298126221e-01
-4.028119146823883057e-01 1.233578547835350037e-01 4.206927120685577393e-01
-4.118078052997589111e-01 1.172553598880767822e-01 4.314032793045043945e-01
-3.977625966072082520e-01 1.298368275165557861e-01 4.321502447128295898e-01
-4.068056941032409668e-01 1.242063120007514954e-01 4.432463347911834717e-01
-2.770857214927673340e-01 2.080331929028034210e-02 -9.061337709426879883e-01
-2.934031188488006592e-01 2.132911421358585358e-02 -8.940758109092712402e-01
-2.776312530040740967e-01 4.505770653486251831e-02 -9.040932059288024902e-01
-2.937454283237457275e-01 4.384133592247962952e-02 -8.929875493049621582e-01
-3.416380882263183594e-01 1.507536768913269043e-01 4.643824398517608643e-01
-3.487655818462371826e-01 1.511996686458587646e-01 4.785513877868652344e-01
-3.330647647380828857e-01 1.478789597749710083e-01 4.782852232456207275e-01
-3.408325910568237305e-01 1.489418148994445801e-01 4.905224740505218506e-01
4.650779366493225098e-01 -2.277328819036483765e-02 4.343824982643127441e-01
4.624889194965362549e-01 -3.456990048289299011e-02 4.413408637046813965e-01
4.705291688442230225e-01 -2.060845494270324707e-02 4.505999684333801270e-01
4.688708782196044922e-01 -3.313041478395462036e-02 4.576343297958374023e-01
-2.129790782928466797e-01 5.395146831870079041e-02 4.310956597328186035e-01
-2.255509346723556519e-01 6.971673667430877686e-02 4.413820207118988037e-01
-2.165092378854751587e-01 4.843336343765258789e-02 4.477137923240661621e-01
-2.285222262144088745e-01 6.386603415012359619e-02 4.579304754734039307e-01
-3.726802766323089600e-01 1.455809175968170166e-01 6.368643641471862793e-01
-3.843663334846496582e-01 1.406545490026473999e-01 6.455869078636169434e-01
-3.627814054489135742e-01 1.461776047945022583e-01 6.534575819969177246e-01
-3.735251426696777344e-01 1.422681212425231934e-01 6.617637872695922852e-01
2.505425512790679932e-01 -1.072825491428375244e-01 -5.883011221885681152e-01
2.442937493324279785e-01 -9.541875869035720825e-02 -5.729878544807434082e-01
2.568385004997253418e-01 -1.074399873614311218e-01 -5.725160837173461914e-01
2.509791254997253418e-01 -9.634785354137420654e-02 -5.575628280639648438e-01
3.587000817060470581e-02 -2.813896723091602325e-02 -2.902674376964569092e-01
2.876486629247665405e-02 -4.017509892582893372e-02 -2.848004102706909180e-01
4.559081792831420898e-02 -3.434042632579803467e-02 -2.908126711845397949e-01
3.861108794808387756e-02 -4.601456224918365479e-02 -2.851206064224243164e-01
3.771483302116394043e-01 3.466979041695594788e-02 -1.830778867006301880e-01
3.810062110424041748e-01 2.333485893905162811e-02 -1.790690422058105469e-01
3.729594051837921143e-01 3.299736976623535156e-02 -1.705504357814788818e-01
3.768734633922576904e-01 2.157461643218994141e-02 -1.662696301937103271e-01
-4.205178320407867432e-01 9.347953647375106812e-02 6.838271617889404297e-01
-4.257129430770874023e-01 8.346375077962875366e-02 6.902047991752624512e-01
-4.130756855010986328e-01 9.813900291919708252e-02 6.982110738754272461e-01
-4.183412492275238037e-01 8.827039599418640137e-02 7.040479183197021484e-01
-2.629799246788024902e-01 -1.242240369319915771e-01 8.492987751960754395e-01
-2.726017534732818604e-01 -1.173979714512825012e-01 8.527653217315673828e-01
-2.528692483901977539e-01 -1.235360875725746155e-01 8.618375062942504883e-01
-2.631515860557556152e-01 -1.165489777922630310e-01 8.640151023864746094e-01
-3.520529270172119141e-01 -1.417995691299438477e-01 -3.613651096820831299e-01
-3.644372820854187012e-01 -1.363500207662582397e-01 -3.509483635425567627e-01
-3.420485556125640869e-01 -1.458783298730850220e-01 -3.497361242771148682e-01
-3.547050654888153076e-01 -1.403727978467941284e-01 -3.396514654159545898e-01
-1.150903943926095963e-02 -3.653508797287940979e-02 -7.396829128265380859e-01
-2.800376899540424347e-02 -2.416657283902168274e-02 -7.322847247123718262e-01
4.001160152256488800e-03 -2.599596604704856873e-02 -7.408109903335571289e-01
-1.205319631844758987e-02 -1.317258179187774658e-02 -7.336705327033996582e-01
1.195027306675910950e-01 1.089773625135421753e-01 9.380191564559936523e-01
1.148807927966117859e-01 1.011608093976974487e-01 9.486113190650939941e-01
1.298810243606567383e-01 9.636606276035308838e-02 9.472257494926452637e-01
1.237645149230957031e-01 8.773630112409591675e-02 9.563527107238769531e-01
1.431812196969985962e-01 -1.316661089658737183e-01 -9.079658389091491699e-01
1.330696493387222290e-01 -1.384334266185760498e-01 -8.991702795028686523e-01
1.533484458923339844e-01 -1.368425637483596802e-01 -8.963797092437744141e-01
1.436540186405181885e-01 -1.433831602334976196e-01 -8.867128491401672363e-01
2.974403202533721924e-01 -1.524977236986160278e-01 -6.987605094909667969e-01
2.831074595451354980e-01 -1.466972231864929199e-01 -6.913568973541259766e-01
3.078204691410064697e-01 -1.558488607406616211e-01 -6.861261129379272461e-01
2.947103381156921387e-01 -1.508561819791793823e-01 -6.769138574600219727e-01
-5.006100237369537354e-02 -1.576523631811141968e-01 1.894421726465225220e-01
-6.918945163488388062e-02 -1.586627960205078125e-01 1.916214376688003540e-01
-4.004076495766639709e-02 -1.514437794685363770e-01 2.020642608404159546e-01
-5.801803991198539734e-02 -1.513007432222366333e-01 2.051910161972045898e-01
2.264178246259689331e-01 1.853792183101177216e-02 5.143875479698181152e-01
2.257992625236511230e-01 2.582842484116554260e-03 5.199156403541564941e-01
2.264585196971893311e-01 2.181449905037879944e-02 5.295829176902770996e-01
2.267504334449768066e-01 5.438099615275859833e-03 5.371644496917724609e-01
6.807705014944076538e-02 1.155308037996292114e-01 9.475483894348144531e-01
6.207339093089103699e-02 1.052729785442352295e-01 9.568860530853271484e-01
7.746738940477371216e-02 1.063519939780235291e-01 9.531998634338378906e-01
7.164689153432846069e-02 9.598232060670852661e-02 9.621018767356872559e-01
3.266176581382751465e-01 -6.817258894443511963e-02 -3.786089271306991577e-02
3.196318447589874268e-01 -7.951981574296951294e-02 -3.140347823500633240e-02
3.312815427780151367e-01 -5.740321055054664612e-02 -2.232637070119380951e-02
3.247725665569305420e-01 -6.888262927532196045e-02 -1.577604003250598907e-02
3.795256614685058594e-01 -1.455474942922592163e-01 4.804576933383941650e-01
3.699003159999847412e-01 -1.480241566896438599e-01 4.924619495868682861e-01
3.847452700138092041e-01 -1.439728438854217529e-01 4.968136250972747803e-01
3.744814097881317139e-01 -1.466026306152343750e-01 5.092875957489013672e-01
4.176847636699676514e-01 -1.169841550290584564e-02 -2.718161046504974365e-01
4.148950576782226562e-01 -2.301759645342826843e-02 -2.678563296794891357e-01
4.131612479686737061e-01 -3.639223054051399231e-03 -2.610229253768920898e-01
4.105712175369262695e-01 -1.525914855301380157e-02 -2.570094466209411621e-01
1.803393363952636719e-01 1.448012143373489380e-01 7.674332261085510254e-01
1.674868762493133545e-01 1.444125026464462280e-01 7.746876478195190430e-01
1.923872977495193481e-01 1.491217166185379028e-01 7.794419527053833008e-01
1.798114627599716187e-01 1.486899256706237793e-01 7.870110273361206055e-01
4.719660282135009766e-01 -3.653223160654306412e-03 -6.359244585037231445e-01
4.730356633663177490e-01 -1.642188802361488342e-02 -6.317880153656005859e-01
4.759652912616729736e-01 -2.337800804525613785e-03 -6.213538646697998047e-01
4.774129390716552734e-01 -1.505320146679878235e-02 -6.175034046173095703e-01
-2.765313982963562012e-01 1.148651838302612305e-01 -8.541970252990722656e-01
-2.883345484733581543e-01 1.136224791407585144e-01 -8.466617465019226074e-01
-2.710213661193847656e-01 1.278479993343353271e-01 -8.406044840812683105e-01
-2.820299565792083740e-01 1.270467638969421387e-01 -8.319428563117980957e-01
-2.870603092014789581e-02 2.039383500814437866e-01 -5.448922514915466309e-02
-4.123120382428169250e-02 2.019581496715545654e-01 -4.183297604322433472e-02
-2.411562018096446991e-02 2.053683102130889893e-01 -3.689261898398399353e-02
-3.562923893332481384e-02 2.035457044839859009e-01 -2.472004294395446777e-02
9.734954684972763062e-02 1.211368069052696228e-01 -2.499615699052810669e-01
8.487696200609207153e-02 1.204658672213554382e-01 -2.479736804962158203e-01
1.015472859144210815e-01 1.339472979307174683e-01 -2.393624037504196167e-01
8.903101831674575806e-02 1.332271397113800049e-01 -2.367870807647705078e-01
-3.066976964473724365e-01 1.108002215623855591e-01 1.191322356462478638e-01
-3.146026134490966797e-01 1.060857623815536499e-01 1.299300193786621094e-01
-3.064840137958526611e-01 1.160568371415138245e-01 1.356308907270431519e-01
-3.148434162139892578e-01 1.116983741521835327e-01 1.472677141427993774e-01
-3.467100560665130615e-01 4.480561241507530212e-02 -8.453734517097473145e-01
-3.593964278697967529e-01 4.101520404219627380e-02 -8.348621726036071777e-01
-3.507018983364105225e-01 6.038580834865570068e-02 -8.318361043930053711e-01
-3.614749312400817871e-01 5.431976541876792908e-02 -8.221377134323120117e-01
3.328913152217864990e-01 -1.059591174125671387e-01 1.852219998836517334e-01
3.238870501518249512e-01 -1.168003901839256287e-01 1.915059685707092285e-01
3.420417308807373047e-01 -1.016212776303291321e-01 1.972025781869888306e-01
3.325472176074981689e-01 -1.132833361625671387e-01 2.025192230939865112e-01
