-2.036876529455184937e-01 -2.737328708171844482e-01 5.463060736656188965e-01
-2.058609277009963989e-01 -2.710147202014923096e-01 5.532845258712768555e-01
-1.971328109502792358e-01 -2.765235304832458496e-01 5.624516606330871582e-01
-1.996306627988815308e-01 -2.729293107986450195e-01 5.684413313865661621e-01
-3.237571120262145996e-01 -8.875910192728042603e-02 2.994747459888458252e-01
-3.353182971477508545e-01 -8.041087538003921509e-02 3.148239552974700928e-01
-3.162480294704437256e-01 -8.105610311031341553e-02 3.144540488719940186e-01
-3.290746510028839111e-01 -7.138571888208389282e-02 3.292323350906372070e-01
3.677485883235931396e-01 -2.807145714759826660e-01 -1.853348761796951294e-01
3.541114032268524170e-01 -2.935948967933654785e-01 -1.799475848674774170e-01
3.843318223953247070e-01 -2.924607992172241211e-01 -1.825305223464965820e-01
3.705253899097442627e-01 -3.059864044189453125e-01 -1.771077662706375122e-01
-4.759370386600494385e-01 3.153714165091514587e-02 5.499224066734313965e-01
-4.669574201107025146e-01 -5.033236928284168243e-03 5.499324798583984375e-01
-4.779778718948364258e-01 3.879287466406822205e-02 5.637012720108032227e-01
-4.694897830486297607e-01 2.029934898018836975e-03 5.629867911338806152e-01
-3.870492875576019287e-01 1.423094868659973145e-01 3.691136837005615234e-01
-3.927617371082305908e-01 1.302242279052734375e-01 3.747849166393280029e-01
-3.928326964378356934e-01 1.484784185886383057e-01 3.772336542606353760e-01
-3.986299633979797363e-01 1.357329040765762329e-01 3.828263878822326660e-01
4.697743654251098633e-01 1.361531913280487061e-01 -4.857684075832366943e-01
4.649353623390197754e-01 1.206100806593894958e-01 -4.786649644374847412e-01
4.577522277832031250e-01 1.434554010629653931e-01 -4.715597033500671387e-01
4.527052342891693115e-01 1.274403333663940430e-01 -4.640553295612335205e-01
2.478137761354446411e-01 3.441008925437927246e-01 -2.293730825185775757e-01
2.421971857547760010e-01 3.292111754417419434e-01 -2.222248911857604980e-01
2.357921004295349121e-01 3.545786142349243164e-01 -2.159556895494461060e-01
2.299255430698394775e-01 3.401360213756561279e-01 -2.084316909313201904e-01
-4.270164072513580322e-01 -1.473971307277679443e-01 4.277811646461486816e-01
-4.331404566764831543e-01 -1.500241011381149292e-01 4.369289875030517578e-01
-4.335746169090270996e-01 -1.538354605436325073e-01 4.436252415180206299e-01
-4.408507645130157471e-01 -1.476427167654037476e-01 4.532227218151092529e-01
6.710075587034225464e-02 -2.469474077224731445e-01 4.229105636477470398e-02
5.763563886284828186e-02 -2.526235282421112061e-01 4.917006194591522217e-02
6.007725745439529419e-02 -2.273344993591308594e-01 5.304595455527305603e-02
5.172656103968620300e-02 -2.349505573511123657e-01 5.880229175090789795e-02
1.213367134332656860e-01 -1.815865337848663330e-01 3.537628948688507080e-01
1.149030402302742004e-01 -1.953154802322387695e-01 3.531553745269775391e-01
1.354545354843139648e-01 -1.830920875072479248e-01 3.681972324848175049e-01
1.300019770860671997e-01 -1.963317394256591797e-01 3.667190074920654297e-01
-5.036364197731018066e-01 -2.162664234638214111e-01 -7.007303088903427124e-02
-5.098363161087036133e-01 -2.333677560091018677e-01 -6.672383099794387817e-02
-4.873631596565246582e-01 -2.268162071704864502e-01 -6.984300911426544189e-02
-4.951557517051696777e-01 -2.419938594102859497e-01 -6.747871637344360352e-02
-3.414596319198608398e-01 -2.769041657447814941e-01 3.403013348579406738e-01
-3.579581975936889648e-01 -2.746381461620330811e-01 3.501958847045898438e-01
-3.335115015506744385e-01 -2.681454420089721680e-01 3.473469614982604980e-01
-3.486868143081665039e-01 -2.678738236427307129e-01 3.568934798240661621e-01
7.308541238307952881e-02 -3.342195451259613037e-01 -2.409543842077255249e-02
5.823612585663795471e-02 -3.255427479743957520e-01 -1.057860814034938812e-02
8.099345862865447998e-02 -3.280254006385803223e-01 -6.998163182288408279e-03
6.643376499414443970e-02 -3.204299509525299072e-01 5.529350135475397110e-03
1.074841171503067017e-01 1.360332816839218140e-01 -1.939662992954254150e-01
1.058707088232040405e-01 1.166985854506492615e-01 -1.919051557779312134e-01
1.176213920116424561e-01 1.306812167167663574e-01 -1.828395128250122070e-01
1.157122775912284851e-01 1.118542104959487915e-01 -1.809384822845458984e-01
2.509609796106815338e-03 -1.479080915451049805e-01 -1.948534399271011353e-01
-5.443264730274677277e-03 -1.557788699865341187e-01 -1.867573261260986328e-01
1.632427237927913666e-02 -1.600999385118484497e-01 -1.910892277956008911e-01
8.947256952524185181e-03 -1.674980521202087402e-01 -1.826595962047576904e-01
4.421329200267791748e-01 7.322313636541366577e-02 -6.229205727577209473e-01
4.378193318843841553e-01 5.634978041052818298e-02 -6.233172416687011719e-01
4.608221948146820068e-01 7.453235238790512085e-02 -6.097955703735351562e-01
4.569609463214874268e-01 5.741382762789726257e-02 -6.109930276870727539e-01
-3.521881401538848877e-01 3.502096235752105713e-01 4.682891666889190674e-01
-3.616541624069213867e-01 3.427222073078155518e-01 4.773839116096496582e-01
-3.391888737678527832e-01 3.414759635925292969e-01 4.773119091987609863e-01
-3.482110500335693359e-01 3.355747461318969727e-01 4.861027896404266357e-01
5.050551295280456543e-01 6.473224144428968430e-03 -5.252075195312500000e-01
5.060664415359497070e-01 -1.342287193983793259e-02 -5.229947566986083984e-01
5.032014846801757812e-01 9.486986324191093445e-03 -5.095468163490295410e-01
5.045848488807678223e-01 -1.111133210361003876e-02 -5.067380666732788086e-01
2.373324930667877197e-01 1.054273694753646851e-01 -3.981954157352447510e-01
2.339977174997329712e-01 8.691476285457611084e-02 -3.924512565135955811e-01
2.239975482225418091e-01 1.082402095198631287e-01 -3.828018605709075928e-01
2.207959294319152832e-01 9.017449617385864258e-02 -3.760948181152343750e-01
-8.853818476200103760e-02 -1.143192276358604431e-01 6.962641477584838867e-01
-9.599188715219497681e-02 -1.288869231939315796e-01 6.974667906761169434e-01
-7.256376743316650391e-02 -1.198153421282768250e-01 6.998990774154663086e-01
-7.997290790081024170e-02 -1.351301521062850952e-01 7.015613317489624023e-01
-6.901238858699798584e-02 1.702624186873435974e-02 4.058455824851989746e-01
-8.322855830192565918e-02 1.683004945516586304e-02 4.176769256591796875e-01
-6.082051247358322144e-02 2.413514629006385803e-02 4.238753020763397217e-01
-7.483495771884918213e-02 2.427202276885509491e-02 4.355592131614685059e-01
6.734091788530349731e-02 3.381284773349761963e-01 -2.060666084289550781e-01
5.135760083794593811e-02 3.413877487182617188e-01 -1.902333647012710571e-01
5.236464738845825195e-02 3.425751030445098877e-01 -1.868888139724731445e-01
3.732338920235633850e-02 3.446236550807952881e-01 -1.720257103443145752e-01
-2.837758362293243408e-01 -2.281454652547836304e-01 6.001855805516242981e-02
-2.858009934425354004e-01 -2.439548969268798828e-01 6.075628474354743958e-02
-2.745824456214904785e-01 -2.282712161540985107e-01 7.780966162681579590e-02
-2.764500677585601807e-01 -2.446584105491638184e-01 7.860720157623291016e-02
-1.820581555366516113e-01 -4.849075153470039368e-02 5.755637884140014648e-01
-1.911881417036056519e-01 -6.375533342361450195e-02 5.810617804527282715e-01
-1.702654212713241577e-01 -4.594204202294349670e-02 5.912820696830749512e-01
-1.792855113744735718e-01 -6.105276197195053101e-02 5.962606072425842285e-01
2.013946920633316040e-01 3.109495341777801514e-01 -1.689022183418273926e-01
1.950229406356811523e-01 2.959217429161071777e-01 -1.627545952796936035e-01
1.924380064010620117e-01 3.252968788146972656e-01 -1.576707512140274048e-01
1.845758557319641113e-01 3.120792210102081299e-01 -1.504392921924591064e-01
2.534826397895812988e-01 5.705843567848205566e-01 -2.695877850055694580e-01
2.419980913400650024e-01 5.819296240806579590e-01 -2.620193660259246826e-01
2.594754695892333984e-01 5.608892440795898438e-01 -2.572949230670928955e-01
2.501878738403320312e-01 5.711622834205627441e-01 -2.495826780796051025e-01
-4.161243885755538940e-02 -3.034539222717285156e-01 5.210315063595771790e-02
-5.075697973370552063e-02 -2.997546792030334473e-01 6.565324217081069946e-02
-3.810520097613334656e-02 -3.026769161224365234e-01 7.112002372741699219e-02
-4.764216765761375427e-02 -2.990902364253997803e-01 8.457069098949432373e-02
-5.664085745811462402e-01 -5.432603508234024048e-02 2.608436346054077148e-01
-5.741235017776489258e-01 -6.379489600658416748e-02 2.698659002780914307e-01
-5.517941713333129883e-01 -5.543080717325210571e-02 2.719470560550689697e-01
-5.609517693519592285e-01 -6.614254415035247803e-02 2.807044684886932373e-01
-3.669550418853759766e-01 -9.572537243366241455e-02 2.791861295700073242e-01
-3.774681985378265381e-01 -9.191630780696868896e-02 2.930977046489715576e-01
-3.631123602390289307e-01 -9.948701411485671997e-02 2.893698513507843018e-01
-3.743658363819122314e-01 -9.556885808706283569e-02 3.030150532722473145e-01
-3.506615161895751953e-01 -7.845747470855712891e-02 2.481326758861541748e-01
-3.642571866512298584e-01 -7.435005158185958862e-02 2.602023780345916748e-01
-3.399995863437652588e-01 -8.887887001037597656e-02 2.599332332611083984e-01
-3.523842990398406982e-01 -8.463908731937408447e-02 2.725224196910858154e-01
3.291220664978027344e-01 4.759420156478881836e-01 -3.390546739101409912e-01
3.230590224266052246e-01 4.700185358524322510e-01 -3.314920961856842041e-01
3.151064813137054443e-01 4.828555285930633545e-01 -3.204351365566253662e-01
3.126458823680877686e-01 4.650186896324157715e-01 -3.147664368152618408e-01
-5.201161839067935944e-03 4.070488810539245605e-01 7.898462563753128052e-02
-1.004387717694044113e-02 3.993226587772369385e-01 8.534225076436996460e-02
-1.226319000124931335e-02 4.100194573402404785e-01 9.046847373247146606e-02
-1.653002016246318817e-02 4.003842175006866455e-01 9.646842628717422485e-02
5.152649879455566406e-01 3.069513291120529175e-02 -5.618831515312194824e-01
5.143764615058898926e-01 1.072727516293525696e-02 -5.610647797584533691e-01
5.216449499130249023e-01 2.974815666675567627e-02 -5.449473857879638672e-01
5.209919810295104980e-01 9.622645564377307892e-03 -5.443136096000671387e-01
5.810497403144836426e-01 -2.897105813026428223e-01 1.821091771125793457e-02
5.796923637390136719e-01 -3.014149665832519531e-01 2.731748297810554504e-02
5.810851454734802246e-01 -2.903620600700378418e-01 4.035086557269096375e-02
5.787077546119689941e-01 -3.019298017024993896e-01 4.941943287849426270e-02
-9.076478332281112671e-02 -5.382112041115760803e-02 -3.115238547325134277e-01
-9.920290112495422363e-02 -5.636420845985412598e-02 -2.985203564167022705e-01
-7.788204401731491089e-02 -5.659986287355422974e-02 -2.957565188407897949e-01
-8.706822991371154785e-02 -6.033986806869506836e-02 -2.832132875919342041e-01
1.036075800657272339e-01 2.915171682834625244e-01 -9.831393510103225708e-02
9.054805338382720947e-02 2.934119999408721924e-01 -9.269785881042480469e-02
1.109538823366165161e-01 3.051743805408477783e-01 -9.066608548164367676e-02
9.748464077711105347e-02 3.023337423801422119e-01 -8.546568453311920166e-02
-2.629029452800750732e-01 2.362880557775497437e-01 3.583258390426635742e-01
-2.690104544162750244e-01 2.313293069601058960e-01 3.630607128143310547e-01
-2.598277926445007324e-01 2.405655831098556519e-01 3.712565302848815918e-01
-2.658331394195556641e-01 2.331237643957138062e-01 3.750538229942321777e-01
1.054371222853660583e-01 -1.143154948949813843e-01 -1.835402846336364746e-02
1.074549332261085510e-01 -1.385332792997360229e-01 -1.562102977186441422e-02
9.440182894468307495e-02 -1.081747859716415405e-01 -4.379548598080873489e-03
9.627704322338104248e-02 -1.329213231801986694e-01 -1.669773133471608162e-03
-2.126369029283523560e-01 -4.220546483993530273e-01 -3.146821856498718262e-01
-2.203514873981475830e-01 -4.119996428489685059e-01 -3.057990074157714844e-01
-2.038617581129074097e-01 -4.253538846969604492e-01 -2.994140684604644775e-01
-2.127916216850280762e-01 -4.142538309097290039e-01 -2.905215024948120117e-01
1.941410265862941742e-02 -2.490820437669754028e-01 6.925035715103149414e-01
-7.466394454240798950e-04 -2.424361705780029297e-01 6.980833411216735840e-01
3.587516397237777710e-02 -2.302892804145812988e-01 6.936197876930236816e-01
1.612853445112705231e-02 -2.250429391860961914e-01 7.005159854888916016e-01
3.664622604846954346e-01 8.121481537818908691e-02 -3.519596755504608154e-01
3.540297448635101318e-01 7.046126574277877808e-02 -3.445976078510284424e-01
3.553757369518280029e-01 9.824384748935699463e-02 -3.400112986564636230e-01
3.452289402484893799e-01 8.403985202312469482e-02 -3.337316811084747314e-01
5.525243878364562988e-01 -3.342128992080688477e-01 -2.294805645942687988e-02
5.505426526069641113e-01 -3.508992791175842285e-01 -1.879545301198959351e-02
5.595263242721557617e-01 -3.288175761699676514e-01 -9.916215203702449799e-03
5.575420260429382324e-01 -3.430804610252380371e-01 -5.431795958429574966e-03
-1.856999397277832031e-01 6.433629393577575684e-01 -5.394656658172607422e-01
-1.848944276571273804e-01 6.265299916267395020e-01 -5.401439666748046875e-01
-1.674725264310836792e-01 6.315568089485168457e-01 -5.314034819602966309e-01
-1.671058386564254761e-01 6.143391728401184082e-01 -5.329215526580810547e-01
-6.369574666023254395e-01 -3.504019081592559814e-01 1.837084442377090454e-01
-6.432303190231323242e-01 -3.378805816173553467e-01 1.921953409910202026e-01
-6.309542059898376465e-01 -3.505670428276062012e-01 2.003281116485595703e-01
-6.378846764564514160e-01 -3.370335996150970459e-01 2.093482762575149536e-01
-3.298231065273284912e-01 6.825292855501174927e-02 5.047292709350585938e-01
-3.337096869945526123e-01 5.361656844615936279e-02 5.106978416442871094e-01
-3.409138321876525879e-01 7.902908325195312500e-02 5.172901749610900879e-01
-3.439607322216033936e-01 6.354353576898574829e-02 5.225320458412170410e-01
4.228360652923583984e-01 -1.992085576057434082e-01 -1.790405064821243286e-01
4.159986376762390137e-01 -2.097226530313491821e-01 -1.833033710718154907e-01
4.386671483516693115e-01 -1.990773528814315796e-01 -1.752664297819137573e-01
4.339909851551055908e-01 -2.139628529548645020e-01 -1.812459230422973633e-01
-2.539053559303283691e-01 -2.922706305980682373e-01 3.781192004680633545e-01
-2.686302661895751953e-01 -2.874479889869689941e-01 3.875775337219238281e-01
-2.447850108146667480e-01 -2.893338203430175781e-01 3.904794156551361084e-01
-2.574915885925292969e-01 -2.850672006607055664e-01 3.997133672237396240e-01
-1.134578436613082886e-01 -3.047277331352233887e-01 -1.432147324085235596e-01
-1.172554045915603638e-01 -3.281151950359344482e-01 -1.485467851161956787e-01
-9.025602787733078003e-02 -3.066257238388061523e-01 -1.425000876188278198e-01
-9.397058933973312378e-02 -3.300404548645019531e-01 -1.478171497583389282e-01
-2.695381641387939453e-01 -2.824402749538421631e-01 -2.671234011650085449e-01
-2.668812274932861328e-01 -3.005632162094116211e-01 -2.690155208110809326e-01
-2.590584456920623779e-01 -2.668454051017761230e-01 -2.460461258888244629e-01
-2.578450143337249756e-01 -2.924143373966217041e-01 -2.498007863759994507e-01
-4.635325074195861816e-02 -2.361917793750762939e-01 1.805085539817810059e-01
-5.210262909531593323e-02 -2.463188916444778442e-01 1.829400211572647095e-01
-4.856605455279350281e-02 -2.230803966522216797e-01 1.908384114503860474e-01
-5.405451729893684387e-02 -2.340847551822662354e-01 1.932544857263565063e-01
3.009504638612270355e-02 6.370921134948730469e-01 -3.720672130584716797e-01
2.213050425052642822e-02 6.198601722717285156e-01 -3.788546323776245117e-01
4.516988247632980347e-02 6.405811309814453125e-01 -3.594838380813598633e-01
3.760752081871032715e-02 6.228972673416137695e-01 -3.656582534313201904e-01
-2.472352534532546997e-01 -2.826688289642333984e-01 -4.675288796424865723e-01
-2.579562366008758545e-01 -2.900903820991516113e-01 -4.578251838684082031e-01
-2.546268701553344727e-01 -2.885940074920654297e-01 -4.535578191280364990e-01
-2.648855745792388916e-01 -2.925838232040405273e-01 -4.429893493652343750e-01
2.253431677818298340e-01 -3.418190181255340576e-01 -9.905394911766052246e-02
2.182511538267135620e-01 -3.437976241111755371e-01 -8.671323210000991821e-02
2.307626307010650635e-01 -3.491209149360656738e-01 -8.816964179277420044e-02
2.230453789234161377e-01 -3.509672284126281738e-01 -7.553379982709884644e-02
2.887399792671203613e-01 2.561113238334655762e-01 -4.739970564842224121e-01
2.820295989513397217e-01 2.370358556509017944e-01 -4.655782282352447510e-01
2.777113616466522217e-01 2.658367156982421875e-01 -4.602704048156738281e-01
2.707229256629943848e-01 2.472206056118011475e-01 -4.516306221485137939e-01
-2.106162905693054199e-02 2.956894040107727051e-01 -4.427397623658180237e-03
-3.094758465886116028e-02 2.876840233802795410e-01 9.908083826303482056e-03
-8.732460439205169678e-03 2.951536178588867188e-01 8.560542017221450806e-03
-1.908184215426445007e-02 2.875862717628479004e-01 2.235551923513412476e-02
-3.086574375629425049e-01 -2.205884084105491638e-05 3.966719508171081543e-01
-3.182054460048675537e-01 1.554579660296440125e-02 4.005268216133117676e-01
-2.991436421871185303e-01 3.476549405604600906e-03 4.106609225273132324e-01
-3.088770806789398193e-01 1.841886527836322784e-02 4.146395623683929443e-01
3.285660147666931152e-01 1.326789110898971558e-01 -3.118420839309692383e-01
3.182208538055419922e-01 1.175929009914398193e-01 -3.012141585350036621e-01
3.159173727035522461e-01 1.436743736267089844e-01 -2.953068614006042480e-01
3.052621781826019287e-01 1.284651309251785278e-01 -2.842744290828704834e-01
-5.043001174926757812e-01 -1.155631169676780701e-01 -5.333353206515312195e-02
-5.208722949028015137e-01 -1.098150834441184998e-01 -4.498064517974853516e-02
-4.964883327484130859e-01 -9.762244671583175659e-02 -4.575014114379882812e-02
-5.130985379219055176e-01 -9.157270938158035278e-02 -3.740815073251724243e-02
7.816495001316070557e-02 8.388335704803466797e-01 -3.230708539485931396e-01
6.832968443632125854e-02 8.236640691757202148e-01 -3.241316378116607666e-01
8.929254114627838135e-02 8.384785652160644531e-01 -3.137168288230895996e-01
8.082456886768341064e-02 8.227839469909667969e-01 -3.144003450870513916e-01
-2.190616875886917114e-01 -1.760738641023635864e-01 -2.231179326772689819e-01
-2.275526672601699829e-01 -1.906061619520187378e-01 -2.215734869241714478e-01
-2.043026834726333618e-01 -1.718383133411407471e-01 -2.116865813732147217e-01
-2.127845436334609985e-01 -1.875536441802978516e-01 -2.101025879383087158e-01
8.252965658903121948e-02 -3.397215008735656738e-01 -4.139399901032447815e-02
6.864156574010848999e-02 -3.316127657890319824e-01 -2.851839549839496613e-02
9.229567646980285645e-02 -3.348967730998992920e-01 -2.638060785830020905e-02
7.845392078161239624e-02 -3.275653123855590820e-01 -1.403423398733139038e-02
9.463198482990264893e-02 -5.116439610719680786e-02 3.851604759693145752e-01
8.133254945278167725e-02 -3.009693324565887451e-02 3.932717144489288330e-01
1.068684309720993042e-01 -4.652406647801399231e-02 4.043178260326385498e-01
9.341213852167129517e-02 -2.533789724111557007e-02 4.124244749546051025e-01
-1.061106473207473755e-01 -5.999655276536941528e-02 -2.967630624771118164e-01
-1.150719076395034790e-01 -6.436806172132492065e-02 -2.838076651096343994e-01
-9.611832350492477417e-02 -6.334660947322845459e-02 -2.799021601676940918e-01
-1.059755533933639526e-01 -6.917437165975570679e-02 -2.667842209339141846e-01
-1.054196730256080627e-01 -4.163482487201690674e-01 -2.096810638904571533e-01
-1.250634640455245972e-01 -3.950702846050262451e-01 -1.920403540134429932e-01
-9.782629460096359253e-02 -3.976020812988281250e-01 -1.851964294910430908e-01
-1.184226870536804199e-01 -3.752226233482360840e-01 -1.670432686805725098e-01
1.491707563400268555e-01 2.076830118894577026e-01 -3.030011951923370361e-01
1.473420113325119019e-01 1.890597939491271973e-01 -2.973815202713012695e-01
1.351875811815261841e-01 2.113642692565917969e-01 -2.849276959896087646e-01
1.365984082221984863e-01 1.902595162391662598e-01 -2.798678874969482422e-01
2.117581367492675781e-01 1.150349453091621399e-01 -3.696646690368652344e-01
2.083862572908401489e-01 9.699025750160217285e-02 -3.631856441497802734e-01
1.993210464715957642e-01 1.188893839716911316e-01 -3.552402257919311523e-01
1.963095813989639282e-01 1.007460877299308777e-01 -3.490713834762573242e-01
2.703947722911834717e-01 -1.940314471721649170e-01 -2.203367501497268677e-01
2.716254293918609619e-01 -2.109698802232742310e-01 -2.148247957229614258e-01
2.688009738922119141e-01 -1.944795697927474976e-01 -2.044712156057357788e-01
2.700040340423583984e-01 -2.111641317605972290e-01 -1.989785432815551758e-01
-2.135436609387397766e-02 -3.055508136749267578e-01 3.477088510990142822e-01
-2.966941520571708679e-02 -3.178546726703643799e-01 3.623590469360351562e-01
-4.668601788580417633e-03 -3.187329471111297607e-01 3.641927242279052734e-01
-1.260486245155334473e-02 -3.319885730743408203e-01 3.789469599723815918e-01
-3.971934691071510315e-02 4.679375290870666504e-01 -8.235321193933486938e-02
-4.565201699733734131e-02 4.527436792850494385e-01 -7.703689485788345337e-02
-4.394683614373207092e-02 4.778537154197692871e-01 -7.216163724660873413e-02
-5.049718171358108521e-02 4.629040062427520752e-01 -6.607286632061004639e-02
5.370206236839294434e-01 -1.989828944206237793e-01 -1.002766489982604980e-01
5.336354374885559082e-01 -2.126414775848388672e-01 -1.064371839165687561e-01
5.477634072303771973e-01 -1.933540105819702148e-01 -8.798219263553619385e-02
5.451162457466125488e-01 -2.077392190694808960e-01 -9.419299662113189697e-02
-2.140469104051589966e-02 3.188419938087463379e-01 -6.019937247037887573e-02
-3.238036856055259705e-02 3.192346096038818359e-01 -4.726895689964294434e-02
-1.567015796899795532e-02 3.080363571643829346e-01 -5.260099470615386963e-02
-2.708777971565723419e-02 3.076573312282562256e-01 -4.024335369467735291e-02
-5.336951091885566711e-02 -3.935671746730804443e-01 -1.919821798801422119e-01
-7.146796584129333496e-02 -3.781738281250000000e-01 -1.751563847064971924e-01
-3.909628093242645264e-02 -3.783383071422576904e-01 -1.771699190139770508e-01
-5.802448838949203491e-02 -3.629964292049407959e-01 -1.621861755847930908e-01
-1.004709228873252869e-01 -1.749435663223266602e-01 -1.586825847625732422e-01
-1.097092926502227783e-01 -1.916217654943466187e-01 -1.524254977703094482e-01
-8.477097749710083008e-02 -1.840339303016662598e-01 -1.522685587406158447e-01
-9.341404587030410767e-02 -2.013465017080307007e-01 -1.460256725549697876e-01
4.589860439300537109e-01 2.297609895467758179e-01 -4.861500561237335205e-01
4.609259963035583496e-01 2.090032547712326050e-01 -4.816412925720214844e-01
4.496907889842987061e-01 2.305950522422790527e-01 -4.691914021968841553e-01
4.505672156810760498e-01 2.106207460165023804e-01 -4.649125933647155762e-01
2.367748022079467773e-01 7.520375847816467285e-01 -2.066413760185241699e-01
2.285158485174179077e-01 7.371133565902709961e-01 -2.125173509120941162e-01
2.532169222831726074e-01 7.495497465133666992e-01 -1.972358673810958862e-01
2.461388260126113892e-01 7.339911460876464844e-01 -2.036876231431961060e-01
1.713034212589263916e-01 -5.794215947389602661e-02 -1.052253171801567078e-01
1.703889667987823486e-01 -8.269754052162170410e-02 -9.897837042808532715e-02
1.594047695398330688e-01 -5.744244530797004700e-02 -8.950353413820266724e-02
1.583613306283950806e-01 -8.233227580785751343e-02 -8.342401683330535889e-02
2.100461125373840332e-01 -3.794375658035278320e-01 1.339481119066476822e-02
2.046857774257659912e-01 -3.709800541400909424e-01 2.916118130087852478e-02
2.181942611932754517e-01 -3.861624598503112793e-01 3.238357603549957275e-02
2.123106718063354492e-01 -3.768343031406402588e-01 4.835781082510948181e-02
-5.075342655181884766e-01 -3.970408439636230469e-01 2.247403413057327271e-01
-5.226420164108276367e-01 -3.881829977035522461e-01 2.413862347602844238e-01
-4.964998364448547363e-01 -3.948016166687011719e-01 2.400103360414505005e-01
-5.117825269699096680e-01 -3.856178224086761475e-01 2.554506361484527588e-01
5.829681158065795898e-01 -2.142151147127151489e-01 1.228051260113716125e-02
5.828553438186645508e-01 -2.263009101152420044e-01 1.567926816642284393e-02
5.842053294181823730e-01 -2.142093181610107422e-01 3.137691318988800049e-02
5.841347575187683105e-01 -2.264943420886993408e-01 3.512366488575935364e-02
2.482721954584121704e-01 1.625245511531829834e-01 -4.169712662696838379e-01
2.462841272354125977e-01 1.429574191570281982e-01 -4.127081930637359619e-01
2.364079952239990234e-01 1.699322760105133057e-01 -4.038512706756591797e-01
2.344574183225631714e-01 1.506041884422302246e-01 -3.995382785797119141e-01
1.783987134695053101e-01 -1.987351626157760620e-01 -7.828506827354431152e-02
1.730148494243621826e-01 -2.166392207145690918e-01 -7.030525058507919312e-02
1.821964383125305176e-01 -1.907925903797149658e-01 -6.740697473287582397e-02
1.766822934150695801e-01 -2.082305252552032471e-01 -5.924953892827033997e-02
1.852131187915802002e-01 2.206337302923202515e-01 -1.493499875068664551e-01
1.807968318462371826e-01 2.037128955125808716e-01 -1.505085378885269165e-01
1.833837926387786865e-01 2.354315370321273804e-01 -1.444583088159561157e-01
1.783437430858612061e-01 2.186087518930435181e-01 -1.451321691274642944e-01
-2.251269072294235229e-01 -1.440612524747848511e-01 5.750724673271179199e-01
-2.268422991037368774e-01 -1.620926409959793091e-01 5.742300748825073242e-01
-2.167501002550125122e-01 -1.351056694984436035e-01 5.875416994094848633e-01
-2.180826663970947266e-01 -1.528417468070983887e-01 5.871980786323547363e-01
4.766610264778137207e-02 3.089310824871063232e-01 -6.236425787210464478e-02
3.327918425202369690e-02 3.095633089542388916e-01 -5.496612563729286194e-02
5.688356980681419373e-02 3.176039755344390869e-01 -5.055790394544601440e-02
4.177895933389663696e-02 3.170299828052520752e-01 -4.383092746138572693e-02
-5.422180518507957458e-02 3.659949079155921936e-02 4.614521861076354980e-01
-6.728164851665496826e-02 3.630806505680084229e-02 4.726372063159942627e-01
-4.293168336153030396e-02 3.856471180915832520e-02 4.796795248985290527e-01
-5.473318323493003845e-02 3.856075555086135864e-02 4.910621643066406250e-01
-6.492870450019836426e-01 -8.098964393138885498e-02 1.744172424077987671e-01
-6.608458161354064941e-01 -9.341987967491149902e-02 1.779285818338394165e-01
-6.396707892417907715e-01 -7.450003921985626221e-02 1.847132444381713867e-01
-6.513968706130981445e-01 -8.681859821081161499e-02 1.887062042951583862e-01
4.569631442427635193e-02 -3.515340387821197510e-01 5.770623683929443359e-01
2.652201429009437561e-02 -3.534083366394042969e-01 5.813097953796386719e-01
5.588284134864807129e-02 -3.397968709468841553e-01 5.926941633224487305e-01
3.672733157873153687e-02 -3.413747251033782959e-01 5.971761941909790039e-01
-4.880713671445846558e-02 -4.590632319450378418e-01 -2.761957347393035889e-01
-6.565909832715988159e-02 -4.562662839889526367e-01 -2.668861746788024902e-01
-3.851152583956718445e-02 -4.540487527847290039e-01 -2.606252431869506836e-01
-5.463324859738349915e-02 -4.499946534633636475e-01 -2.506828308105468750e-01
-2.452548407018184662e-02 -5.516783520579338074e-02 -3.727283179759979248e-01
-3.573189303278923035e-02 -5.205821618437767029e-02 -3.597587049007415771e-01
-1.665168814361095428e-02 -5.893139913678169250e-02 -3.560471236705780029e-01
-2.788489311933517456e-02 -5.577557906508445740e-02 -3.431842327117919922e-01
1.261387020349502563e-01 -1.584723889827728271e-01 6.429263949394226074e-01
1.207770183682441711e-01 -1.811918765306472778e-01 6.480938792228698730e-01
1.186319217085838318e-01 -1.437661647796630859e-01 6.532600522041320801e-01
1.141703575849533081e-01 -1.687698960304260254e-01 6.584706902503967285e-01
3.433485627174377441e-01 8.100746870040893555e-01 -1.126104071736335754e-01
3.390807509422302246e-01 7.906761765480041504e-01 -1.186349987983703613e-01
3.624040484428405762e-01 8.069496154785156250e-01 -9.611194580793380737e-02
3.572044968605041504e-01 7.886142730712890625e-01 -1.015293449163436890e-01
-2.996019721031188965e-01 2.732223570346832275e-01 2.434172928333282471e-01
-3.082726895809173584e-01 2.732117176055908203e-01 2.574736177921295166e-01
-2.992244958877563477e-01 2.614355981349945068e-01 2.547720372676849365e-01
-3.081352114677429199e-01 2.616063356399536133e-01 2.693490386009216309e-01
1.846652925014495850e-01 -1.752936542034149170e-01 5.252999067306518555e-01
1.820041239261627197e-01 -1.919402182102203369e-01 5.335267186164855957e-01
1.844315230846405029e-01 -1.677345931529998779e-01 5.459449291229248047e-01
1.817530393600463867e-01 -1.842082887887954712e-01 5.540996193885803223e-01
-7.038763165473937988e-02 -2.711412310600280762e-01 2.042740136384963989e-01
-7.781127095222473145e-02 -2.766593992710113525e-01 2.079207748174667358e-01
-6.917449831962585449e-02 -2.594702243804931641e-01 2.135279476642608643e-01
-7.586670666933059692e-02 -2.663624584674835205e-01 2.176117897033691406e-01
3.056989796459674835e-02 -2.838805913925170898e-01 -1.511179953813552856e-01
2.133542485535144806e-02 -2.828440964221954346e-01 -1.382659971714019775e-01
4.526226595044136047e-02 -2.929314672946929932e-01 -1.383471339941024780e-01
3.625925257802009583e-02 -2.904532253742218018e-01 -1.250348538160324097e-01
1.152134612202644348e-01 5.489045381546020508e-01 -3.412001430988311768e-01
1.117468103766441345e-01 5.284656286239624023e-01 -3.444731831550598145e-01
1.280565857887268066e-01 5.468609333038330078e-01 -3.318796753883361816e-01
1.247829496860504150e-01 5.261683464050292969e-01 -3.361613154411315918e-01
4.717662036418914795e-01 -1.152771338820457458e-01 -4.834222197532653809e-01
4.656444191932678223e-01 -1.222332864999771118e-01 -4.738426804542541504e-01
4.759849905967712402e-01 -1.064719110727310181e-01 -4.698146283626556396e-01
4.690484106540679932e-01 -1.132798269391059875e-01 -4.621402323246002197e-01
4.638710021972656250e-01 7.911337018013000488e-01 -2.128349244594573975e-02
4.563160538673400879e-01 7.741301655769348145e-01 -2.604347653687000275e-02
4.798583686351776123e-01 7.883251309394836426e-01 -1.232074014842510223e-02
4.720846712589263916e-01 7.708635330200195312e-01 -1.731545105576515198e-02
3.585813343524932861e-01 -1.778897643089294434e-01 -1.821440905332565308e-01
3.440027236938476562e-01 -1.644800901412963867e-01 -1.769930869340896606e-01
3.730142414569854736e-01 -1.752998977899551392e-01 -1.807533055543899536e-01
3.581612408161163330e-01 -1.612622141838073730e-01 -1.761594712734222412e-01
3.064257204532623291e-01 3.941344022750854492e-01 -3.064287602901458740e-01
2.939036488533020020e-01 3.833243548870086670e-01 -2.926444709300994873e-01
2.969257533550262451e-01 4.025238156318664551e-01 -2.915284037590026855e-01
2.832960188388824463e-01 3.920841217041015625e-01 -2.772461175918579102e-01
-6.038517951965332031e-01 -1.894072294235229492e-01 -3.871136158704757690e-02
-6.099245548248291016e-01 -2.008504271507263184e-01 -3.032410889863967896e-02
-5.951296687126159668e-01 -2.005142420530319214e-01 -3.996193036437034607e-02
-6.008017063140869141e-01 -2.129096388816833496e-01 -3.178557008504867554e-02
-3.935095369815826416e-01 -3.424568474292755127e-01 2.840801179409027100e-01
-4.117470979690551758e-01 -3.305005133152008057e-01 2.963107228279113770e-01
-3.904336690902709961e-01 -3.254537284374237061e-01 2.970449924468994141e-01
-4.085526764392852783e-01 -3.124995529651641846e-01 3.096816539764404297e-01
3.762751817703247070e-01 -4.778193682432174683e-02 -5.557245612144470215e-01
3.632754981517791748e-01 -4.505539685487747192e-02 -5.433931946754455566e-01
3.646737933158874512e-01 -4.355462640523910522e-02 -5.409840941429138184e-01
3.528512418270111084e-01 -4.358693957328796387e-02 -5.290163159370422363e-01
7.710086554288864136e-02 -3.411565721035003662e-01 5.576387047767639160e-01
5.765421688556671143e-02 -3.460352420806884766e-01 5.610737800598144531e-01
8.722473680973052979e-02 -3.325849473476409912e-01 5.728194117546081543e-01
6.768957525491714478e-02 -3.370855152606964111e-01 5.760565400123596191e-01
1.660193949937820435e-01 1.272601634263992310e-01 -1.523473262786865234e-01
1.552826166152954102e-01 1.127947419881820679e-01 -1.504121124744415283e-01
1.832939833402633667e-01 1.250767111778259277e-01 -1.494156569242477417e-01
1.726129353046417236e-01 1.102159768342971802e-01 -1.469503641128540039e-01
-1.698833703994750977e-01 -2.063874714076519012e-02 4.497740566730499268e-01
-1.818298548460006714e-01 -2.757460623979568481e-02 4.594756066799163818e-01
-1.606667041778564453e-01 -8.825641125440597534e-03 4.601649343967437744e-01
-1.726167947053909302e-01 -1.579510234296321869e-02 4.706430137157440186e-01
2.335514575242996216e-01 -3.116727471351623535e-01 -1.840832382440567017e-01
2.230155020952224731e-01 -3.190941214561462402e-01 -1.733180284500122070e-01
2.415555417537689209e-01 -3.112166225910186768e-01 -1.675139963626861572e-01
2.307961434125900269e-01 -3.176867365837097168e-01 -1.562603116035461426e-01
3.647070229053497314e-01 -1.984717547893524170e-01 2.296121120452880859e-01
3.562467098236083984e-01 -2.159846127033233643e-01 2.330368161201477051e-01
3.819937705993652344e-01 -2.062502801418304443e-01 2.293760031461715698e-01
3.740544617176055908e-01 -2.238701283931732178e-01 2.324019819498062134e-01
1.329765021800994873e-01 -2.271192520856857300e-01 3.826197683811187744e-01
1.272731423377990723e-01 -2.389672696590423584e-01 3.824127614498138428e-01
1.423729807138442993e-01 -2.276639193296432495e-01 3.941175937652587891e-01
1.369703114032745361e-01 -2.397406399250030518e-01 3.937125802040100098e-01
-2.714735269546508789e-01 -6.524118781089782715e-02 3.335374593734741211e-01
-2.834312617778778076e-01 -5.798766389489173889e-02 3.424341082572937012e-01
-2.609425783157348633e-01 -6.221958994865417480e-02 3.463945984840393066e-01
-2.723824381828308105e-01 -5.574879795312881470e-02 3.519277870655059814e-01
-2.499796301126480103e-01 -3.297360837459564209e-01 -4.587724804878234863e-01
-2.594004273414611816e-01 -3.273892402648925781e-01 -4.461669921875000000e-01
-2.509655356407165527e-01 -3.445411324501037598e-01 -4.464638531208038330e-01
-2.600694596767425537e-01 -3.417397439479827881e-01 -4.333784282207489014e-01
-1.453618258237838745e-01 -9.471210092306137085e-02 2.832551300525665283e-01
-1.571654379367828369e-01 -9.187721461057662964e-02 2.952100932598114014e-01
-1.435693502426147461e-01 -9.667205810546875000e-02 2.917594015598297119e-01
-1.546067893505096436e-01 -9.475100040435791016e-02 3.035379350185394287e-01
-6.810568571090698242e-01 -2.796704173088073730e-01 1.720428913831710815e-01
-6.833992004394531250e-01 -2.726548612117767334e-01 1.819663196802139282e-01
-6.762867569923400879e-01 -2.837433218955993652e-01 1.875225603580474854e-01
-6.789223551750183105e-01 -2.757935523986816406e-01 1.967996209859848022e-01
-3.195007890462875366e-02 5.771293640136718750e-01 -4.345871210098266602e-01
-3.704059123992919922e-02 5.535714030265808105e-01 -4.400621652603149414e-01
-1.513624284416437149e-02 5.817248821258544922e-01 -4.186832010746002197e-01
-1.919905096292495728e-02 5.591444969177246094e-01 -4.238655269145965576e-01
3.620129823684692383e-01 7.022078335285186768e-02 -5.507838129997253418e-01
3.579415082931518555e-01 5.391399189829826355e-02 -5.456964969635009766e-01
3.517394661903381348e-01 7.831349968910217285e-02 -5.388329029083251953e-01
3.475997447967529297e-01 6.228292733430862427e-02 -5.334594249725341797e-01
3.532778918743133545e-01 7.726758122444152832e-01 -9.417872130870819092e-02
3.457318246364593506e-01 7.513089179992675781e-01 -1.001129820942878723e-01
3.694868683815002441e-01 7.797230482101440430e-01 -8.063217997550964355e-02
3.633678555488586426e-01 7.592574357986450195e-01 -8.566216379404067993e-02
3.229910880327224731e-02 -6.890418380498886108e-02 -1.390531361103057861e-01
2.309357002377510071e-02 -8.828102052211761475e-02 -1.290701180696487427e-01
2.280828356742858887e-02 -5.450218915939331055e-02 -1.265823543071746826e-01
1.403672993183135986e-02 -7.303562760353088379e-02 -1.175882741808891296e-01
-1.275112032890319824e-01 3.262960612773895264e-01 2.336477488279342651e-01
-1.385450512170791626e-01 3.158652782440185547e-01 2.412145435810089111e-01
-1.329129934310913086e-01 3.333301544189453125e-01 2.519530653953552246e-01
-1.459194123744964600e-01 3.236198425292968750e-01 2.602223455905914307e-01
1.103895604610443115e-01 2.087861001491546631e-01 -1.753567755222320557e-01
1.061771884560585022e-01 1.970290541648864746e-01 -1.824751943349838257e-01
1.238909438252449036e-01 2.108636945486068726e-01 -1.661549210548400879e-01
1.196191236376762390e-01 1.987641900777816772e-01 -1.729628145694732666e-01
-3.138849139213562012e-01 -1.333350315690040588e-02 4.892187416553497314e-01
-3.163790404796600342e-01 -3.461754322052001953e-02 4.943536520004272461e-01
-3.275165259838104248e-01 -7.183131761848926544e-03 5.055140852928161621e-01
-3.301492035388946533e-01 -2.800774760544300079e-02 5.104314684867858887e-01
3.627795279026031494e-01 -1.270771622657775879e-01 -4.442310929298400879e-01
3.473708629608154297e-01 -1.167981475591659546e-01 -4.351569414138793945e-01
3.737859427928924561e-01 -1.252607107162475586e-01 -4.292504787445068359e-01
3.585432171821594238e-01 -1.146894320845603943e-01 -4.196381866931915283e-01
-3.171349167823791504e-01 3.811471164226531982e-01 2.587408423423767090e-01
-3.255273997783660889e-01 3.777422904968261719e-01 2.704412937164306641e-01
-3.124361932277679443e-01 3.872795701026916504e-01 2.735362946987152100e-01
-3.212407231330871582e-01 3.849401175975799561e-01 2.862054109573364258e-01
3.613290488719940186e-01 -4.468203485012054443e-01 2.002641558647155762e-03
3.500426411628723145e-01 -4.470466375350952148e-01 1.628283411264419556e-02
3.683854937553405762e-01 -4.501691162586212158e-01 1.838279888033866882e-02
3.578154742717742920e-01 -4.502576291561126709e-01 3.310326486825942993e-02
3.413620889186859131e-01 5.230529904365539551e-01 -1.341158300638198853e-01
3.346508443355560303e-01 5.072852969169616699e-01 -1.404962986707687378e-01
3.587660491466522217e-01 5.247522592544555664e-01 -1.202661171555519104e-01
3.520407378673553467e-01 5.091446042060852051e-01 -1.261584758758544922e-01
2.630133628845214844e-01 -1.620086431503295898e-01 1.770864874124526978e-01
2.556576728820800781e-01 -1.770014315843582153e-01 1.783043444156646729e-01
2.736455202102661133e-01 -1.629311144351959229e-01 1.862508058547973633e-01
2.664128839969635010e-01 -1.795236021280288696e-01 1.878394037485122681e-01
-6.306176781654357910e-01 -2.624189555644989014e-01 -7.008751854300498962e-04
-6.376023888587951660e-01 -2.705173492431640625e-01 1.005176827311515808e-02
-6.298193335533142090e-01 -2.796157300472259521e-01 5.766076967120170593e-03
-6.367493867874145508e-01 -2.861022949218750000e-01 1.748299226164817810e-02
-5.348992347717285156e-02 -7.767090946435928345e-02 6.924454569816589355e-01
-6.192405149340629578e-02 -9.538380801677703857e-02 6.959483027458190918e-01
-4.014831036329269409e-02 -8.792260289192199707e-02 6.951231360435485840e-01
-4.909106716513633728e-02 -1.056492477655410767e-01 6.989196538925170898e-01
8.467825502157211304e-02 -5.250911042094230652e-02 -2.053736895322799683e-01
7.964399456977844238e-02 -7.009621709585189819e-02 -2.007891237735748291e-01
7.747635245323181152e-02 -3.833542764186859131e-02 -1.962905973196029663e-01
7.094839960336685181e-02 -5.357694625854492188e-02 -1.917091459035873413e-01
4.544747173786163330e-01 5.016637593507766724e-02 -6.211763620376586914e-01
4.509649276733398438e-01 3.321750089526176453e-02 -6.210733652114868164e-01
4.693329334259033203e-01 5.201606824994087219e-02 -6.082878112792968750e-01
4.656241536140441895e-01 3.362847119569778442e-02 -6.087376475334167480e-01
-9.286006912589073181e-03 -6.520711630582809448e-02 1.122265607118606567e-01
-1.489813439548015594e-02 -8.460030704736709595e-02 1.223967522382736206e-01
-1.900013163685798645e-02 -6.409581005573272705e-02 1.285969763994216919e-01
-2.466848120093345642e-02 -8.264348655939102173e-02 1.388084888458251953e-01
3.494427204132080078e-01 4.548338651657104492e-01 -4.490832984447479248e-01
3.352842628955841064e-01 4.665408730506896973e-01 -4.359882473945617676e-01
3.470152020454406738e-01 4.670328199863433838e-01 -4.317219555377960205e-01
3.340546190738677979e-01 4.786365926265716553e-01 -4.193588495254516602e-01
1.763748526573181152e-01 -1.753565371036529541e-01 5.647734403610229492e-01
1.735162883996963501e-01 -1.917113065719604492e-01 5.734212994575500488e-01
1.745665669441223145e-01 -1.688970923423767090e-01 5.842478871345520020e-01
1.718688458204269409e-01 -1.847687065601348877e-01 5.924439430236816406e-01
-1.982906460762023926e-01 7.266820073127746582e-01 -5.524647831916809082e-01
-1.996798515319824219e-01 7.086964249610900879e-01 -5.546271800994873047e-01
-1.846298426389694214e-01 7.265507578849792480e-01 -5.447797775268554688e-01
-1.856700778007507324e-01 7.084333896636962891e-01 -5.470119714736938477e-01
1.699552685022354126e-01 -3.092902004718780518e-01 2.078546397387981415e-02
1.650239378213882446e-01 -3.010777831077575684e-01 3.550108149647712708e-02
1.767214536666870117e-01 -3.169185221195220947e-01 3.750012069940567017e-02
1.738418042659759521e-01 -3.062409460544586182e-01 5.381448939442634583e-02
2.914835214614868164e-01 2.449620664119720459e-01 -2.728160023689270020e-01
2.854505777359008789e-01 2.281444519758224487e-01 -2.669232189655303955e-01
2.779241800308227539e-01 2.542373239994049072e-01 -2.583224177360534668e-01
2.725045680999755859e-01 2.377075403928756714e-01 -2.527744472026824951e-01
-1.683154404163360596e-01 -4.962678253650665283e-02 2.306731939315795898e-01
-1.812527775764465332e-01 -5.704712122678756714e-02 2.472079992294311523e-01
-1.643978655338287354e-01 -5.880120769143104553e-02 2.459058612585067749e-01
-1.770023852586746216e-01 -6.409947574138641357e-02 2.612214088439941406e-01
3.270213007926940918e-01 -4.194899648427963257e-02 -3.842974826693534851e-02
3.138928711414337158e-01 -3.914291411638259888e-02 -2.284904196858406067e-02
3.335082828998565674e-01 -3.691403195261955261e-02 -2.469201013445854187e-02
3.213997781276702881e-01 -3.512037545442581177e-02 -1.079423166811466217e-02
3.021582663059234619e-01 2.673099637031555176e-01 -4.895848333835601807e-01
2.957249581813812256e-01 2.483949214220046997e-01 -4.819047152996063232e-01
2.914686203002929688e-01 2.772063314914703369e-01 -4.772670269012451172e-01
2.850657105445861816e-01 2.586418986320495605e-01 -4.693279564380645752e-01
-3.076760843396186829e-02 -3.591042160987854004e-01 5.836414694786071777e-01
-4.565657675266265869e-02 -3.528572916984558105e-01 5.918369293212890625e-01
-2.504550665616989136e-02 -3.495381474494934082e-01 6.018660664558410645e-01
-4.053652286529541016e-02 -3.429793119430541992e-01 6.108741760253906250e-01
-1.082931458950042725e-01 -2.006417810916900635e-01 -5.559391975402832031e-01
-1.223469674587249756e-01 -1.956031620502471924e-01 -5.527418255805969238e-01
-9.108243882656097412e-02 -1.926142424345016479e-01 -5.507866144180297852e-01
-1.071057915687561035e-01 -1.849317252635955811e-01 -5.477488636970520020e-01
-3.268810212612152100e-01 -1.716775000095367432e-01 5.182600021362304688e-01
-3.416109681129455566e-01 -1.664148271083831787e-01 5.281280875205993652e-01
-3.219383955001831055e-01 -1.553605794906616211e-01 5.183039307594299316e-01
-3.348979055881500244e-01 -1.526419371366500854e-01 5.276935100555419922e-01
-8.909597992897033691e-02 -3.443025648593902588e-01 4.092237353324890137e-01
-1.043640375137329102e-01 -3.448012471199035645e-01 4.304753541946411133e-01
-7.631205767393112183e-02 -3.559372425079345703e-01 4.282125532627105713e-01
-9.087142348289489746e-02 -3.562653362751007080e-01 4.492574930191040039e-01
1.920996233820915222e-02 7.524400483816862106e-03 -3.542802296578884125e-04
9.268227964639663696e-03 8.738196454942226410e-03 9.811477735638618469e-03
2.850192412734031677e-02 4.640145227313041687e-03 9.959859773516654968e-03
1.913212053477764130e-02 5.885966122150421143e-03 2.008104510605335236e-02
-4.951492249965667725e-01 -3.699547052383422852e-01 2.805448770523071289e-01
-5.090895891189575195e-01 -3.562309145927429199e-01 2.914176881313323975e-01
-4.877021908760070801e-01 -3.514139652252197266e-01 2.976186573505401611e-01
-5.017690658569335938e-01 -3.370984792709350586e-01 3.083925843238830566e-01
3.811158537864685059e-01 -2.764951810240745544e-02 6.883439607918262482e-03
3.691498339176177979e-01 -2.861540205776691437e-02 1.623373851180076599e-02
3.994658291339874268e-01 -3.049561381340026855e-02 2.011609636247158051e-02
3.862128555774688721e-01 -3.104702010750770569e-02 2.932793274521827698e-02
4.383876621723175049e-01 -4.169861078262329102e-01 -6.403625011444091797e-02
4.267177581787109375e-01 -4.257318079471588135e-01 -5.309141427278518677e-02
4.501118361949920654e-01 -4.216659069061279297e-01 -4.751928895711898804e-02
4.394312202930450439e-01 -4.315046370029449463e-01 -3.634462133049964905e-02
-2.880183458328247070e-01 -2.523462772369384766e-01 -3.450118899345397949e-01
-2.885249555110931396e-01 -2.759257555007934570e-01 -3.352197706699371338e-01
-2.875780761241912842e-01 -2.496396005153656006e-01 -3.240242600440979004e-01
-2.858532071113586426e-01 -2.756862342357635498e-01 -3.162019550800323486e-01
5.209807157516479492e-01 -3.713192045688629150e-01 -4.462797567248344421e-02
5.106129050254821777e-01 -3.833749592304229736e-01 -3.560593724250793457e-02
5.283879637718200684e-01 -3.731917440891265869e-01 -3.018590807914733887e-02
5.188410282135009766e-01 -3.852479159832000732e-01 -2.124940417706966400e-02
1.133814379572868347e-01 -3.224691450595855713e-01 4.979344606399536133e-01
1.055633276700973511e-01 -3.313659727573394775e-01 5.052193403244018555e-01
1.221198663115501404e-01 -3.133202493190765381e-01 5.125807523727416992e-01
1.132639124989509583e-01 -3.233380615711212158e-01 5.201331377029418945e-01
3.079131618142127991e-02 8.169668912887573242e-01 -3.573162853717803955e-01
2.194334752857685089e-02 8.023355007171630859e-01 -3.608054220676422119e-01
4.466785863041877747e-02 8.173899650573730469e-01 -3.476600944995880127e-01
3.582934290170669556e-02 8.030564785003662109e-01 -3.505265116691589355e-01
2.975708842277526855e-01 1.722900718450546265e-01 -2.760018706321716309e-01
2.889371216297149658e-01 1.543419659137725830e-01 -2.669877409934997559e-01
2.853289246559143066e-01 1.842942982912063599e-01 -2.596517205238342285e-01
2.776500284671783447e-01 1.651562750339508057e-01 -2.517420053482055664e-01
-1.485266834497451782e-01 -1.378935426473617554e-01 3.059067130088806152e-01
-1.543459743261337280e-01 -1.489043831825256348e-01 3.161750435829162598e-01
-1.453502029180526733e-01 -1.439563035964965820e-01 3.131034672260284424e-01
-1.511819809675216675e-01 -1.554173529148101807e-01 3.232089281082153320e-01
2.594754993915557861e-01 1.572198048233985901e-02 -2.813806533813476562e-01
2.510860860347747803e-01 1.724187657237052917e-02 -2.684501409530639648e-01
2.654243111610412598e-01 1.882988587021827698e-02 -2.676835656166076660e-01
2.573483884334564209e-01 1.858115941286087036e-02 -2.551226913928985596e-01
4.186829328536987305e-01 2.632461488246917725e-01 -4.352477788925170898e-01
4.178128242492675781e-01 2.465551793575286865e-01 -4.321980178356170654e-01
4.096885621547698975e-01 2.710275352001190186e-01 -4.241504669189453125e-01
4.089485704898834229e-01 2.541794776916503906e-01 -4.209596216678619385e-01
1.083742305636405945e-01 2.092040777206420898e-01 -2.592002451419830322e-01
1.105144247412681580e-01 1.867688149213790894e-01 -2.526504397392272949e-01
9.971163421869277954e-02 2.065191566944122314e-01 -2.400568127632141113e-01
1.019551753997802734e-01 1.836634278297424316e-01 -2.337597608566284180e-01
-8.492562919855117798e-03 3.035929799079895020e-01 -3.082958050072193146e-02
-1.863092556595802307e-02 2.983354926109313965e-01 -1.767276413738727570e-02
4.432654473930597305e-03 3.056676387786865234e-01 -1.753511279821395874e-02
-6.250958889722824097e-03 2.994825243949890137e-01 -4.476462490856647491e-03
-4.668356776237487793e-01 2.287303954362869263e-01 5.184372663497924805e-01
-4.690657258033752441e-01 2.101323455572128296e-01 5.252305269241333008e-01
