5.605329275131225586e-01 6.298516988754272461e-01 1.197202801704406738e-01
5.524873733520507812e-01 6.145135760307312012e-01 1.217059791088104248e-01
5.738861560821533203e-01 6.203225255012512207e-01 1.236624866724014282e-01
5.668261647224426270e-01 6.048352122306823730e-01 1.253073215484619141e-01
-2.028591930866241455e-01 4.068606719374656677e-02 -4.689078330993652344e-01
-2.137059420347213745e-01 3.070333786308765411e-02 -4.684759080410003662e-01
-1.879901587963104248e-01 3.910741209983825684e-02 -4.674384295940399170e-01
-2.009138762950897217e-01 3.365762904286384583e-02 -4.657585918903350830e-01
-6.624240279197692871e-01 -1.394660025835037231e-01 -4.143650829792022705e-01
-6.732999086380004883e-01 -1.422874629497528076e-01 -4.021222591400146484e-01
-6.522458791732788086e-01 -1.430855989456176758e-01 -4.017725586891174316e-01
-6.634762883186340332e-01 -1.457710564136505127e-01 -3.905285596847534180e-01
1.516438424587249756e-01 4.904179871082305908e-01 7.137427479028701782e-02
1.460933536291122437e-01 4.732897281646728516e-01 6.846699118614196777e-02
1.692641079425811768e-01 4.908874928951263428e-01 6.959886848926544189e-02
1.654780656099319458e-01 4.743744134902954102e-01 6.835158169269561768e-02
1.691749393939971924e-01 -2.174176722764968872e-01 -4.048170149326324463e-01
1.597076654434204102e-01 -2.234985232353210449e-01 -3.977387547492980957e-01
1.790032982826232910e-01 -2.116663455963134766e-01 -3.959208130836486816e-01
1.699156165122985840e-01 -2.185300737619400024e-01 -3.902040719985961914e-01
-3.666356205940246582e-01 -3.838979452848434448e-02 -4.544012844562530518e-01
-3.758887350559234619e-01 -5.950496345758438110e-02 -4.500439465045928955e-01
-3.483799397945404053e-01 -4.729142785072326660e-02 -4.547246694564819336e-01
-3.593555986881256104e-01 -6.636280566453933716e-02 -4.501861333847045898e-01
5.857720971107482910e-01 4.788964688777923584e-01 2.469633221626281738e-01
5.758238434791564941e-01 4.603169858455657959e-01 2.495024353265762329e-01
6.021153926849365234e-01 4.792597591876983643e-01 2.431634962558746338e-01
5.938696861267089844e-01 4.608988761901855469e-01 2.459270358085632324e-01
-5.031042695045471191e-01 -1.129742637276649475e-01 1.242384500801563263e-02
-5.143517851829528809e-01 -1.089017093181610107e-01 2.143164351582527161e-02
-4.909299314022064209e-01 -1.176726296544075012e-01 2.931568026542663574e-02
-5.019764900207519531e-01 -1.138646379113197327e-01 3.854376822710037231e-02
4.912398457527160645e-01 1.368896067142486572e-01 7.788199931383132935e-02
4.761970639228820801e-01 1.483778804540634155e-01 8.727397024631500244e-02
5.017780065536499023e-01 1.513494700193405151e-01 9.042276442050933838e-02
4.870180189609527588e-01 1.612502932548522949e-01 9.927360713481903076e-02
1.590383648872375488e-01 5.185658335685729980e-01 7.489655166864395142e-02
1.548891663551330566e-01 5.023399591445922852e-01 7.310140132904052734e-02
1.721278578042984009e-01 5.172095298767089844e-01 7.508091628551483154e-02
1.681845784187316895e-01 5.018976926803588867e-01 7.401715219020843506e-02
5.242463350296020508e-01 7.075859904289245605e-01 1.070096045732498169e-01
5.179632306098937988e-01 6.908843517303466797e-01 1.072266772389411926e-01
5.389983654022216797e-01 7.090251445770263672e-01 1.076841279864311218e-01
5.322719812393188477e-01 6.921118497848510742e-01 1.084260269999504089e-01
1.777701675891876221e-01 -1.961281299591064453e-01 -3.434405028820037842e-01
1.740569323301315308e-01 -2.046898007392883301e-01 -3.385759294033050537e-01
1.799076497554779053e-01 -1.966926455497741699e-01 -3.308128714561462402e-01
1.760367602109909058e-01 -2.052778601646423340e-01 -3.259236514568328857e-01
2.996614873409271240e-01 -1.646439582109451294e-01 2.951781824231147766e-02
2.887325286865234375e-01 -1.688726544380187988e-01 3.442946076393127441e-02
3.133567869663238525e-01 -1.643841266632080078e-01 4.215971007943153381e-02
3.025757372379302979e-01 -1.689289510250091553e-01 4.693133756518363953e-02
-5.852397680282592773e-01 -9.295730292797088623e-02 9.840518981218338013e-02
-5.957986712455749512e-01 -9.140291810035705566e-02 1.125894337892532349e-01
-5.742798447608947754e-01 -9.226056933403015137e-02 1.202919334173202515e-01
-5.862617492675781250e-01 -9.109660983085632324e-02 1.340023726224899292e-01
-3.237123191356658936e-01 -7.243607193231582642e-02 -4.488557577133178711e-01
-3.388059735298156738e-01 -9.214293956756591797e-02 -4.421436786651611328e-01
-2.992585897445678711e-01 -6.854194402694702148e-02 -4.536210298538208008e-01
-3.193447291851043701e-01 -9.335484355688095093e-02 -4.449368417263031006e-01
2.361430972814559937e-01 4.935413599014282227e-01 7.000356167554855347e-02
2.336698621511459351e-01 4.770677983760833740e-01 6.833000481128692627e-02
2.483003139495849609e-01 4.916147887706756592e-01 7.057194411754608154e-02
2.457529157400131226e-01 4.761534035205841064e-01 6.903281807899475098e-02
-1.989026367664337158e-02 2.142185866832733154e-01 2.444168627262115479e-01
-3.235380724072456360e-02 1.914227604866027832e-01 2.471461147069931030e-01
3.918318077921867371e-03 2.118107080459594727e-01 2.431697696447372437e-01
-8.809279650449752808e-03 1.892318576574325562e-01 2.461706250905990601e-01
3.512126505374908447e-01 -3.165009617805480957e-01 1.076202169060707092e-01
3.454240858554840088e-01 -3.313274979591369629e-01 1.086298674345016479e-01
3.665745258331298828e-01 -3.270283639430999756e-01 1.163070201873779297e-01
3.600708842277526855e-01 -3.410401344299316406e-01 1.178427934646606445e-01
5.741455554962158203e-01 6.044844985008239746e-01 2.462956309318542480e-01
5.725512504577636719e-01 5.869326591491699219e-01 2.455013394355773926e-01
5.810303688049316406e-01 6.076390147209167480e-01 2.462114542722702026e-01
5.801885724067687988e-01 5.881967544555664062e-01 2.457906007766723633e-01
1.369928419589996338e-01 -2.096399068832397461e-01 -1.049273237586021423e-01
1.299476474523544312e-01 -2.172167897224426270e-01 -9.428188204765319824e-02
1.454577445983886719e-01 -2.045140713453292847e-01 -9.613636136054992676e-02
1.382376402616500854e-01 -2.118543982505798340e-01 -8.581984788179397583e-02
-2.922326028347015381e-01 7.431954145431518555e-02 -3.093115687370300293e-01
-3.046936690807342529e-01 7.607964426279067993e-02 -3.016439974308013916e-01
-2.822224199771881104e-01 7.553374022245407104e-02 -2.919906377792358398e-01
-2.945595979690551758e-01 7.702235877513885498e-02 -2.843113541603088379e-01
-6.068096756935119629e-01 -9.546868503093719482e-02 1.885093450546264648e-01
-6.189939379692077637e-01 -8.850999921560287476e-02 1.995562314987182617e-01
-5.939005017280578613e-01 -9.151455014944076538e-02 2.001601010560989380e-01
-6.069849133491516113e-01 -8.345643430948257446e-02 2.099553346633911133e-01
6.307813525199890137e-02 -4.198437035083770752e-01 1.892064660787582397e-01
5.090051144361495972e-02 -4.173045456409454346e-01 1.984690576791763306e-01
7.533174008131027222e-02 -4.170017540454864502e-01 2.020711749792098999e-01
6.223684549331665039e-02 -4.133491814136505127e-01 2.101083248853683472e-01
3.070454597473144531e-01 6.341648101806640625e-01 2.451443374156951904e-01
2.996010184288024902e-01 6.152206659317016602e-01 2.456676214933395386e-01
3.251555562019348145e-01 6.188485026359558105e-01 2.450334131717681885e-01
3.176729083061218262e-01 5.999526381492614746e-01 2.460726201534271240e-01
5.546908378601074219e-01 7.544745802879333496e-01 1.295838057994842529e-01
5.427470207214355469e-01 7.553450465202331543e-01 1.359510421752929688e-01
5.710973143577575684e-01 7.545196413993835449e-01 1.332187205553054810e-01
5.599246025085449219e-01 7.543874382972717285e-01 1.394928991794586182e-01
-3.371888026595115662e-02 -4.860202968120574951e-01 -2.775170505046844482e-01
-3.997672349214553833e-02 -4.931011497974395752e-01 -2.687826454639434814e-01
-2.941661514341831207e-02 -4.766800403594970703e-01 -2.647160887718200684e-01
-3.597161173820495605e-02 -4.839179813861846924e-01 -2.559761106967926025e-01
4.615642875432968140e-02 -3.771365880966186523e-01 -2.962520718574523926e-01
4.396282136440277100e-02 -3.935411870479583740e-01 -2.946592867374420166e-01
4.958721250295639038e-02 -3.706276416778564453e-01 -2.790602445602416992e-01
4.836594313383102417e-02 -3.874817788600921631e-01 -2.771382033824920654e-01
-1.253010332584381104e-01 3.892551362514495850e-01 4.612259566783905029e-02
-1.373674422502517700e-01 3.812362551689147949e-01 5.366372689604759216e-02
-1.203374788165092468e-01 4.037814736366271973e-01 5.673414841294288635e-02
-1.330164521932601929e-01 3.958641886711120605e-01 6.437820196151733398e-02
1.912503838539123535e-01 6.546667218208312988e-01 1.292306780815124512e-01
1.785993874073028564e-01 6.578358411788940430e-01 1.339961439371109009e-01
2.046969085931777954e-01 6.635674834251403809e-01 1.296140253543853760e-01
1.912140548229217529e-01 6.675209999084472656e-01 1.345456540584564209e-01
5.819090008735656738e-01 -2.052190005779266357e-01 2.460445016622543335e-01
5.707638859748840332e-01 -2.229972779750823975e-01 2.492258399724960327e-01
6.007528305053710938e-01 -2.116568982601165771e-01 2.420022636651992798e-01
5.909568667411804199e-01 -2.305661737918853760e-01 2.449790239334106445e-01
-4.431741833686828613e-01 -1.650251150131225586e-01 -2.070611119270324707e-01
-4.518820345401763916e-01 -1.577803939580917358e-01 -1.940491199493408203e-01
-4.387214779853820801e-01 -1.652865111827850342e-01 -1.904265433549880981e-01
-4.463631510734558105e-01 -1.583206653594970703e-01 -1.775697618722915649e-01
5.624614655971527100e-02 5.793745517730712891e-01 2.025921642780303955e-01
4.609324038028717041e-02 5.723392367362976074e-01 2.077805250883102417e-01
6.631142646074295044e-02 5.811758041381835938e-01 2.147603034973144531e-01
5.744263157248497009e-02 5.716037750244140625e-01 2.184537947177886963e-01
2.301813960075378418e-01 -1.926194131374359131e-01 -9.491513669490814209e-02
2.179473042488098145e-01 -1.921259760856628418e-01 -8.624957501888275146e-02
2.372421026229858398e-01 -1.894972473382949829e-01 -8.147293329238891602e-02
2.245016545057296753e-01 -1.898251622915267944e-01 -7.319498062133789062e-02
-1.268981993198394775e-01 1.745377928018569946e-01 -4.924010485410690308e-03
-1.418265402317047119e-01 1.786504983901977539e-01 -7.443793583661317825e-04
-1.153721660375595093e-01 1.881686598062515259e-01 1.285828882828354836e-03
-1.313535720109939575e-01 1.925761699676513672e-01 5.403261631727218628e-03
2.692094072699546814e-02 5.570813417434692383e-01 1.836090534925460815e-01
1.817856542766094208e-02 5.488699674606323242e-01 1.897941231727600098e-01
3.411953523755073547e-02 5.618997216224670410e-01 1.949840486049652100e-01
2.518679015338420868e-02 5.539186596870422363e-01 2.013451904058456421e-01
3.940183222293853760e-01 -1.659877598285675049e-01 4.077546298503875732e-02
3.776862323284149170e-01 -1.726595163345336914e-01 4.579496383666992188e-02
4.085536897182464600e-01 -1.602284163236618042e-01 5.194981396198272705e-02
3.933829665184020996e-01 -1.683443337678909302e-01 5.630409345030784607e-02
5.157179832458496094e-01 4.812235385179519653e-02 5.404519289731979370e-02
5.027748942375183105e-01 5.938770622014999390e-02 6.654124706983566284e-02
5.267010927200317383e-01 5.943788960576057434e-02 7.076725363731384277e-02
5.142543315887451172e-01 6.988289952278137207e-02 8.223158866167068481e-02
1.505171209573745728e-01 3.112803697586059570e-01 3.793352469801902771e-02
1.479992270469665527e-01 2.914110720157623291e-01 3.563846647739410400e-02
1.676218211650848389e-01 3.049636483192443848e-01 3.763587400317192078e-02
1.649222075939178467e-01 2.848049104213714600e-01 3.511922061443328857e-02
2.240307256579399109e-02 -1.667675226926803589e-01 -4.326910972595214844e-01
1.143248938024044037e-02 -1.838262677192687988e-01 -4.284407198429107666e-01
3.891422972083091736e-02 -1.853457540273666382e-01 -4.313959479331970215e-01
2.883216366171836853e-02 -2.026747614145278931e-01 -4.271633028984069824e-01
-6.869817376136779785e-01 -4.054134711623191833e-02 2.210476100444793701e-01
-6.956626772880554199e-01 -4.008123278617858887e-02 2.273664176464080811e-01
-6.766363382339477539e-01 -3.977152332663536072e-02 2.362339794635772705e-01
-6.856680512428283691e-01 -4.115429893136024475e-02 2.418551295995712280e-01
2.804563939571380615e-01 4.259841442108154297e-01 7.620013505220413208e-02
2.747358381748199463e-01 4.039071500301361084e-01 7.490416616201400757e-02
2.967088818550109863e-01 4.218094646930694580e-01 7.713399827480316162e-02
2.901718914508819580e-01 3.990888893604278564e-01 7.601267844438552856e-02
-1.120608150959014893e-01 8.413896709680557251e-02 -2.448369413614273071e-01
-1.237133145332336426e-01 8.374442905187606812e-02 -2.348406612873077393e-01
-1.012456268072128296e-01 8.428385108709335327e-02 -2.309518158435821533e-01
-1.125404164195060730e-01 8.423613756895065308e-02 -2.207988649606704712e-01
-2.748368680477142334e-01 -6.002284884452819824e-01 -2.644189819693565369e-02
-2.810363173484802246e-01 -5.951956510543823242e-01 -1.377225480973720551e-02
-2.716103494167327881e-01 -6.027617454528808594e-01 -1.106329634785652161e-02
-2.795171439647674561e-01 -5.980741381645202637e-01 2.256395295262336731e-03
-6.851091980934143066e-02 -5.831280350685119629e-01 1.571909636259078979e-01
-8.131261914968490601e-02 -5.858304500579833984e-01 1.639563888311386108e-01
-6.159595400094985962e-02 -5.777366161346435547e-01 1.730218380689620972e-01
-7.220189273357391357e-02 -5.825885534286499023e-01 1.791460216045379639e-01
5.342685580253601074e-01 1.427723318338394165e-01 9.673971682786941528e-02
5.200105309486389160e-01 1.479723453521728516e-01 1.032127514481544495e-01
5.461590886116027832e-01 1.525963544845581055e-01 1.061677411198616028e-01
5.314589738845825195e-01 1.562081873416900635e-01 1.126781255006790161e-01
2.609968185424804688e-01 2.117177993059158325e-01 1.016629636287689209e-01
2.553380131721496582e-01 1.923975199460983276e-01 9.906901419162750244e-02
2.790640294551849365e-01 2.126329392194747925e-01 1.110032722353935242e-01
2.737302780151367188e-01 1.932514160871505737e-01 1.094281151890754700e-01
-5.874214768409729004e-01 -1.242064833641052246e-01 -2.744817733764648438e-01
-6.026254296302795410e-01 -1.205690205097198486e-01 -2.632279396057128906e-01
-5.756280422210693359e-01 -1.226533949375152588e-01 -2.552537024021148682e-01
-5.914561748504638672e-01 -1.186329200863838196e-01 -2.451909184455871582e-01
1.214435398578643799e-01 -2.673642523586750031e-02 -4.149808585643768311e-01
1.054107248783111572e-01 -2.160030603408813477e-02 -4.102043211460113525e-01
1.434070318937301636e-01 -2.858375012874603271e-02 -4.107537567615509033e-01
1.276673376560211182e-01 -2.163688838481903076e-02 -4.058976769447326660e-01
1.401467025279998779e-01 -1.995662599802017212e-01 -1.237783357501029968e-01
1.316195726394653320e-01 -2.063245177268981934e-01 -1.143865212798118591e-01
1.508170813322067261e-01 -1.938465982675552368e-01 -1.131336390972137451e-01
1.419531553983688354e-01 -2.002003937959671021e-01 -1.036340594291687012e-01
-6.654912829399108887e-01 -9.206338971853256226e-02 1.961165815591812134e-01
-6.752759218215942383e-01 -8.145434409379959106e-02 2.043386399745941162e-01
-6.557827591896057129e-01 -9.601834416389465332e-02 2.089316695928573608e-01
-6.666870713233947754e-01 -8.539269864559173584e-02 2.169765830039978027e-01
-1.730848699808120728e-01 -1.975949108600616455e-02 -4.586169421672821045e-01
-1.834183037281036377e-01 -3.729141131043434143e-02 -4.533941447734832764e-01
-1.569056957960128784e-01 -2.406442724168300629e-02 -4.582325518131256104e-01
-1.669227033853530884e-01 -4.207278043031692505e-02 -4.540734291076660156e-01
-6.854791641235351562e-01 -5.669519305229187012e-03 -1.452937126159667969e-01
-6.847276091575622559e-01 -2.149889990687370300e-02 -1.313822269439697266e-01
-6.848579049110412598e-01 -9.338529780507087708e-03 -1.301040500402450562e-01
-6.840182542800903320e-01 -2.505534887313842773e-02 -1.163185089826583862e-01
-2.108639031648635864e-01 -5.962935686111450195e-01 1.833693236112594604e-01
-2.195243537425994873e-01 -5.927459001541137695e-01 1.948646306991577148e-01
-2.003901600837707520e-01 -5.937824845314025879e-01 1.986457407474517822e-01
-2.115660607814788818e-01 -5.874044895172119141e-01 2.072012573480606079e-01
-3.448339179158210754e-02 -5.297067165374755859e-01 -2.187128514051437378e-01
-3.657049313187599182e-02 -5.405098795890808105e-01 -2.133461236953735352e-01
-3.467085957527160645e-02 -5.277136564254760742e-01 -2.022085934877395630e-01
-3.667257353663444519e-02 -5.389109849929809570e-01 -1.972754001617431641e-01
4.190981015563011169e-02 5.691357851028442383e-01 2.410932630300521851e-01
3.309223800897598267e-02 5.586156845092773438e-01 2.444378584623336792e-01
5.628279596567153931e-02 5.712050795555114746e-01 2.474787384271621704e-01
4.801837354898452759e-02 5.588176250457763672e-01 2.504110932350158691e-01
5.108358860015869141e-01 -3.283367455005645752e-01 1.628235131502151489e-01
5.003901720046997070e-01 -3.473778963088989258e-01 1.664709299802780151e-01
5.263341665267944336e-01 -3.368925452232360840e-01 1.682152152061462402e-01
5.150510072708129883e-01 -3.540337085723876953e-01 1.730884462594985962e-01
-3.311254084110260010e-01 -3.577971160411834717e-01 -2.079519331455230713e-01
-3.289167881011962891e-01 -3.739178478717803955e-01 -2.050203830003738403e-01
-3.307953774929046631e-01 -3.592106401920318604e-01 -1.871625185012817383e-01
-3.293831944465637207e-01 -3.737515211105346680e-01 -1.842799782752990723e-01
1.386861950159072876e-01 -3.887759447097778320e-01 -6.603471934795379639e-02
1.331980824470520020e-01 -3.993222117424011230e-01 -6.764665246009826660e-02
1.480350792407989502e-01 -3.864619433879852295e-01 -5.696118250489234924e-02
1.409550756216049194e-01 -3.964045047760009766e-01 -5.861533805727958679e-02
-1.780798137187957764e-01 -3.148513659834861755e-02 -4.564717113971710205e-01
-1.884178966283798218e-01 -4.897906631231307983e-02 -4.513671398162841797e-01
-1.626382321119308472e-01 -3.752184659242630005e-02 -4.561723768711090088e-01
-1.733380854129791260e-01 -5.466970056295394897e-02 -4.516801536083221436e-01
-4.618713259696960449e-01 4.809725284576416016e-02 2.433312833309173584e-01
-4.727277457714080811e-01 2.980012074112892151e-02 2.455961406230926514e-01
-4.401462078094482422e-01 4.679984971880912781e-02 2.418231964111328125e-01
-4.520202577114105225e-01 2.804990485310554504e-02 2.442023605108261108e-01
-2.622566819190979004e-01 1.878506988286972046e-01 2.782994415611028671e-04
-2.754442989826202393e-01 1.955494135618209839e-01 5.436709150671958923e-03
-2.544332146644592285e-01 1.985804438591003418e-01 9.384725242853164673e-03
-2.674163281917572021e-01 2.059577554464340210e-01 1.439434662461280823e-02
6.183879822492599487e-02 -2.260452136397361755e-02 -4.053606390953063965e-01
5.466001853346824646e-02 -1.340151764452457428e-02 -3.939621746540069580e-01
7.356384396553039551e-02 -2.531781420111656189e-02 -3.940001130104064941e-01
6.531864404678344727e-02 -1.495010964572429657e-02 -3.813063800334930420e-01
-4.312968626618385315e-02 -5.493822693824768066e-01 1.338781416416168213e-01
-4.755957052111625671e-02 -5.629936456680297852e-01 1.379220634698867798e-01
-3.819478303194046021e-02 -5.476638674736022949e-01 1.454151123762130737e-01
-4.232871532440185547e-02 -5.612770915031433105e-01 1.496007144451141357e-01
3.388045430183410645e-01 5.695312023162841797e-01 8.473357558250427246e-02
3.333523273468017578e-01 5.554552078247070312e-01 8.340356498956680298e-02
3.533331155776977539e-01 5.684875249862670898e-01 8.293027430772781372e-02
3.475961983203887939e-01 5.539136528968811035e-01 8.251123130321502686e-02
-1.844776570796966553e-01 3.390204906463623047e-01 2.288955748081207275e-01
-1.931550353765487671e-01 3.258797526359558105e-01 2.337161451578140259e-01
-1.728535592555999756e-01 3.460014462471008301e-01 2.429490983486175537e-01
-1.809975802898406982e-01 3.326990008354187012e-01 2.471780180931091309e-01
-2.953454554080963135e-01 -4.696236848831176758e-01 2.453629076480865479e-01
-3.002021014690399170e-01 -4.883950948715209961e-01 2.428718209266662598e-01
-2.824920117855072021e-01 -4.698791503906250000e-01 2.510372996330261230e-01
-2.866617739200592041e-01 -4.903284609317779541e-01 2.490958422422409058e-01
-4.457837343215942383e-01 1.543864607810974121e-01 1.137507706880569458e-01
-4.549471139907836914e-01 1.519538611173629761e-01 1.262089759111404419e-01
-4.382482171058654785e-01 1.562898457050323486e-01 1.369870007038116455e-01
-4.469909369945526123e-01 1.539156436920166016e-01 1.495157331228256226e-01
1.012660264968872070e-01 8.453858643770217896e-02 -1.988527923822402954e-01
9.211235493421554565e-02 1.003315374255180359e-01 -1.952570378780364990e-01
1.111311092972755432e-01 8.335424959659576416e-02 -1.846877187490463257e-01
1.021376326680183411e-01 9.940060973167419434e-02 -1.814442723989486694e-01
9.701500087976455688e-02 -1.854311227798461914e-01 -4.300610125064849854e-01
7.731409370899200439e-02 -1.955815404653549194e-01 -4.273867011070251465e-01
1.165422052145004272e-01 -1.918115466833114624e-01 -4.276491105556488037e-01
9.594611823558807373e-02 -2.010895013809204102e-01 -4.253572225570678711e-01
-4.968626052141189575e-02 -4.989378750324249268e-01 -3.716629147529602051e-01
-5.570069700479507446e-02 -5.151681303977966309e-01 -3.703772723674774170e-01
-3.545380756258964539e-02 -5.048601031303405762e-01 -3.681309819221496582e-01
-4.231178015470504761e-02 -5.198382735252380371e-01 -3.670923113822937012e-01
3.321341425180435181e-02 4.428086578845977783e-01 6.168594956398010254e-02
2.761692367494106293e-02 4.221913218498229980e-01 5.963090434670448303e-02
5.322090908885002136e-02 4.401259124279022217e-01 6.053598597645759583e-02
4.408934712409973145e-02 4.231870174407958984e-01 5.934941023588180542e-02
5.266195163130760193e-02 3.616436123847961426e-01 4.823248460888862610e-02
4.541150107979774475e-02 3.442252576351165771e-01 4.539849609136581421e-02
7.311359047889709473e-02 3.658836185932159424e-01 4.820773378014564514e-02
6.380203366279602051e-02 3.495569229125976562e-01 4.522354900836944580e-02
1.131154075264930725e-01 -4.182088375091552734e-01 -1.141122281551361084e-01
1.044373288750648499e-01 -4.260879755020141602e-01 -9.987667948007583618e-02
1.170125827193260193e-01 -4.212327003479003906e-01 -9.858368337154388428e-02
1.084108799695968628e-01 -4.289318025112152100e-01 -8.371959626674652100e-02
-3.647917211055755615e-01 -1.564564555883407593e-01 -4.361705780029296875e-01
-3.814254701137542725e-01 -1.697558015584945679e-01 -4.314617216587066650e-01
-3.478348255157470703e-01 -1.584073752164840698e-01 -4.356839656829833984e-01
-3.651266992092132568e-01 -1.746407002210617065e-01 -4.303174912929534912e-01
3.927404880523681641e-01 1.222200319170951843e-01 2.444099485874176025e-01
3.818079233169555664e-01 1.063704118132591248e-01 2.460083812475204468e-01
4.119726717472076416e-01 1.208140030503273010e-01 2.448293715715408325e-01
4.011182487010955811e-01 1.036986261606216431e-01 2.464481443166732788e-01
1.458627283573150635e-01 -1.366584897041320801e-01 2.447615116834640503e-01
1.383041292428970337e-01 -1.575342863798141479e-01 2.455785721540451050e-01
1.659012436866760254e-01 -1.492581367492675781e-01 2.447195649147033691e-01
1.580304801464080811e-01 -1.693269610404968262e-01 2.453922629356384277e-01
1.068582460284233093e-01 -2.104888111352920532e-01 2.428837418556213379e-01
9.752912074327468872e-02 -2.284253388643264771e-01 2.446883618831634521e-01
1.250736266374588013e-01 -2.154534459114074707e-01 2.429703027009963989e-01
1.164653226733207703e-01 -2.335104793310165405e-01 2.446229159832000732e-01
-1.230149716138839722e-01 -6.218711137771606445e-01 -2.069967389106750488e-01
-1.344560980796813965e-01 -6.226249933242797852e-01 -1.996537595987319946e-01
-1.132211908698081970e-01 -6.215900778770446777e-01 -1.972799450159072876e-01
-1.239488869905471802e-01 -6.221834421157836914e-01 -1.902417838573455811e-01
-3.557952046394348145e-01 -2.633673548698425293e-01 -1.812618076801300049e-01
-3.617133498191833496e-01 -2.564550340175628662e-01 -1.680657267570495605e-01
-3.525652885437011719e-01 -2.693851888179779053e-01 -1.618434488773345947e-01
-3.578847050666809082e-01 -2.629714608192443848e-01 -1.482611447572708130e-01
4.812126159667968750e-01 2.548971772193908691e-01 1.748744547367095947e-01
4.727557599544525146e-01 2.430649697780609131e-01 1.753357946872711182e-01
4.936960935592651367e-01 2.444487363100051880e-01 1.785772293806076050e-01
4.854781627655029297e-01 2.323517799377441406e-01 1.793137192726135254e-01
-6.285073608160018921e-02 -1.624391376972198486e-01 2.422538846731185913e-01
-7.859337329864501953e-02 -1.786873787641525269e-01 2.456519156694412231e-01
-4.025663062930107117e-02 -1.659668982028961182e-01 2.405510246753692627e-01
-5.608399957418441772e-02 -1.818398237228393555e-01 2.437940090894699097e-01
2.447359114885330200e-01 -1.913979202508926392e-01 -1.824614107608795166e-01
2.359067201614379883e-01 -1.999147236347198486e-01 -1.755343824625015259e-01
2.515663206577301025e-01 -1.928195804357528687e-01 -1.696908324956893921e-01
2.432323247194290161e-01 -2.016859948635101318e-01 -1.628848165273666382e-01
-2.285682260990142822e-01 -4.291307330131530762e-01 2.426990270614624023e-01
-2.404318004846572876e-01 -4.461684823036193848e-01 2.453985214233398438e-01
-2.094499915838241577e-01 -4.336646795272827148e-01 2.439367622137069702e-01
-2.212807536125183105e-01 -4.501782357692718506e-01 2.462590634822845459e-01
-3.177414834499359131e-01 -5.601158738136291504e-01 2.006147801876068115e-01
-3.251260519027709961e-01 -5.486719012260437012e-01 2.095529288053512573e-01
-3.105809688568115234e-01 -5.656875967979431152e-01 2.131080329418182373e-01
-3.179852664470672607e-01 -5.553872585296630859e-01 2.200027406215667725e-01
4.291867837309837341e-02 -2.448363155126571655e-01 -3.298712670803070068e-01
3.633765503764152527e-02 -2.489221692085266113e-01 -3.175390362739562988e-01
5.271503701806068420e-02 -2.418439090251922607e-01 -3.204828798770904541e-01
4.582946002483367920e-02 -2.461687177419662476e-01 -3.072081208229064941e-01
-4.227029681205749512e-01 1.288085728883743286e-01 -5.686474218964576721e-02
-4.340915679931640625e-01 1.289076656103134155e-01 -5.163859203457832336e-02
-4.155049622058868408e-01 1.373416185379028320e-01 -4.413618519902229309e-02
-4.271549284458160400e-01 1.373485922813415527e-01 -3.919819369912147522e-02
-2.116042971611022949e-01 -5.922190546989440918e-01 1.422547250986099243e-01
-2.148126363754272461e-01 -5.983049869537353516e-01 1.609143465757369995e-01
-2.026196420192718506e-01 -5.916550755500793457e-01 1.585257798433303833e-01
-2.072302103042602539e-01 -5.962943434715270996e-01 1.759799420833587646e-01
6.107897162437438965e-01 -1.370109766721725464e-01 7.685855496674776077e-03
5.987872481346130371e-01 -1.467200070619583130e-01 1.009904779493808746e-02
6.213870048522949219e-01 -1.395136713981628418e-01 7.063671015202999115e-03
6.105375885963439941e-01 -1.505450606346130371e-01 1.045463792979717255e-02
5.532717704772949219e-01 -1.487643718719482422e-01 1.139966323971748352e-01
5.450102686882019043e-01 -1.551807224750518799e-01 1.238625347614288330e-01
5.636429190635681152e-01 -1.518832892179489136e-01 1.247048452496528625e-01
5.559597015380859375e-01 -1.582743078470230103e-01 1.333969980478286743e-01
5.742685198783874512e-01 5.140365958213806152e-01 2.464510202407836914e-01
5.639035701751708984e-01 4.952556490898132324e-01 2.486284971237182617e-01
5.941968560218811035e-01 5.091388821601867676e-01 2.432565391063690186e-01
5.845124721527099609e-01 4.904215335845947266e-01 2.457335442304611206e-01
-6.840472221374511719e-01 4.563360288739204407e-02 -1.647609770298004150e-01
-6.853724122047424316e-01 3.194830194115638733e-02 -1.579156070947647095e-01
-6.838341951370239258e-01 4.460044950246810913e-02 -1.500645130872726440e-01
-6.842983961105346680e-01 3.080845251679420471e-02 -1.421401649713516235e-01
-1.497844308614730835e-01 -3.631460666656494141e-01 -3.967027068138122559e-01
-1.595134735107421875e-01 -3.774579763412475586e-01 -3.942095637321472168e-01
-1.355420798063278198e-01 -3.675405383110046387e-01 -3.985645771026611328e-01
-1.449252665042877197e-01 -3.826150000095367432e-01 -3.949183523654937744e-01
1.910359263420104980e-01 1.961035579442977905e-01 5.151297897100448608e-02
1.807782500982284546e-01 2.060966640710830688e-01 5.464886873960494995e-02
2.012790888547897339e-01 2.021625936031341553e-01 6.408695876598358154e-02
1.937349289655685425e-01 1.993244290351867676e-01 6.425026804208755493e-02
3.571316003799438477e-01 3.988099694252014160e-01 2.433032989501953125e-01
3.431731164455413818e-01 3.844699561595916748e-01 2.440694421529769897e-01
3.786497116088867188e-01 3.976430296897888184e-01 2.438546121120452881e-01
3.645719587802886963e-01 3.832664787769317627e-01 2.447318434715270996e-01
6.030989885330200195e-01 -2.873811125755310059e-01 1.682986319065093994e-01
5.980282425880432129e-01 -3.014605939388275146e-01 1.687282621860504150e-01
6.139225959777832031e-01 -2.899450361728668213e-01 1.755548715591430664e-01
6.087781786918640137e-01 -3.040165305137634277e-01 1.759040057659149170e-01
-1.814315915107727051e-01 -3.723602294921875000e-01 2.441871613264083862e-01
-1.914299875497817993e-01 -3.901839256286621094e-01 2.466114908456802368e-01
-1.641014218330383301e-01 -3.751492798328399658e-01 2.443639934062957764e-01
-1.744700819253921509e-01 -3.935514986515045166e-01 2.465597540140151978e-01
-8.149049431085586548e-02 4.251371324062347412e-01 5.939664319157600403e-02
-8.377155661582946777e-02 4.018031358718872070e-01 5.764007195830345154e-02
-6.589268893003463745e-02 4.314242303371429443e-01 5.929636210203170776e-02
-6.760465353727340698e-02 4.072702825069427490e-01 5.737609043717384338e-02
-3.286726474761962891e-01 -4.597689807415008545e-01 -7.295235991477966309e-03
-3.296314775943756104e-01 -4.730260670185089111e-01 -2.320999279618263245e-03
-3.293273746967315674e-01 -4.557508528232574463e-01 9.319362230598926544e-03
-3.301706314086914062e-01 -4.686436057090759277e-01 1.478957850486040115e-02
1.347378194332122803e-01 3.521627187728881836e-01 4.574725404381752014e-02
1.283406764268875122e-01 3.335982859134674072e-01 4.350254312157630920e-02
1.503316462039947510e-01 3.480699956417083740e-01 4.447453469038009644e-02
1.458118408918380737e-01 3.287817239761352539e-01 4.250341281294822693e-02
-3.335373103618621826e-01 7.544066756963729858e-02 -2.913511395454406738e-01
-3.477903604507446289e-01 7.718934863805770874e-02 -2.852193117141723633e-01
-3.232985138893127441e-01 7.749697566032409668e-02 -2.742316722869873047e-01
-3.361441791057586670e-01 7.950843125581741333e-02 -2.671617567539215088e-01
1.467876434326171875e-01 3.805790841579437256e-01 2.434934228658676147e-01
1.360513418912887573e-01 3.618904650211334229e-01 2.448837459087371826e-01
1.675175577402114868e-01 3.753077685832977295e-01 2.435244619846343994e-01
1.562792956829071045e-01 3.554701209068298340e-01 2.449934929609298706e-01
-6.600317955017089844e-01 8.637472987174987793e-02 -2.570450007915496826e-01
-6.674011349678039551e-01 8.089492470026016235e-02 -2.455784678459167480e-01
-6.513000726699829102e-01 8.475673943758010864e-02 -2.449122071266174316e-01
-6.597617268562316895e-01 8.081759512424468994e-02 -2.328385412693023682e-01
-7.056570798158645630e-02 -5.866456031799316406e-01 1.437020897865295410e-01
-8.195921778678894043e-02 -5.894892811775207520e-01 1.502328366041183472e-01
-6.170738860964775085e-02 -5.817968249320983887e-01 1.584415733814239502e-01
-7.255993038415908813e-02 -5.857493281364440918e-01 1.650318205356597900e-01
2.005069255828857422e-01 5.483700037002563477e-01 2.448887974023818970e-01
1.898499876260757446e-01 5.274941325187683105e-01 2.468215376138687134e-01
2.215045541524887085e-01 5.356616973876953125e-01 2.447448521852493286e-01
2.112018167972564697e-01 5.138512253761291504e-01 2.469572871923446655e-01
-3.827297687530517578e-02 -3.429746627807617188e-01 2.443820238113403320e-01
-4.210822656750679016e-02 -3.662321567535400391e-01 2.433207184076309204e-01
-1.805495657026767731e-02 -3.407312035560607910e-01 2.461500763893127441e-01
-2.213404327630996704e-02 -3.643282055854797363e-01 2.461385130882263184e-01
8.703728765249252319e-02 -2.490044981241226196e-01 -4.230480790138244629e-01
7.702646404504776001e-02 -2.505209445953369141e-01 -4.151850044727325439e-01
9.602123498916625977e-02 -2.463623285293579102e-01 -4.103444516658782959e-01
8.672229945659637451e-02 -2.484858632087707520e-01 -4.014097154140472412e-01
1.779672801494598389e-01 -2.224174439907073975e-01 -3.437157571315765381e-01
1.711101830005645752e-01 -2.294539213180541992e-01 -3.386826217174530029e-01
1.797976642847061157e-01 -2.205879986286163330e-01 -3.321112096309661865e-01
1.728869229555130005e-01 -2.271064519882202148e-01 -3.264305889606475830e-01
-5.564768314361572266e-01 1.240264698863029480e-01 1.506068557500839233e-01
-5.674979090690612793e-01 1.217076480388641357e-01 1.664597541093826294e-01
-5.497641563415527344e-01 1.268372237682342529e-01 1.689512282609939575e-01
-5.605914592742919922e-01 1.246017366647720337e-01 1.853064894676208496e-01
4.526824504137039185e-02 8.356908708810806274e-02 -2.260800153017044067e-01
3.306425362825393677e-02 8.715178072452545166e-02 -2.181861847639083862e-01
5.735444277524948120e-02 8.493017405271530151e-02 -2.120360881090164185e-01
4.400060698390007019e-02 8.805675804615020752e-02 -2.055146992206573486e-01
1.958980560302734375e-01 6.016353964805603027e-01 2.437096536159515381e-01
1.909256577491760254e-01 5.854377746582031250e-01 2.435636222362518311e-01
2.128872573375701904e-01 5.955098867416381836e-01 2.460232377052307129e-01
2.076765596866607666e-01 5.792065262794494629e-01 2.459451556205749512e-01
3.683303892612457275e-01 -3.837893009185791016e-01 2.401737272739410400e-01
3.570334315299987793e-01 -3.893226683139801025e-01 2.419230639934539795e-01
3.817179501056671143e-01 -3.804736733436584473e-01 2.454722672700881958e-01
3.700381815433502197e-01 -3.859851658344268799e-01 2.481184154748916626e-01
9.098787605762481689e-02 -3.078346848487854004e-01 -1.603429764509201050e-01
9.118572622537612915e-02 -3.234083354473114014e-01 -1.595941931009292603e-01
1.010469868779182434e-01 -3.029316961765289307e-01 -1.436262726783752441e-01
1.004657521843910217e-01 -3.180848658084869385e-01 -1.436365246772766113e-01
-1.127559840679168701e-01 8.362174779176712036e-02 -2.485780119895935059e-01
-1.244084835052490234e-01 8.322720974683761597e-02 -2.385817319154739380e-01
-1.005028560757637024e-01 8.373226970434188843e-02 -2.342619746923446655e-01
-1.118742898106575012e-01 8.373131603002548218e-02 -2.240968644618988037e-01
2.484669238328933716e-01 -2.002100050449371338e-01 -1.685818731784820557e-01
2.393489032983779907e-01 -2.084650099277496338e-01 -1.614365130662918091e-01
2.571944296360015869e-01 -2.002235203981399536e-01 -1.562756448984146118e-01
2.488795518875122070e-01 -2.090801894664764404e-01 -1.502303034067153931e-01
1.769914031028747559e-01 -3.985082805156707764e-01 2.370386719703674316e-01
1.614983230829238892e-01 -3.924162983894348145e-01 2.426012903451919556e-01
1.828985661268234253e-01 -3.934321999549865723e-01 2.481532096862792969e-01
1.683046221733093262e-01 -3.883375227451324463e-01 2.529249489307403564e-01
-1.069012433290481567e-01 -6.162588000297546387e-01 -1.620707362890243530e-01
-1.168299913406372070e-01 -6.170799732208251953e-01 -1.556580364704132080e-01
-9.699632227420806885e-02 -6.138970851898193359e-01 -1.483569890260696411e-01
-1.070564314723014832e-01 -6.154023408889770508e-01 -1.401565223932266235e-01
4.100521802902221680e-01 1.937144398689270020e-01 1.690405756235122681e-01
4.041810035705566406e-01 1.758592426776885986e-01 1.691517233848571777e-01
4.263579547405242920e-01 1.931520104408264160e-01 1.716877520084381104e-01
4.202292561531066895e-01 1.775144487619400024e-01 1.732967495918273926e-01
5.352415442466735840e-01 4.652281403541564941e-01 1.463035494089126587e-01
5.291724205017089844e-01 4.452882707118988037e-01 1.490006893873214722e-01
5.524991154670715332e-01 4.556326568126678467e-01 1.512249112129211426e-01
5.474229454994201660e-01 4.375955164432525635e-01 1.533378213644027710e-01
-5.696868896484375000e-01 -1.069853752851486206e-01 -1.162541955709457397e-01
-5.817141532897949219e-01 -1.042645722627639771e-01 -1.061999350786209106e-01
-5.560930371284484863e-01 -1.079501807689666748e-01 -1.022475957870483398e-01
-5.693361163139343262e-01 -1.054653599858283997e-01 -9.460937231779098511e-02
-4.523293375968933105e-01 1.036527007818222046e-01 -1.008704379200935364e-01
-4.642790257930755615e-01 1.081405431032180786e-01 -8.694915473461151123e-02
-4.486337006092071533e-01 1.107933670282363892e-01 -8.372993022203445435e-02
-4.598869979381561279e-01 1.154021546244621277e-01 -7.156574726104736328e-02
-7.857055962085723877e-02 1.340219974517822266e-01 2.440842092037200928e-01
-9.238234907388687134e-02 1.134893521666526794e-01 2.463119029998779297e-01
-5.813733860850334167e-02 1.223766282200813293e-01 2.438446581363677979e-01
-7.394081354141235352e-02 1.020958274602890015e-01 2.469289749860763550e-01
1.812967658042907715e-01 3.674209117889404297e-01 2.437839061021804810e-01
1.689998656511306763e-01 3.464657962322235107e-01 2.460077852010726929e-01
2.002710402011871338e-01 3.643703758716583252e-01 2.439684420824050903e-01
1.869595944881439209e-01 3.426941037178039551e-01 2.464785128831863403e-01
-3.308643996715545654e-01 -4.414292275905609131e-01 -2.319650799036026001e-01
-3.303370177745819092e-01 -4.575287699699401855e-01 -2.264233678579330444e-01
-3.303007483482360840e-01 -4.440361857414245605e-01 -2.181245386600494385e-01
-3.296439349651336670e-01 -4.597510695457458496e-01 -2.127361148595809937e-01
-1.557829082012176514e-01 3.666300177574157715e-01 1.289713978767395020e-01
-1.642212718725204468e-01 3.581157922744750977e-01 1.376128196716308594e-01
-1.517987400293350220e-01 3.745473027229309082e-01 1.436302065849304199e-01
-1.598478406667709351e-01 3.660017549991607666e-01 1.525293886661529541e-01
-3.443411290645599365e-01 -2.756699323654174805e-01 1.152229756116867065e-01
-3.408555686473846436e-01 -2.840319573879241943e-01 1.256834864616394043e-01
-3.433796465396881104e-01 -2.772968411445617676e-01 1.389861553907394409e-01
-3.388939797878265381e-01 -2.915345132350921631e-01 1.463362425565719604e-01
4.351121783256530762e-01 5.182940959930419922e-01 1.184469163417816162e-01
4.273344874382019043e-01 5.010251998901367188e-01 1.197564080357551575e-01
4.489019811153411865e-01 5.087176561355590820e-01 1.216171830892562866e-01
4.411247372627258301e-01 4.902782440185546875e-01 1.231308802962303162e-01
1.014427468180656433e-01 -8.938580006361007690e-02 -4.452786445617675781e-01
9.061080217361450195e-02 -1.022689566016197205e-01 -4.429669678211212158e-01
1.191043704748153687e-01 -9.205301105976104736e-02 -4.464336335659027100e-01
1.066426411271095276e-01 -1.033169180154800415e-01 -4.444126486778259277e-01
-2.492994517087936401e-01 -4.607540071010589600e-01 -3.817330598831176758e-01
-2.530888915061950684e-01 -4.802144467830657959e-01 -3.754564821720123291e-01
-2.368699461221694946e-01 -4.772381782531738281e-01 -3.792613744735717773e-01
-2.407171726226806641e-01 -4.962471723556518555e-01 -3.732867836952209473e-01
-1.259356271475553513e-02 -1.053851172327995300e-01 -4.435009956359863281e-01
-2.737623080611228943e-02 -1.207778677344322205e-01 -4.387291967868804932e-01
8.539631962776184082e-04 -1.118167862296104431e-01 -4.436635375022888184e-01
-1.193515025079250336e-02 -1.283913105726242065e-01 -4.390970468521118164e-01
-5.990850925445556641e-01 9.303989261388778687e-02 -1.734623610973358154e-01
-6.112784147262573242e-01 9.093374758958816528e-02 -1.566792726516723633e-01
-5.934821963310241699e-01 9.415149688720703125e-02 -1.524208784103393555e-01
-6.055878400802612305e-01 9.222857654094696045e-02 -1.356249749660491943e-01
-5.821211934089660645e-01 9.025795757770538330e-02 -1.883220970630645752e-01
-5.947263836860656738e-01 8.843637257814407349e-02 -1.713649481534957886e-01
-5.717303156852722168e-01 9.174728393554687500e-02 -1.703414916992187500e-01
-5.843898653984069824e-01 8.985532075166702271e-02 -1.533936113119125366e-01
-1.281484812498092651e-01 -6.253080964088439941e-01 -2.336119562387466431e-01
-1.423215419054031372e-01 -6.261757016181945801e-01 -2.274224907159805298e-01
-1.169975101947784424e-01 -6.247262954711914062e-01 -2.225958555936813354e-01
-1.298909038305282593e-01 -6.254336833953857422e-01 -2.154938429594039917e-01
9.990271925926208496e-02 -1.761883869767189026e-02 2.439726293087005615e-01
9.352622181177139282e-02 -3.444774448871612549e-02 2.448688000440597534e-01
1.175582632422447205e-01 -3.126648813486099243e-02 2.447129786014556885e-01
1.113254651427268982e-01 -4.674015939235687256e-02 2.456650584936141968e-01
-3.544711768627166748e-01 -2.568758726119995117e-01 -1.078923866152763367e-01
-3.609029948711395264e-01 -2.486667484045028687e-01 -9.922920912504196167e-02
-3.513734638690948486e-01 -2.608829438686370850e-01 -9.616576135158538818e-02
-3.584554493427276611e-01 -2.523483335971832275e-01 -8.828920871019363403e-02
-7.518713362514972687e-03 4.772907495498657227e-01 6.881374120712280273e-02
-8.425011299550533295e-03 4.552023708820343018e-01 6.594230979681015015e-02
1.073168404400348663e-02 4.781104028224945068e-01 6.779112666845321655e-02
9.522926062345504761e-03 4.557669162750244141e-01 6.476385891437530518e-02
-4.098387062549591064e-01 1.640008240938186646e-01 2.166035026311874390e-02
-4.202347695827484131e-01 1.607825160026550293e-01 3.067290224134922028e-02
-3.984093070030212402e-01 1.694280356168746948e-01 3.791242837905883789e-02
-4.091398715972900391e-01 1.651962399482727051e-01 4.616314172744750977e-02
2.096166610717773438e-01 1.136198490858078003e-01 -8.538799732923507690e-02
1.963465958833694458e-01 1.184742450714111328e-01 -8.051198720932006836e-02
2.169405519962310791e-01 1.163465380668640137e-01 -7.154834270477294922e-02
2.036449611186981201e-01 1.207621842622756958e-01 -6.450934708118438721e-02
-2.294195294380187988e-01 -4.051121473312377930e-01 2.438854277133941650e-01
-2.410243451595306396e-01 -4.222775101661682129e-01 2.465704232454299927e-01
-2.116625905036926270e-01 -4.129884839057922363e-01 2.434511184692382812e-01
-2.232785224914550781e-01 -4.291346669197082520e-01 2.458876371383666992e-01
-3.505111932754516602e-01 -9.664068371057510376e-02 2.445834726095199585e-01
-3.581521511077880859e-01 -1.119136586785316467e-01 2.455689907073974609e-01
-3.349711000919342041e-01 -1.067191138863563538e-01 2.447120398283004761e-01
-3.427361249923706055e-01 -1.217922195792198181e-01 2.453019320964813232e-01
4.342668950557708740e-01 2.438160330057144165e-01 2.447653859853744507e-01
4.249637126922607422e-01 2.235794216394424438e-01 2.455973327159881592e-01
4.536371231079101562e-01 2.363646626472473145e-01 2.437735199928283691e-01
4.435531497001647949e-01 2.173772156238555908e-01 2.449185401201248169e-01
1.065733879804611206e-01 3.463035915046930313e-03 -2.439687848091125488e-01
9.520126134157180786e-02 9.972607716917991638e-03 -2.389638423919677734e-01
1.185708045959472656e-01 4.050976596772670746e-03 -2.299317419528961182e-01
1.060305610299110413e-01 1.111971028149127960e-02 -2.263449281454086304e-01
5.496107339859008789e-01 1.508558988571166992e-01 1.161237135529518127e-01
5.353081226348876953e-01 1.544938534498214722e-01 1.230250895023345947e-01
5.587040185928344727e-01 1.546003222465515137e-01 1.290052533149719238e-01
5.447379350662231445e-01 1.587149798870086670e-01 1.366670429706573486e-01
9.948071837425231934e-02 -2.411723434925079346e-01 -3.807953000068664551e-01
8.995828777551651001e-02 -2.428408116102218628e-01 -3.723818957805633545e-01
1.096229031682014465e-01 -2.415544688701629639e-01 -3.738613128662109375e-01
1.017195209860801697e-01 -2.424237430095672607e-01 -3.646226227283477783e-01
-6.423645615577697754e-01 -1.229783669114112854e-01 -2.821854054927825928e-01
-6.535590291023254395e-01 -1.189539432525634766e-01 -2.616600394248962402e-01
-6.318426728248596191e-01 -1.219939067959785461e-01 -2.620376348495483398e-01
-6.426299810409545898e-01 -1.182978302240371704e-01 -2.422787249088287354e-01
2.282512336969375610e-01 2.294870615005493164e-01 7.979775965213775635e-02
2.230314761400222778e-01 2.113609611988067627e-01 7.602494955062866211e-02
2.470107972621917725e-01 2.245901525020599365e-01 9.010040760040283203e-02
2.412268817424774170e-01 2.050254642963409424e-01 8.693149685859680176e-02
3.869043588638305664e-01 4.234136044979095459e-01 1.198597401380538940e-01
3.760102093219757080e-01 4.063818156719207764e-01 1.203606501221656799e-01
4.050424695014953613e-01 4.219371974468231201e-01 1.249840483069419861e-01
3.945939540863037109e-01 4.047993421554565430e-01 1.256238222122192383e-01
-1.537230163812637329e-01 2.888909280300140381e-01 3.526342287659645081e-02
-1.653611510992050171e-01 2.829855382442474365e-01 3.648598119616508484e-02
-1.353221237659454346e-01 2.973144948482513428e-01 3.498530760407447815e-02
-1.464235782623291016e-01 2.919656634330749512e-01 3.621877729892730713e-02
5.269631743431091309e-01 5.822581648826599121e-01 1.258461326360702515e-01
5.181199312210083008e-01 5.632061362266540527e-01 1.294199228286743164e-01
5.438147187232971191e-01 5.698063373565673828e-01 1.266353279352188110e-01
5.360293388366699219e-01 5.510185956954956055e-01 1.293841749429702759e-01
-3.718511760234832764e-01 -1.062365695834159851e-01 2.443529665470123291e-01
-3.792768120765686035e-01 -1.227929741144180298e-01 2.448612898588180542e-01
-3.563272953033447266e-01 -1.136822327971458435e-01 2.445547133684158325e-01
-3.639242351055145264e-01 -1.292415857315063477e-01 2.451144456863403320e-01
-6.864434480667114258e-01 -4.372733086347579956e-02 -2.718197405338287354e-01
-6.843805909156799316e-01 -5.792061984539031982e-02 -2.672095596790313721e-01
-6.861379146575927734e-01 -3.776704892516136169e-02 -2.548736929893493652e-01
-6.823411583900451660e-01 -5.316400527954101562e-02 -2.513044774532318115e-01
4.732697010040283203e-01 2.705412209033966064e-01 1.707772612571716309e-01
4.646933674812316895e-01 2.586034238338470459e-01 1.711415946483612061e-01
4.866108298301696777e-01 2.629003226757049561e-01 1.736261248588562012e-01
4.781235754489898682e-01 2.509980797767639160e-01 1.742076575756072998e-01
6.678710877895355225e-02 5.551680922508239746e-01 2.434476315975189209e-01
5.921496450901031494e-02 5.406949520111083984e-01 2.460619062185287476e-01
8.224356919527053833e-02 5.529625415802001953e-01 2.445716857910156250e-01
7.394365221261978149e-02 5.366316437721252441e-01 2.465943694114685059e-01
2.095626667141914368e-03 9.734786301851272583e-02 -1.105475127696990967e-01
-1.131531409919261932e-02 1.040339097380638123e-01 -1.003189459443092346e-01
9.824605658650398254e-03 1.043309718370437622e-01 -9.428380429744720459e-02
-4.128319676965475082e-03 1.136760935187339783e-01 -8.167829364538192749e-02
-5.782509446144104004e-01 -1.099948287010192871e-01 -1.516644358634948730e-01
-5.894842743873596191e-01 -1.066239550709724426e-01 -1.397702395915985107e-01
-5.690338611602783203e-01 -1.096829846501350403e-01 -1.348907947540283203e-01
-5.805679559707641602e-01 -1.066122427582740784e-01 -1.240087300539016724e-01
4.365548789501190186e-01 5.141233801841735840e-01 1.194799989461898804e-01
4.287315905094146729e-01 4.970382452011108398e-01 1.207810640335083008e-01
4.503382444381713867e-01 5.049313902854919434e-01 1.222260817885398865e-01
4.424583613872528076e-01 4.865598380565643311e-01 1.238670349121093750e-01
-6.866168379783630371e-01 -5.251047760248184204e-02 5.058208480477333069e-02
-6.868257522583007812e-01 -6.120919436216354370e-02 6.022146344184875488e-02
-6.844694614410400391e-01 -5.295312777161598206e-02 6.276772171258926392e-02
-6.850254535675048828e-01 -6.125616282224655151e-02 7.214360684156417847e-02
-3.919837623834609985e-02 -5.998967885971069336e-01 -3.434127867221832275e-01
-4.635545238852500916e-02 -6.098766922950744629e-01 -3.386560976505279541e-01
-3.319402039051055908e-02 -5.915548205375671387e-01 -3.322854638099670410e-01
-4.045229777693748474e-02 -6.021860837936401367e-01 -3.285756409168243408e-01
