-1.646691709756851196e-01 3.229601681232452393e-01 3.684765100479125977e-01
-1.854693889617919922e-01 3.160964250564575195e-01 3.744864165782928467e-01
-1.489862501621246338e-01 3.092342317104339600e-01 3.771277070045471191e-01
-1.674385368824005127e-01 3.022555708885192871e-01 3.839597404003143311e-01
1.018523573875427246e-01 -1.707904785871505737e-01 4.274959266185760498e-01
8.212085068225860596e-02 -1.655445396900177002e-01 4.412717521190643311e-01
1.146815717220306396e-01 -1.494609117507934570e-01 4.294801354408264160e-01
9.460214525461196899e-02 -1.452032625675201416e-01 4.430616497993469238e-01
-3.635186254978179932e-01 7.498355209827423096e-02 -2.059026956558227539e-01
-3.772332072257995605e-01 6.813194602727890015e-02 -1.946099847555160522e-01
-3.647325038909912109e-01 9.463363885879516602e-02 -1.971202343702316284e-01
-3.795886933803558350e-01 8.743620663881301880e-02 -1.851437538862228394e-01
-6.945699453353881836e-02 3.741819858551025391e-01 -2.080362588167190552e-01
-8.533512055873870850e-02 3.775040507316589355e-01 -1.983826756477355957e-01
-6.279283761978149414e-02 3.852384686470031738e-01 -1.915818452835083008e-01
-7.890067994594573975e-02 3.894552588462829590e-01 -1.804869323968887329e-01
-3.874851465225219727e-01 -1.971572339534759521e-01 -3.691369891166687012e-01
-3.906013667583465576e-01 -2.219611704349517822e-01 -3.740559816360473633e-01
-3.648366630077362061e-01 -1.935245692729949951e-01 -3.659341931343078613e-01
-3.687897026538848877e-01 -2.163573652505874634e-01 -3.716177940368652344e-01
-3.020599782466888428e-01 -6.374295800924301147e-02 5.010140538215637207e-01
-3.057108521461486816e-01 -8.806508034467697144e-02 4.927372932434082031e-01
-2.804581820964813232e-01 -6.064273416996002197e-02 5.144841670989990234e-01
-2.855120301246643066e-01 -8.407232910394668579e-02 5.049574971199035645e-01
-4.600116908550262451e-01 -5.507431030273437500e-01 -3.248224258422851562e-01
-4.731636941432952881e-01 -5.574603080749511719e-01 -3.148899078369140625e-01
-4.458394944667816162e-01 -5.610963106155395508e-01 -3.080846071243286133e-01
-4.610112905502319336e-01 -5.664386749267578125e-01 -2.989769577980041504e-01
-3.330997228622436523e-01 -1.990230977535247803e-01 -2.076167315244674683e-01
-3.425268828868865967e-01 -2.006003707647323608e-01 -1.959137618541717529e-01
-3.317351937294006348e-01 -2.158507555723190308e-01 -1.986241042613983154e-01
-3.412730097770690918e-01 -2.180969417095184326e-01 -1.864308118820190430e-01
3.353660106658935547e-01 -3.169178962707519531e-01 -8.568044751882553101e-02
3.248362541198730469e-01 -3.294544219970703125e-01 -8.093669265508651733e-02
3.442494571208953857e-01 -3.201858997344970703e-01 -7.252968102693557739e-02
3.351233601570129395e-01 -3.332953155040740967e-01 -6.753445416688919067e-02
-1.119153946638107300e-01 4.387012720108032227e-01 -1.019984334707260132e-01
-1.321544498205184937e-01 4.413109123706817627e-01 -9.007658064365386963e-02
-9.710571169853210449e-02 4.467881023883819580e-01 -8.888278901576995850e-02
-1.171004325151443481e-01 4.486808776855468750e-01 -7.739431411027908325e-02
2.865582108497619629e-01 5.336970090866088867e-01 -2.605544030666351318e-02
2.729292511940002441e-01 5.389347672462463379e-01 -1.596599817276000977e-02
2.823223471641540527e-01 5.368861556053161621e-01 -1.416172366589307785e-02
2.686933875083923340e-01 5.421239137649536133e-01 -4.072283394634723663e-03
4.656444191932678223e-01 -4.882888197898864746e-01 7.226932793855667114e-02
4.494289457798004150e-01 -4.873723387718200684e-01 7.926364243030548096e-02
4.764166772365570068e-01 -4.762657284736633301e-01 9.007801860570907593e-02
4.600831270217895508e-01 -4.756897687911987305e-01 9.748369455337524414e-02
1.736772060394287109e-01 5.009807348251342773e-01 2.050325274467468262e-01
1.633550822734832764e-01 4.977951347827911377e-01 2.166654169559478760e-01
1.847580075263977051e-01 4.853925704956054688e-01 2.198332548141479492e-01
1.745790988206863403e-01 4.811005890369415283e-01 2.321088910102844238e-01
4.313257038593292236e-01 -3.642503917217254639e-01 -3.985356390476226807e-01
4.152975380420684814e-01 -3.861787617206573486e-01 -3.936133384704589844e-01
4.571849107742309570e-01 -3.598818480968475342e-01 -3.987872302532196045e-01
4.403911828994750977e-01 -3.828794062137603760e-01 -3.929558098316192627e-01
1.236897855997085571e-01 -2.978392541408538818e-01 -2.768076956272125244e-01
1.097212359309196472e-01 -3.029392957687377930e-01 -2.643748521804809570e-01
1.408899575471878052e-01 -3.009131550788879395e-01 -2.630248069763183594e-01
1.279791444540023804e-01 -3.071876466274261475e-01 -2.506386935710906982e-01
-4.277436733245849609e-01 4.232456088066101074e-01 -2.466804981231689453e-01
-4.398938715457916260e-01 4.116224944591522217e-01 -2.371874898672103882e-01
-4.257509708404541016e-01 4.347296357154846191e-01 -2.288978546857833862e-01
-4.371649324893951416e-01 4.232156574726104736e-01 -2.185443341732025146e-01
-1.322055310010910034e-01 -2.763147354125976562e-01 -3.624449968338012695e-01
-1.448138356208801270e-01 -2.753080129623413086e-01 -3.515012860298156738e-01
-1.189218908548355103e-01 -2.785209715366363525e-01 -3.485408127307891846e-01
-1.322870254516601562e-01 -2.742742598056793213e-01 -3.363205194473266602e-01
-6.995854377746582031e-01 -1.518464535474777222e-01 -3.640934824943542480e-01
-7.177443504333496094e-01 -1.529225856065750122e-01 -3.549221754074096680e-01
-6.829935312271118164e-01 -1.407623887062072754e-01 -3.693863153457641602e-01
-7.038172483444213867e-01 -1.352548897266387939e-01 -3.583974540233612061e-01
-6.324778199195861816e-01 -7.876348495483398438e-02 -3.743069171905517578e-01
-6.505466699600219727e-01 -7.350493967533111572e-02 -3.644720017910003662e-01
-6.179631352424621582e-01 -5.463354662060737610e-02 -3.780802190303802490e-01
-6.292968392372131348e-01 -6.403711438179016113e-02 -3.728457987308502197e-01
3.527338504791259766e-01 1.583101153373718262e-01 -1.962856799364089966e-01
3.364481925964355469e-01 1.800077855587005615e-01 -1.964466720819473267e-01
3.672750592231750488e-01 1.629813909530639648e-01 -1.789406687021255493e-01
3.510461449623107910e-01 1.838770061731338501e-01 -1.796247661113739014e-01
-5.680188536643981934e-02 -1.925565004348754883e-01 5.388700366020202637e-01
-7.874959707260131836e-02 -1.864705681800842285e-01 5.380119085311889648e-01
-3.434804454445838928e-02 -1.840154081583023071e-01 5.498224496841430664e-01
-5.615691095590591431e-02 -1.784854829311370850e-01 5.476352572441101074e-01
-3.852652609348297119e-01 -2.986600100994110107e-01 -3.885149657726287842e-01
-3.928397297859191895e-01 -3.178773522377014160e-01 -3.912340998649597168e-01
-3.620115220546722412e-01 -3.062973618507385254e-01 -3.880574703216552734e-01
-3.683208525180816650e-01 -3.254597783088684082e-01 -3.912919163703918457e-01
-2.463910728693008423e-01 -3.053773343563079834e-01 -3.835001289844512939e-01
-2.500499486923217773e-01 -3.350375592708587646e-01 -3.881397247314453125e-01
-2.182001471519470215e-01 -3.053379952907562256e-01 -3.815314471721649170e-01
-2.219181209802627563e-01 -3.352232575416564941e-01 -3.863554000854492188e-01
-5.930577516555786133e-01 -5.015684366226196289e-01 3.483672626316547394e-03
-6.086410284042358398e-01 -4.869701564311981201e-01 1.380204968154430389e-02
-5.845322012901306152e-01 -4.947918653488159180e-01 2.400166355073451996e-02
-6.000959277153015137e-01 -4.801647961139678955e-01 3.415561839938163757e-02
7.902619242668151855e-01 -4.320614412426948547e-02 -2.407372444868087769e-01
7.871534228324890137e-01 -3.147016838192939758e-02 -2.250624746084213257e-01
7.951245903968811035e-01 -5.018376186490058899e-02 -2.178102731704711914e-01
7.922897338867187500e-01 -3.977706655859947205e-02 -2.023817002773284912e-01
-4.931291341781616211e-01 -1.596266403794288635e-02 -9.497233480215072632e-02
-5.060223937034606934e-01 -1.841120421886444092e-02 -8.382551372051239014e-02
-4.886865317821502686e-01 -2.596933394670486450e-02 -9.216193854808807373e-02
-5.012389421463012695e-01 -2.795173041522502899e-02 -8.048684895038604736e-02
1.234496161341667175e-01 -1.569903194904327393e-01 4.244066476821899414e-01
1.037433072924613953e-01 -1.543751060962677002e-01 4.374427497386932373e-01
1.374306529760360718e-01 -1.338124871253967285e-01 4.261732101440429688e-01
1.186257153749465942e-01 -1.327274590730667114e-01 4.384980499744415283e-01
1.335504949092864990e-01 3.679229319095611572e-01 -3.798078894615173340e-01
1.199176982045173645e-01 3.575928509235382080e-01 -3.731025159358978271e-01
1.520596891641616821e-01 3.486143350601196289e-01 -3.771352171897888184e-01
1.381622105836868286e-01 3.395902812480926514e-01 -3.701720237731933594e-01
4.437778294086456299e-01 -2.636313997209072113e-02 -1.589695364236831665e-01
4.421892464160919189e-01 -4.638279974460601807e-02 -1.593638807535171509e-01
4.552202522754669189e-01 -2.924910560250282288e-02 -1.502597630023956299e-01
4.533160924911499023e-01 -4.884641617536544800e-02 -1.504091620445251465e-01
5.245768427848815918e-01 -5.500944256782531738e-01 -3.108848929405212402e-01
5.136588811874389648e-01 -5.593197345733642578e-01 -2.987322211265563965e-01
5.391228199005126953e-01 -5.623925924301147461e-01 -2.932935953140258789e-01
5.276140570640563965e-01 -5.711910128593444824e-01 -2.824484109878540039e-01
5.808398127555847168e-01 2.078710943460464478e-01 -9.463880211114883423e-02
5.696938633918762207e-01 1.993493586778640747e-01 -8.290883898735046387e-02
5.916144251823425293e-01 1.868994534015655518e-01 -9.081652015447616577e-02
5.780538916587829590e-01 1.774169951677322388e-01 -7.904335111379623413e-02
-9.518992900848388672e-02 -2.860753834247589111e-01 -2.926186621189117432e-01
-1.080584153532981873e-01 -2.828008830547332764e-01 -2.834194302558898926e-01
-7.919899374246597290e-02 -2.912118136882781982e-01 -2.780456542968750000e-01
-9.163738042116165161e-02 -2.891769707202911377e-01 -2.686719894409179688e-01
7.392350435256958008e-01 -3.772907257080078125e-01 1.783384196460247040e-02
7.254804372787475586e-01 -3.754821419715881348e-01 3.159916773438453674e-02
7.384683489799499512e-01 -3.584370315074920654e-01 3.031403012573719025e-02
7.258397340774536133e-01 -3.582055568695068359e-01 4.287276789546012878e-02
-7.842046618461608887e-01 -9.952592849731445312e-02 -2.402902841567993164e-01
-8.009654879570007324e-01 -1.232267767190933228e-01 -2.393354028463363647e-01
-7.755789756774902344e-01 -8.094517886638641357e-02 -2.289664745330810547e-01
-7.923064827919006348e-01 -1.034864038228988647e-01 -2.272770404815673828e-01
1.423269212245941162e-01 4.238574206829071045e-01 3.274967074394226074e-01
1.308300942182540894e-01 4.143910109996795654e-01 3.408925831317901611e-01
1.559419184923171997e-01 4.082384407520294189e-01 3.348579704761505127e-01
1.437135338783264160e-01 3.976221680641174316e-01 3.476848900318145752e-01
1.229571551084518433e-01 -2.854933440685272217e-01 -3.088406920433044434e-01
1.077510565519332886e-01 -2.882651388645172119e-01 -2.976302802562713623e-01
1.375763267278671265e-01 -2.883645594120025635e-01 -2.946836650371551514e-01
1.229741349816322327e-01 -2.923097610473632812e-01 -2.833132743835449219e-01
-4.632525518536567688e-02 4.843215644359588623e-01 3.095713555812835693e-01
-5.473672598600387573e-02 4.650631844997406006e-01 3.250902295112609863e-01
-2.972873486578464508e-02 4.781975150108337402e-01 3.170154392719268799e-01
-3.840745612978935242e-02 4.588603079319000244e-01 3.324488401412963867e-01
-4.870979487895965576e-01 -2.041981816291809082e-01 1.376437861472368240e-02
-4.961213469505310059e-01 -1.941698491573333740e-01 2.343051694333553314e-02
-4.832740426063537598e-01 -2.095248699188232422e-01 3.030881099402904510e-02
-4.921345114707946777e-01 -1.990355551242828369e-01 3.920622169971466064e-02
-1.434748172760009766e-01 3.807501196861267090e-01 3.150012791156768799e-01
-1.515853554010391235e-01 3.643335103988647461e-01 3.224209547042846680e-01
-1.308965533971786499e-01 3.705183267593383789e-01 3.233121037483215332e-01
-1.404358297586441040e-01 3.552726209163665771e-01 3.299856185913085938e-01
-3.915045857429504395e-01 4.931532144546508789e-01 -1.968821287155151367e-01
-4.032194912433624268e-01 4.800382852554321289e-01 -1.893046647310256958e-01
-3.830711841583251953e-01 5.020914673805236816e-01 -1.773304641246795654e-01
-3.927950263023376465e-01 4.880693554878234863e-01 -1.677587181329727173e-01
-5.163809657096862793e-01 2.442289888858795166e-01 -3.042877614498138428e-01
-5.299139022827148438e-01 2.352128028869628906e-01 -2.962619066238403320e-01
-5.169843435287475586e-01 2.591952085494995117e-01 -2.873901128768920898e-01
-5.310041308403015137e-01 2.492982745170593262e-01 -2.796643376350402832e-01
2.114382684230804443e-01 3.736024796962738037e-01 -3.914619386196136475e-01
1.991270929574966431e-01 3.541728854179382324e-01 -3.863605260848999023e-01
2.322566807270050049e-01 3.680061995983123779e-01 -3.928067982196807861e-01
2.198311239480972290e-01 3.485501110553741455e-01 -3.882805407047271729e-01
5.016006529331207275e-02 -1.135916169732809067e-02 6.078245639801025391e-01
3.960933536291122437e-02 -2.980372682213783264e-02 6.092916727066040039e-01
7.206901907920837402e-02 -1.242587994784116745e-02 6.025730967521667480e-01
6.217897310853004456e-02 -3.404715284705162048e-02 6.032525897026062012e-01
4.730137884616851807e-01 -3.891172818839550018e-03 -3.935054242610931396e-01
4.651654362678527832e-01 -2.062687277793884277e-02 -3.888913691043853760e-01
4.932836592197418213e-01 -2.160845883190631866e-02 -4.007046818733215332e-01
4.849593341350555420e-01 -3.889600932598114014e-02 -3.956556320190429688e-01
4.637890160083770752e-01 1.753407344222068787e-02 -3.947880268096923828e-01
4.557809233665466309e-01 1.023182645440101624e-03 -3.897310495376586914e-01
4.851273894309997559e-01 3.448385745286941528e-03 -4.004489779472351074e-01
4.768301248550415039e-01 -1.361870951950550079e-02 -3.954092264175415039e-01
3.822158575057983398e-01 -1.244059391319751740e-02 4.050536155700683594e-01
3.699679672718048096e-01 -8.468613959848880768e-03 4.145162105560302734e-01
3.877863585948944092e-01 -1.751771382987499237e-02 4.158672690391540527e-01
3.748377561569213867e-01 -1.336763240396976471e-02 4.248414635658264160e-01
3.956494033336639404e-01 -1.057946830987930298e-01 4.132047891616821289e-01
3.805758357048034668e-01 -1.092830598354339600e-01 4.249664545059204102e-01
3.910164237022399902e-01 -8.656363189220428467e-02 4.209061563014984131e-01
3.765791058540344238e-01 -8.981639146804809570e-02 4.316493868827819824e-01
4.551814496517181396e-01 -1.524124443531036377e-01 -9.534338116645812988e-02
4.434815049171447754e-01 -1.694037318229675293e-01 -9.570877254009246826e-02
4.693485498428344727e-01 -1.460196077823638916e-01 -7.988467067480087280e-02
4.569091796875000000e-01 -1.632958948612213135e-01 -8.023925870656967163e-02
-2.574456036090850830e-01 3.543108403682708740e-01 -1.230830550193786621e-01
-2.772296071052551270e-01 3.483188748359680176e-01 -1.177286654710769653e-01
-2.477446347475051880e-01 3.705776333808898926e-01 -1.147640869021415710e-01
-2.672233581542968750e-01 3.674618899822235107e-01 -1.085726320743560791e-01
4.832482635974884033e-01 2.545259594917297363e-01 -3.765650987625122070e-01
4.772126972675323486e-01 2.284922301769256592e-01 -3.804190754890441895e-01
5.102757215499877930e-01 2.575167119503021240e-01 -3.625971972942352295e-01
5.041494965553283691e-01 2.329562306404113770e-01 -3.674857020378112793e-01
-7.859217375516891479e-02 4.444147646427154541e-01 2.023257911205291748e-01
-8.478285372257232666e-02 4.368959665298461914e-01 2.179763168096542358e-01
-6.972639262676239014e-02 4.371056854724884033e-01 2.160422801971435547e-01
-7.539641857147216797e-02 4.275898635387420654e-01 2.324894666671752930e-01
1.578603237867355347e-01 3.413628935813903809e-01 -2.059083580970764160e-01
1.436551809310913086e-01 3.558346033096313477e-01 -1.967440247535705566e-01
1.643880158662796021e-01 3.550474345684051514e-01 -1.849224567413330078e-01
1.506752669811248779e-01 3.683767020702362061e-01 -1.780299395322799683e-01
1.787637919187545776e-01 3.722135424613952637e-01 3.171700835227966309e-01
1.670970469713211060e-01 3.577195703983306885e-01 3.287154138088226318e-01
1.920735388994216919e-01 3.605273365974426270e-01 3.272777199745178223e-01
1.805837452411651611e-01 3.470539152622222900e-01 3.386515676975250244e-01
3.185837566852569580e-01 -3.404506742954254150e-01 -3.955591917037963867e-01
3.084169924259185791e-01 -3.558896183967590332e-01 -3.946186006069183350e-01
3.371574878692626953e-01 -3.415039777755737305e-01 -3.942029774188995361e-01
3.285871744155883789e-01 -3.647528290748596191e-01 -3.947446942329406738e-01
5.511563271284103394e-03 3.699403256177902222e-03 4.682686924934387207e-01
-4.226800519973039627e-03 -1.653558760881423950e-02 4.706293046474456787e-01
3.068662807345390320e-02 -2.590304240584373474e-03 4.632931649684906006e-01
2.012040466070175171e-02 -2.243626117706298828e-02 4.662939012050628662e-01
3.730361163616180420e-01 -2.660478353500366211e-01 3.579121828079223633e-01
3.547037541866302490e-01 -2.674274444580078125e-01 3.704723715782165527e-01
3.833299279212951660e-01 -2.523003518581390381e-01 3.666594028472900391e-01
3.667454123497009277e-01 -2.533327937126159668e-01 3.773033916950225830e-01
1.099266856908798218e-01 4.403547346591949463e-01 2.273231148719787598e-01
1.033910810947418213e-01 4.297640025615692139e-01 2.390924245119094849e-01
1.174306124448776245e-01 4.368677735328674316e-01 2.380649894475936890e-01
1.109841242432594299e-01 4.266988933086395264e-01 2.512749731540679932e-01
-3.623400330543518066e-01 -2.730952203273773193e-01 3.715676367282867432e-01
-3.769264817237854004e-01 -2.613931000232696533e-01 3.683452010154724121e-01
-3.442471921443939209e-01 -2.646242380142211914e-01 3.881411850452423096e-01
-3.598593175411224365e-01 -2.507902383804321289e-01 3.852525949478149414e-01
-3.008661866188049316e-01 3.165542483329772949e-01 -3.939069211483001709e-01
-3.162239789962768555e-01 2.947656512260437012e-01 -3.925411701202392578e-01
-2.802388370037078857e-01 3.317291438579559326e-01 -3.954778611660003662e-01
-2.934958934783935547e-01 3.072248995304107666e-01 -3.953118026256561279e-01
-8.418121188879013062e-02 -1.506940722465515137e-01 4.516720175743103027e-01
-8.383663743734359741e-02 -1.801990419626235962e-01 4.432203173637390137e-01
-6.106069311499595642e-02 -1.519352197647094727e-01 4.519078731536865234e-01
-6.035008281469345093e-02 -1.820394843816757202e-01 4.433238506317138672e-01
1.881680041551589966e-01 -3.397004604339599609e-01 -3.927311599254608154e-01
1.706751734018325806e-01 -3.596923351287841797e-01 -3.922738730907440186e-01
2.154571563005447388e-01 -3.359471559524536133e-01 -3.938655257225036621e-01
1.979067474603652954e-01 -3.558911383152008057e-01 -3.934120535850524902e-01
-5.523883104324340820e-01 2.582787871360778809e-01 -1.941007971763610840e-01
-5.638241171836853027e-01 2.480267137289047241e-01 -1.839789152145385742e-01
-5.466275215148925781e-01 2.732892036437988281e-01 -1.754025369882583618e-01
-5.580371022224426270e-01 2.624821364879608154e-01 -1.666327416896820068e-01
7.523657381534576416e-02 7.029191851615905762e-01 7.366750389337539673e-02
6.503928452730178833e-02 6.940407156944274902e-01 8.977208286523818970e-02
9.220376610755920410e-02 6.832644343376159668e-01 8.829346299171447754e-02
8.177617937326431274e-02 6.750649809837341309e-01 1.043055802583694458e-01
-1.081491857767105103e-01 2.584295272827148438e-01 3.965960144996643066e-01
-1.257220357656478882e-01 2.444861829280853271e-01 4.073911309242248535e-01
-9.042356163263320923e-02 2.517463862895965576e-01 4.027449786663055420e-01
-1.095364540815353394e-01 2.370132356882095337e-01 4.125747084617614746e-01
5.237551927566528320e-01 -1.324367970228195190e-01 -3.950886428356170654e-01
5.154082775115966797e-01 -1.525289416313171387e-01 -3.944805264472961426e-01
5.431862473487854004e-01 -1.400256305932998657e-01 -3.964092433452606201e-01
5.352962613105773926e-01 -1.604499518871307373e-01 -3.964749276638031006e-01
3.495624661445617676e-01 -2.576490640640258789e-01 -1.478032767772674561e-01
3.354902565479278564e-01 -2.716319262981414795e-01 -1.475217938423156738e-01
3.689068853855133057e-01 -2.455932646989822388e-01 -1.306569576263427734e-01
3.546843528747558594e-01 -2.603064179420471191e-01 -1.309237033128738403e-01
6.171842813491821289e-01 2.090867310762405396e-01 -2.872475683689117432e-01
6.105463504791259766e-01 2.259930670261383057e-01 -2.785686254501342773e-01
6.225784420967102051e-01 2.111228406429290771e-01 -2.664175033569335938e-01
6.154013276100158691e-01 2.284633070230484009e-01 -2.564557492733001709e-01
-4.046637415885925293e-01 4.634607136249542236e-01 -2.368456274271011353e-01
-4.180451333522796631e-01 4.512059390544891357e-01 -2.293912470340728760e-01
-4.003680646419525146e-01 4.753995537757873535e-01 -2.175893336534500122e-01
-4.132985472679138184e-01 4.618837237358093262e-01 -2.102884501218795776e-01
3.108839094638824463e-01 5.187543630599975586e-01 -3.690363466739654541e-01
3.070457279682159424e-01 4.966400563716888428e-01 -3.746953308582305908e-01
3.273731470108032227e-01 5.194501280784606934e-01 -3.640064895153045654e-01
3.266753256320953369e-01 4.953728020191192627e-01 -3.710229396820068359e-01
-5.392502546310424805e-01 2.163096517324447632e-02 -5.851538851857185364e-02
-5.511527061462402344e-01 1.560945529490709305e-02 -5.017476901412010193e-02
-5.324152112007141113e-01 1.823312835767865181e-03 -5.748153477907180786e-02
-5.442427396774291992e-01 -1.050987513735890388e-03 -4.525220394134521484e-02
5.143344998359680176e-01 -9.635867178440093994e-02 2.062227129936218262e-01
5.004448294639587402e-01 -9.373609721660614014e-02 2.194118499755859375e-01
5.176083445549011230e-01 -8.534401655197143555e-02 2.187258303165435791e-01
5.033130645751953125e-01 -8.333724737167358398e-02 2.317829579114913940e-01
4.549460858106613159e-02 -1.182111427187919617e-01 5.831364989280700684e-01
2.723020315170288086e-02 -1.042624190449714661e-01 5.924419164657592773e-01
6.216380372643470764e-02 -1.011927798390388489e-01 5.836690664291381836e-01
4.323486611247062683e-02 -8.702071756124496460e-02 5.932328701019287109e-01
6.050370931625366211e-01 -8.736526966094970703e-02 1.227685958147048950e-01
5.954271554946899414e-01 -8.748672902584075928e-02 1.375493109226226807e-01
6.141051054000854492e-01 -8.717596530914306641e-02 1.363436281681060791e-01
6.045051217079162598e-01 -8.679144084453582764e-02 1.507119834423065186e-01
7.116847485303878784e-02 4.323827624320983887e-01 -1.246142908930778503e-01
5.641912668943405151e-02 4.457426071166992188e-01 -1.087257340550422668e-01
7.813064754009246826e-02 4.386528730392456055e-01 -1.068095788359642029e-01
6.235763430595397949e-02 4.517718553543090820e-01 -9.205504506826400757e-02
-2.266322821378707886e-01 6.034980416297912598e-01 3.207437321543693542e-02
-2.322557270526885986e-01 5.888549685478210449e-01 3.179476410150527954e-02
-2.135444581508636475e-01 6.090099215507507324e-01 4.782773181796073914e-02
-2.199496477842330933e-01 5.951441526412963867e-01 4.818407446146011353e-02
6.975881010293960571e-02 4.755088686943054199e-01 -3.917436003684997559e-01
5.385304614901542664e-02 4.579435884952545166e-01 -3.863451778888702393e-01
9.668627381324768066e-02 4.755100905895233154e-01 -3.948891758918762207e-01
7.979204505681991577e-02 4.570066034793853760e-01 -3.892250955104827881e-01
-1.874645352363586426e-01 -7.568036019802093506e-02 4.386135637760162354e-01
-1.922203600406646729e-01 -9.685883671045303345e-02 4.336448907852172852e-01
-1.629019975662231445e-01 -7.581283897161483765e-02 4.445786476135253906e-01
-1.665617227554321289e-01 -9.769069403409957886e-02 4.398097693920135498e-01
5.019159317016601562e-01 2.458418458700180054e-01 -3.709714114665985107e-01
4.959393441677093506e-01 2.198769748210906982e-01 -3.753375709056854248e-01
5.253573060035705566e-01 2.494053691625595093e-01 -3.567977249622344971e-01
5.190976858139038086e-01 2.288263589143753052e-01 -3.620541691780090332e-01
5.661395192146301270e-01 1.144911944866180420e-01 -3.754331469535827637e-01
5.640642046928405762e-01 8.764988183975219727e-02 -3.840222954750061035e-01
5.857262611389160156e-01 1.238299459218978882e-01 -3.621819317340850830e-01
5.831333994865417480e-01 9.784109890460968018e-02 -3.728235363960266113e-01
-4.125717282295227051e-01 -4.723050594329833984e-01 1.051998510956764221e-01
-4.288604259490966797e-01 -4.714003205299377441e-01 1.139566972851753235e-01
-3.990429043769836426e-01 -4.664802253246307373e-01 1.202210485935211182e-01
-4.143581092357635498e-01 -4.662809967994689941e-01 1.269891709089279175e-01
-6.793838143348693848e-01 -3.934442996978759766e-02 -3.365825116634368896e-01
-6.951414346694946289e-01 -4.318274557590484619e-02 -3.258328139781951904e-01
-6.759887933731079102e-01 -1.590504124760627747e-02 -3.297091722488403320e-01
-6.917849183082580566e-01 -2.448306977748870850e-02 -3.209129273891448975e-01
7.687519192695617676e-01 -1.017665863037109375e-01 -3.355468213558197021e-01
7.629821300506591797e-01 -9.018063545227050781e-02 -3.337550461292266846e-01
7.839417457580566406e-01 -1.034030839800834656e-01 -3.173718750476837158e-01
7.761507630348205566e-01 -8.194065839052200317e-02 -3.124237358570098877e-01
-5.249796509742736816e-01 -5.032551884651184082e-01 3.273412957787513733e-02
-5.426691174507141113e-01 -4.900643527507781982e-01 4.769998416304588318e-02
-5.148769021034240723e-01 -4.949254393577575684e-01 5.593477189540863037e-02
-5.330291986465454102e-01 -4.812136590480804443e-01 7.034647464752197266e-02
-1.894396841526031494e-01 1.223566234111785889e-01 5.339969992637634277e-01
-2.068311125040054321e-01 1.032190024852752686e-01 5.355827808380126953e-01
-1.633753478527069092e-01 1.274629384279251099e-01 5.433681011199951172e-01
-1.820442378520965576e-01 1.087256073951721191e-01 5.441304445266723633e-01
-8.165267109870910645e-02 3.081416785717010498e-01 -3.533079028129577637e-01
-9.537199139595031738e-02 3.027220368385314941e-01 -3.406639397144317627e-01
-7.481648772954940796e-02 3.104534447193145752e-01 -3.343616127967834473e-01
-8.847855776548385620e-02 3.078179359436035156e-01 -3.207674026489257812e-01
3.367070257663726807e-01 -2.882878184318542480e-01 3.602853715419769287e-01
3.172968327999114990e-01 -2.872481346130371094e-01 3.750098347663879395e-01
3.466687798500061035e-01 -2.736213803291320801e-01 3.699771165847778320e-01
3.286578953266143799e-01 -2.719360589981079102e-01 3.833524286746978760e-01
9.433118253946304321e-02 3.300015032291412354e-01 4.334197938442230225e-01
7.386283576488494873e-02 3.181133270263671875e-01 4.494063556194305420e-01
1.122508421540260315e-01 3.232932686805725098e-01 4.369744658470153809e-01
9.079740941524505615e-02 3.116299808025360107e-01 4.532267153263092041e-01
3.920447826385498047e-01 3.498849570751190186e-01 -3.810359835624694824e-01
3.904185891151428223e-01 3.221329450607299805e-01 -3.865621387958526611e-01
4.175573885440826416e-01 3.427596986293792725e-01 -3.751251399517059326e-01
4.164144694805145264e-01 3.145217895507812500e-01 -3.815745711326599121e-01
-4.776061326265335083e-02 -1.873246729373931885e-01 5.447395443916320801e-01
-6.961441040039062500e-02 -1.818248033523559570e-01 5.432598590850830078e-01
-2.439780905842781067e-02 -1.780072748661041260e-01 5.546188950538635254e-01
-4.596411436796188354e-02 -1.726678758859634399e-01 5.521185398101806641e-01
2.978188693523406982e-01 -5.274603366851806641e-01 -3.553949892520904541e-01
2.824331223964691162e-01 -5.377121567726135254e-01 -3.465492427349090576e-01
3.109975755214691162e-01 -5.341104269027709961e-01 -3.464651405811309814e-01
2.970097064971923828e-01 -5.429975986480712891e-01 -3.390897512435913086e-01
2.111799865961074829e-01 1.629585027694702148e-01 4.821604490280151367e-01
2.033494710922241211e-01 1.472167372703552246e-01 4.906319081783294678e-01
2.204010188579559326e-01 1.399383544921875000e-01 4.901548326015472412e-01
2.145856469869613647e-01 1.240663081407546997e-01 4.974659085273742676e-01
-1.831376403570175171e-01 4.071065485477447510e-01 3.322207033634185791e-01
-1.889387965202331543e-01 3.885312676429748535e-01 3.412123024463653564e-01
-1.709669232368469238e-01 3.961169123649597168e-01 3.413339257240295410e-01
-1.762518584728240967e-01 3.778426945209503174e-01 3.507706522941589355e-01
1.864640563726425171e-01 2.647039592266082764e-01 -2.752762138843536377e-01
1.737300753593444824e-01 2.790651023387908936e-01 -2.622835040092468262e-01
1.932348161935806274e-01 2.692659795284271240e-01 -2.557569444179534912e-01
1.807038187980651855e-01 2.873815298080444336e-01 -2.448945641517639160e-01
-3.685334622859954834e-01 -3.391876816749572754e-01 -4.821881651878356934e-02
-3.801741600036621094e-01 -3.366435766220092773e-01 -3.409386053681373596e-02
-3.673155307769775391e-01 -3.560861647129058838e-01 -3.495093062520027161e-02
-3.780458867549896240e-01 -3.536091446876525879e-01 -2.076882869005203247e-02
-8.398019075393676758e-01 -1.978617757558822632e-01 -2.316771298646926880e-01
-8.510245680809020996e-01 -2.096721678972244263e-01 -2.205341309309005737e-01
-8.395169377326965332e-01 -1.826334595680236816e-01 -2.095814049243927002e-01
-8.510131239891052246e-01 -1.954629123210906982e-01 -1.993454694747924805e-01
-8.792527019977569580e-03 6.054783463478088379e-01 1.906983256340026855e-01
-2.215314470231533051e-02 5.899294018745422363e-01 2.052982747554779053e-01
1.314505562186241150e-02 5.974045395851135254e-01 2.000989466905593872e-01
-1.785306725651025772e-03 5.832304954528808594e-01 2.143812328577041626e-01
1.187252923846244812e-01 4.929000437259674072e-01 2.771581113338470459e-01
1.088258177042007446e-01 4.832961857318878174e-01 2.937299907207489014e-01
1.266481280326843262e-01 4.745772182941436768e-01 2.899038493633270264e-01
1.168928295373916626e-01 4.656013250350952148e-01 3.051501512527465820e-01
-2.995408475399017334e-01 -1.786553710699081421e-01 -2.802601456642150879e-01
-3.106326460838317871e-01 -1.706089228391647339e-01 -2.675584554672241211e-01
-2.997035980224609375e-01 -1.887345612049102783e-01 -2.666013538837432861e-01
-3.107045888900756836e-01 -1.808235645294189453e-01 -2.538214921951293945e-01
-1.544622182846069336e-01 4.742427766323089600e-01 1.613935828208923340e-01
-1.644900292158126831e-01 4.737651944160461426e-01 1.727411001920700073e-01
-1.471589952707290649e-01 4.660297036170959473e-01 1.736058145761489868e-01
-1.563543081283569336e-01 4.644694328308105469e-01 1.854483187198638916e-01
-7.436814904212951660e-01 -1.385183930397033691e-01 4.843296110630035400e-02
-7.486013770103454590e-01 -1.614431142807006836e-01 5.242433398962020874e-02
-7.301415205001831055e-01 -1.447405815124511719e-01 6.675995141267776489e-02
-7.341824769973754883e-01 -1.665576994419097900e-01 7.083674520254135132e-02
-4.121209681034088135e-01 2.146729379892349243e-01 -1.107962876558303833e-01
-4.301055669784545898e-01 2.121111154556274414e-01 -1.018153876066207886e-01
-4.025044441223144531e-01 2.364400923252105713e-01 -1.080338656902313232e-01
-4.199979305267333984e-01 2.399089038372039795e-01 -9.766993671655654907e-02
-8.122120052576065063e-02 -6.094567775726318359e-01 -1.760185360908508301e-01
-1.052149236202239990e-01 -6.080191135406494141e-01 -1.686754226684570312e-01
-7.034036517143249512e-02 -6.080185770988464355e-01 -1.563487201929092407e-01
-9.513440728187561035e-02 -6.055555343627929688e-01 -1.490514427423477173e-01
-4.846435189247131348e-01 -9.700340032577514648e-02 -3.922515809535980225e-01
-4.959959089756011963e-01 -1.157076880335807800e-01 -3.909078538417816162e-01
-4.630700349807739258e-01 -1.032158657908439636e-01 -3.909326195716857910e-01
-4.741114377975463867e-01 -1.223205178976058960e-01 -3.899931013584136963e-01
4.066349565982818604e-01 6.684626638889312744e-02 -3.903095722198486328e-01
3.883216381072998047e-01 5.404636263847351074e-02 -3.829297423362731934e-01
4.324950575828552246e-01 5.445769056677818298e-02 -3.921288847923278809e-01
4.184220731258392334e-01 3.717495873570442200e-02 -3.867595791816711426e-01
-1.382375508546829224e-01 -5.799164175987243652e-01 -9.266435354948043823e-02
-1.615178585052490234e-01 -5.681003332138061523e-01 -8.121426403522491455e-02
-1.229489967226982117e-01 -5.647918581962585449e-01 -8.099776506423950195e-02
-1.449709385633468628e-01 -5.525487065315246582e-01 -6.910981237888336182e-02
8.358566164970397949e-01 -3.806967735290527344e-01 -3.241932392120361328e-01
8.313366174697875977e-01 -3.963054418563842773e-01 -3.239969909191131592e-01
8.465809822082519531e-01 -3.869429230690002441e-01 -3.109575212001800537e-01
8.422901034355163574e-01 -4.026554822921752930e-01 -3.104553222656250000e-01
6.967872977256774902e-01 -2.081845104694366455e-01 -3.788475692272186279e-01
6.863256692886352539e-01 -2.344179451465606689e-01 -3.807090222835540771e-01
7.233554720878601074e-01 -2.106569409370422363e-01 -3.792986273765563965e-01
7.129222154617309570e-01 -2.371515482664108276e-01 -3.808540403842926025e-01
-1.666338443756103516e-01 1.243542954325675964e-01 5.470555424690246582e-01
-1.853027343750000000e-01 1.056169569492340088e-01 5.478178858757019043e-01
-1.428136378526687622e-01 1.298222392797470093e-01 5.547240376472473145e-01
-1.611187458038330078e-01 1.120753586292266846e-01 5.553142428398132324e-01
3.921496868133544922e-01 -2.194617316126823425e-02 -3.737025558948516846e-01
3.874261975288391113e-01 -4.120014980435371399e-02 -3.692268431186676025e-01
4.084246456623077393e-01 -3.605376183986663818e-02 -3.790735602378845215e-01
4.045815467834472656e-01 -5.556998029351234436e-02 -3.753040134906768799e-01
4.246720075607299805e-01 -4.780741333961486816e-01 9.895443171262741089e-02
4.096680879592895508e-01 -4.749476909637451172e-01 1.070578321814537048e-01
4.340282380580902100e-01 -4.706225097179412842e-01 1.155106425285339355e-01
4.190444648265838623e-01 -4.672092795372009277e-01 1.244078353047370911e-01
8.104481697082519531e-01 -4.406936764717102051e-01 -3.140442371368408203e-01
8.013517260551452637e-01 -4.528776109218597412e-01 -3.111755251884460449e-01
8.259477019309997559e-01 -4.479598402976989746e-01 -3.021647930145263672e-01
8.162540197372436523e-01 -4.600422978401184082e-01 -2.994234859943389893e-01
-2.960530519485473633e-01 -3.381483554840087891e-01 3.348413109779357910e-01
-3.075407445430755615e-01 -3.364752233028411865e-01 3.390625417232513428e-01
-2.856626212596893311e-01 -3.344065546989440918e-01 3.484469950199127197e-01
-2.975708544254302979e-01 -3.309702575206756592e-01 3.525350093841552734e-01
6.734687685966491699e-01 -9.894592314958572388e-02 -3.804376423358917236e-01
6.686894893646240234e-01 -1.239344254136085510e-01 -3.820401728153228760e-01
6.946426630020141602e-01 -1.024065241217613220e-01 -3.738031983375549316e-01
6.908171772956848145e-01 -1.279936134815216064e-01 -3.765741586685180664e-01
-8.780450224876403809e-01 -3.650513887405395508e-01 -2.626643776893615723e-01
-8.811939358711242676e-01 -3.787007033824920654e-01 -2.539756298065185547e-01
-8.824748992919921875e-01 -3.715567886829376221e-01 -2.465205192565917969e-01
-8.862311244010925293e-01 -3.835511505603790283e-01 -2.365967035293579102e-01
-2.748686671257019043e-01 6.349874138832092285e-01 -1.054325103759765625e-01
-2.869216799736022949e-01 6.178552508354187012e-01 -1.014032438397407532e-01
-2.616396546363830566e-01 6.440875530242919922e-01 -9.120399504899978638e-02
-2.747539877891540527e-01 6.269388198852539062e-01 -8.776107430458068848e-02
4.155817627906799316e-01 3.658245205879211426e-01 -7.781285792589187622e-02
4.006688892841339111e-01 3.537584841251373291e-01 -7.623034715652465820e-02
4.358175694942474365e-01 3.641678690910339355e-01 -7.463376969099044800e-02
4.219906032085418701e-01 3.506723046302795410e-01 -7.323989272117614746e-02
8.613973855972290039e-01 -1.927016228437423706e-01 -2.435500919818878174e-01
8.708173632621765137e-01 -2.142732292413711548e-01 -2.340385466814041138e-01
8.640787601470947266e-01 -1.988990604877471924e-01 -2.191476225852966309e-01
8.721071481704711914e-01 -2.161307036876678467e-01 -2.089968621730804443e-01
-5.383942723274230957e-01 -8.969107270240783691e-02 2.811157405376434326e-01
-5.543737411499023438e-01 -9.435190260410308838e-02 2.819760143756866455e-01
-5.212599635124206543e-01 -9.067701548337936401e-02 3.004955947399139404e-01
-5.354802608489990234e-01 -9.662479907274246216e-02 2.988298535346984863e-01
5.413507223129272461e-01 -5.695718526840209961e-01 -2.630618512630462646e-01
5.291584134101867676e-01 -5.773223638534545898e-01 -2.514119148254394531e-01
5.512320399284362793e-01 -5.741092562675476074e-01 -2.460750043392181396e-01
5.387143492698669434e-01 -5.788292884826660156e-01 -2.323920875787734985e-01
-2.666232883930206299e-01 1.633833944797515869e-01 -2.808618545532226562e-01
-2.759549915790557861e-01 1.526385843753814697e-01 -2.715654969215393066e-01
-2.700142562389373779e-01 1.742545664310455322e-01 -2.627848088741302490e-01
-2.800530791282653809e-01 1.633676141500473022e-01 -2.549023628234863281e-01
-6.149883866310119629e-01 -7.582585513591766357e-02 1.359286904335021973e-01
-6.259074211120605469e-01 -7.930254191160202026e-02 1.406702995300292969e-01
-6.027523875236511230e-01 -7.841370999813079834e-02 1.461105793714523315e-01
-6.137819886207580566e-01 -8.330115675926208496e-02 1.502019166946411133e-01
3.986750841140747070e-01 -1.874056905508041382e-01 -1.515364348888397217e-01
3.893761932849884033e-01 -2.013756483793258667e-01 -1.518523395061492920e-01
4.118873178958892822e-01 -1.855252534151077271e-01 -1.337383389472961426e-01
4.013596177101135254e-01 -1.995248049497604370e-01 -1.343519091606140137e-01
-5.795267820358276367e-01 -9.648922085762023926e-02 6.615448743104934692e-02
-5.907942652702331543e-01 -9.391300380229949951e-02 7.603098452091217041e-02
-5.674716830253601074e-01 -1.045334264636039734e-01 7.796765118837356567e-02
-5.776730179786682129e-01 -1.011389046907424927e-01 8.776626735925674438e-02
-7.520882487297058105e-01 -2.714129686355590820e-01 -3.628414869308471680e-01
-7.768356204032897949e-01 -2.615848183631896973e-01 -3.474219739437103271e-01
-7.419816255569458008e-01 -2.541314363479614258e-01 -3.667921125888824463e-01
-7.659262418746948242e-01 -2.444727867841720581e-01 -3.513592481613159180e-01
-1.390541344881057739e-01 -1.559637039899826050e-01 5.452921390533447266e-01
-1.486103832721710205e-01 -1.637056767940521240e-01 5.398688912391662598e-01
-1.219620704650878906e-01 -1.481168419122695923e-01 5.548074245452880859e-01
-1.309414654970169067e-01 -1.587289720773696899e-01 5.488451123237609863e-01
2.020072638988494873e-01 -3.279535099864006042e-02 4.210980832576751709e-01
1.872263550758361816e-01 -3.605701774358749390e-02 4.297829568386077881e-01
2.271865606307983398e-01 -2.214826457202434540e-02 4.118013679981231689e-01
2.073665559291839600e-01 -1.565902680158615112e-02 4.233476519584655762e-01
2.433456927537918091e-01 -1.116772517561912537e-01 5.228155255317687988e-01
2.173611968755722046e-01 -1.055375039577484131e-01 5.366148948669433594e-01
2.547059059143066406e-01 -7.850950211286544800e-02 5.189930200576782227e-01
2.296442687511444092e-01 -7.482642680406570435e-02 5.335991978645324707e-01
-2.034409642219543457e-01 5.888253450393676758e-01 9.243001788854598999e-02
-2.111125439405441284e-01 5.751454234123229980e-01 9.317121654748916626e-02
-1.889980435371398926e-01 5.930734276771545410e-01 1.125910207629203796e-01
-1.978320777416229248e-01 5.771805644035339355e-01 1.123440340161323547e-01
-5.356200337409973145e-01 -1.152804791927337646e-01 6.283754017204046249e-03
-5.471865534782409668e-01 -1.161260902881622314e-01 2.196158841252326965e-02
-5.356752872467041016e-01 -1.300122290849685669e-01 1.830928958952426910e-02
-5.458480119705200195e-01 -1.292266547679901123e-01 3.302032127976417542e-02
-8.020977973937988281e-01 -1.864894181489944458e-01 -3.059642016887664795e-01
-8.146444559097290039e-01 -1.959398537874221802e-01 -2.925453782081604004e-01
-8.007284402847290039e-01 -1.678726226091384888e-01 -2.999117970466613770e-01
-8.132141232490539551e-01 -1.776360124349594116e-01 -2.861734628677368164e-01
2.729002200067043304e-02 8.625881671905517578e-01 -2.946643233299255371e-01
1.120860688388347626e-02 8.675175905227661133e-01 -2.884956896305084229e-01
4.167342931032180786e-02 8.644798994064331055e-01 -2.773284614086151123e-01
2.696650475263595581e-02 8.693337440490722656e-01 -2.684743702411651611e-01
-5.726918205618858337e-02 -5.829436182975769043e-01 -2.933978140354156494e-01
-7.373897731304168701e-02 -5.872350931167602539e-01 -2.820541858673095703e-01
-4.355608671903610229e-02 -5.902339220046997070e-01 -2.791900336742401123e-01
-5.984838679432868958e-02 -5.945193171501159668e-01 -2.673805952072143555e-01
1.882749348878860474e-01 7.684983015060424805e-01 -1.351839005947113037e-01
1.751680076122283936e-01 7.717407345771789551e-01 -1.187811493873596191e-01
1.974212676286697388e-01 7.558984160423278809e-01 -1.182790920138359070e-01
1.838953644037246704e-01 7.607683539390563965e-01 -1.024381741881370544e-01
-2.344354540109634399e-01 1.853183209896087646e-01 -3.221246600151062012e-01
-2.427978813648223877e-01 1.751357018947601318e-01 -3.141638636589050293e-01
-2.295630723237991333e-01 1.985072046518325806e-01 -3.057306110858917236e-01
-2.381017804145812988e-01 1.882230639457702637e-01 -2.980423867702484131e-01
3.232595920562744141e-01 -4.456735551357269287e-01 1.261416077613830566e-01
3.120166063308715820e-01 -4.379813075065612793e-01 1.427429169416427612e-01
3.308404088020324707e-01 -4.414890408515930176e-01 1.436113119125366211e-01
3.192402124404907227e-01 -4.339497685432434082e-01 1.593938469886779785e-01
1.843832135200500488e-01 -3.323733210563659668e-01 -1.923737972974777222e-01
1.764137148857116699e-01 -3.468772470951080322e-01 -1.801974326372146606e-01
1.994069665670394897e-01 -3.361287713050842285e-01 -1.776201874017715454e-01
1.913675963878631592e-01 -3.499165177345275879e-01 -1.654365956783294678e-01
3.195025026798248291e-02 5.003064274787902832e-01 -3.937388658523559570e-01
1.845481432974338531e-02 4.823394417762756348e-01 -3.898089230060577393e-01
5.583944171667098999e-02 4.948517084121704102e-01 -3.939979672431945801e-01
3.995618969202041626e-02 4.755960404872894287e-01 -3.892373740673065186e-01
-5.836047530174255371e-01 2.176250070333480835e-01 -1.921853572130203247e-01
-5.959946513175964355e-01 2.061391472816467285e-01 -1.859987527132034302e-01
-5.725522041320800781e-01 2.279942631721496582e-01 -1.724566221237182617e-01
-5.849543213844299316e-01 2.163650691509246826e-01 -1.661710441112518311e-01
2.269287258386611938e-01 -2.797860205173492432e-01 -2.392677068710327148e-01
2.191006988286972046e-01 -2.924569249153137207e-01 -2.304434776306152344e-01
2.409639656543731689e-01 -2.839482128620147705e-01 -2.251100838184356689e-01
2.335458993911743164e-01 -2.952492535114288330e-01 -2.169287204742431641e-01
-1.133239939808845520e-01 3.606119155883789062e-01 4.067902863025665283e-01
-1.237572655081748962e-01 3.482086658477783203e-01 4.156482219696044922e-01
-9.653269499540328979e-02 3.492417037487030029e-01 4.203941822052001953e-01
-1.049015447497367859e-01 3.345885276794433594e-01 4.290932416915893555e-01
-3.870400786399841309e-02 8.704825639724731445e-01 -1.811472177505493164e-01
-5.080858618021011353e-02 8.675879240036010742e-01 -1.675424873828887939e-01
-1.932597719132900238e-02 8.712034821510314941e-01 -1.639531105756759644e-01
-3.306049108505249023e-02 8.665441274642944336e-01 -1.516894996166229248e-01
-9.425976127386093140e-02 3.211577236652374268e-01 3.474503755569458008e-01
-1.027536913752555847e-01 3.075883388519287109e-01 3.617483377456665039e-01
-8.149960637092590332e-02 3.090336620807647705e-01 3.561330139636993408e-01
-8.981104195117950439e-02 2.945122718811035156e-01 3.710618913173675537e-01
-1.447484269738197327e-02 8.855397999286651611e-02 5.973595380783081055e-01
-3.282429277896881104e-02 6.754635274410247803e-02 6.050793528556823730e-01
5.937774665653705597e-03 8.613968640565872192e-02 5.945758223533630371e-01
-1.154528837651014328e-02 6.519220024347305298e-02 6.041678786277770996e-01
3.177117705345153809e-01 3.576621115207672119e-01 -9.999159723520278931e-02
2.980054020881652832e-01 3.779564797878265381e-01 -9.437202662229537964e-02
3.322451710700988770e-01 3.745165467262268066e-01 -8.780167996883392334e-02
3.124999105930328369e-01 3.929508328437805176e-01 -8.204028755426406860e-02
7.783668041229248047e-01 -5.065337419509887695e-01 -2.269352078437805176e-01
7.590623497962951660e-01 -5.160668492317199707e-01 -2.175501734018325806e-01
7.947148680686950684e-01 -4.961103498935699463e-01 -2.103825062513351440e-01
7.745977640151977539e-01 -5.060095787048339844e-01 -2.003089487552642822e-01
3.444104194641113281e-01 -3.769064843654632568e-01 6.964986771345138550e-02
3.359872102737426758e-01 -3.883185088634490967e-01 8.408657461404800415e-02
3.488495051860809326e-01 -3.723642826080322266e-01 8.652547001838684082e-02
3.406008183956146240e-01 -3.824211061000823975e-01 1.029967069625854492e-01
2.251867502927780151e-01 -4.308874532580375671e-02 5.420085787773132324e-01
2.021179497241973877e-01 -4.559248685836791992e-02 5.547732710838317871e-01
2.410908639430999756e-01 -2.418257668614387512e-02 5.332636833190917969e-01
2.202278375625610352e-01 -2.878225035965442657e-02 5.465187430381774902e-01
-1.121994107961654663e-01 8.301807641983032227e-01 -1.459414809942245483e-01
-1.203667744994163513e-01 8.214208483695983887e-01 -1.312523633241653442e-01
-9.787642955780029297e-02 8.312968015670776367e-01 -1.279397904872894287e-01
-1.060683876276016235e-01 8.222381472587585449e-01 -1.130245700478553772e-01
-9.815404564142227173e-02 3.618031740188598633e-01 -3.806819021701812744e-01
-1.092829480767250061e-01 3.443027436733245850e-01 -3.756039738655090332e-01
-8.087465912103652954e-02 3.553368747234344482e-01 -3.735558986663818359e-01
-9.325670450925827026e-02 3.409291207790374756e-01 -3.664943575859069824e-01
-7.798270583152770996e-01 -8.723846822977066040e-02 -1.417248547077178955e-01
-7.928406000137329102e-01 -1.030753999948501587e-01 -1.325447261333465576e-01
-7.743814587593078613e-01 -9.901574254035949707e-02 -1.124173104763031006e-01
-7.875424623489379883e-01 -1.159465759992599487e-01 -1.009808108210563660e-01
-4.518221020698547363e-01 -3.108573257923126221e-01 2.855027318000793457e-01
-4.694087803363800049e-01 -2.875687777996063232e-01 2.866170704364776611e-01
-4.426558315753936768e-01 -3.023185133934020996e-01 3.032901287078857422e-01
-4.602815806865692139e-01 -2.786995172500610352e-01 3.050446808338165283e-01
-2.772026062011718750e-01 2.702324651181697845e-03 4.258029758930206299e-01
-2.837296426296234131e-01 -1.812336407601833344e-02 4.176761507987976074e-01
-2.518084943294525146e-01 1.596759073436260223e-03 4.347510933876037598e-01
-2.584248781204223633e-01 -1.884122565388679504e-02 4.271018803119659424e-01
4.671787023544311523e-01 3.178587853908538818e-01 -3.618114590644836426e-01
4.615733027458190918e-01 2.932648658752441406e-01 -3.762113749980926514e-01
4.906232357025146484e-01 3.191336989402770996e-01 -3.428117334842681885e-01
4.837369024753570557e-01 2.983727455139160156e-01 -3.586696088314056396e-01
-2.561488747596740723e-01 -6.047813892364501953e-01 -1.640903353691101074e-01
-2.738218903541564941e-01 -6.029620170593261719e-01 -1.532975137233734131e-01
-2.371919006109237671e-01 -6.026561856269836426e-01 -1.453908383846282959e-01
-2.562967240810394287e-01 -6.015340089797973633e-01 -1.372734904289245605e-01
8.518685400485992432e-02 -1.643908768892288208e-01 4.326384961605072021e-01
6.553454697132110596e-02 -1.582502126693725586e-01 4.455060362815856934e-01
9.716320037841796875e-02 -1.439180374145507812e-01 4.353923201560974121e-01
7.741185277700424194e-02 -1.385682374238967896e-01 4.492015838623046875e-01
-4.288557171821594238e-01 -2.214536964893341064e-01 3.567912876605987549e-01
-4.362245202064514160e-01 -2.402122616767883301e-01 3.459137678146362305e-01
-4.034294784069061279e-01 -2.264573574066162109e-01 3.745559751987457275e-01
-4.116286635398864746e-01 -2.416152060031890869e-01 3.629549741744995117e-01
2.352874577045440674e-01 -1.085275486111640930e-01 3.883211016654968262e-01
2.171531468629837036e-01 -1.145950630307197571e-01 3.954287171363830566e-01
