1.145947799086570740e-01 2.615789473056793213e-01 5.236684679985046387e-01
1.067662239074707031e-01 2.565722763538360596e-01 5.315114855766296387e-01
1.267886608839035034e-01 2.548834979534149170e-01 5.272162556648254395e-01
1.185713410377502441e-01 2.498083114624023438e-01 5.351156592369079590e-01
-1.760214120149612427e-01 6.558945775032043457e-02 1.670506149530410767e-01
-1.758836805820465088e-01 5.168385803699493408e-02 1.693665683269500732e-01
-1.729438006877899170e-01 6.371006369590759277e-02 1.786951869726181030e-01
-1.724357753992080688e-01 5.088189244270324707e-02 1.809789985418319702e-01
1.213248074054718018e-01 2.324986010789871216e-01 -1.038083806633949280e-01
1.130665168166160583e-01 2.367204427719116211e-01 -9.383967518806457520e-02
1.265899986028671265e-01 2.274261116981506348e-01 -9.141075611114501953e-02
1.183617934584617615e-01 2.321425527334213257e-01 -8.135537803173065186e-02
-1.295266598463058472e-01 1.082867458462715149e-01 -3.981969058513641357e-01
-1.378672569990158081e-01 1.015034094452857971e-01 -3.910123407840728760e-01
-1.353732496500015259e-01 1.224647760391235352e-01 -3.897060751914978027e-01
-1.421897709369659424e-01 1.131836771965026855e-01 -3.837874829769134521e-01
2.526441514492034912e-01 -2.826897986233234406e-02 3.480289280414581299e-01
2.494425028562545776e-01 -3.737232089042663574e-02 3.535562753677368164e-01
2.553784251213073730e-01 -2.661500498652458191e-02 3.618970811367034912e-01
2.519631981849670410e-01 -3.544556349515914917e-02 3.672736585140228271e-01
2.193003892898559570e-01 6.415003538131713867e-02 -2.820725739002227783e-01
2.199316322803497314e-01 5.124140903353691101e-02 -2.763842046260833740e-01
2.198763042688369751e-01 6.544934213161468506e-02 -2.636161446571350098e-01
2.203101515769958496e-01 5.273407697677612305e-02 -2.580577135086059570e-01
1.616312265396118164e-01 1.532198041677474976e-01 5.767304301261901855e-01
1.559182107448577881e-01 1.400520205497741699e-01 5.797932147979736328e-01
1.727132946252822876e-01 1.492220759391784668e-01 5.735275745391845703e-01
1.674048602581024170e-01 1.358205229043960571e-01 5.767636895179748535e-01
1.073241606354713440e-02 -3.428277000784873962e-02 4.039270877838134766e-01
2.539927605539560318e-03 -3.638895601034164429e-02 4.117124974727630615e-01
1.721528358757495880e-02 -3.517903760075569153e-02 4.173090457916259766e-01
8.924314752221107483e-03 -3.671379014849662781e-02 4.255051314830780029e-01
1.249813362956047058e-01 2.431062161922454834e-01 3.731561079621315002e-02
1.175306960940361023e-01 2.457181513309478760e-01 4.432366415858268738e-02
1.307228058576583862e-01 2.414346635341644287e-01 4.954247549176216125e-02
1.232388094067573547e-01 2.441111505031585693e-01 5.640022829174995422e-02
-1.337918043136596680e-01 1.770434081554412842e-01 1.495042592287063599e-01
-1.417477875947952271e-01 1.678907871246337891e-01 1.545817553997039795e-01
-1.281768977642059326e-01 1.861864179372787476e-01 1.616102457046508789e-01
-1.363108903169631958e-01 1.765817403793334961e-01 1.652387231588363647e-01
3.840761259198188782e-02 -1.354049146175384521e-01 -2.814051508903503418e-01
3.096785582602024078e-02 -1.382807195186614990e-01 -2.741637229919433594e-01
4.683744162321090698e-02 -1.394301652908325195e-01 -2.733304500579833984e-01
3.851178288459777832e-02 -1.414146721363067627e-01 -2.668584883213043213e-01
2.035282403230667114e-01 -3.329619765281677246e-01 5.393971800804138184e-01
2.014539092779159546e-01 -3.552125692367553711e-01 5.475468039512634277e-01
2.077876180410385132e-01 -3.317928910255432129e-01 5.503520369529724121e-01
2.056370824575424194e-01 -3.540424108505249023e-01 5.584747791290283203e-01
-4.165570065379142761e-02 5.729750394821166992e-01 -4.878501594066619873e-01
-4.878399521112442017e-02 5.703719854354858398e-01 -4.789024293422698975e-01
-3.392401337623596191e-02 5.681256651878356934e-01 -4.755632579326629639e-01
-4.044627398252487183e-02 5.647423863410949707e-01 -4.664495587348937988e-01
-1.935464739799499512e-01 4.047353267669677734e-01 -7.615435719490051270e-01
-2.024629563093185425e-01 3.917675018310546875e-01 -7.595238685607910156e-01
-1.792471706867218018e-01 3.996084034442901611e-01 -7.573295831680297852e-01
-1.882071495056152344e-01 3.868436813354492188e-01 -7.547541260719299316e-01
-9.358400851488113403e-02 2.304086685180664062e-01 -4.063078165054321289e-01
-9.199826419353485107e-02 2.184457927942276001e-01 -4.039913117885589600e-01
-9.706062823534011841e-02 2.302684783935546875e-01 -3.970712721347808838e-01
-9.594877064228057861e-02 2.178886532783508301e-01 -3.950215578079223633e-01
-8.954045176506042480e-02 -6.015435606241226196e-02 5.881849527359008789e-01
-9.318388998508453369e-02 -7.051080465316772461e-02 5.887460112571716309e-01
-7.900707423686981201e-02 -6.338527053594589233e-02 5.908870100975036621e-01
-8.276586979627609253e-02 -7.449026405811309814e-02 5.914351940155029297e-01
2.037101238965988159e-01 -2.496498823165893555e-01 5.326874256134033203e-01
2.022249847650527954e-01 -2.629782557487487793e-01 5.374647378921508789e-01
2.105423659086227417e-01 -2.587834298610687256e-01 5.308876037597656250e-01
2.095189392566680908e-01 -2.722652554512023926e-01 5.354546904563903809e-01
-3.134033977985382080e-01 3.994861841201782227e-01 -6.358618140220642090e-01
-3.151464164257049561e-01 3.877604901790618896e-01 -6.424364447593688965e-01
-3.009490668773651123e-01 4.036509692668914795e-01 -6.234192848205566406e-01
-3.039880096912384033e-01 3.932501077651977539e-01 -6.305659413337707520e-01
-2.012251615524291992e-01 6.091015934944152832e-01 -6.430330276489257812e-01
-2.122402936220169067e-01 6.074793934822082520e-01 -6.355382800102233887e-01
-1.935095787048339844e-01 6.148163080215454102e-01 -6.322909593582153320e-01
-2.044791579246520996e-01 6.120991706848144531e-01 -6.251726746559143066e-01
4.591289162635803223e-02 -1.489148139953613281e-01 -2.204072624444961548e-01
3.744311630725860596e-02 -1.492929011583328247e-01 -2.128479033708572388e-01
5.166544765233993530e-02 -1.509278416633605957e-01 -2.105639129877090454e-01
4.353495687246322632e-02 -1.514323353767395020e-01 -2.028551548719406128e-01
-2.014821469783782959e-01 4.012918472290039062e-01 -7.620786428451538086e-01
-2.101098448038101196e-01 3.884449005126953125e-01 -7.599076032638549805e-01
-1.868063360452651978e-01 3.952542841434478760e-01 -7.591327428817749023e-01
-1.963613778352737427e-01 3.832361102104187012e-01 -7.567216753959655762e-01
-8.191590011119842529e-02 -3.429967463016510010e-01 -3.283360004425048828e-01
-8.335843682289123535e-02 -3.547564148902893066e-01 -3.293936848640441895e-01
-7.931630313396453857e-02 -3.411678671836853027e-01 -3.189752697944641113e-01
-8.043817430734634399e-02 -3.536177575588226318e-01 -3.204897642135620117e-01
-9.456385672092437744e-02 -1.070969328284263611e-01 1.251971870660781860e-01
-1.018169745802879333e-01 -9.650938212871551514e-02 1.356505006551742554e-01
-8.965246379375457764e-02 -1.058430150151252747e-01 1.407129317522048950e-01
-9.681658446788787842e-02 -9.475947916507720947e-02 1.518552899360656738e-01
4.787336289882659912e-02 3.124688565731048584e-01 4.040594100952148438e-01
3.773973137140274048e-02 3.102422952651977539e-01 4.126832783222198486e-01
5.614417418837547302e-02 3.092624545097351074e-01 4.161895215511322021e-01
4.619270935654640198e-02 3.068565428256988525e-01 4.250161349773406982e-01
2.065157890319824219e-01 1.223476827144622803e-01 -2.995783984661102295e-01
2.100066989660263062e-01 1.082766354084014893e-01 -2.934177219867706299e-01
2.083231061697006226e-01 1.206422299146652222e-01 -2.823763787746429443e-01
2.116975188255310059e-01 1.064776256680488586e-01 -2.759477794170379639e-01
2.118408530950546265e-01 8.056434988975524902e-02 -8.081214874982833862e-02
2.161758989095687866e-01 6.811764836311340332e-02 -7.533196359872817993e-02
2.160276472568511963e-01 7.635534554719924927e-02 -6.357654184103012085e-02
2.195248901844024658e-01 6.490100920200347900e-02 -5.843827128410339355e-02
1.718667149543762207e-01 1.497191339731216431e-01 5.744472742080688477e-01
1.665582805871963501e-01 1.363175809383392334e-01 5.776833891868591309e-01
1.838594228029251099e-01 1.451060771942138672e-01 5.707621574401855469e-01
1.769923269748687744e-01 1.331507265567779541e-01 5.746640563011169434e-01
-1.501128822565078735e-01 -2.179153449833393097e-02 1.935942918062210083e-01
-1.536960750818252563e-01 -1.056351233273744583e-02 2.011970877647399902e-01
-1.452555805444717407e-01 -2.093688584864139557e-02 2.068883478641510010e-01
-1.487022191286087036e-01 -1.149586029350757599e-02 2.125574350357055664e-01
1.147739142179489136e-01 6.138928234577178955e-02 5.492775440216064453e-01
1.040437668561935425e-01 6.904803216457366943e-02 5.526092648506164551e-01
1.287495791912078857e-01 6.910911947488784790e-02 5.522776246070861816e-01
1.165400817990303040e-01 7.978327572345733643e-02 5.552591085433959961e-01
-1.058812662959098816e-01 -1.659344136714935303e-01 5.066425204277038574e-01
-1.099631339311599731e-01 -1.738954931497573853e-01 5.103313922882080078e-01
-9.682996571063995361e-02 -1.745602190494537354e-01 5.134643912315368652e-01
-1.016702353954315186e-01 -1.819090545177459717e-01 5.175982117652893066e-01
-1.815470457077026367e-01 4.234199598431587219e-02 3.609209358692169189e-01
-1.802280098199844360e-01 3.049933724105358124e-02 3.654455244541168213e-01
-1.839280426502227783e-01 4.331603273749351501e-02 3.742032647132873535e-01
-1.826281994581222534e-01 3.192937374114990234e-02 3.792270421981811523e-01
1.162958368659019470e-01 2.762805223464965820e-01 4.997815489768981934e-01
1.097621619701385498e-01 2.729636132717132568e-01 5.066040754318237305e-01
1.267245262861251831e-01 2.707847058773040771e-01 5.049513578414916992e-01
1.200853139162063599e-01 2.671145200729370117e-01 5.118513703346252441e-01
-1.692906022071838379e-01 5.310421437025070190e-02 -5.232902476564049721e-04
-1.718894243240356445e-01 4.088372364640235901e-02 4.577808082103729248e-03
-1.716596782207489014e-01 5.695846676826477051e-02 1.063606794923543930e-02
-1.741953939199447632e-01 4.484468325972557068e-02 1.611796580255031586e-02
-1.667872667312622070e-01 7.989791780710220337e-02 -3.749893512576818466e-03
-1.704007387161254883e-01 7.041890919208526611e-02 3.077532630413770676e-03
-1.680680364370346069e-01 8.355606347322463989e-02 8.335437625646591187e-03
-1.715719997882843018e-01 7.405108213424682617e-02 1.545623037964105606e-02
1.704789549112319946e-01 -5.676434040069580078e-01 -1.740063726902008057e-01
1.662635356187820435e-01 -5.823491811752319336e-01 -1.738400459289550781e-01
1.777880340814590454e-01 -5.651319026947021484e-01 -1.733133345842361450e-01
1.737928688526153564e-01 -5.806787014007568359e-01 -1.734798103570938110e-01
6.873444467782974243e-02 -1.016263440251350403e-01 2.069929093122482300e-01
5.650664493441581726e-02 -9.830377250909805298e-02 2.133805155754089355e-01
7.387521862983703613e-02 -9.434548765420913696e-02 2.227457910776138306e-01
6.101351976394653320e-02 -8.951078355312347412e-02 2.306928485631942749e-01
2.203160673379898071e-01 2.119829505681991577e-01 1.958870589733123779e-01
2.171091437339782715e-01 2.221690416336059570e-01 2.018577605485916138e-01
2.243577241897583008e-01 2.116441428661346436e-01 2.079229801893234253e-01
2.208626717329025269e-01 2.233440577983856201e-01 2.140399366617202759e-01
-2.180805243551731110e-02 4.950278401374816895e-01 -3.801884055137634277e-01
-2.844250202178955078e-02 4.895616769790649414e-01 -3.752517700195312500e-01
-1.438058447092771530e-02 4.940029382705688477e-01 -3.723087012767791748e-01
-2.095117233693599701e-02 4.886840283870697021e-01 -3.676445782184600830e-01
1.292041093111038208e-01 6.043640524148941040e-02 -4.215487539768218994e-01
1.188425570726394653e-01 4.945375397801399231e-02 -4.196197986602783203e-01
1.411264687776565552e-01 5.588132888078689575e-02 -4.177804291248321533e-01
1.328055411577224731e-01 4.397042468190193176e-02 -4.158835709095001221e-01
3.232891857624053955e-02 4.706051051616668701e-01 -3.512538969516754150e-01
2.583001367747783661e-02 4.689802229404449463e-01 -3.422197103500366211e-01
3.569559380412101746e-02 4.623657763004302979e-01 -3.414292037487030029e-01
2.848721295595169067e-02 4.604122340679168701e-01 -3.320531547069549561e-01
1.481077224016189575e-01 -7.420731335878372192e-02 -8.261160552501678467e-02
1.425818800926208496e-01 -8.179815113544464111e-02 -7.806623727083206177e-02
1.550740450620651245e-01 -6.822036206722259521e-02 -7.227658480405807495e-02
1.492200344800949097e-01 -7.614798098802566528e-02 -6.827413290739059448e-02
1.528556197881698608e-01 -2.107162326574325562e-01 4.546259939670562744e-01
1.507676392793655396e-01 -2.177791893482208252e-01 4.621266126632690430e-01
1.538967341184616089e-01 -2.108076512813568115e-01 4.668008387088775635e-01
1.523887366056442261e-01 -2.197587341070175171e-01 4.741285741329193115e-01
1.315915286540985107e-01 2.771182954311370850e-01 -2.923824787139892578e-01
1.274847388267517090e-01 2.819232940673828125e-01 -2.792338728904724121e-01
1.328993588685989380e-01 2.733516395092010498e-01 -2.769576311111450195e-01
1.288646757602691650e-01 2.778106927871704102e-01 -2.640186846256256104e-01
-6.680332869291305542e-02 3.432705104351043701e-01 -3.509399890899658203e-01
-6.805732846260070801e-02 3.306531608104705811e-01 -3.488105833530426025e-01
-6.219352036714553833e-02 3.480552732944488525e-01 -3.395734727382659912e-01
-6.348522007465362549e-02 3.353689014911651611e-01 -3.372224867343902588e-01
-1.497306376695632935e-01 1.375191807746887207e-01 5.224596261978149414e-01
-1.534680426120758057e-01 1.261078417301177979e-01 5.210487246513366699e-01
-1.419474929571151733e-01 1.457749903202056885e-01 5.306363701820373535e-01
-1.466292589902877808e-01 1.347394585609436035e-01 5.287876129150390625e-01
-1.017170846462249756e-01 -5.926600098609924316e-01 -3.229069113731384277e-01
-1.022080704569816589e-01 -6.118055582046508789e-01 -3.257546424865722656e-01
-9.651521593332290649e-02 -5.834508538246154785e-01 -3.116624057292938232e-01
-9.716060757637023926e-02 -6.026849746704101562e-01 -3.141433894634246826e-01
-1.677748858928680420e-01 -4.147388786077499390e-02 -2.997074127197265625e-01
-1.673213243484497070e-01 -5.246823653578758240e-02 -2.964326441287994385e-01
-1.707915812730789185e-01 -4.054608196020126343e-02 -2.872130572795867920e-01
-1.702886819839477539e-01 -5.257206782698631287e-02 -2.839528620243072510e-01
-1.630200892686843872e-01 1.060655415058135986e-01 7.533547934144735336e-03
-1.670857369899749756e-01 9.692894667387008667e-02 1.525549963116645813e-02
-1.624527126550674438e-01 1.130317822098731995e-01 1.870799623429775238e-02
-1.669042706489562988e-01 1.032088622450828552e-01 2.606007829308509827e-02
1.189122274518013000e-01 2.709421217441558838e-01 -1.780751347541809082e-01
1.120899617671966553e-01 2.734330892562866211e-01 -1.680339276790618896e-01
1.208011582493782043e-01 2.668374478816986084e-01 -1.669651418924331665e-01
1.140414401888847351e-01 2.695395946502685547e-01 -1.570692956447601318e-01
-7.230512052774429321e-02 4.518256187438964844e-01 -4.016625285148620605e-01
-7.350657135248184204e-02 4.397057294845581055e-01 -4.003338217735290527e-01
-6.652461737394332886e-02 4.514866471290588379e-01 -3.939912021160125732e-01
-6.789635121822357178e-02 4.393759667873382568e-01 -3.923657238483428955e-01
5.660685896873474121e-02 4.483691155910491943e-01 -3.864730298519134521e-01
4.937975481152534485e-02 4.549542069435119629e-01 -3.759398162364959717e-01
6.030700355768203735e-02 4.423199892044067383e-01 -3.742612600326538086e-01
5.350203812122344971e-02 4.473356902599334717e-01 -3.642305433750152588e-01
2.273161858320236206e-01 1.663089543581008911e-01 5.261139273643493652e-01
2.176025956869125366e-01 1.658624708652496338e-01 5.338540077209472656e-01
2.261402010917663574e-01 1.587384045124053955e-01 5.317933559417724609e-01
2.162660062313079834e-01 1.583052575588226318e-01 5.396541357040405273e-01
8.389779832214117050e-04 3.036904335021972656e-01 2.634589374065399170e-01
-1.163111906498670578e-02 3.015450239181518555e-01 2.720343768596649170e-01
9.407383389770984650e-03 3.075681626796722412e-01 2.754452228546142578e-01
-3.037158399820327759e-03 3.054030537605285645e-01 2.846725583076477051e-01
2.517933398485183716e-02 4.935373961925506592e-01 -5.366918444633483887e-01
2.914405800402164459e-02 4.811532497406005859e-01 -5.380175709724426270e-01
3.221553936600685120e-02 4.956007003784179688e-01 -5.225412249565124512e-01
3.582844138145446777e-02 4.836069643497467041e-01 -5.230525135993957520e-01
1.333900094032287598e-01 -2.488017827272415161e-01 -2.552252411842346191e-01
1.339491158723831177e-01 -2.631042897701263428e-01 -2.502035796642303467e-01
1.363758444786071777e-01 -2.597637474536895752e-01 -2.481610476970672607e-01
1.366981565952301025e-01 -2.731212079524993896e-01 -2.441009879112243652e-01
2.536188662052154541e-01 1.414316445589065552e-01 1.418621987104415894e-01
2.589151561260223389e-01 1.256855428218841553e-01 1.518392562866210938e-01
2.541551589965820312e-01 1.354974359273910522e-01 1.617575287818908691e-01
2.595043480396270752e-01 1.198604479432106018e-01 1.714956164360046387e-01
1.313138455152511597e-01 3.121706843376159668e-01 2.789722383022308350e-01
1.209957003593444824e-01 3.143543303012847900e-01 2.841280996799468994e-01
1.366404891014099121e-01 3.102554380893707275e-01 2.885688841342926025e-01
1.262535154819488525e-01 3.125726878643035889e-01 2.946914136409759521e-01
1.818881183862686157e-01 2.524004280567169189e-01 5.017406344413757324e-01
1.737168729305267334e-01 2.516492605209350586e-01 5.104680061340332031e-01
1.893452703952789307e-01 2.443618625402450562e-01 5.070025324821472168e-01
1.810533106327056885e-01 2.439702600240707397e-01 5.158498287200927734e-01
-1.132954806089401245e-01 1.878056228160858154e-01 6.211310252547264099e-02
-1.220980882644653320e-01 1.825594753026962280e-01 7.236330211162567139e-02
-1.077675670385360718e-01 1.961261034011840820e-01 7.781014591455459595e-02
-1.166877895593643188e-01 1.904345154762268066e-01 8.852668851613998413e-02
-1.447947770357131958e-01 -6.217089891433715820e-01 6.862432956695556641e-01
-1.468975841999053955e-01 -6.367198824882507324e-01 6.892689466476440430e-01
-1.405204385519027710e-01 -6.160864233970642090e-01 6.928947567939758301e-01
-1.419941335916519165e-01 -6.323696374893188477e-01 6.960299611091613770e-01
9.263949096202850342e-02 3.354137539863586426e-01 -4.070687592029571533e-01
9.140562266111373901e-02 3.394239544868469238e-01 -3.934295177459716797e-01
9.572195261716842651e-02 3.282386958599090576e-01 -3.902948498725891113e-01
9.253635257482528687e-02 3.333518505096435547e-01 -3.763540387153625488e-01
-1.384826749563217163e-01 1.780995279550552368e-01 -2.095369249582290649e-01
-1.399435549974441528e-01 1.670830994844436646e-01 -2.023193836212158203e-01
-1.328061372041702271e-01 1.816024035215377808e-01 -1.969220638275146484e-01
-1.338156759738922119e-01 1.707041859626770020e-01 -1.896099299192428589e-01
-7.127052545547485352e-02 -2.810577154159545898e-01 6.099863648414611816e-01
-7.429224997758865356e-02 -2.923516035079956055e-01 6.146809458732604980e-01
-6.556916981935501099e-02 -2.835396230220794678e-01 6.191468238830566406e-01
-6.826569885015487671e-02 -2.946942448616027832e-01 6.239860653877258301e-01
2.053908556699752808e-01 2.134773284196853638e-01 1.288723051548004150e-01
1.993001401424407959e-01 2.215715199708938599e-01 1.355087012052536011e-01
2.088782191276550293e-01 2.109877467155456543e-01 1.391725987195968628e-01
2.027579247951507568e-01 2.190640866756439209e-01 1.450659185647964478e-01
-6.557997316122055054e-02 -3.157763779163360596e-01 6.673038005828857422e-01
-6.715422868728637695e-02 -3.300298154354095459e-01 6.727017164230346680e-01
-6.357070803642272949e-02 -3.200554847717285156e-01 6.772348880767822266e-01
-6.491619348526000977e-02 -3.346644639968872070e-01 6.828087568283081055e-01
-2.812208235263824463e-01 5.348871350288391113e-01 -6.573589444160461426e-01
-2.878545820713043213e-01 5.293239951133728027e-01 -6.517396569252014160e-01
-2.757367193698883057e-01 5.399935841560363770e-01 -6.446233987808227539e-01
-2.829741239547729492e-01 5.328294038772583008e-01 -6.404742598533630371e-01
-5.187823623418807983e-02 3.404680788516998291e-01 -5.723016262054443359e-01
-6.088812276721000671e-02 3.332845568656921387e-01 -5.681953430175781250e-01
-4.384703934192657471e-02 3.358220458030700684e-01 -5.660994648933410645e-01
-5.337691679596900940e-02 3.281462192535400391e-01 -5.621029138565063477e-01
7.176145911216735840e-02 1.257226467132568359e-01 -4.335721433162689209e-01
6.235617771744728088e-02 1.151693984866142273e-01 -4.296582639217376709e-01
8.442360162734985352e-02 1.209951415657997131e-01 -4.338666796684265137e-01
7.426825165748596191e-02 1.092473566532135010e-01 -4.301198124885559082e-01
1.113749891519546509e-01 -1.215934008359909058e-02 -3.907817006111145020e-01
1.054815202951431274e-01 -1.962094940245151520e-02 -3.876224160194396973e-01
1.243358552455902100e-01 -1.620378345251083374e-02 -3.843156397342681885e-01
1.186057478189468384e-01 -2.371349185705184937e-02 -3.812309205532073975e-01
-2.995296008884906769e-02 1.430260837078094482e-01 -4.503479301929473877e-01
-4.424383118748664856e-02 1.373565047979354858e-01 -4.436016082763671875e-01
-1.964697800576686859e-02 1.407622992992401123e-01 -4.503028094768524170e-01
-3.362775593996047974e-02 1.349886357784271240e-01 -4.430857598781585693e-01
-1.792581081390380859e-01 1.582913100719451904e-02 3.730455040931701660e-01
-1.850711554288864136e-01 2.128167264163494110e-02 3.816177845001220703e-01
-1.813924461603164673e-01 1.442014612257480621e-02 3.864802122116088867e-01
-1.882815659046173096e-01 2.235219255089759827e-02 3.955382704734802246e-01
-4.469114542007446289e-02 -9.045013785362243652e-02 -3.541437685489654541e-01
-5.162149295210838318e-02 -9.919726848602294922e-02 -3.473669588565826416e-01
-3.503586724400520325e-02 -9.623599797487258911e-02 -3.511325120925903320e-01
-3.978168964385986328e-02 -1.049980372190475464e-01 -3.452178239822387695e-01
2.174600511789321899e-01 -1.162989884614944458e-01 4.650478959083557129e-01
2.138814926147460938e-01 -1.259706169366836548e-01 4.699518382549285889e-01
2.141512185335159302e-01 -1.097516864538192749e-01 4.742522537708282471e-01
2.101444453001022339e-01 -1.213194280862808228e-01 4.792877137660980225e-01
1.708084940910339355e-01 -8.987939357757568359e-02 5.977465771138668060e-04
1.638267189264297485e-01 -9.773674607276916504e-02 9.236921556293964386e-03
1.751680970191955566e-01 -8.952168375253677368e-02 1.130428723990917206e-02
1.683239489793777466e-01 -9.704941511154174805e-02 1.945808157324790955e-02
1.358494162559509277e-01 3.079507648944854736e-01 4.103724658489227295e-01
1.286803334951400757e-01 3.068343400955200195e-01 4.201402366161346436e-01
1.427818834781646729e-01 3.023508787155151367e-01 4.216335415840148926e-01
1.354158222675323486e-01 3.015184402465820312e-01 4.302543103694915771e-01
-2.671041712164878845e-02 3.413473069667816162e-01 -2.426718324422836304e-01
-3.131152689456939697e-02 3.334983587265014648e-01 -2.395274937152862549e-01
-1.875083707273006439e-02 3.440936207771301270e-01 -2.373858243227005005e-01
-2.379252016544342041e-02 3.368853628635406494e-01 -2.326407581567764282e-01
1.711611002683639526e-01 -5.752627924084663391e-02 3.178497254848480225e-01
1.639944165945053101e-01 -5.724673718214035034e-02 3.241042196750640869e-01
1.764436811208724976e-01 -5.773450061678886414e-02 3.235573768615722656e-01
1.694465726613998413e-01 -5.724513530731201172e-02 3.300132155418395996e-01
-2.505776882171630859e-01 5.186201333999633789e-01 -7.401021122932434082e-01
-2.604357004165649414e-01 5.159280896186828613e-01 -7.348871827125549316e-01
-2.451992332935333252e-01 5.282965302467346191e-01 -7.289443016052246094e-01
-2.561033368110656738e-01 5.248307585716247559e-01 -7.232846021652221680e-01
8.638434857130050659e-02 3.548812270164489746e-01 -4.141386151313781738e-01
8.731236308813095093e-02 3.537538945674896240e-01 -4.028645753860473633e-01
8.907828480005264282e-02 3.476030230522155762e-01 -3.978185057640075684e-01
8.676044642925262451e-02 3.531513214111328125e-01 -3.846340477466583252e-01
-1.535566151142120361e-01 -5.130907893180847168e-02 9.677385538816452026e-02
-1.584114283323287964e-01 -4.175493866205215454e-02 1.049401089549064636e-01
-1.542026698589324951e-01 -5.081983655691146851e-02 1.089929714798927307e-01
-1.592170000076293945e-01 -4.114441946148872375e-02 1.174051091074943542e-01
1.974409073591232300e-01 1.241089925169944763e-01 -3.636105060577392578e-01
1.983439624309539795e-01 1.107341498136520386e-01 -3.653964400291442871e-01
2.014182955026626587e-01 1.313909739255905151e-01 -3.491868078708648682e-01
2.034088373184204102e-01 1.176031902432441711e-01 -3.498634994029998779e-01
-1.556528955698013306e-01 1.024784073233604431e-01 -3.590329587459564209e-01
-1.590806990861892700e-01 8.981535583734512329e-02 -3.537221848964691162e-01
-1.603725403547286987e-01 1.061921641230583191e-01 -3.455438017845153809e-01
-1.628645658493041992e-01 9.325189143419265747e-02 -3.412734866142272949e-01
1.473020464181900024e-01 2.627488411962985992e-02 5.334358215332031250e-01
1.357271373271942139e-01 3.860421851277351379e-02 5.382991433143615723e-01
1.553747206926345825e-01 3.665484488010406494e-02 5.396774411201477051e-01
1.435138881206512451e-01 4.842109605669975281e-02 5.441346168518066406e-01
2.184872627258300781e-01 -2.513489425182342529e-01 5.071288347244262695e-01
2.194484174251556396e-01 -2.640828490257263184e-01 5.108259320259094238e-01
2.208382934331893921e-01 -2.605821490287780762e-01 5.101183652877807617e-01
2.208977043628692627e-01 -2.726710736751556396e-01 5.132760405540466309e-01
1.626500114798545837e-02 2.743079364299774170e-01 -9.465022385120391846e-02
1.264728698879480362e-02 2.678827941417694092e-01 -8.266149461269378662e-02
2.265766821801662445e-02 2.680773138999938965e-01 -8.212768286466598511e-02
1.994740776717662811e-02 2.613356709480285645e-01 -6.902321428060531616e-02
-6.448379904031753540e-02 3.220790326595306396e-01 -3.415912389755249023e-01
-6.632234901189804077e-02 3.101177513599395752e-01 -3.383710682392120361e-01
-6.032774969935417175e-02 3.234927058219909668e-01 -3.275819122791290283e-01
-6.196140870451927185e-02 3.116259276866912842e-01 -3.243683278560638428e-01
1.111553311347961426e-01 -1.361042559146881104e-01 -1.120389699935913086e-01
1.062012910842895508e-01 -1.393233686685562134e-01 -1.068452596664428711e-01
1.142622530460357666e-01 -1.310239881277084351e-01 -1.018433347344398499e-01
1.091890484094619751e-01 -1.339718550443649292e-01 -9.662215411663055420e-02
-3.631832003593444824e-01 3.769316077232360840e-01 -7.874307632446289062e-01
-3.762501180171966553e-01 3.820362985134124756e-01 -7.833708524703979492e-01
-3.518292307853698730e-01 3.840225636959075928e-01 -7.828928232192993164e-01
-3.646579086780548096e-01 3.888305723667144775e-01 -7.804508209228515625e-01
-9.293499588966369629e-02 2.804264724254608154e-01 -4.442647397518157959e-01
-9.434824436902999878e-02 2.759295403957366943e-01 -4.358127713203430176e-01
-9.375006705522537231e-02 2.766575515270233154e-01 -4.327070713043212891e-01
-9.575862437486648560e-02 2.732704579830169678e-01 -4.237585067749023438e-01
2.030199617147445679e-01 1.555013358592987061e-01 -2.493550926446914673e-01
1.991938352584838867e-01 1.609448194503784180e-01 -2.383325099945068359e-01
2.041942626237869263e-01 1.462495177984237671e-01 -2.325008362531661987e-01
1.995878070592880249e-01 1.524533480405807495e-01 -2.215927839279174805e-01
7.092860341072082520e-02 -1.190610975027084351e-01 -3.184793293476104736e-01
6.289008259773254395e-02 -1.223661303520202637e-01 -3.132773637771606445e-01
8.019436150789260864e-02 -1.243733912706375122e-01 -3.134255409240722656e-01
7.234686613082885742e-02 -1.274816244840621948e-01 -3.082632422447204590e-01
1.700475364923477173e-01 2.427994757890701294e-01 1.444386988878250122e-01
1.639514565467834473e-01 2.494038790464401245e-01 1.502971798181533813e-01
1.755869388580322266e-01 2.420041710138320923e-01 1.554298102855682373e-01
1.695757508277893066e-01 2.489907443523406982e-01 1.617592722177505493e-01
-1.427800804376602173e-01 9.609351307153701782e-02 -1.845408082008361816e-01
-1.423838436603546143e-01 8.371695131063461304e-02 -1.826857477426528931e-01
-1.385275870561599731e-01 9.378682076930999756e-02 -1.701354682445526123e-01
-1.382209509611129761e-01 8.174943178892135620e-02 -1.682201772928237915e-01
1.972053200006484985e-01 -1.794432699680328369e-01 5.179240107536315918e-01
1.948600411415100098e-01 -1.998395472764968872e-01 5.234889984130859375e-01
2.029873132705688477e-01 -1.787962913513183594e-01 5.259541869163513184e-01
2.006420344114303589e-01 -1.991925686597824097e-01 5.315191745758056641e-01
-6.157178059220314026e-02 -3.729781210422515869e-01 -2.995035052299499512e-01
-6.342390179634094238e-02 -3.808535933494567871e-01 -2.959752380847930908e-01
-6.085352972149848938e-02 -3.697479963302612305e-01 -2.888040244579315186e-01
-6.286191195249557495e-02 -3.774687349796295166e-01 -2.847514152526855469e-01
-1.168016940355300903e-01 1.968099027872085571e-01 1.753772348165512085e-01
-1.246171295642852783e-01 1.880107372999191284e-01 1.789752244949340820e-01
-1.112681999802589417e-01 2.041415125131607056e-01 1.867001205682754517e-01
-1.187834516167640686e-01 1.965006589889526367e-01 1.903828084468841553e-01
-8.733303844928741455e-02 -3.916087150573730469e-01 6.596632003784179688e-01
-9.098987281322479248e-02 -4.064697921276092529e-01 6.606224775314331055e-01
-7.783938199281692505e-02 -3.962658047676086426e-01 6.626259088516235352e-01
-8.076363801956176758e-02 -4.107953011989593506e-01 6.633092164993286133e-01
-1.212185099720954895e-01 -3.951345384120941162e-01 -2.957439124584197998e-01
-1.210577487945556641e-01 -4.051783978939056396e-01 -2.908195257186889648e-01
-1.251074522733688354e-01 -3.956729769706726074e-01 -2.860708236694335938e-01
-1.248081177473068237e-01 -4.060521721839904785e-01 -2.813585102558135986e-01
2.001706212759017944e-01 2.148483544588088989e-01 1.126464754343032837e-01
1.945470422506332397e-01 2.224898040294647217e-01 1.195834502577781677e-01
2.030574679374694824e-01 2.131528854370117188e-01 1.233201473951339722e-01
1.970260441303253174e-01 2.212173044681549072e-01 1.300232559442520142e-01
-1.027400568127632141e-01 2.694545388221740723e-01 3.188771605491638184e-01
-1.112928390502929688e-01 2.619425952434539795e-01 3.269035816192626953e-01
-9.571737796068191528e-02 2.777202129364013672e-01 3.318969607353210449e-01
-1.042487025260925293e-01 2.703176736831665039e-01 3.399299681186676025e-01
-1.756666600704193115e-01 -1.075116544961929321e-02 4.302892386913299561e-01
-1.801983863115310669e-01 -5.644281394779682159e-03 4.405229091644287109e-01
-1.749950796365737915e-01 -1.574259251356124878e-02 4.427573084831237793e-01
-1.789080947637557983e-01 -1.117280311882495880e-02 4.531906545162200928e-01
2.045385539531707764e-01 1.237527504563331604e-01 -1.781943291425704956e-01
1.999590098857879639e-01 1.293098628520965576e-01 -1.657631993293762207e-01
2.041166871786117554e-01 1.182420551776885986e-01 -1.626394242048263550e-01
2.011263966560363770e-01 1.213643997907638550e-01 -1.509059518575668335e-01
5.607809126377105713e-02 8.521893620491027832e-02 -4.267572462558746338e-01
4.081581160426139832e-02 7.241307944059371948e-02 -4.211813509464263916e-01
7.088112086057662964e-02 8.289470523595809937e-02 -4.271724224090576172e-01
5.453104525804519653e-02 7.036741822957992554e-02 -4.219403564929962158e-01
1.390215847641229630e-02 3.154998719692230225e-01 3.187378346920013428e-01
3.826823551207780838e-03 3.125340044498443604e-01 3.302608728408813477e-01
2.290387079119682312e-02 3.165555298328399658e-01 3.341180384159088135e-01
1.326888240873813629e-02 3.135968446731567383e-01 3.453886508941650391e-01
-1.593422889709472656e-01 1.506958007812500000e-01 4.920429289340972900e-01
-1.615527123212814331e-01 1.368374377489089966e-01 4.959779679775238037e-01
-1.546677052974700928e-01 1.555539816617965698e-01 5.025019645690917969e-01
-1.572047024965286255e-01 1.419054567813873291e-01 5.057126283645629883e-01
1.269119530916213989e-01 7.021175697445869446e-04 -3.942169845104217529e-01
1.207645982503890991e-01 -7.234749384224414825e-03 -3.904850482940673828e-01
1.385263949632644653e-01 -4.805387929081916809e-03 -3.862850964069366455e-01
1.324059814214706421e-01 -1.285749301314353943e-02 -3.828375637531280518e-01
1.195097491145133972e-01 -1.218676716089248657e-01 -4.207416623830795288e-02
1.128583177924156189e-01 -1.286416798830032349e-01 -3.531375527381896973e-02
1.258955150842666626e-01 -1.205760911107063293e-01 -2.991217374801635742e-02
1.192236244678497314e-01 -1.273618042469024658e-01 -2.277527377009391785e-02
1.051931381225585938e-01 -8.721580356359481812e-02 -3.602192997932434082e-01
9.484670311212539673e-02 -9.632355719804763794e-02 -3.567538261413574219e-01
1.195654422044754028e-01 -9.241434931755065918e-02 -3.520729243755340576e-01
1.080328896641731262e-01 -1.025343909859657288e-01 -3.487776517868041992e-01
2.128721475601196289e-01 -3.053408488631248474e-02 -2.917961478233337402e-01
2.086094617843627930e-01 -4.254607856273651123e-02 -2.882271111011505127e-01
2.197560817003250122e-01 -2.929100766777992249e-02 -2.790096402168273926e-01
2.151597589254379272e-01 -4.172617197036743164e-02 -2.750490903854370117e-01
-2.391386777162551880e-01 4.546332657337188721e-01 -7.666398882865905762e-01
-2.413761019706726074e-01 4.407649636268615723e-01 -7.677010893821716309e-01
-2.273600250482559204e-01 4.498865008354187012e-01 -7.683649659156799316e-01
-2.303301244974136353e-01 4.368112981319427490e-01 -7.689030170440673828e-01
4.313895851373672485e-02 2.231549024581909180e-01 5.600652098655700684e-01
4.057136923074722290e-02 2.074690014123916626e-01 5.689296722412109375e-01
4.848552867770195007e-02 2.083352804183959961e-01 5.700244307518005371e-01
4.604495689272880554e-02 1.923292875289916992e-01 5.785110592842102051e-01
2.013205587863922119e-01 -5.228019878268241882e-02 2.939021587371826172e-01
1.946776360273361206e-01 -5.824548006057739258e-02 2.991737127304077148e-01
2.098770588636398315e-01 -5.467030778527259827e-02 3.013241887092590332e-01
2.037496566772460938e-01 -5.957197770476341248e-02 3.061794936656951904e-01
1.430518180131912231e-01 5.510850995779037476e-02 -4.149470031261444092e-01
1.347628086805343628e-01 4.292561113834381104e-02 -4.131048917770385742e-01
1.551455855369567871e-01 4.962611943483352661e-02 -4.110812842845916748e-01
1.485622525215148926e-01 3.682307526469230652e-02 -4.094188511371612549e-01
-9.728048741817474365e-02 -1.180895119905471802e-01 5.901001766324043274e-02
-1.045398563146591187e-01 -1.120548397302627563e-01 7.180461287498474121e-02
-9.167049825191497803e-02 -1.205434575676918030e-01 7.399440556764602661e-02
-9.943974763154983521e-02 -1.138915047049522400e-01 8.661445975303649902e-02
7.008754462003707886e-02 2.138031721115112305e-01 -4.640982449054718018e-01
6.394027173519134521e-02 2.008243203163146973e-01 -4.618400633335113525e-01
8.152296394109725952e-02 2.134711593389511108e-01 -4.603258073329925537e-01
7.571440935134887695e-02 1.997381746768951416e-01 -4.581915736198425293e-01
-5.644265562295913696e-02 2.188803702592849731e-01 -6.336908787488937378e-02
-6.590297818183898926e-02 2.087278366088867188e-01 -5.570417642593383789e-02
-4.936353862285614014e-02 2.209230810403823853e-01 -4.901853948831558228e-02
-5.864349380135536194e-02 2.110819667577743530e-01 -4.161941632628440857e-02
-7.116598635911941528e-02 -6.809038668870925903e-02 4.600303471088409424e-01
-7.805725932121276855e-02 -7.352883368730545044e-02 4.688718616962432861e-01
-6.625318527221679688e-02 -7.667065411806106567e-02 4.690036773681640625e-01
-7.362370193004608154e-02 -8.186499029397964478e-02 4.776804149150848389e-01
4.077275842428207397e-02 -1.496518999338150024e-01 -2.136498838663101196e-01
3.242077678442001343e-02 -1.500555127859115601e-01 -2.060939371585845947e-01
4.748013988137245178e-02 -1.519264578819274902e-01 -2.040965408086776733e-01
3.975103422999382019e-02 -1.524089276790618896e-01 -1.963841617107391357e-01
1.586290746927261353e-01 -9.812196344137191772e-02 -8.604837581515312195e-03
1.521179676055908203e-01 -1.063507497310638428e-01 1.680146902799606323e-03
1.668623089790344238e-01 -9.441830962896347046e-02 2.908844966441392899e-03
1.598805338144302368e-01 -1.022756621241569519e-01 1.154801994562149048e-02
-9.278608858585357666e-02 2.435101568698883057e-01 2.146787345409393311e-01
-1.016897931694984436e-01 2.398118376731872559e-01 2.227491885423660278e-01
-9.112273156642913818e-02 2.564134299755096436e-01 2.286703884601593018e-01
-1.003732606768608093e-01 2.524697482585906982e-01 2.370592057704925537e-01
-1.646845340728759766e-01 1.241557858884334564e-02 -2.322095483541488647e-01
-1.635099351406097412e-01 -2.158534247428178787e-03 -2.341774851083755493e-01
-1.625652909278869629e-01 1.638683117926120758e-02 -2.195982336997985840e-01
-1.615091860294342041e-01 2.223134972155094147e-03 -2.226670533418655396e-01
2.616229951381683350e-01 1.100190132856369019e-01 4.808478951454162598e-01
2.587603926658630371e-01 9.342835843563079834e-02 4.880078434944152832e-01
2.560746371746063232e-01 1.178217455744743347e-01 4.941173195838928223e-01
2.524947524070739746e-01 1.019243299961090088e-01 5.011090636253356934e-01
-2.512651681900024414e-01 3.645639419555664062e-01 -7.602270841598510742e-01
-2.597044706344604492e-01 3.537834882736206055e-01 -7.571009397506713867e-01
-2.376520782709121704e-01 3.590334057807922363e-01 -7.526267170906066895e-01
-2.480299919843673706e-01 3.509011566638946533e-01 -7.498500943183898926e-01
-1.000712886452674866e-01 -3.096304833889007568e-01 6.215766072273254395e-01
-1.025288179516792297e-01 -3.210508823394775391e-01 6.281453371047973633e-01
-9.486734122037887573e-02 -3.143311142921447754e-01 6.275518536567687988e-01
-9.773426502943038940e-02 -3.260452449321746826e-01 6.331955194473266602e-01
-8.658760040998458862e-02 -5.829011797904968262e-01 6.579905152320861816e-01
-8.498013764619827271e-02 -5.941529870033264160e-01 6.537820100784301758e-01
-8.251839131116867065e-02 -5.767225027084350586e-01 6.659987568855285645e-01
-8.005321025848388672e-02 -5.877736210823059082e-01 6.627500057220458984e-01
2.198755890130996704e-01 -3.837531805038452148e-02 1.346087455749511719e-01
2.134397327899932861e-01 -4.469736665487289429e-02 1.395381838083267212e-01
2.214771956205368042e-01 -3.274293616414070129e-02 1.449014544486999512e-01
2.146624326705932617e-01 -3.924015536904335022e-02 1.498466134071350098e-01
-7.947085052728652954e-02 -1.085372865200042725e-01 -5.591382086277008057e-02
-8.353520184755325317e-02 -1.099022626876831055e-01 -4.490825161337852478e-02
-7.474190741777420044e-02 -1.196558848023414612e-01 -4.267456009984016418e-02
-7.927360385656356812e-02 -1.209818273782730103e-01 -3.183048963546752930e-02
1.266004145145416260e-01 -7.018704712390899658e-02 2.565917074680328369e-01
1.174577996134757996e-01 -6.734514981508255005e-02 2.683807611465454102e-01
1.329375058412551880e-01 -6.608339399099349976e-02 2.671178877353668213e-01
1.249953061342239380e-01 -6.425690650939941406e-02 2.778670191764831543e-01
-2.941091358661651611e-01 5.016363263130187988e-01 -7.004620432853698730e-01
-3.014239668846130371e-01 4.974037706851959229e-01 -6.948538422584533691e-01
-2.895521223545074463e-01 5.113654136657714844e-01 -6.895467042922973633e-01
-2.966129481792449951e-01 5.065203905105590820e-01 -6.836264729499816895e-01
2.392464578151702881e-01 -1.053893193602561951e-01 4.418834745883941650e-01
2.361684739589691162e-01 -1.134442016482353210e-01 4.476335048675537109e-01
2.374125868082046509e-01 -9.686668217182159424e-02 4.504459500312805176e-01
2.314226478338241577e-01 -1.025358512997627258e-01 4.579716324806213379e-01
1.387524604797363281e-01 -3.913060724735260010e-01 -1.513400226831436157e-01
1.405539065599441528e-01 -4.104650914669036865e-01 -1.449137181043624878e-01
1.465988159179687500e-01 -3.949314355850219727e-01 -1.396950483322143555e-01
1.479824036359786987e-01 -4.149939417839050293e-01 -1.328552365303039551e-01
-3.955011367797851562e-01 2.820889949798583984e-01 -7.469124197959899902e-01
-4.056557714939117432e-01 2.888732254505157471e-01 -7.397285699844360352e-01
-3.860968947410583496e-01 2.840149104595184326e-01 -7.391305565834045410e-01
-3.975264132022857666e-01 2.928233444690704346e-01 -7.319096326828002930e-01
-7.908982038497924805e-02 2.164258956909179688e-01 -4.312342703342437744e-01
-8.113258332014083862e-02 2.142391502857208252e-01 -4.258371591567993164e-01
-8.349416404962539673e-02 2.172962427139282227e-01 -4.216104745864868164e-01
-8.317681401968002319e-02 2.097410559654235840e-01 -4.182272255420684814e-01
1.383070349693298340e-01 2.088229060173034668e-01 5.656064748764038086e-01
1.312038600444793701e-01 1.967047452926635742e-01 5.730181336402893066e-01
1.496818363666534424e-01 1.962894946336746216e-01 5.669646263122558594e-01
1.426067203283309937e-01 1.842012703418731689e-01 5.743664503097534180e-01
-1.784137487411499023e-01 1.007990613579750061e-01 4.632384479045867920e-01
-1.786071360111236572e-01 9.051405638456344604e-02 4.648222327232360840e-01
-1.749013662338256836e-01 1.074641719460487366e-01 4.752590358257293701e-01
-1.758012473583221436e-01 9.540079534053802490e-02 4.775757491588592529e-01
-1.096570640802383423e-01 6.071898937225341797e-01 -6.046121120452880859e-01
-1.175707951188087463e-01 6.080123186111450195e-01 -5.956452488899230957e-01
-1.010146513581275940e-01 6.019170284271240234e-01 -5.960053801536560059e-01
-1.090059131383895874e-01 6.019269227981567383e-01 -5.866285562515258789e-01
-6.048332899808883667e-02 -1.363825798034667969e-01 5.482074618339538574e-01
-6.134818121790885925e-02 -1.474527567625045776e-01 5.489461421966552734e-01
-5.537343025207519531e-02 -1.359760910272598267e-01 5.597522258758544922e-01
-5.614275485277175903e-02 -1.472638696432113647e-01 5.603805184364318848e-01
-1.220102608203887939e-01 -4.220422804355621338e-01 6.710412502288818359e-01
-1.238310411572456360e-01 -4.348497688770294189e-01 6.736965179443359375e-01
-1.183357089757919312e-01 -4.248738586902618408e-01 6.776766777038574219e-01
-1.200193613767623901e-01 -4.379499554634094238e-01 6.806615591049194336e-01
-3.520682081580162048e-02 2.434702217578887939e-01 1.143218576908111572e-01
-4.476009309291839600e-02 2.420683652162551880e-01 1.258389055728912354e-01
-2.995438687503337860e-02 2.474158853292465210e-01 1.265373826026916504e-01
-3.943784907460212708e-02 2.467298209667205811e-01 1.388102769851684570e-01
-1.650324165821075439e-01 1.257876902818679810e-01 6.600093096494674683e-02
-1.707200855016708374e-01 1.151220351457595825e-01 7.194451987743377686e-02
-1.610481888055801392e-01 1.385158896446228027e-01 7.805098593235015869e-02
-1.669781208038330078e-01 1.282740831375122070e-01 8.373664319515228271e-02
-1.516357064247131348e-01 1.066475510597229004e-01 -4.237198084592819214e-02
-1.553813219070434570e-01 9.812560677528381348e-02 -3.603751584887504578e-02
-1.529461294412612915e-01 1.125741973519325256e-01 -2.969700470566749573e-02
-1.570913046598434448e-01 1.043613106012344360e-01 -2.317165210843086243e-02
1.750913560390472412e-01 2.182599306106567383e-01 3.410860896110534668e-02
1.679614335298538208e-01 2.231204062700271606e-01 3.815175220370292664e-02
1.810059249401092529e-01 2.156878113746643066e-01 4.527974873781204224e-02
1.738622337579727173e-01 2.205003052949905396e-01 4.924898594617843628e-02
1.581319421529769897e-01 2.845808267593383789e-01 2.132613807916641235e-01
1.460967212915420532e-01 2.876740396022796631e-01 2.167461961507797241e-01
1.664749979972839355e-01 2.862856388092041016e-01 2.261664420366287231e-01
1.555755883455276489e-01 2.897455394268035889e-01 2.302358001470565796e-01
-2.742706239223480225e-01 5.273016691207885742e-01 -6.810527443885803223e-01
-2.814036607742309570e-01 5.221368074417114258e-01 -6.748093962669372559e-01
-2.716901302337646484e-01 5.328342318534851074e-01 -6.707065105438232422e-01
-2.786164879798889160e-01 5.275843739509582520e-01 -6.639684438705444336e-01
-1.730739772319793701e-01 1.011795252561569214e-01 3.722762167453765869e-01
-1.750224679708480835e-01 9.074457734823226929e-02 3.764638006687164307e-01
-1.762728393077850342e-01 1.034296751022338867e-01 3.859015703201293945e-01
-1.777024567127227783e-01 9.375523775815963745e-02 3.897582590579986572e-01
-1.594840884208679199e-01 8.482705056667327881e-02 5.260429382324218750e-01
-1.643590927124023438e-01 7.671236991882324219e-02 5.230581760406494141e-01
-1.496968567371368408e-01 8.910403400659561157e-02 5.366727709770202637e-01
-1.552031338214874268e-01 8.146812021732330322e-02 5.334790349006652832e-01
-1.790250241756439209e-01 2.103752270340919495e-02 1.253302246332168579e-01
-1.731682866811752319e-01 1.164986100047826767e-02 1.314862817525863647e-01
-1.763123720884323120e-01 1.675338670611381531e-02 1.411871612071990967e-01
-1.732472628355026245e-01 9.564850479364395142e-03 1.474724411964416504e-01
-1.695623546838760376e-01 -3.057199902832508087e-02 4.984830021858215332e-01
-1.667660772800445557e-01 -4.080811142921447754e-02 4.969352483749389648e-01
-1.688343435525894165e-01 -2.395990304648876190e-02 5.081542730331420898e-01
-1.662492752075195312e-01 -3.481382131576538086e-02 5.064235925674438477e-01
-1.328779458999633789e-01 4.515805840492248535e-02 -1.314790695905685425e-01
-1.294633746147155762e-01 3.131922334432601929e-02 -1.291787177324295044e-01
-1.285812407732009888e-01 4.089302569627761841e-02 -1.204097941517829895e-01
-1.256185322999954224e-01 2.772105857729911804e-02 -1.167395636439323425e-01
-7.728244364261627197e-02 2.726155817508697510e-01 -3.235869407653808594e-01
-8.378782123327255249e-02 2.653228640556335449e-01 -3.131028115749359131e-01
-7.678242772817611694e-02 2.768742144107818604e-01 -3.063823878765106201e-01
-8.321582525968551636e-02 2.695914804935455322e-01 -2.961749732494354248e-01
1.588911116123199463e-01 -1.640411466360092163e-01 4.619615077972412109e-01
1.563740968704223633e-01 -1.744202524423599243e-01 4.671253263950347900e-01
1.608339697122573853e-01 -1.620045006275177002e-01 4.725750088691711426e-01
1.585966944694519043e-01 -1.726226955652236938e-01 4.781102538108825684e-01
1.004815548658370972e-01 -1.394637078046798706e-01 8.619274199008941650e-02
8.967548608779907227e-02 -1.405609995126724243e-01 9.646128863096237183e-02
1.083074510097503662e-01 -1.327393800020217896e-01 1.015562340617179871e-01
9.747985750436782837e-02 -1.341469585895538330e-01 1.113100647926330566e-01
1.279582679271697998e-01 -3.421515226364135742e-01 -2.066579163074493408e-01
1.213021650910377502e-01 -3.440123498439788818e-01 -1.982024312019348145e-01
1.300950199365615845e-01 -3.538343310356140137e-01 -1.993586421012878418e-01
1.234247684478759766e-01 -3.544853627681732178e-01 -1.904257535934448242e-01
-8.768710494041442871e-02 4.076114594936370850e-01 -4.178728759288787842e-01
-8.738142997026443481e-02 3.971362709999084473e-01 -4.170658886432647705e-01
-8.174565434455871582e-02 4.084267318248748779e-01 -4.069609940052032471e-01
-8.184026181697845459e-02 3.978965282440185547e-01 -4.062670171260833740e-01
-6.661467254161834717e-02 -4.655582010746002197e-01 7.080202698707580566e-01
-6.677381694316864014e-02 -4.785401821136474609e-01 7.091755867004394531e-01
-6.203173100948333740e-02 -4.726338088512420654e-01 7.132006287574768066e-01
-6.231883540749549866e-02 -4.856948554515838623e-01 7.142004370689392090e-01
-1.724764108657836914e-01 5.209480971097946167e-02 5.095167756080627441e-01
-1.722773313522338867e-01 4.186131432652473450e-02 5.107741355895996094e-01
-1.690103560686111450e-01 5.498622357845306396e-02 5.199447870254516602e-01
-1.693354398012161255e-01 4.478426650166511536e-02 5.201961994171142578e-01
2.017630338668823242e-01 -3.844067156314849854e-01 5.589959621429443359e-01
1.999185830354690552e-01 -4.068212211132049561e-01 5.657776594161987305e-01
2.072313725948333740e-01 -3.836895525455474854e-01 5.677162408828735352e-01
2.052243798971176147e-01 -4.059562087059020996e-01 5.741907358169555664e-01
