-4.676789045333862305e-01 5.700408220291137695e-01 -1.028588712215423584e-01
-4.520660638809204102e-01 5.896592140197753906e-01 -1.030836924910545349e-01
-4.659637212753295898e-01 5.866953730583190918e-01 -9.110029041767120361e-02
3.454756457358598709e-03 2.390777617692947388e-01 5.202954411506652832e-01
-3.059776732698082924e-03 2.211005985736846924e-01 5.200891494750976562e-01
1.718665659427642822e-02 2.336591333150863647e-01 5.271620154380798340e-01
1.118206698447465897e-02 2.134029567241668701e-01 5.270271897315979004e-01
-1.123386323451995850e-01 9.441988170146942139e-02 -2.845042049884796143e-01
-1.202061921358108521e-01 8.438269048929214478e-02 -2.739093899726867676e-01
-1.035520136356353760e-01 7.834921777248382568e-02 -2.787951827049255371e-01
-1.103492081165313721e-01 6.964058429002761841e-02 -2.687756419181823730e-01
-4.497112333774566650e-01 -2.950959801673889160e-01 -3.814942240715026855e-01
-4.620333015918731689e-01 -2.940233349800109863e-01 -3.638246357440948486e-01
-4.555819928646087646e-01 -3.125710785388946533e-01 -3.656203448772430420e-01
-4.677959084510803223e-01 -3.141805231571197510e-01 -3.463513255119323730e-01
-2.546072304248809814e-01 4.059809148311614990e-01 -2.488747090101242065e-01
-2.709978520870208740e-01 4.115090668201446533e-01 -2.394510060548782349e-01
-2.428053915500640869e-01 4.297716915607452393e-01 -2.479272037744522095e-01
-2.603234648704528809e-01 4.327423572540283203e-01 -2.384039014577865601e-01
-3.133146166801452637e-01 1.295961439609527588e-01 -1.393656060099601746e-02
-3.243012726306915283e-01 1.420980244874954224e-01 -1.408976502716541290e-03
-3.066353201866149902e-01 1.195492073893547058e-01 3.355819033458828926e-03
-3.174472451210021973e-01 1.325001865625381470e-01 1.511301286518573761e-02
-3.850379586219787598e-01 1.617618836462497711e-02 -2.772442102432250977e-01
-3.964202404022216797e-01 4.487634636461734772e-03 -2.716471850872039795e-01
-3.763388991355895996e-01 2.332749217748641968e-02 -2.607869505882263184e-01
-3.886912465095520020e-01 1.147446129471063614e-02 -2.563470005989074707e-01
-2.214213907718658447e-01 2.685926109552383423e-02 -4.827924445271492004e-02
-2.289779186248779297e-01 3.073391318321228027e-02 -3.483353182673454285e-02
-2.165021449327468872e-01 2.164646983146667480e-02 -3.663608804345130920e-02
-2.245122641324996948e-01 2.558613009750843048e-02 -2.303608506917953491e-02
-1.161493510007858276e-01 3.685649856925010681e-02 -2.319616228342056274e-01
-1.256524324417114258e-01 3.368060663342475891e-02 -2.208074182271957397e-01
-1.083348095417022705e-01 2.356719039380550385e-02 -2.243934124708175659e-01
-1.180774047970771790e-01 2.098652347922325134e-02 -2.132129967212677002e-01
-4.149736166000366211e-01 -5.389386415481567383e-01 -2.613404989242553711e-01
-4.228616952896118164e-01 -5.362499952316284180e-01 -2.494259923696517944e-01
-4.185123741626739502e-01 -5.511925220489501953e-01 -2.477641999721527100e-01
-4.267940521240234375e-01 -5.459252595901489258e-01 -2.361946254968643188e-01
-4.053082764148712158e-01 3.555317223072052002e-01 -1.857635378837585449e-01
-4.142164885997772217e-01 3.512713611125946045e-01 -1.750705838203430176e-01
-4.065825045108795166e-01 3.436166048049926758e-01 -1.796244233846664429e-01
-4.143617153167724609e-01 3.425315618515014648e-01 -1.685217618942260742e-01
-3.034664392471313477e-01 3.407976031303405762e-01 2.172600775957107544e-01
-3.019255101680755615e-01 3.228395581245422363e-01 2.188666164875030518e-01
-2.954473495483398438e-01 3.417775928974151611e-01 2.363157272338867188e-01
-2.942444384098052979e-01 3.239060342311859131e-01 2.346797585487365723e-01
-3.421975672245025635e-01 1.583524644374847412e-01 -1.600477844476699829e-03
-3.488252758979797363e-01 1.686412692070007324e-01 8.479440584778785706e-03
-3.384645581245422363e-01 1.546249389648437500e-01 1.656392216682434082e-02
-3.442405760288238525e-01 1.648940294981002808e-01 2.559507638216018677e-02
-3.535153567790985107e-01 1.636059731245040894e-01 -2.932092845439910889e-01
-3.528805673122406006e-01 1.380185186862945557e-01 -2.880918383598327637e-01
-3.492112457752227783e-01 1.797050684690475464e-01 -2.862430512905120850e-01
-3.490931391716003418e-01 1.536118090152740479e-01 -2.818999290466308594e-01
2.594430372118949890e-02 7.008958458900451660e-01 1.937800943851470947e-01
1.885924302041530609e-02 6.952294707298278809e-01 2.109314352273941040e-01
3.828271105885505676e-02 6.985661387443542480e-01 2.117341905832290649e-01
3.129861131310462952e-02 6.920122504234313965e-01 2.290858477354049683e-01
3.406099975109100342e-01 5.989771485328674316e-01 2.160900682210922241e-01
3.305650353431701660e-01 5.999981760978698730e-01 2.318834662437438965e-01
3.438335061073303223e-01 5.874481797218322754e-01 2.320849150419235229e-01
3.338164091110229492e-01 5.881641507148742676e-01 2.471434921026229858e-01
-3.748436272144317627e-01 2.359519004821777344e-01 -1.725539416074752808e-01
-3.822943568229675293e-01 2.466231435537338257e-01 -1.612826436758041382e-01
-3.754619061946868896e-01 2.299510538578033447e-01 -1.559120416641235352e-01
-3.825829625129699707e-01 2.409628629684448242e-01 -1.441520750522613525e-01
-1.369512081146240234e-01 -6.929606199264526367e-02 1.384409070014953613e-01
-1.487612575292587280e-01 -5.520475655794143677e-02 1.529879271984100342e-01
-1.279096007347106934e-01 -7.346972823143005371e-02 1.599226444959640503e-01
-1.402073055505752563e-01 -5.864801257848739624e-02 1.749794483184814453e-01
-2.390477955341339111e-01 5.297840833663940430e-01 2.094752490520477295e-01
-2.467998564243316650e-01 5.159992575645446777e-01 2.153544425964355469e-01
-2.291290909051895142e-01 5.333104729652404785e-01 2.226274311542510986e-01
-2.374483495950698853e-01 5.197317004203796387e-01 2.287425845861434937e-01
1.911385059356689453e-01 8.659099042415618896e-02 -3.208101987838745117e-01
1.806408613920211792e-01 7.555401325225830078e-02 -3.153115510940551758e-01
2.045862227678298950e-01 7.977752387523651123e-02 -3.127138912677764893e-01
1.938489377498626709e-01 6.902190297842025757e-02 -3.075054883956909180e-01
-4.536685049533843994e-01 -4.762616753578186035e-01 -7.724885828793048859e-03
-4.520600736141204834e-01 -4.920388460159301758e-01 -2.534910105168819427e-03
-4.466609954833984375e-01 -4.782693386077880859e-01 1.049821823835372925e-02
-4.448182880878448486e-01 -4.933863282203674316e-01 1.435534935444593430e-02
-2.593540251255035400e-01 1.875361055135726929e-02 -2.364571243524551392e-01
-2.638254761695861816e-01 9.270110167562961578e-03 -2.194364666938781738e-01
-2.498781830072402954e-01 1.761236041784286499e-02 -2.212129533290863037e-01
-2.552022039890289307e-01 8.981151506304740906e-03 -2.052104026079177856e-01
-5.755768343806266785e-02 -7.973622679710388184e-01 1.995630711317062378e-01
-7.229883223772048950e-02 -7.930673360824584961e-01 2.129411399364471436e-01
-4.949818924069404602e-02 -7.987550497055053711e-01 2.119134664535522461e-01
-6.266395002603530884e-02 -7.919681668281555176e-01 2.254526168107986450e-01
2.619405388832092285e-01 -1.470450609922409058e-01 1.956236660480499268e-01
2.537310421466827393e-01 -1.545882076025009155e-01 2.058147937059402466e-01
2.533362209796905518e-01 -1.462398767471313477e-01 2.115908116102218628e-01
2.444013953208923340e-01 -1.530282050371170044e-01 2.225785255432128906e-01
4.112681746482849121e-01 5.744366645812988281e-01 9.433057159185409546e-02
3.993035852909088135e-01 5.690640807151794434e-01 1.101089790463447571e-01
4.239883720874786377e-01 5.554975271224975586e-01 1.001257449388504028e-01
4.125344455242156982e-01 5.508977770805358887e-01 1.160745918750762939e-01
-2.764820493757724762e-02 -1.450303047895431519e-01 6.540812551975250244e-02
-3.568140417337417603e-02 -1.399367749691009521e-01 7.868253439664840698e-02
-2.526070550084114075e-02 -1.494510769844055176e-01 7.835450023412704468e-02
-3.057906031608581543e-02 -1.459775418043136597e-01 8.882887661457061768e-02
1.628907918930053711e-01 -7.432938814163208008e-01 1.154087409377098083e-01
1.513523906469345093e-01 -7.553247213363647461e-01 1.214378923177719116e-01
1.634609699249267578e-01 -7.269944548606872559e-01 1.235705092549324036e-01
1.526831835508346558e-01 -7.389147877693176270e-01 1.296167373657226562e-01
-3.443243205547332764e-01 -1.699612736701965332e-01 -3.592542111873626709e-01
-3.428752720355987549e-01 -1.847883611917495728e-01 -3.621158599853515625e-01
-3.350298404693603516e-01 -1.702210605144500732e-01 -3.454912006855010986e-01
-3.348267674446105957e-01 -1.836187243461608887e-01 -3.471945822238922119e-01
4.003111738711595535e-03 -1.353126466274261475e-01 2.305781394243240356e-01
7.320694625377655029e-03 -1.480596661567687988e-01 2.293428778648376465e-01
1.353627070784568787e-02 -1.384480893611907959e-01 2.394690811634063721e-01
1.471847482025623322e-02 -1.514398008584976196e-01 2.381066530942916870e-01
1.105124950408935547e-01 -4.750644043087959290e-02 4.099118411540985107e-01
9.612009674310684204e-02 -4.404166713356971741e-02 4.143623113632202148e-01
1.200979202985763550e-01 -3.515817224979400635e-02 4.250742495059967041e-01
1.056774035096168518e-01 -3.038745000958442688e-02 4.299458861351013184e-01
9.080119431018829346e-02 -6.104383468627929688e-01 -1.886504590511322021e-01
9.041859209537506104e-02 -6.248018741607666016e-01 -1.905841827392578125e-01
9.549216181039810181e-02 -6.045992374420166016e-01 -1.719672977924346924e-01
9.505096077919006348e-02 -6.179480552673339844e-01 -1.754351854324340820e-01
2.492924220860004425e-02 -7.853925824165344238e-01 -2.676025927066802979e-01
1.071391813457012177e-02 -7.943023443222045898e-01 -2.613708078861236572e-01
3.794557973742485046e-02 -7.923494577407836914e-01 -2.583432495594024658e-01
2.345650643110275269e-02 -8.011059761047363281e-01 -2.519548535346984863e-01
3.677012324333190918e-01 -3.467207774519920349e-02 4.807175695896148682e-02
3.589829504489898682e-01 -4.341705143451690674e-02 5.725956708192825317e-02
3.748946487903594971e-01 -2.550615556538105011e-02 6.563977897167205811e-02
3.656723797321319580e-01 -3.439655527472496033e-02 7.460772991180419922e-02
5.134624242782592773e-01 8.113480806350708008e-01 -3.285426646471023560e-02
5.049831271171569824e-01 8.291087150573730469e-01 -2.431466430425643921e-02
5.230104923248291016e-01 8.167093992233276367e-01 -1.968828029930591583e-02
5.149313807487487793e-01 8.350163698196411133e-01 -9.125391021370887756e-03
2.043144851922988892e-01 6.330456733703613281e-01 3.096095025539398193e-01
1.974193155765533447e-01 6.203395128250122070e-01 3.262012004852294922e-01
2.171052247285842896e-01 6.186655163764953613e-01 3.220588564872741699e-01
2.103886157274246216e-01 6.059739589691162109e-01 3.371856510639190674e-01
1.968644857406616211e-01 4.933718442916870117e-01 -3.208710551261901855e-01
1.818372905254364014e-01 4.997605085372924805e-01 -3.223670423030853271e-01
2.121922373771667480e-01 4.936783909797668457e-01 -3.132286071777343750e-01
1.975664645433425903e-01 5.073674917221069336e-01 -3.139562308788299561e-01
-3.844842016696929932e-01 3.566320836544036865e-01 3.533929958939552307e-02
-3.913790881633758545e-01 3.331204056739807129e-01 3.765694424510002136e-02
-3.709714114665985107e-01 3.429988622665405273e-01 4.435655847191810608e-02
-3.764371573925018311e-01 3.215354084968566895e-01 4.590500518679618835e-02
2.669273912906646729e-01 -1.511051505804061890e-01 1.831179857254028320e-01
2.619994878768920898e-01 -1.611655652523040771e-01 1.912248134613037109e-01
2.583325803279876709e-01 -1.494945287704467773e-01 2.001128047704696655e-01
2.499970048666000366e-01 -1.570356786251068115e-01 2.102210372686386108e-01
-2.997699677944183350e-01 -6.119638085365295410e-01 1.504511833190917969e-01
-3.020213842391967773e-01 -6.265359520912170410e-01 1.467774510383605957e-01
-2.863862812519073486e-01 -6.141489148139953613e-01 1.570754051208496094e-01
-2.887521088123321533e-01 -6.289178729057312012e-01 1.537203490734100342e-01
1.906158030033111572e-01 7.299736738204956055e-01 1.254176348447799683e-02
1.815505772829055786e-01 7.301771640777587891e-01 2.221575938165187836e-02
1.974056810140609741e-01 7.292334437370300293e-01 2.789483405649662018e-02
1.887222379446029663e-01 7.291568517684936523e-01 3.817849978804588318e-02
-4.540947377681732178e-01 -4.517029225826263428e-01 -2.298927903175354004e-01
-4.603040516376495361e-01 -4.469091296195983887e-01 -2.133018374443054199e-01
-4.577614367008209229e-01 -4.548843204975128174e-01 -2.083097696304321289e-01
-4.603125154972076416e-01 -4.572318494319915771e-01 -1.938985288143157959e-01
1.871652007102966309e-01 4.126223027706146240e-01 4.204666316509246826e-01
1.791497170925140381e-01 3.949690461158752441e-01 4.246882498264312744e-01
2.061852067708969116e-01 4.183806777000427246e-01 4.111877083778381348e-01
2.001400738954544067e-01 3.987091481685638428e-01 4.144680202007293701e-01
-4.192496836185455322e-01 -7.977072149515151978e-02 -2.438110411167144775e-01
-4.221275448799133301e-01 -1.012724563479423523e-01 -2.425540387630462646e-01
-4.146209657192230225e-01 -7.214538007974624634e-02 -2.339981198310852051e-01
-4.166306257247924805e-01 -9.357593953609466553e-02 -2.327757030725479126e-01
-3.665602207183837891e-01 3.861964866518974304e-02 -2.723167240619659424e-01
-3.808629214763641357e-01 2.799251675605773926e-02 -2.689062952995300293e-01
-3.591414093971252441e-01 4.606031626462936401e-02 -2.548014223575592041e-01
-3.734814822673797607e-01 3.482948616147041321e-02 -2.533822655677795410e-01
-4.302317798137664795e-01 5.032074451446533203e-01 9.597664698958396912e-03
-4.413968622684478760e-01 4.862393438816070557e-01 9.659784846007823944e-03
-4.069799780845642090e-01 4.955141246318817139e-01 1.221334934234619141e-02
-4.148593544960021973e-01 4.742788672447204590e-01 1.376072410494089127e-02
1.001220643520355225e-01 2.309379130601882935e-01 5.397430062294006348e-01
8.789923787117004395e-02 2.140258252620697021e-01 5.467478632926940918e-01
1.205393671989440918e-01 2.262409031391143799e-01 5.355221629142761230e-01
1.086334362626075745e-01 2.088874131441116333e-01 5.426742434501647949e-01
1.419541090726852417e-01 3.205669522285461426e-01 4.674152731895446777e-01
1.300642043352127075e-01 3.167889416217803955e-01 4.788623452186584473e-01
1.501375287771224976e-01 3.024562597274780273e-01 4.718145430088043213e-01
1.389169692993164062e-01 2.995657324790954590e-01 4.838960170745849609e-01
5.008527040481567383e-01 4.741496741771697998e-01 1.169276237487792969e-01
4.939916133880615234e-01 4.706124663352966309e-01 1.273002624511718750e-01
4.950722754001617432e-01 4.611620604991912842e-01 1.293314397335052490e-01
4.889720678329467773e-01 4.577855169773101807e-01 1.403027921915054321e-01
2.906700670719146729e-01 -7.825642824172973633e-01 -8.300559967756271362e-02
2.794512212276458740e-01 -7.892960309982299805e-01 -7.434396445751190186e-02
2.975296378135681152e-01 -7.783659100532531738e-01 -6.388217955827713013e-02
2.865237295627593994e-01 -7.853007912635803223e-01 -5.521523579955101013e-02
8.038353919982910156e-02 -3.508167862892150879e-01 -1.743528246879577637e-01
7.582569867372512817e-02 -3.479183316230773926e-01 -1.773916482925415039e-01
8.743790537118911743e-02 -3.481919169425964355e-01 -1.618632823228836060e-01
8.092349022626876831e-02 -3.420781493186950684e-01 -1.636699289083480835e-01
-2.694061994552612305e-01 -3.021992743015289307e-01 7.705747336149215698e-02
-2.770839929580688477e-01 -3.159791529178619385e-01 8.405379951000213623e-02
-2.531015276908874512e-01 -3.125632703304290771e-01 8.586325496435165405e-02
-2.609763741493225098e-01 -3.259934186935424805e-01 9.242589026689529419e-02
-3.575456440448760986e-01 2.495057415217161179e-03 -3.337759673595428467e-01
-3.706818819046020508e-01 -7.239322178065776825e-03 -3.347801268100738525e-01
-3.473111093044281006e-01 1.880848594009876251e-02 -3.221741616725921631e-01
-3.588512539863586426e-01 6.821901537477970123e-03 -3.244159221649169922e-01
4.830673336982727051e-01 2.511917948722839355e-01 2.104674726724624634e-01
4.815088212490081787e-01 2.349615991115570068e-01 2.168373614549636841e-01
4.783255755901336670e-01 2.587824165821075439e-01 2.277476340532302856e-01
4.774819314479827881e-01 2.404762953519821167e-01 2.337313294410705566e-01
2.798036336898803711e-01 7.473177909851074219e-01 7.969577610492706299e-02
2.678722441196441650e-01 7.417561411857604980e-01 9.244893491268157959e-02
2.832900285720825195e-01 7.429237961769104004e-01 9.391652792692184448e-02
2.712138593196868896e-01 7.363861203193664551e-01 1.065168082714080811e-01
7.187329977750778198e-02 -4.469172358512878418e-01 -2.801230549812316895e-01
7.341483980417251587e-02 -4.661886990070343018e-01 -2.799691557884216309e-01
7.583245635032653809e-02 -4.434726536273956299e-01 -2.655094563961029053e-01
7.816258072853088379e-02 -4.634322226047515869e-01 -2.641789615154266357e-01
-3.737076818943023682e-01 1.917575150728225708e-01 -5.673038773238658905e-03
-3.812229335308074951e-01 2.030031532049179077e-01 7.529545575380325317e-03
-3.700287640094757080e-01 1.897360086441040039e-01 1.239054184406995773e-02
-3.771750628948211670e-01 2.008684277534484863e-01 2.601441368460655212e-02
3.990055918693542480e-01 1.336291059851646423e-02 1.936056613922119141e-01
3.888143897056579590e-01 3.028189530596137047e-03 2.069618105888366699e-01
4.013988077640533447e-01 2.342217788100242615e-02 2.131277024745941162e-01
3.918086588382720947e-01 1.343225501477718353e-02 2.264932096004486084e-01
-4.466053098440170288e-02 -5.708494186401367188e-01 2.306140363216400146e-01
-4.854184761643409729e-02 -5.875136256217956543e-01 2.228366881608963013e-01
-3.092421405017375946e-02 -5.725424885749816895e-01 2.420641332864761353e-01
-3.463344648480415344e-02 -5.896688699722290039e-01 2.344944030046463013e-01
-3.171923160552978516e-01 1.822788715362548828e-01 1.153235435485839844e-01
-3.214949071407318115e-01 1.922879070043563843e-01 1.238113120198249817e-01
-3.156161308288574219e-01 1.882856935262680054e-01 1.352189779281616211e-01
-3.136741220951080322e-01 1.895945817232131958e-01 1.416738927364349365e-01
1.972114890813827515e-01 -6.340587735176086426e-01 1.060448065400123596e-01
1.898201107978820801e-01 -6.483685374259948730e-01 1.118002757430076599e-01
1.945776045322418213e-01 -6.252756714820861816e-01 1.193029060959815979e-01
1.866216957569122314e-01 -6.394681334495544434e-01 1.251678317785263062e-01
4.136206805706024170e-01 1.499656587839126587e-01 3.426236212253570557e-01
4.055365622043609619e-01 1.389840543270111084e-01 3.470152020454406738e-01
4.108479917049407959e-01 1.621329933404922485e-01 3.528883159160614014e-01
4.028642773628234863e-01 1.509830206632614136e-01 3.571610152721405029e-01
2.521785497665405273e-01 -1.364344954490661621e-01 2.093396931886672974e-01
2.432714700698852539e-01 -1.431795507669448853e-01 2.203889489173889160e-01
2.440164685249328613e-01 -1.344637274742126465e-01 2.248369902372360229e-01
2.355737239122390747e-01 -1.402587443590164185e-01 2.358395308256149292e-01
4.738447666168212891e-01 2.796542346477508545e-01 2.335655391216278076e-01
4.737978875637054443e-01 2.610394954681396484e-01 2.395173907279968262e-01
4.659255445003509521e-01 2.877319157123565674e-01 2.524224519729614258e-01
4.664796888828277588e-01 2.679779827594757080e-01 2.578613460063934326e-01
-1.058124527335166931e-01 -2.478425204753875732e-01 -2.781351804733276367e-01
-1.171825379133224487e-01 -2.401500195264816284e-01 -2.697864472866058350e-01
-9.807119518518447876e-02 -2.471133917570114136e-01 -2.594697475433349609e-01
-1.091274917125701904e-01 -2.403790950775146484e-01 -2.519343197345733643e-01
-1.177773177623748779e-01 -3.123928233981132507e-02 3.116411566734313965e-01
-1.306892186403274536e-01 -1.744156703352928162e-02 3.141327500343322754e-01
-1.103421896696090698e-01 -3.223784640431404114e-02 3.249062299728393555e-01
-1.233441978693008423e-01 -1.893382705748081207e-02 3.270284235477447510e-01
-2.973840534687042236e-01 1.120893359184265137e-01 5.107785761356353760e-02
-3.042020201683044434e-01 1.236619949340820312e-01 5.965716019272804260e-02
-2.933494448661804199e-01 1.078791022300720215e-01 6.695690006017684937e-02
-2.998003959655761719e-01 1.190931424498558044e-01 7.585172355175018311e-02
-3.655642271041870117e-01 -4.002326130867004395e-01 1.010729447007179260e-01
-3.729939460754394531e-01 -4.151138067245483398e-01 1.024263501167297363e-01
-3.467091321945190430e-01 -3.953588008880615234e-01 1.098005473613739014e-01
-3.555237054824829102e-01 -4.130750298500061035e-01 1.118129268288612366e-01
4.730473458766937256e-02 -1.234302446246147156e-01 -6.392104178667068481e-02
3.740846738219261169e-02 -1.273951977491378784e-01 -5.353410542011260986e-02
6.312473118305206299e-02 -1.309712976217269897e-01 -5.657233670353889465e-02
5.251467227935791016e-02 -1.367274224758148193e-01 -4.825893789529800415e-02
-3.289164304733276367e-01 6.183956265449523926e-01 -6.518588960170745850e-02
-3.431022763252258301e-01 6.213740706443786621e-01 -5.775794759392738342e-02
-3.166944384574890137e-01 6.168121099472045898e-01 -5.096153169870376587e-02
-3.298677206039428711e-01 6.193553209304809570e-01 -4.294107481837272644e-02
-3.187046051025390625e-01 -5.005131363868713379e-01 -3.915268480777740479e-01
-3.270947933197021484e-01 -5.097615718841552734e-01 -3.787184059619903564e-01
-3.135710060596466064e-01 -5.228421092033386230e-01 -3.871031999588012695e-01
-3.218084573745727539e-01 -5.361928939819335938e-01 -3.734221160411834717e-01
-2.847020886838436127e-02 -5.809332728385925293e-01 -3.883699476718902588e-01
-3.703641518950462341e-02 -5.956643819808959961e-01 -3.855719566345214844e-01
-1.176141202449798584e-02 -5.840791463851928711e-01 -3.748230040073394775e-01
-2.016920223832130432e-02 -5.985664129257202148e-01 -3.725948035717010498e-01
-1.886505447328090668e-02 -7.869597077369689941e-01 4.882108047604560852e-02
-3.669393062591552734e-02 -7.855609059333801270e-01 5.715269222855567932e-02
-3.122949972748756409e-03 -7.903019785881042480e-01 6.444801390171051025e-02
-2.305519580841064453e-02 -7.891185283660888672e-01 7.205278426408767700e-02
-4.117020368576049805e-01 -5.315234065055847168e-01 7.852846384048461914e-02
-4.135144054889678955e-01 -5.482221245765686035e-01 7.053823024034500122e-02
-3.985001444816589355e-01 -5.241681337356567383e-01 9.354673326015472412e-02
-4.011259377002716064e-01 -5.431762933731079102e-01 8.589863032102584839e-02
2.481928169727325439e-01 -8.009606003761291504e-01 -4.075409844517707825e-02
2.372736334800720215e-01 -8.014957308769226074e-01 -2.952556312084197998e-02
2.556571662425994873e-01 -7.949214577674865723e-01 -2.281304821372032166e-02
2.450093626976013184e-01 -7.958295345306396484e-01 -1.217385381460189819e-02
-2.912916243076324463e-01 1.413364261388778687e-01 1.652502715587615967e-01
-2.923969626426696777e-01 1.514870375394821167e-01 1.765967160463333130e-01
-2.869307696819305420e-01 1.500616520643234253e-01 1.883280873298645020e-01
-2.860341966152191162e-01 1.550429165363311768e-01 1.980507224798202515e-01
3.026433289051055908e-01 -4.307096004486083984e-01 1.540574282407760620e-01
2.977736294269561768e-01 -4.423636496067047119e-01 1.666534841060638428e-01
3.009574711322784424e-01 -4.247738122940063477e-01 1.734540462493896484e-01
2.960554361343383789e-01 -4.368785023689270020e-01 1.841619908809661865e-01
-4.286865890026092529e-01 -6.049734354019165039e-01 -1.002865433692932129e-01
-4.360383450984954834e-01 -5.930311679840087891e-01 -8.966377377510070801e-02
-4.307691752910614014e-01 -6.080070734024047852e-01 -8.263233304023742676e-02
-4.374518394470214844e-01 -5.960585474967956543e-01 -7.138803601264953613e-02
-2.770845778286457062e-02 2.113222777843475342e-01 -3.714381456375122070e-01
-4.148891568183898926e-02 2.009872943162918091e-01 -3.618068397045135498e-01
-9.927192702889442444e-03 2.002912014722824097e-01 -3.729304969310760498e-01
-2.420371398329734802e-02 1.899724006652832031e-01 -3.631812632083892822e-01
-7.229561358690261841e-02 -8.536002039909362793e-02 2.498088628053665161e-01
-8.871059119701385498e-02 -6.874178349971771240e-02 2.632302939891815186e-01
-6.511165946722030640e-02 -8.307392895221710205e-02 2.677762508392333984e-01
-8.363387733697891235e-02 -6.648507714271545410e-02 2.838162183761596680e-01
-4.384322464466094971e-01 -3.024037480354309082e-01 -3.918979763984680176e-01
-4.506186246871948242e-01 -3.010873198509216309e-01 -3.745970726013183594e-01
-4.416849315166473389e-01 -3.208545446395874023e-01 -3.789326250553131104e-01
-4.534041583538055420e-01 -3.229187726974487305e-01 -3.610853552818298340e-01
-1.780603677034378052e-01 -3.751399517059326172e-01 1.330235302448272705e-01
-1.876103281974792480e-01 -3.917626440525054932e-01 1.354809701442718506e-01
-1.590517163276672363e-01 -3.748900592327117920e-01 1.393565237522125244e-01
-1.684893965721130371e-01 -3.928620815277099609e-01 1.410990059375762939e-01
1.983251124620437622e-01 4.218706190586090088e-01 -3.499613106250762939e-01
1.909339874982833862e-01 4.075348675251007080e-01 -3.537843227386474609e-01
2.164807021617889404e-01 4.212651252746582031e-01 -3.438595235347747803e-01
2.088571786880493164e-01 4.064850211143493652e-01 -3.477431237697601318e-01
-4.078080654144287109e-01 4.938913881778717041e-01 9.749975986778736115e-03
-4.147597849369049072e-01 4.718350768089294434e-01 1.141885016113519669e-02
-3.869564533233642578e-01 4.816066026687622070e-01 1.349496934562921524e-02
-3.930367827415466309e-01 4.584403634071350098e-01 1.561189722269773483e-02
-9.421867132186889648e-02 -2.353533506393432617e-01 -1.964616924524307251e-01
-1.030772402882575989e-01 -2.317723929882049561e-01 -1.876700520515441895e-01
-8.431402593851089478e-02 -2.396533340215682983e-01 -1.844191402196884155e-01
-9.314234554767608643e-02 -2.359491139650344849e-01 -1.753264218568801880e-01
-3.031050786375999451e-02 4.050210714340209961e-01 -3.679143190383911133e-01
-4.886752367019653320e-02 4.146163761615753174e-01 -3.566665947437286377e-01
-1.557576656341552734e-02 4.199819862842559814e-01 -3.678912818431854248e-01
-3.387385234236717224e-02 4.307538270950317383e-01 -3.575263321399688721e-01
-1.303911060094833374e-01 -4.091081917285919189e-01 -4.303196966648101807e-01
-1.329278200864791870e-01 -4.264901280403137207e-01 -4.349355399608612061e-01
-1.128414422273635864e-01 -3.999868035316467285e-01 -4.277287125587463379e-01
-1.155889704823493958e-01 -4.166922569274902344e-01 -4.322896599769592285e-01
4.992140531539916992e-01 2.240071594715118408e-01 1.378146708011627197e-01
4.970788359642028809e-01 2.122813463211059570e-01 1.423432528972625732e-01
4.991139471530914307e-01 2.284800261259078979e-01 1.514870077371597290e-01
4.970968663692474365e-01 2.169541120529174805e-01 1.561781466007232666e-01
-4.469785690307617188e-01 -5.503484606742858887e-01 -1.385014653205871582e-01
-4.537781476974487305e-01 -5.406736135482788086e-01 -1.273128092288970947e-01
-4.479702413082122803e-01 -5.544294118881225586e-01 -1.196526959538459778e-01
-4.532032907009124756e-01 -5.462855100631713867e-01 -1.092276498675346375e-01
7.910867780447006226e-02 -5.912263989448547363e-01 -2.381035834550857544e-01
7.766875624656677246e-02 -6.075752973556518555e-01 -2.360369265079498291e-01
8.296836912631988525e-02 -5.905615091323852539e-01 -2.246491163969039917e-01
8.170074969530105591e-02 -6.067075729370117188e-01 -2.224964201450347900e-01
4.283859133720397949e-01 8.499290347099304199e-01 -1.112028397619724274e-02
4.102017283439636230e-01 8.496781587600708008e-01 -6.037917919456958771e-03
4.416872560977935791e-01 8.564077019691467285e-01 -4.549231380224227905e-05
4.240875840187072754e-01 8.558017015457153320e-01 5.660374648869037628e-03
3.156358599662780762e-01 -1.607005670666694641e-02 3.028185069561004639e-01
3.021554350852966309e-01 -2.354306355118751526e-02 3.109759688377380371e-01
3.190233111381530762e-01 -6.037913262844085693e-03 3.172266483306884766e-01
3.056208193302154541e-01 -1.401728857308626175e-02 3.247017860412597656e-01
2.478369325399398804e-01 -4.356802999973297119e-01 -3.991569578647613525e-02
2.458106428384780884e-01 -4.540587961673736572e-01 -3.987100347876548767e-02
2.550818324089050293e-01 -4.484869539737701416e-01 -2.461490035057067871e-02
2.532154917716979980e-01 -4.653882384300231934e-01 -2.328887581825256348e-02
-1.135473102331161499e-01 -6.569932699203491211e-01 2.111437171697616577e-01
-1.222500801086425781e-01 -6.689894199371337891e-01 2.158747911453247070e-01
-9.686274081468582153e-02 -6.610546112060546875e-01 2.201146483421325684e-01
-1.058591604232788086e-01 -6.724622249603271484e-01 2.242021411657333374e-01
-4.830599129199981689e-01 -2.582590281963348389e-01 -3.272066116333007812e-01
-4.925529360771179199e-01 -2.596575319766998291e-01 -3.125280141830444336e-01
-4.843448400497436523e-01 -2.709495127201080322e-01 -3.110513687133789062e-01
-4.940361380577087402e-01 -2.728298604488372803e-01 -2.962858378887176514e-01
5.188780371099710464e-03 -5.080732107162475586e-01 -3.827651441097259521e-01
7.042847573757171631e-05 -5.224539637565612793e-01 -3.835958540439605713e-01
2.011649683117866516e-02 -5.109142661094665527e-01 -3.721362948417663574e-01
1.473394595086574554e-02 -5.241885781288146973e-01 -3.734935820102691650e-01
-5.089370012283325195e-01 4.548866748809814453e-01 1.175451092422008514e-02
-5.028533935546875000e-01 4.181424975395202637e-01 1.316939294338226318e-02
-4.996006190776824951e-01 4.535142779350280762e-01 2.017193660140037537e-02
-4.931579828262329102e-01 4.167211651802062988e-01 2.296105399727821350e-02
-3.043181002140045166e-01 -6.393812298774719238e-01 -3.339356482028961182e-01
-3.104888200759887695e-01 -6.481915116310119629e-01 -3.224754333496093750e-01
-2.990726530551910400e-01 -6.594929099082946777e-01 -3.293976485729217529e-01
-3.042643964290618896e-01 -6.684396266937255859e-01 -3.189148306846618652e-01
5.698014497756958008e-01 7.095499038696289062e-01 4.437116906046867371e-03
5.692777037620544434e-01 6.963448524475097656e-01 5.965512245893478394e-03
5.689472556114196777e-01 7.112522125244140625e-01 1.918616518378257751e-02
5.682328343391418457e-01 6.980389356613159180e-01 2.029981464147567749e-02
-3.342901468276977539e-01 4.296578764915466309e-01 -2.213740795850753784e-01
-3.555335998535156250e-01 4.475169181823730469e-01 -2.100659012794494629e-01
-3.236543238162994385e-01 4.413959383964538574e-01 -2.221938669681549072e-01
-3.409900069236755371e-01 4.552763402462005615e-01 -2.134133577346801758e-01
4.236279800534248352e-02 -7.875135540962219238e-01 -3.195430338382720947e-02
3.248363733291625977e-02 -7.815442085266113281e-01 -2.657466009259223938e-02
4.678748548030853271e-02 -7.863239049911499023e-01 -1.970318146049976349e-02
3.681653738021850586e-02 -7.808944582939147949e-01 -1.419563964009284973e-02
-1.960935294628143311e-01 -7.916028499603271484e-01 -2.812728099524974823e-02
-2.098103612661361694e-01 -7.904248833656311035e-01 -1.499534677714109421e-02
-1.868617534637451172e-01 -7.915914654731750488e-01 -1.314236409962177277e-02
-2.001747786998748779e-01 -7.910946607589721680e-01 1.716585829854011536e-04
1.892436742782592773e-01 3.148809373378753662e-01 4.191424250602722168e-01
1.737568825483322144e-01 3.084715902805328369e-01 4.320822656154632568e-01
2.023283839225769043e-01 2.965739965438842773e-01 4.184570908546447754e-01
1.866270601749420166e-01 2.902381718158721924e-01 4.319385588169097900e-01
2.913281023502349854e-01 -4.364997893571853638e-02 -1.010984703898429871e-01
2.816880643367767334e-01 -5.288314819335937500e-02 -9.581921249628067017e-02
3.029051721096038818e-01 -4.381979256868362427e-02 -9.020077437162399292e-02
2.932315170764923096e-01 -5.270700901746749878e-02 -8.573313802480697632e-02
1.275298446416854858e-01 -2.034187018871307373e-01 3.163863420486450195e-01
1.172609776258468628e-01 -2.151641100645065308e-01 3.242599368095397949e-01
1.410184651613235474e-01 -2.101432234048843384e-01 3.153062462806701660e-01
1.305219382047653198e-01 -2.224247902631759644e-01 3.237013816833496094e-01
-4.535538703203201294e-02 6.645514965057373047e-01 -1.427550613880157471e-01
-5.849340930581092834e-02 6.612258553504943848e-01 -1.330304890871047974e-01
-3.666292130947113037e-02 6.718865633010864258e-01 -1.256055533885955811e-01
-5.097026377916336060e-02 6.672602891921997070e-01 -1.151972115039825439e-01
-3.446830213069915771e-01 -7.380921244621276855e-01 2.337844111025333405e-03
-3.514981269836425781e-01 -7.265142202377319336e-01 2.060546725988388062e-02
-3.356331884860992432e-01 -7.396075725555419922e-01 2.418756484985351562e-02
-3.424075245857238770e-01 -7.279365658760070801e-01 4.258918017148971558e-02
-3.367767110466957092e-02 -7.746443152427673340e-01 -6.275834143161773682e-02
-4.338283836841583252e-02 -7.693606019020080566e-01 -5.182131007313728333e-02
-2.830413356423377991e-02 -7.707687020301818848e-01 -4.666373133659362793e-02
-3.783712536096572876e-02 -7.642751336097717285e-01 -3.524442017078399658e-02
5.018244981765747070e-01 2.593301534652709961e-01 1.150586530566215515e-01
5.006593465805053711e-01 2.464880198240280151e-01 1.194050461053848267e-01
5.002741217613220215e-01 2.618352174758911133e-01 1.329285204410552979e-01
4.987350404262542725e-01 2.507115602493286133e-01 1.378350257873535156e-01
-1.533651947975158691e-01 -5.602592602372169495e-02 9.731663018465042114e-02
-1.641863137483596802e-01 -4.581230878829956055e-02 1.111414954066276550e-01
-1.462850272655487061e-01 -6.113025918602943420e-02 1.132339984178543091e-01
-1.571962684392929077e-01 -4.882571846246719360e-02 1.274149268865585327e-01
5.008833408355712891e-01 6.164667606353759766e-01 -1.113637387752532959e-01
5.006477236747741699e-01 5.948890447616577148e-01 -1.161902621388435364e-01
5.131730437278747559e-01 6.083587408065795898e-01 -9.870978444814682007e-02
5.129210948944091797e-01 5.877125859260559082e-01 -1.026060879230499268e-01
-3.080091476440429688e-01 1.898254305124282837e-01 1.740317642688751221e-01
-3.011123836040496826e-01 1.770833879709243774e-01 1.759069710969924927e-01
-3.025796711444854736e-01 2.054943740367889404e-01 1.989437490701675415e-01
-2.936228215694427490e-01 1.834586113691329956e-01 1.964036077260971069e-01
-2.505078613758087158e-01 3.039631247520446777e-02 -2.371871322393417358e-01
-2.552008330821990967e-01 1.964468508958816528e-02 -2.211472094058990479e-01
-2.404231727123260498e-01 2.852610312402248383e-02 -2.217353582382202148e-01
-2.461228817701339722e-01 1.850275322794914246e-02 -2.058298885822296143e-01
-2.064848393201828003e-01 4.799493402242660522e-02 2.797070145606994629e-01
-2.134520411491394043e-01 5.033051595091819763e-02 2.781918346881866455e-01
-1.956273317337036133e-01 5.245773121714591980e-02 2.951958775520324707e-01
-2.014086246490478516e-01 5.040531232953071594e-02 2.880987524986267090e-01
4.833219349384307861e-01 5.449161529541015625e-01 -1.157817915081977844e-01
4.798592925071716309e-01 5.251832008361816406e-01 -1.173449754714965820e-01
4.968286156654357910e-01 5.428760647773742676e-01 -1.073501855134963989e-01
4.937357306480407715e-01 5.230113863945007324e-01 -1.078967079520225525e-01
1.328105032444000244e-01 4.028126895427703857e-01 4.359668791294097900e-01
1.218199282884597778e-01 3.915105760097503662e-01 4.409084022045135498e-01
1.494340896606445312e-01 3.984448015689849854e-01 4.309645891189575195e-01
1.396142542362213135e-01 3.851947188377380371e-01 4.361328184604644775e-01
4.573972895741462708e-02 -3.676075339317321777e-01 3.349565267562866211e-01
4.156715050339698792e-02 -3.897992968559265137e-01 3.325203061103820801e-01
6.299392879009246826e-02 -3.678415417671203613e-01 3.378956317901611328e-01
5.947577953338623047e-02 -3.903475403785705566e-01 3.351812362670898438e-01
-7.788363378494977951e-03 6.976792216300964355e-01 -7.976689934730529785e-02
-1.931757479906082153e-02 6.962452530860900879e-01 -6.597134470939636230e-02
2.712675370275974274e-03 7.031942009925842285e-01 -6.438212096691131592e-02
-8.936042897403240204e-03 7.018450498580932617e-01 -5.055046826601028442e-02
1.745930612087249756e-01 -1.391143947839736938e-01 -5.679595842957496643e-02
1.659475266933441162e-01 -1.540556252002716064e-01 -5.228123068809509277e-02
1.920740157365798950e-01 -1.406413912773132324e-01 -4.555420577526092529e-02
1.842084228992462158e-01 -1.558563709259033203e-01 -4.158312082290649414e-02
-5.037614330649375916e-02 -2.748764455318450928e-01 -2.787787020206451416e-01
-5.887196585536003113e-02 -2.661555409431457520e-01 -2.708519399166107178e-01
-4.222927615046501160e-02 -2.742579579353332520e-01 -2.622572779655456543e-01
-5.105296149849891663e-02 -2.652030587196350098e-01 -2.542323172092437744e-01
-3.170659765601158142e-03 -7.981945276260375977e-01 1.521719396114349365e-01
-2.115553617477416992e-02 -7.962139248847961426e-01 1.601036489009857178e-01
6.038254126906394958e-03 -8.015869259834289551e-01 1.693447828292846680e-01
-1.025202125310897827e-02 -7.988561987876892090e-01 1.790334880352020264e-01
1.208968088030815125e-01 -4.062449634075164795e-01 3.404654562473297119e-01
1.154253259301185608e-01 -4.229282438755035400e-01 3.399338126182556152e-01
1.370638012886047363e-01 -3.961145579814910889e-01 3.403585255146026611e-01
1.289346665143966675e-01 -4.099126160144805908e-01 3.411438167095184326e-01
2.249488383531570435e-01 6.979613304138183594e-01 1.764923930168151855e-01
2.150521874427795410e-01 6.968250274658203125e-01 1.887546032667160034e-01
2.327808886766433716e-01 6.873940229415893555e-01 1.895086169242858887e-01
2.244319617748260498e-01 6.871735453605651855e-01 2.019692659378051758e-01
2.139378190040588379e-01 -6.576270610094070435e-02 3.213093578815460205e-01
2.014038562774658203e-01 -6.182372197508811951e-02 3.353021144866943359e-01
2.204453051090240479e-01 -5.627888068556785583e-02 3.323208987712860107e-01
2.084766030311584473e-01 -5.342055112123489380e-02 3.451038300991058350e-01
2.770021855831146240e-01 5.944449901580810547e-01 3.108915984630584717e-01
2.703199088573455811e-01 5.911500453948974609e-01 3.204690814018249512e-01
2.876215279102325439e-01 5.770000219345092773e-01 3.197916448116302490e-01
2.811160683631896973e-01 5.725840926170349121e-01 3.295423090457916260e-01
-1.390810906887054443e-01 -3.445065617561340332e-01 -4.119158089160919189e-01
-1.502473801374435425e-01 -3.377139270305633545e-01 -4.103651344776153564e-01
-1.276768445968627930e-01 -3.370342254638671875e-01 -3.998547196388244629e-01
-1.420934051275253296e-01 -3.204348087310791016e-01 -3.922152817249298096e-01
2.323358654975891113e-01 1.487189233303070068e-01 -3.331604599952697754e-01
2.240062952041625977e-01 1.345397979021072388e-01 -3.321425914764404297e-01
2.471069693565368652e-01 1.389444470405578613e-01 -3.237699568271636963e-01
2.386837154626846313e-01 1.221293061971664429e-01 -3.227239847183227539e-01
-1.620112061500549316e-01 2.901540100574493408e-01 3.324811458587646484e-01
-1.632250696420669556e-01 2.736786007881164551e-01 3.265990614891052246e-01
-1.479050219058990479e-01 2.964774966239929199e-01 3.426124453544616699e-01
-1.489337980747222900e-01 2.801238298416137695e-01 3.368681967258453369e-01
-1.970762610435485840e-01 -7.922984957695007324e-01 -8.234810829162597656e-02
-2.080308049917221069e-01 -7.912279963493347168e-01 -6.983523070812225342e-02
-1.865844577550888062e-01 -7.937760949134826660e-01 -6.590268760919570923e-02
-1.977442800998687744e-01 -7.928602099418640137e-01 -5.311476811766624451e-02
-5.836173892021179199e-02 -6.455111503601074219e-01 -3.681707680225372314e-01
-6.849524378776550293e-02 -6.582222580909729004e-01 -3.645533621311187744e-01
-4.388226568698883057e-02 -6.502516269683837891e-01 -3.572033941745758057e-01
-5.485217645764350891e-02 -6.628923416137695312e-01 -3.550178110599517822e-01
4.940815269947052002e-01 7.524507045745849609e-01 5.753283947706222534e-02
4.880171120166778564e-01 7.328023314476013184e-01 5.748524889349937439e-02
5.139423012733459473e-01 7.483926415443420410e-01 5.383354797959327698e-02
5.085644721984863281e-01 7.284449934959411621e-01 5.396007373929023743e-02
-3.121507465839385986e-01 -7.840302586555480957e-01 -1.696305572986602783e-01
-3.219062387943267822e-01 -7.795831561088562012e-01 -1.562856137752532959e-01
-3.083876967430114746e-01 -7.875037193298339844e-01 -1.530213057994842529e-01
-3.185423016548156738e-01 -7.835839390754699707e-01 -1.394022405147552490e-01
-3.159999251365661621e-01 -7.406441569328308105e-01 -2.520465254783630371e-01
-3.238258659839630127e-01 -7.407112717628479004e-01 -2.396262288093566895e-01
-3.109163939952850342e-01 -7.580435276031494141e-01 -2.381263375282287598e-01
-3.188459575176239014e-01 -7.582543492317199707e-01 -2.257054001092910767e-01
-9.920389205217361450e-02 -2.682786285877227783e-01 -3.288062512874603271e-01
-1.119836419820785522e-01 -2.583145499229431152e-01 -3.198119103908538818e-01
-9.110923856496810913e-02 -2.657172977924346924e-01 -3.092044293880462646e-01
-1.031369790434837341e-01 -2.562854588031768799e-01 -3.006729781627655029e-01
1.660306304693222046e-01 1.512507349252700806e-01 5.226352810859680176e-01
1.507489681243896484e-01 1.476601958274841309e-01 5.298503637313842773e-01
1.878580600023269653e-01 1.480475068092346191e-01 5.171737074851989746e-01
1.741599440574645996e-01 1.402955651283264160e-01 5.234170556068420410e-01
3.434620499610900879e-01 -5.339847505092620850e-02 1.213998273015022278e-01
3.350429534912109375e-01 -6.024294346570968628e-02 1.283268928527832031e-01
3.494888246059417725e-01 -4.629905149340629578e-02 1.373781859874725342e-01
3.408433198928833008e-01 -5.308498814702033997e-02 1.443390548229217529e-01
-3.950622677803039551e-01 2.229802906513214111e-01 -2.508207969367504120e-02
-4.045644700527191162e-01 2.359326779842376709e-01 -1.410130411386489868e-02
-3.893754184246063232e-01 2.132257521152496338e-01 -1.116931997239589691e-02
-3.983192741870880127e-01 2.253219336271286011e-01 7.922134827822446823e-04
5.234680697321891785e-02 -6.751857995986938477e-01 2.747859060764312744e-01
3.788734227418899536e-02 -6.859654784202575684e-01 2.849641144275665283e-01
6.533003598451614380e-02 -6.818177700042724609e-01 2.731762826442718506e-01
5.051200836896896362e-02 -6.917882561683654785e-01 2.840558886528015137e-01
-3.757003545761108398e-01 2.236763387918472290e-01 -1.183049157261848450e-01
-3.811937272548675537e-01 2.322473227977752686e-01 -1.076201498508453369e-01
-3.735788464546203613e-01 2.155647426843643188e-01 -1.022472679615020752e-01
-3.794747889041900635e-01 2.240061759948730469e-01 -9.206914156675338745e-02
-2.970294058322906494e-01 6.032188534736633301e-01 2.645545080304145813e-02
-3.049189448356628418e-01 5.928084254264831543e-01 3.264882415533065796e-02
-2.844282686710357666e-01 6.047952771186828613e-01 3.656697273254394531e-02
-2.927344739437103271e-01 5.948762297630310059e-01 4.237595200538635254e-02
-3.084006905555725098e-01 1.370615065097808838e-01 7.186485826969146729e-02
-3.153864443302154541e-01 1.502131521701812744e-01 7.974931597709655762e-02
-3.033614158630371094e-01 1.346451342105865479e-01 8.955094963312149048e-02
-3.104352355003356934e-01 1.487346887588500977e-01 9.801610559225082397e-02
1.475400477647781372e-01 7.221335172653198242e-01 -3.063713572919368744e-02
1.350558400154113770e-01 7.241942286491394043e-01 -2.273769304156303406e-02
1.581866294145584106e-01 7.233750224113464355e-01 -1.558510586619377136e-02
1.463142186403274536e-01 7.252237796783447266e-01 -7.223671767860651016e-03
-2.888831198215484619e-01 5.726679563522338867e-01 5.596164986491203308e-02
-2.967907190322875977e-01 5.610005855560302734e-01 5.999946221709251404e-02
-2.742996513843536377e-01 5.737074613571166992e-01 6.569077074527740479e-02
-2.820580303668975830e-01 5.633192062377929688e-01 7.037881761789321899e-02
5.016061663627624512e-01 2.765021920204162598e-01 1.000096350908279419e-01
5.011324286460876465e-01 2.609917819499969482e-01 1.046567335724830627e-01
5.023955702781677246e-01 2.819537520408630371e-01 1.148117035627365112e-01
5.015212893486022949e-01 2.685229182243347168e-01 1.198335066437721252e-01
-3.161112666130065918e-01 3.566222190856933594e-01 1.625748574733734131e-01
-3.149605989456176758e-01 3.394519686698913574e-01 1.721030771732330322e-01
-3.112868070602416992e-01 3.553023338317871094e-01 1.788861900568008423e-01
-3.097889423370361328e-01 3.378921449184417725e-01 1.881988346576690674e-01
-8.817208558320999146e-02 1.254655271768569946e-01 4.594076275825500488e-01
-9.125387668609619141e-02 1.024587899446487427e-01 4.465086758136749268e-01
-7.475581020116806030e-02 1.400875151157379150e-01 4.759550094604492188e-01
-7.743005454540252686e-02 1.158262789249420166e-01 4.628312289714813232e-01
2.670487761497497559e-01 -4.813592880964279175e-02 -1.230498328804969788e-01
2.575451135635375977e-01 -5.697931349277496338e-02 -1.162251457571983337e-01
2.773252427577972412e-01 -5.066504701972007751e-02 -1.084714382886886597e-01
2.681957185268402100e-01 -5.968252569437026978e-02 -1.015743762254714966e-01
3.881190121173858643e-01 4.850928187370300293e-01 2.986855208873748779e-01
3.790356814861297607e-01 4.825768470764160156e-01 3.103224635124206543e-01
3.880350291728973389e-01 4.665433168411254883e-01 3.066667020320892334e-01
3.784892857074737549e-01 4.644638001918792725e-01 3.186471164226531982e-01
-3.049546182155609131e-01 1.086911279708147049e-02 -1.877257674932479858e-01
-3.196930885314941406e-01 2.276953309774398804e-02 -1.832658797502517700e-01
-2.967582345008850098e-01 2.139046229422092438e-02 -1.778466552495956421e-01
-3.110212981700897217e-01 3.331892937421798706e-02 -1.723763942718505859e-01
4.441060125827789307e-01 8.310061693191528320e-01 7.012224197387695312e-02
4.322040677070617676e-01 8.160719275474548340e-01 7.661119848489761353e-02
4.629682302474975586e-01 8.328391313552856445e-01 6.814779341220855713e-02
4.504293203353881836e-01 8.162097334861755371e-01 7.444037497043609619e-02
4.566989839076995850e-01 4.857492744922637939e-01 1.536629945039749146e-01
4.491561949253082275e-01 4.859820604324340820e-01 1.650646775960922241e-01
4.558679163455963135e-01 4.706261456012725830e-01 1.659519970417022705e-01
4.476485848426818848e-01 4.723284244537353516e-01 1.773075312376022339e-01
5.592076778411865234e-01 7.033351659774780273e-01 4.420558363199234009e-02
5.595895648002624512e-01 6.889736056327819824e-01 4.506517574191093445e-02
5.582913756370544434e-01 7.021328806877136230e-01 5.641541257500648499e-02
5.588098764419555664e-01 6.875488162040710449e-01 5.742063373327255249e-02
5.411987006664276123e-02 -7.664103507995605469e-01 -2.776812911033630371e-01
4.134630039334297180e-02 -7.746356725692749023e-01 -2.735948264598846436e-01
6.742645800113677979e-02 -7.744995951652526855e-01 -2.673058211803436279e-01
5.465704947710037231e-02 -7.821773886680603027e-01 -2.634716331958770752e-01
-2.927991151809692383e-01 -7.533707618713378906e-01 1.282084584236145020e-01
-2.993187010288238525e-01 -7.522914409637451172e-01 1.290060579776763916e-01
-2.780549228191375732e-01 -7.580152750015258789e-01 1.463098376989364624e-01
-2.872520387172698975e-01 -7.505027651786804199e-01 1.515473276376724243e-01
1.585759222507476807e-01 -4.348868429660797119e-01 3.209440708160400391e-01
1.431849747896194458e-01 -4.287385642528533936e-01 3.316756784915924072e-01
1.717904508113861084e-01 -4.198015928268432617e-01 3.237320482730865479e-01
1.561205387115478516e-01 -4.150753021240234375e-01 3.343410491943359375e-01
-2.206008732318878174e-01 2.246135286986827850e-02 -2.344208583235740662e-02
-2.292245328426361084e-01 2.657133899629116058e-02 -9.299512952566146851e-03
-2.161898314952850342e-01 1.664960756897926331e-02 -1.096128299832344055e-02
-2.250211387872695923e-01 2.095024473965167999e-02 3.866578452289104462e-03
-3.962364196777343750e-01 2.039948478341102600e-03 -2.704510986804962158e-01
-4.048389792442321777e-01 -1.177565939724445343e-02 -2.640989124774932861e-01
-3.877701461315155029e-01 9.661146439611911774e-03 -2.594342827796936035e-01
-3.961988687515258789e-01 -4.166791215538978577e-03 -2.535930871963500977e-01
-1.018546745181083679e-01 -6.471753716468811035e-01 -3.824441730976104736e-01
-1.109130904078483582e-01 -6.586761474609375000e-01 -3.773620724678039551e-01
-8.781218528747558594e-02 -6.571106314659118652e-01 -3.732875883579254150e-01
-9.617578238248825073e-02 -6.693186163902282715e-01 -3.685660958290100098e-01
