1.640520691871643066e-01 -3.737242519855499268e-01 4.578745663166046143e-01
1.454069614410400391e-01 -3.777578473091125488e-01 4.731056988239288330e-01
1.719001233577728271e-01 -3.552786111831665039e-01 4.735909700393676758e-01
1.531683206558227539e-01 -3.579956293106079102e-01 4.893821477890014648e-01
1.815973669290542603e-01 -5.167888402938842773e-01 -2.993424832820892334e-01
1.721208393573760986e-01 -5.377866625785827637e-01 -2.897405922412872314e-01
1.972944140434265137e-01 -5.170763134956359863e-01 -2.859904468059539795e-01
1.877513378858566284e-01 -5.372267961502075195e-01 -2.767148613929748535e-01
-3.191864788532257080e-01 -3.393794000148773193e-01 3.395451307296752930e-01
-3.346673548221588135e-01 -3.239805102348327637e-01 3.374276459217071533e-01
-2.998241484165191650e-01 -3.399411439895629883e-01 3.631775379180908203e-01
-3.157964646816253662e-01 -3.229859173297882080e-01 3.614366352558135986e-01
-1.678623557090759277e-01 -4.872763752937316895e-01 3.430803120136260986e-01
-1.789068281650543213e-01 -4.754777252674102783e-01 3.431256413459777832e-01
-1.577700078487396240e-01 -4.856238365173339844e-01 3.578049242496490479e-01
-1.685060858726501465e-01 -4.745139181613922119e-01 3.576950132846832275e-01
-3.208305537700653076e-01 4.164370894432067871e-01 2.634534537792205811e-01
-3.310119509696960449e-01 4.030641615390777588e-01 2.699987888336181641e-01
-3.048142194747924805e-01 4.150034487247467041e-01 2.802348732948303223e-01
-3.149038553237915039e-01 4.011838436126708984e-01 2.869879901409149170e-01
2.548360265791416168e-02 9.368083477020263672e-01 2.550924755632877350e-02
1.714473590254783630e-02 9.368546605110168457e-01 3.772099688649177551e-02
3.589036688208580017e-02 9.254081249237060547e-01 3.619625046849250793e-02
2.807006239891052246e-02 9.254640340805053711e-01 4.917039722204208374e-02
-3.929798677563667297e-02 -2.242278754711151123e-01 -7.437262535095214844e-01
-4.667588323354721069e-02 -2.292697131633758545e-01 -7.301427721977233887e-01
-2.860803529620170593e-02 -2.328691780567169189e-01 -7.320587038993835449e-01
-3.574780002236366272e-02 -2.382899224758148193e-01 -7.192568778991699219e-01
-7.621874809265136719e-01 4.122960940003395081e-02 -1.920420825481414795e-01
-7.805368304252624512e-01 4.414580762386322021e-02 -1.764196753501892090e-01
-7.622202634811401367e-01 5.057588219642639160e-02 -1.816875934600830078e-01
-7.799830436706542969e-01 5.328383669257164001e-02 -1.669162213802337646e-01
5.237624645233154297e-01 1.480713486671447754e-01 -3.275324702262878418e-01
5.106949806213378906e-01 1.630977839231491089e-01 -3.266392946243286133e-01
5.337767601013183594e-01 1.597959697246551514e-01 -3.054009675979614258e-01
5.203019976615905762e-01 1.760098785161972046e-01 -3.045308291912078857e-01
5.191817879676818848e-01 -1.268439143896102905e-01 -3.555824756622314453e-01
5.109797120094299316e-01 -1.404410004615783691e-01 -3.471134305000305176e-01
5.281484723091125488e-01 -1.363507211208343506e-01 -3.397178351879119873e-01
5.201668739318847656e-01 -1.496447622776031494e-01 -3.311163783073425293e-01
-9.148303270339965820e-01 -7.410985231399536133e-02 -2.379387244582176208e-02
-9.270720481872558594e-01 -6.520175188779830933e-02 -1.029778737574815750e-02
-9.087926149368286133e-01 -8.341196179389953613e-02 -9.430512785911560059e-03
-9.214990139007568359e-01 -7.162458449602127075e-02 1.833950635045766830e-03
3.509017527103424072e-01 3.212682604789733887e-01 -3.292839825153350830e-01
3.394536972045898438e-01 3.298467695713043213e-01 -3.327499926090240479e-01
3.614085316658020020e-01 3.251965939998626709e-01 -3.112435340881347656e-01
3.501700758934020996e-01 3.338178694248199463e-01 -3.144543766975402832e-01
-7.015595436096191406e-01 -2.867014408111572266e-01 -2.663407102227210999e-02
-7.195473909378051758e-01 -2.776007056236267090e-01 -7.298265583813190460e-03
-6.877225637435913086e-01 -2.986361384391784668e-01 -2.255111001431941986e-03
-7.045935392379760742e-01 -2.901803553104400635e-01 1.687533408403396606e-02
3.566325455904006958e-02 -9.412199258804321289e-01 -2.945081889629364014e-02
2.168979868292808533e-02 -9.457172751426696777e-01 -1.692427881062030792e-02
4.584775865077972412e-02 -9.469190239906311035e-01 -1.079476997256278992e-02
3.264998644590377808e-02 -9.505799412727355957e-01 1.131586264818906784e-03
1.970361024141311646e-01 1.074370276182889938e-02 -7.947926521301269531e-01
1.936334669589996338e-01 -1.194949075579643250e-02 -7.965142130851745605e-01
2.130084037780761719e-01 1.125655882060527802e-02 -7.841711640357971191e-01
2.077668011188507080e-01 -8.338013663887977600e-03 -7.843598127365112305e-01
-6.765615940093994141e-02 -6.825811266899108887e-01 -2.528930008411407471e-01
-8.040133863687515259e-02 -6.829131841659545898e-01 -2.385182976722717285e-01
-5.958956107497215271e-02 -6.942706108093261719e-01 -2.451861351728439331e-01
-7.307565957307815552e-02 -6.943629384040832520e-01 -2.301776409149169922e-01
9.539481252431869507e-02 -8.617215752601623535e-01 4.144466295838356018e-02
8.315539360046386719e-02 -8.683443069458007812e-01 4.661364108324050903e-02
9.946702420711517334e-02 -8.470366001129150391e-01 5.345311760902404785e-02
8.734198659658432007e-02 -8.537877798080444336e-01 5.835071578621864319e-02
3.994693607091903687e-02 5.659412741661071777e-01 3.929600417613983154e-01
3.111296333372592926e-02 5.584083795547485352e-01 4.019765853881835938e-01
4.949029162526130676e-02 5.511342287063598633e-01 4.035711288452148438e-01
4.052395001053810120e-02 5.415752530097961426e-01 4.179614782333374023e-01
-6.560172438621520996e-01 6.048365682363510132e-02 -2.825801372528076172e-01
-6.730166673660278320e-01 5.783707648515701294e-02 -2.717741131782531738e-01
-6.528484821319580078e-01 7.668001949787139893e-02 -2.654749155044555664e-01
-6.704794168472290039e-01 7.389733940362930298e-02 -2.550231516361236572e-01
-4.549326375126838684e-02 -2.101261764764785767e-01 -7.508698105812072754e-01
-5.282977223396301270e-02 -2.152162045240402222e-01 -7.377154827117919922e-01
-3.268527239561080933e-02 -2.236039489507675171e-01 -7.411608695983886719e-01
-3.995792195200920105e-02 -2.288300096988677979e-01 -7.281499505043029785e-01
-2.852730751037597656e-01 -3.794432878494262695e-01 3.361073136329650879e-01
-2.990312576293945312e-01 -3.650969564914703369e-01 3.355534672737121582e-01
-2.698584198951721191e-01 -3.712396919727325439e-01 3.636770844459533691e-01
-2.842817008495330811e-01 -3.555558621883392334e-01 3.634871840476989746e-01
3.422803580760955811e-01 -6.565765142440795898e-01 -1.191600598394870758e-02
3.334110975265502930e-01 -6.688714027404785156e-01 -3.158920677378773689e-03
3.395184576511383057e-01 -6.495225429534912109e-01 9.883690625429153442e-03
3.303925693035125732e-01 -6.618983149528503418e-01 1.836474612355232239e-02
1.212702095508575439e-01 7.680828571319580078e-01 -1.114867925643920898e-01
1.067102774977684021e-01 7.863366603851318359e-01 -1.068083271384239197e-01
1.306411921977996826e-01 7.880460023880004883e-01 -8.497031033039093018e-02
1.164842173457145691e-01 8.055008649826049805e-01 -7.990857213735580444e-02
-4.872227907180786133e-01 4.255809187889099121e-01 8.781830966472625732e-02
-4.956565499305725098e-01 4.075518250465393066e-01 9.757002443075180054e-02
-4.704103767871856689e-01 4.198034405708312988e-01 1.117370352149009705e-01
-4.789430499076843262e-01 4.019607901573181152e-01 1.209227740764617920e-01
7.258327603340148926e-01 -1.592767685651779175e-01 -1.134204939007759094e-01
7.135418057441711426e-01 -1.719581931829452515e-01 -1.082453876733779907e-01
7.442646622657775879e-01 -1.553274989128112793e-01 -1.013528108596801758e-01
7.329644560813903809e-01 -1.685026139020919800e-01 -9.636788070201873779e-02
6.739727854728698730e-01 -1.041566208004951477e-01 -2.227676808834075928e-01
6.651997566223144531e-01 -1.151770576834678650e-01 -2.167217582464218140e-01
6.869099140167236328e-01 -1.072529330849647522e-01 -2.079500854015350342e-01
6.779316067695617676e-01 -1.184246018528938293e-01 -2.015600502490997314e-01
3.762458264827728271e-01 4.564994871616363525e-01 1.642676591873168945e-01
3.651029467582702637e-01 4.533096849918365479e-01 1.769771277904510498e-01
3.844775557518005371e-01 4.444127380847930908e-01 1.728276908397674561e-01
3.735199570655822754e-01 4.403290152549743652e-01 1.861377805471420288e-01
-1.617846041917800903e-01 7.507767081260681152e-01 8.700982481241226196e-02
-1.746391505002975464e-01 7.345427274703979492e-01 9.168639034032821655e-02
-1.456910371780395508e-01 7.512485384941101074e-01 1.004515066742897034e-01
-1.586220860481262207e-01 7.368023395538330078e-01 1.056075915694236755e-01
-1.454806420952081680e-03 -5.600617527961730957e-01 -4.377183914184570312e-01
-1.170126534998416901e-02 -5.652272701263427734e-01 -4.263807237148284912e-01
6.445673294365406036e-03 -5.678638815879821777e-01 -4.323909580707550049e-01
-5.296975374221801758e-03 -5.748378634452819824e-01 -4.212988018989562988e-01
2.853171229362487793e-01 2.424236685037612915e-01 -4.733347296714782715e-01
2.738191783428192139e-01 2.534891664981842041e-01 -4.758503139019012451e-01
2.995986640453338623e-01 2.412253767251968384e-01 -4.554360508918762207e-01
2.878925800323486328e-01 2.535358071327209473e-01 -4.570622146129608154e-01
-2.517092227935791016e-01 -7.140145301818847656e-01 1.672654598951339722e-02
-2.669488787651062012e-01 -6.977490782737731934e-01 3.391960263252258301e-02
-2.406036555767059326e-01 -7.184683680534362793e-01 3.920407593250274658e-02
-2.567367851734161377e-01 -6.968678832054138184e-01 5.450614169239997864e-02
8.622763305902481079e-02 -1.240735799074172974e-01 -7.886259555816650391e-01
7.558060437440872192e-02 -1.340631097555160522e-01 -7.843928337097167969e-01
9.907602518796920776e-02 -1.274845451116561890e-01 -7.776610851287841797e-01
8.863316476345062256e-02 -1.380538791418075562e-01 -7.733217477798461914e-01
6.633199453353881836e-01 -9.038481116294860840e-02 2.460621893405914307e-01
6.457929611206054688e-01 -9.691411256790161133e-02 2.531414031982421875e-01
6.676936745643615723e-01 -7.227981090545654297e-02 2.609179615974426270e-01
6.502271294593811035e-01 -7.783356308937072754e-02 2.682211995124816895e-01
3.309112787246704102e-01 1.245926395058631897e-01 5.485799908638000488e-01
3.208680152893066406e-01 1.191941872239112854e-01 5.623165965080261230e-01
3.373265266418457031e-01 1.015914082527160645e-01 5.582600831985473633e-01
3.265093266963958740e-01 9.620662778615951538e-02 5.718097090721130371e-01
1.728411316871643066e-01 2.121909409761428833e-01 -6.164070963859558105e-01
1.610847264528274536e-01 2.275654375553131104e-01 -6.155601739883422852e-01
1.787892729043960571e-01 2.217512130737304688e-01 -5.978158116340637207e-01
1.664223670959472656e-01 2.375435531139373779e-01 -5.964648127555847168e-01
-4.754550755023956299e-01 -1.720663607120513916e-01 -3.535644114017486572e-01
-4.867123365402221680e-01 -1.723690330982208252e-01 -3.422227203845977783e-01
-4.695069789886474609e-01 -1.865581870079040527e-01 -3.445390760898590088e-01
-4.809431731700897217e-01 -1.869890689849853516e-01 -3.329706490039825439e-01
-9.132466465234756470e-02 8.873273134231567383e-01 -2.731110900640487671e-02
-1.022232696413993835e-01 8.762127757072448730e-01 -1.793804392218589783e-02
-8.680167794227600098e-02 8.971419930458068848e-01 -1.419503055512905121e-02
-9.704222530126571655e-02 8.874843716621398926e-01 -4.936873912811279297e-03
2.490595541894435883e-02 -8.756250143051147461e-01 -1.030315905809402466e-01
1.666527241468429565e-02 -8.850440979003906250e-01 -9.215330332517623901e-02
3.203161805868148804e-02 -8.854748606681823730e-01 -9.298484772443771362e-02
2.453201077878475189e-02 -8.952215313911437988e-01 -8.250121772289276123e-02
-3.273089826107025146e-01 -2.890110909938812256e-01 -3.827814459800720215e-01
-3.388005793094635010e-01 -3.014245331287384033e-01 -3.639976680278778076e-01
-3.186934888362884521e-01 -3.097670078277587891e-01 -3.709709942340850830e-01
-3.301311135292053223e-01 -3.212343752384185791e-01 -3.524952530860900879e-01
4.559330344200134277e-01 2.888591885566711426e-01 -2.548276185989379883e-01
4.457250833511352539e-01 3.074510991573333740e-01 -2.485752254724502563e-01
4.607483446598052979e-01 3.028489947319030762e-01 -2.333694398403167725e-01
4.501229524612426758e-01 3.218176662921905518e-01 -2.269848883152008057e-01
3.688442707061767578e-01 -3.092775121331214905e-02 -6.030915975570678711e-01
3.523106873035430908e-01 -4.929336160421371460e-02 -5.978151559829711914e-01
3.873645663261413574e-01 -2.967944368720054626e-02 -5.841673016548156738e-01
3.710876703262329102e-01 -4.811063781380653381e-02 -5.793633460998535156e-01
-2.230044305324554443e-01 6.217138767242431641e-01 1.533674299716949463e-01
-2.315715551376342773e-01 6.071264147758483887e-01 1.574902832508087158e-01
-2.074793279170989990e-01 6.275050044059753418e-01 1.681969910860061646e-01
-2.165814489126205444e-01 6.130425333976745605e-01 1.720806807279586792e-01
-2.177547365427017212e-01 5.005787611007690430e-01 2.843993306159973145e-01
-2.219416648149490356e-01 4.866458773612976074e-01 2.905096113681793213e-01
-2.021435201168060303e-01 4.966394603252410889e-01 3.019807040691375732e-01
-2.088685780763626099e-01 4.824510514736175537e-01 3.089313507080078125e-01
6.684069037437438965e-01 -2.171877771615982056e-01 1.109373569488525391e-01
6.484342813491821289e-01 -2.250936180353164673e-01 1.183026283979415894e-01
6.722093820571899414e-01 -1.991626471281051636e-01 1.301850229501724243e-01
6.529015898704528809e-01 -2.053587734699249268e-01 1.390078216791152954e-01
-1.417304575443267822e-01 3.557574748992919922e-01 -5.009481906890869141e-01
-1.607570499181747437e-01 3.507962226867675781e-01 -4.919631481170654297e-01
-1.386819779872894287e-01 3.726087212562561035e-01 -4.837234914302825928e-01
-1.582719534635543823e-01 3.671546578407287598e-01 -4.754307568073272705e-01
-1.308576613664627075e-01 -2.388325035572052002e-01 -6.281655430793762207e-01
-1.395743340253829956e-01 -2.449541836977005005e-01 -6.149664521217346191e-01
-1.255738735198974609e-01 -2.619099915027618408e-01 -6.160246729850769043e-01
-1.337784528732299805e-01 -2.676810324192047119e-01 -6.037055253982543945e-01
7.756385207176208496e-01 9.748547524213790894e-02 -1.278327852487564087e-01
7.655286788940429688e-01 1.100379526615142822e-01 -1.274834424257278442e-01
7.903753519058227539e-01 9.890524297952651978e-02 -1.077035963535308838e-01
7.797350287437438965e-01 1.105161532759666443e-01 -1.084983870387077332e-01
2.547638118267059326e-01 -8.219488710165023804e-02 6.657088994979858398e-01
2.363628000020980835e-01 -8.569478243589401245e-02 6.779398322105407715e-01
2.575094103813171387e-01 -6.637962907552719116e-02 6.777192950248718262e-01
2.401162981986999512e-01 -7.168250530958175659e-02 6.882521510124206543e-01
-3.327003866434097290e-02 6.975907683372497559e-01 2.708853483200073242e-01
-4.330121353268623352e-02 6.861639618873596191e-01 2.794397175312042236e-01
-1.813222281634807587e-02 6.920998692512512207e-01 2.814003825187683105e-01
-2.892714738845825195e-02 6.813256740570068359e-01 2.907999455928802490e-01
-1.110233664512634277e-01 -5.453513264656066895e-01 -3.488983511924743652e-01
-1.210820451378822327e-01 -5.466490387916564941e-01 -3.351350128650665283e-01
-1.061527281999588013e-01 -5.602925419807434082e-01 -3.378615677356719971e-01
-1.158829852938652039e-01 -5.614030957221984863e-01 -3.246301114559173584e-01
-3.624291121959686279e-01 -2.376456707715988159e-01 -4.001982212066650391e-01
-3.738476634025573730e-01 -2.449268251657485962e-01 -3.850068151950836182e-01
-3.547518849372863770e-01 -2.561822235584259033e-01 -3.898197114467620850e-01
-3.657118380069732666e-01 -2.658886611461639404e-01 -3.734938800334930420e-01
-1.962561160326004028e-01 3.549923300743103027e-01 -4.500501155853271484e-01
-2.119342088699340820e-01 3.585958778858184814e-01 -4.344127178192138672e-01
-1.938560605049133301e-01 3.691132962703704834e-01 -4.318392276763916016e-01
-2.095546573400497437e-01 3.722901046276092529e-01 -4.160848855972290039e-01
5.806072354316711426e-01 2.873964607715606689e-01 1.307499706745147705e-01
5.689843893051147461e-01 2.851337492465972900e-01 1.442641168832778931e-01
5.842457413673400879e-01 2.718135118484497070e-01 1.403638273477554321e-01
5.729009509086608887e-01 2.688600420951843262e-01 1.541049629449844360e-01
-5.259937644004821777e-01 2.810407578945159912e-01 1.934939175844192505e-01
-5.326709747314453125e-01 2.651336789131164551e-01 1.977216005325317383e-01
-5.113474726676940918e-01 2.793974280357360840e-01 2.082502841949462891e-01
-5.185889601707458496e-01 2.627753913402557373e-01 2.135495394468307495e-01
-6.834825873374938965e-01 2.725442945957183838e-01 4.008963704109191895e-02
-6.914266347885131836e-01 2.586396336555480957e-01 4.950414225459098816e-02
-6.727211475372314453e-01 2.767640650272369385e-01 5.287314206361770630e-02
-6.809604763984680176e-01 2.612699270248413086e-01 6.225082650780677795e-02
3.449120521545410156e-01 -5.796899199485778809e-01 7.010024785995483398e-02
3.277348279953002930e-01 -5.919841527938842773e-01 8.303121477365493774e-02
3.547667562961578369e-01 -5.565180778503417969e-01 8.664808422327041626e-02
3.361942172050476074e-01 -5.685151815414428711e-01 1.001181453466415405e-01
-2.417431324720382690e-01 2.366488277912139893e-01 5.258530378341674805e-01
-2.481897026300430298e-01 2.207347005605697632e-01 5.326963663101196289e-01
-2.270450145006179810e-01 2.276753187179565430e-01 5.431658625602722168e-01
-2.341610938310623169e-01 2.112089395523071289e-01 5.504626631736755371e-01
-7.844834029674530029e-02 -5.192936062812805176e-01 4.001921415328979492e-01
-9.286161512136459351e-02 -5.041576623916625977e-01 4.018549025058746338e-01
-6.814952939748764038e-02 -5.116436481475830078e-01 4.184083938598632812e-01
-8.272739499807357788e-02 -4.963994324207305908e-01 4.202122986316680908e-01
-6.554384827613830566e-01 7.970565557479858398e-02 2.691017985343933105e-01
-6.666732430458068848e-01 6.229568645358085632e-02 2.726502418518066406e-01
-6.408743262290954590e-01 7.814070582389831543e-02 2.821569740772247314e-01
-6.497152447700500488e-01 6.275590509176254272e-02 2.850815057754516602e-01
-4.997361004352569580e-01 -5.749278143048286438e-02 4.420289695262908936e-01
-5.146222114562988281e-01 -4.161845520138740540e-02 4.381601512432098389e-01
-4.921984374523162842e-01 -5.361568555235862732e-02 4.590337276458740234e-01
-5.065527558326721191e-01 -3.565744310617446899e-02 4.565425217151641846e-01
7.222347855567932129e-01 1.308747474104166031e-02 -2.616566419601440430e-01
7.208169102668762207e-01 -6.034784950315952301e-03 -2.737599909305572510e-01
7.336196899414062500e-01 2.452830597758293152e-02 -2.459084391593933105e-01
7.320418357849121094e-01 6.585032679140567780e-03 -2.580701708793640137e-01
-3.072334453463554382e-03 1.483718156814575195e-01 8.500332832336425781e-01
-1.347132772207260132e-02 1.384495794773101807e-01 8.572884798049926758e-01
5.851560272276401520e-03 1.370167732238769531e-01 8.622829318046569824e-01
-3.906307276338338852e-03 1.277620494365692139e-01 8.705229163169860840e-01
-1.681968718767166138e-01 6.663368940353393555e-01 -1.634261459112167358e-01
-1.902455687522888184e-01 6.582070589065551758e-01 -1.554843038320541382e-01
-1.642030328512191772e-01 6.813791990280151367e-01 -1.465916484594345093e-01
-1.858363300561904907e-01 6.735795736312866211e-01 -1.384452730417251587e-01
-5.948385000228881836e-01 1.001607701182365417e-01 3.076578378677368164e-01
-6.036993265151977539e-01 8.924856781959533691e-02 3.111444115638732910e-01
-5.819589495658874512e-01 9.935297816991806030e-02 3.192758262157440186e-01
-5.917172431945800781e-01 8.882856369018554688e-02 3.239970207214355469e-01
-2.323059737682342529e-01 6.405282020568847656e-01 1.296612173318862915e-01
-2.402969449758529663e-01 6.256197690963745117e-01 1.352017074823379517e-01
-2.151177674531936646e-01 6.368912458419799805e-01 1.470198631286621094e-01
-2.229444384574890137e-01 6.224288344383239746e-01 1.518683135509490967e-01
-3.555103540420532227e-01 6.382190585136413574e-01 -1.834851503372192383e-02
-3.693152368068695068e-01 6.300438642501831055e-01 -9.828997775912284851e-03
-3.429948389530181885e-01 6.504482626914978027e-01 -1.419644802808761597e-03
-3.558453619480133057e-01 6.416253447532653809e-01 7.803829852491617203e-03
-2.351055592298507690e-01 -4.317351281642913818e-01 3.322652578353881836e-01
-2.478182464838027954e-01 -4.160746932029724121e-01 3.359260261058807373e-01
-2.266981154680252075e-01 -4.242414236068725586e-01 3.509869873523712158e-01
-2.378972470760345459e-01 -4.093208312988281250e-01 3.540871739387512207e-01
-3.372836112976074219e-01 4.622017145156860352e-01 2.016676813364028931e-01
-3.569067120552062988e-01 4.457725584506988525e-01 2.034367322921752930e-01
-3.130574226379394531e-01 4.697997272014617920e-01 2.165353447198867798e-01
-3.317332863807678223e-01 4.535575211048126221e-01 2.186389863491058350e-01
-1.826306581497192383e-01 -4.248124957084655762e-01 3.911378085613250732e-01
-1.937081515789031982e-01 -4.130470156669616699e-01 3.906839191913604736e-01
-1.746938675642013550e-01 -4.222565591335296631e-01 4.054979681968688965e-01
-1.861805170774459839e-01 -4.106577336788177490e-01 4.043277502059936523e-01
3.711805343627929688e-01 5.540845394134521484e-01 7.116216421127319336e-02
3.582706451416015625e-01 5.501794815063476562e-01 8.802822232246398926e-02
3.826948404312133789e-01 5.355405807495117188e-01 8.160245418548583984e-02
3.679783046245574951e-01 5.354779958724975586e-01 9.665638953447341919e-02
-4.522576630115509033e-01 -1.244521364569664001e-01 4.229854643344879150e-01
-4.695303142070770264e-01 -1.093154698610305786e-01 4.208367764949798584e-01
-4.390977919101715088e-01 -1.190295740962028503e-01 4.441733360290527344e-01
-4.565573632717132568e-01 -1.038971319794654846e-01 4.415404796600341797e-01
1.150411665439605713e-01 7.509979009628295898e-01 1.347166448831558228e-01
1.056518033146858215e-01 7.447716593742370605e-01 1.496900320053100586e-01
1.224518865346908569e-01 7.249969244003295898e-01 1.485425829887390137e-01
1.126395761966705322e-01 7.185595631599426270e-01 1.634825170040130615e-01
-1.947665214538574219e-01 -3.112342059612274170e-01 4.960959553718566895e-01
-2.057162970304489136e-01 -2.939152717590332031e-01 4.993551373481750488e-01
-1.835466474294662476e-01 -2.980330884456634521e-01 5.199120044708251953e-01
-1.947103440761566162e-01 -2.836758792400360107e-01 5.210761427879333496e-01
-7.484029531478881836e-01 -1.174686010926961899e-03 -2.449581325054168701e-01
-7.608776688575744629e-01 -8.663245476782321930e-03 -2.301207184791564941e-01
-7.443696856498718262e-01 -1.734374463558197021e-02 -2.392977774143218994e-01
-7.540581226348876953e-01 -2.569406479597091675e-02 -2.249797880649566650e-01
-5.606151223182678223e-01 1.318259984254837036e-01 3.064782321453094482e-01
-5.712428689002990723e-01 1.222112625837326050e-01 3.123494982719421387e-01
-5.432056188583374023e-01 1.305520385503768921e-01 3.194214999675750732e-01
-5.547524690628051758e-01 1.207097396254539490e-01 3.268571197986602783e-01
3.338550776243209839e-02 8.053506612777709961e-01 -1.624388694763183594e-01
1.453547459095716476e-02 8.219035267829895020e-01 -1.502934545278549194e-01
4.145304486155509949e-02 8.226724267005920410e-01 -1.430200189352035522e-01
2.321261912584304810e-02 8.394193053245544434e-01 -1.311970353126525879e-01
-3.713545501232147217e-01 5.030054450035095215e-01 -1.266707032918930054e-01
-3.910772204399108887e-01 4.918500781059265137e-01 -1.219533309340476990e-01
-3.605344295501708984e-01 5.217816829681396484e-01 -1.147231236100196838e-01
-3.799447119235992432e-01 5.109168887138366699e-01 -1.100142151117324829e-01
6.031322479248046875e-01 -1.850041896104812622e-01 -2.106648981571197510e-01
5.973998904228210449e-01 -1.999153792858123779e-01 -2.045273929834365845e-01
6.158463954925537109e-01 -1.843541264533996582e-01 -2.002219557762145996e-01
6.099013686180114746e-01 -1.991616934537887573e-01 -1.939277201890945435e-01
3.593223989009857178e-01 -5.706680417060852051e-01 -7.182326167821884155e-02
3.521720170974731445e-01 -5.831230282783508301e-01 -6.921394169330596924e-02
3.762344121932983398e-01 -5.707282423973083496e-01 -5.493244901299476624e-02
3.687978684902191162e-01 -5.829972624778747559e-01 -5.156881734728813171e-02
-8.657020330429077148e-02 8.421400785446166992e-01 -7.013915479183197021e-02
-1.002179160714149475e-01 8.339088559150695801e-01 -6.556829065084457397e-02
-8.232178539037704468e-02 8.565545082092285156e-01 -5.927156656980514526e-02
-9.639934450387954712e-02 8.484819531440734863e-01 -5.373428761959075928e-02
3.463187254965305328e-03 4.281578063964843750e-01 -5.682967901229858398e-01
-2.020865865051746368e-02 4.290630221366882324e-01 -5.616748332977294922e-01
1.657367497682571411e-02 4.468949735164642334e-01 -5.570799708366394043e-01
-5.644382908940315247e-03 4.491145610809326172e-01 -5.506803393363952637e-01
1.884405314922332764e-02 -9.663443565368652344e-01 1.191995479166507721e-02
3.651683218777179718e-03 -9.626675844192504883e-01 2.006722614169120789e-02
3.322862088680267334e-02 -9.652193784713745117e-01 2.584608644247055054e-02
1.849046349525451660e-02 -9.629805684089660645e-01 3.480040282011032104e-02
-7.497339248657226562e-01 -5.103852227330207825e-02 2.008640766143798828e-01
-7.670120000839233398e-01 -3.432609140872955322e-02 1.960993111133575439e-01
-7.368242740631103516e-01 -4.942549765110015869e-02 2.156540155410766602e-01
-7.541028261184692383e-01 -3.368879854679107666e-02 2.105123102664947510e-01
7.570417970418930054e-02 2.505878210067749023e-01 6.703537106513977051e-01
6.319804489612579346e-02 2.447492331266403198e-01 6.839780807495117188e-01
8.876820653676986694e-02 2.312268316745758057e-01 6.804207563400268555e-01
7.636222243309020996e-02 2.254720628261566162e-01 6.940633654594421387e-01
2.835822999477386475e-01 3.995024859905242920e-01 -3.181827962398529053e-01
2.717252671718597412e-01 4.171450734138488770e-01 -3.144188523292541504e-01
2.898362576961517334e-01 4.071626961231231689e-01 -2.995569109916687012e-01
2.775625586509704590e-01 4.245689809322357178e-01 -2.965926527976989746e-01
-2.163016498088836670e-01 3.919795155525207520e-01 3.947177529335021973e-01
-2.288079261779785156e-01 3.745010197162628174e-01 3.982939124107360840e-01
-1.981356590986251831e-01 3.928080499172210693e-01 4.089848697185516357e-01
-2.080872058868408203e-01 3.770439922809600830e-01 4.142822325229644775e-01
-6.804805397987365723e-01 -2.074486464262008667e-01 -1.145908311009407043e-01
-6.926032900810241699e-01 -2.169763594865798950e-01 -9.616415202617645264e-02
-6.700045466423034668e-01 -2.307655960321426392e-01 -9.991762042045593262e-02
-6.820557117462158203e-01 -2.388249337673187256e-01 -8.274276554584503174e-02
1.000004783272743225e-01 -8.459292650222778320e-01 5.291453003883361816e-02
8.787544071674346924e-02 -8.526804447174072266e-01 5.781212821602821350e-02
1.045008972287178040e-01 -8.315112590789794922e-01 6.369196623563766479e-02
9.205329418182373047e-02 -8.382168412208557129e-01 6.778468936681747437e-02
-3.935423791408538818e-01 2.647545337677001953e-01 3.414688110351562500e-01
-4.019382297992706299e-01 2.476105839014053345e-01 3.469768762588500977e-01
-3.757785558700561523e-01 2.643978297710418701e-01 3.574102520942687988e-01
-3.833876848220825195e-01 2.484212964773178101e-01 3.629961013793945312e-01
4.580974876880645752e-01 -3.903596103191375732e-01 -1.512137651443481445e-01
4.478270411491394043e-01 -4.065969884395599365e-01 -1.478773653507232666e-01
4.705177843570709229e-01 -3.961548507213592529e-01 -1.361836791038513184e-01
4.610113203525543213e-01 -4.134975671768188477e-01 -1.321411728858947754e-01
8.090996146202087402e-01 -1.745105981826782227e-01 1.169384084641933441e-02
7.960968017578125000e-01 -1.819373369216918945e-01 1.717730984091758728e-02
8.135614395141601562e-01 -1.612457484006881714e-01 2.773085795342922211e-02
8.011837601661682129e-01 -1.670699119567871094e-01 3.370182588696479797e-02
-4.538753628730773926e-01 -4.330419003963470459e-01 -1.130554601550102234e-01
-4.639645218849182129e-01 -4.369233548641204834e-01 -9.966574609279632568e-02
-4.482331871986389160e-01 -4.530501365661621094e-01 -1.016474887728691101e-01
-4.584088027477264404e-01 -4.562696516513824463e-01 -8.849829435348510742e-02
3.445572555065155029e-01 3.270822763442993164e-01 -3.306450545787811279e-01
3.331556618213653564e-01 3.358876705169677734e-01 -3.337384760379791260e-01
3.561717867851257324e-01 3.309801220893859863e-01 -3.109466135501861572e-01
3.448259234428405762e-01 3.396232426166534424e-01 -3.140623867511749268e-01
-2.684867084026336670e-01 3.042929172515869141e-01 4.322860538959503174e-01
-2.829944193363189697e-01 2.771250009536743164e-01 4.382458925247192383e-01
-2.486120164394378662e-01 3.072227537631988525e-01 4.467878043651580811e-01
-2.629416882991790771e-01 2.805877625942230225e-01 4.527283608913421631e-01
4.179672896862030029e-02 6.847470998764038086e-01 2.693462967872619629e-01
3.251184150576591492e-02 6.790499091148376465e-01 2.807019948959350586e-01
5.610176920890808105e-02 6.689347028732299805e-01 2.762878835201263428e-01
4.688638448715209961e-02 6.629182696342468262e-01 2.883807718753814697e-01
-1.846831291913986206e-02 5.381976962089538574e-01 -4.411396086215972900e-01
-3.611774370074272156e-02 5.405105352401733398e-01 -4.363457858562469482e-01
-7.695184089243412018e-03 5.546193122863769531e-01 -4.275570809841156006e-01
-2.518607303500175476e-02 5.576027035713195801e-01 -4.240403473377227783e-01
2.210416197776794434e-01 7.314038276672363281e-01 4.610921442508697510e-02
2.131694853305816650e-01 7.262209057807922363e-01 5.807742476463317871e-02
2.291959822177886963e-01 7.113520503044128418e-01 5.714695528149604797e-02
2.207100689411163330e-01 7.059309482574462891e-01 6.905034184455871582e-02
-4.014281034469604492e-01 2.015311568975448608e-01 -3.998228013515472412e-01
-4.246174395084381104e-01 1.970105022192001343e-01 -3.866297304630279541e-01
-3.940249085426330566e-01 2.225797474384307861e-01 -3.786943256855010986e-01
-4.166569709777832031e-01 2.164588272571563721e-01 -3.662573993206024170e-01
-4.270907938480377197e-01 -6.040240451693534851e-02 5.139154195785522461e-01
-4.429542124271392822e-01 -3.904661536216735840e-02 5.117841958999633789e-01
-4.138309359550476074e-01 -5.523858964443206787e-02 5.324434041976928711e-01
-4.299048781394958496e-01 -3.704579547047615051e-02 5.294774174690246582e-01
-1.807574778795242310e-01 5.163337290287017822e-02 7.811679840087890625e-01
-1.854816526174545288e-01 2.582814730703830719e-02 7.813274264335632324e-01
-1.621426492929458618e-01 4.166168719530105591e-02 7.960120439529418945e-01
-1.670212149620056152e-01 1.517406292259693146e-02 7.942517399787902832e-01
2.409976720809936523e-01 -2.471659034490585327e-01 -5.109946131706237793e-01
2.297613471746444702e-01 -2.627706229686737061e-01 -5.079220533370971680e-01
2.590126693248748779e-01 -2.425496727228164673e-01 -4.989042878150939941e-01
2.481184601783752441e-01 -2.573047280311584473e-01 -4.966683089733123779e-01
4.663643538951873779e-01 -8.457265049219131470e-02 4.479372203350067139e-01
4.465996325016021729e-01 -9.293928742408752441e-02 4.582191109657287598e-01
4.756454825401306152e-01 -6.349976360797882080e-02 4.598735570907592773e-01
4.566586613655090332e-01 -7.194720953702926636e-02 4.701874852180480957e-01
7.262590341269969940e-03 -3.967680931091308594e-01 6.039186120033264160e-01
-9.795556776225566864e-03 -3.817228972911834717e-01 6.137234568595886230e-01
1.571922935545444489e-02 -3.758779168128967285e-01 6.211509704589843750e-01
-2.082265913486480713e-03 -3.618346452713012695e-01 6.313572525978088379e-01
-9.712869673967361450e-02 1.408310830593109131e-01 -7.639265060424804688e-01
-1.161397844552993774e-01 1.304494142532348633e-01 -7.571041584014892578e-01
-8.693698048591613770e-02 1.613639295101165771e-01 -7.482396364212036133e-01
-1.064170226454734802e-01 1.496292203664779663e-01 -7.432984709739685059e-01
9.175181388854980469e-01 5.549499765038490295e-02 -4.278982803225517273e-02
9.078376293182373047e-01 7.235903292894363403e-02 -2.975442074239253998e-02
9.233633279800415039e-01 5.418477207422256470e-02 -2.300644852221012115e-02
9.134982228279113770e-01 6.725832074880599976e-02 -1.080720312893390656e-02
-5.216790437698364258e-01 1.386941820383071899e-01 -3.453674316406250000e-01
-5.432397723197937012e-01 1.303028613328933716e-01 -3.359448909759521484e-01
-5.118812322616577148e-01 1.572038978338241577e-01 -3.282851874828338623e-01
-5.335154533386230469e-01 1.482372283935546875e-01 -3.198712170124053955e-01
4.475462436676025391e-02 1.768842637538909912e-01 -7.942436337471008301e-01
2.546927146613597870e-02 1.805831938982009888e-01 -7.896322011947631836e-01
5.378861725330352783e-02 1.911677420139312744e-01 -7.869266271591186523e-01
3.467527031898498535e-02 1.939612329006195068e-01 -7.819724082946777344e-01
-4.553968310356140137e-01 5.473837256431579590e-02 -4.994751214981079102e-01
-4.719130098819732666e-01 4.776831343770027161e-02 -4.855056703090667725e-01
-4.594813287258148193e-01 6.673549115657806396e-02 -4.879912734031677246e-01
-4.763350486755371094e-01 6.284434348344802856e-02 -4.741272330284118652e-01
-5.896199941635131836e-01 -8.069351315498352051e-04 3.998533785343170166e-01
-5.904709696769714355e-01 -2.128219604492187500e-02 3.881120979785919189e-01
-5.755959153175354004e-01 -5.500186234712600708e-04 4.157645106315612793e-01
-5.777978301048278809e-01 -2.059342525899410248e-02 4.066352844238281250e-01
1.777214556932449341e-01 -6.416463851928710938e-01 -1.795162856578826904e-01
1.721919327974319458e-01 -6.537362933158874512e-01 -1.748897880315780640e-01
1.895137876272201538e-01 -6.445938944816589355e-01 -1.666394621133804321e-01
1.838032901287078857e-01 -6.567943096160888672e-01 -1.616971641778945923e-01
4.211150705814361572e-01 1.686755269765853882e-01 4.089249670505523682e-01
4.054504632949829102e-01 1.725635826587677002e-01 4.222513735294342041e-01
4.279235899448394775e-01 1.578303724527359009e-01 4.146147966384887695e-01
4.127452671527862549e-01 1.605361253023147583e-01 4.276545643806457520e-01
5.784887075424194336e-01 -3.105811774730682373e-01 -1.075216904282569885e-01
5.717839598655700684e-01 -3.308178186416625977e-01 -9.565034508705139160e-02
5.950004458427429199e-01 -3.160802721977233887e-01 -8.908543735742568970e-02
5.878561735153198242e-01 -3.350074291229248047e-01 -7.816625386476516724e-02
-1.874548047780990601e-01 -5.562092661857604980e-01 2.550680041313171387e-01
-1.989931464195251465e-01 -5.399248600006103516e-01 2.585141062736511230e-01
-1.758937239646911621e-01 -5.495289564132690430e-01 2.783340215682983398e-01
-1.872716546058654785e-01 -5.357670783996582031e-01 2.797012031078338623e-01
4.687826614826917648e-03 2.335225194692611694e-01 7.652012705802917480e-01
-1.037162356078624725e-02 2.205979973077774048e-01 7.759088277816772461e-01
2.645654231309890747e-02 2.264662981033325195e-01 7.731591463088989258e-01
1.273575797677040100e-02 2.148767411708831787e-01 7.848258614540100098e-01
-2.484739422798156738e-01 6.744791865348815918e-01 7.717444747686386108e-02
-2.585486173629760742e-01 6.593793034553527832e-01 8.453577011823654175e-02
-2.370876073837280273e-01 6.647624969482421875e-01 9.593245387077331543e-02
-2.457118034362792969e-01 6.494613885879516602e-01 1.028278693556785583e-01
8.869619965553283691e-01 5.066562816500663757e-02 -6.909818947315216064e-02
8.779020309448242188e-01 6.892207264900207520e-02 -5.681918188929557800e-02
8.965133428573608398e-01 5.753821134567260742e-02 -4.695774242281913757e-02
8.868948221206665039e-01 7.567840814590454102e-02 -3.358799219131469727e-02
-8.165869712829589844e-01 1.246973522938787937e-03 1.779854744672775269e-01
-8.263592720031738281e-01 -6.584818474948406219e-04 1.747613251209259033e-01
-8.022470474243164062e-01 1.653530634939670563e-04 1.931262910366058350e-01
-8.132188916206359863e-01 9.473261889070272446e-04 1.895379424095153809e-01
7.264901399612426758e-01 -5.220261216163635254e-02 2.241998612880706787e-01
7.065879106521606445e-01 -5.417190864682197571e-02 2.333865612745285034e-01
7.301443219184875488e-01 -3.921571001410484314e-02 2.330088913440704346e-01
7.103006243705749512e-01 -3.367494791746139526e-02 2.475454658269882202e-01
3.029350936412811279e-01 -2.379484921693801880e-01 -4.585915207862854004e-01
2.915575802326202393e-01 -2.533682882785797119e-01 -4.578950107097625732e-01
3.178303837776184082e-01 -2.353392839431762695e-01 -4.469248950481414795e-01
3.070448935031890869e-01 -2.515021264553070068e-01 -4.458204507827758789e-01
8.766318112611770630e-02 -7.651095986366271973e-01 1.512648314237594604e-01
6.822206079959869385e-02 -7.655110359191894531e-01 1.581652909517288208e-01
9.268625825643539429e-02 -7.449315190315246582e-01 1.645036488771438599e-01
7.303080707788467407e-02 -7.469610571861267090e-01 1.735016703605651855e-01
2.949908673763275146e-01 6.251177787780761719e-01 8.387380838394165039e-02
2.815047204494476318e-01 6.121246814727783203e-01 1.048132404685020447e-01
3.030065596103668213e-01 6.034247875213623047e-01 9.688501805067062378e-02
2.882010042667388916e-01 5.880291461944580078e-01 1.201905533671379089e-01
-7.316626906394958496e-01 2.241440117359161377e-01 -4.803393036127090454e-02
-7.455232739448547363e-01 2.214628010988235474e-01 -3.470603004097938538e-02
-7.298132181167602539e-01 2.402062416076660156e-01 -3.032606281340122223e-02
-7.426525950431823730e-01 2.363420277833938599e-01 -1.817236468195915222e-02
-4.093051329255104065e-02 5.649906992912292480e-01 3.977861404418945312e-01
-4.692188277840614319e-02 5.527362227439880371e-01 4.047604203224182129e-01
-2.668013423681259155e-02 5.569730401039123535e-01 4.122261404991149902e-01
-3.210245445370674133e-02 5.441798567771911621e-01 4.192011952400207520e-01
2.390595823526382446e-01 5.597408413887023926e-01 -2.010831534862518311e-01
2.261461168527603149e-01 5.765125155448913574e-01 -1.985529214143753052e-01
2.508812546730041504e-01 5.664124488830566406e-01 -1.810081899166107178e-01
2.373890727758407593e-01 5.821403861045837402e-01 -1.800127327442169189e-01
-3.850315809249877930e-01 4.044848680496215820e-01 2.104964256286621094e-01
-3.978571593761444092e-01 3.890138566493988037e-01 2.142643332481384277e-01
-3.663460016250610352e-01 4.016224145889282227e-01 2.306035757064819336e-01
-3.783584237098693848e-01 3.862119019031524658e-01 2.352495342493057251e-01
-4.048901796340942383e-01 -2.539589405059814453e-01 -3.451782763004302979e-01
-4.156051576137542725e-01 -2.591049373149871826e-01 -3.312442898750305176e-01
-3.951775133609771729e-01 -2.700294554233551025e-01 -3.331711590290069580e-01
-4.060342013835906982e-01 -2.751917541027069092e-01 -3.197230100631713867e-01
3.429442346096038818e-01 1.195208579301834106e-01 5.401599407196044922e-01
3.330667316913604736e-01 1.142567843198776245e-01 5.539205074310302734e-01
3.507737219333648682e-01 9.611981362104415894e-02 5.500094890594482422e-01
3.402356207370758057e-01 9.059198200702667236e-02 5.634877085685729980e-01
-1.060863286256790161e-01 -1.850884109735488892e-01 -7.092710733413696289e-01
-1.181135550141334534e-01 -1.907569319009780884e-01 -6.923775076866149902e-01
-1.008256673812866211e-01 -2.011517286300659180e-01 -6.985186934471130371e-01
-1.127186790108680725e-01 -2.070477008819580078e-01 -6.821159720420837402e-01
-4.125417768955230713e-02 -7.587334513664245605e-01 -1.995474994182586670e-01
-5.283211171627044678e-02 -7.623066306114196777e-01 -1.865621656179428101e-01
-3.183155134320259094e-02 -7.762281894683837891e-01 -1.913241893053054810e-01
-4.274135455489158630e-02 -7.793204784393310547e-01 -1.789903640747070312e-01
-4.135354161262512207e-01 1.357297152280807495e-01 -4.460023641586303711e-01
-4.355874657630920410e-01 1.325325667858123779e-01 -4.331750273704528809e-01
-4.125497639179229736e-01 1.540350764989852905e-01 -4.277805089950561523e-01
-4.356567561626434326e-01 1.513144671916961670e-01 -4.143995642662048340e-01
-2.020251154899597168e-01 -2.201397269964218140e-01 5.769410729408264160e-01
-2.205413430929183960e-01 -1.938078999519348145e-01 5.828294157981872559e-01
-1.851941645145416260e-01 -2.214971780776977539e-01 5.978611111640930176e-01
-2.034935653209686279e-01 -1.961005032062530518e-01 6.031163930892944336e-01
-9.998214989900588989e-02 3.509059250354766846e-01 5.491897463798522949e-01
-1.137482374906539917e-01 3.363727629184722900e-01 5.506416559219360352e-01
-8.043614774942398071e-02 3.577414453029632568e-01 5.611858367919921875e-01
-9.358648210763931274e-02 3.427382111549377441e-01 5.646063089370727539e-01
-3.348063826560974121e-01 -2.086183726787567139e-01 4.538971483707427979e-01
-3.551840186119079590e-01 -1.879638731479644775e-01 4.541760981082916260e-01
-3.168938159942626953e-01 -2.044921666383743286e-01 4.792916476726531982e-01
-3.375467360019683838e-01 -1.838753968477249146e-01 4.792885184288024902e-01
4.592653214931488037e-01 1.427134275436401367e-01 3.942312300205230713e-01
4.438383877277374268e-01 1.464017629623413086e-01 4.074819386005401611e-01
4.662650525569915771e-01 1.311312764883041382e-01 4.012343287467956543e-01
4.512148201465606689e-01 1.347449272871017456e-01 4.144432544708251953e-01
-2.393855303525924683e-01 -1.062433198094367981e-01 -6.531506776809692383e-01
-2.537174522876739502e-01 -1.064505353569984436e-01 -6.397058963775634766e-01
-2.354814857244491577e-01 -1.223162040114402771e-01 -6.451755762100219727e-01
-2.502950727939605713e-01 -1.227929592132568359e-01 -6.316206455230712891e-01
-2.875224351882934570e-01 4.111773371696472168e-01 -3.024867177009582520e-01
-3.017121255397796631e-01 4.045118689537048340e-01 -2.958469986915588379e-01
-2.812887132167816162e-01 4.319258928298950195e-01 -2.872663736343383789e-01
-2.965349853038787842e-01 4.240197241306304932e-01 -2.805728316307067871e-01
5.991862416267395020e-01 -3.125691711902618408e-01 -8.538412302732467651e-02
5.916827321052551270e-01 -3.311043381690979004e-01 -7.535696029663085938e-02
6.177696585655212402e-01 -3.155595362186431885e-01 -6.841559708118438721e-02
6.082624197006225586e-01 -3.314319252967834473e-01 -6.058184430003166199e-02
-5.080119371414184570e-01 4.114497303962707520e-01 8.126690238714218140e-02
-5.157649517059326172e-01 3.938505053520202637e-01 9.164092689752578735e-02
-4.928567707538604736e-01 4.016194939613342285e-01 1.050558835268020630e-01
-5.009280443191528320e-01 3.838798999786376953e-01 1.148852705955505371e-01
-7.833878397941589355e-01 -1.881652474403381348e-01 2.293577976524829865e-02
-7.969206571578979492e-01 -1.743092089891433716e-01 2.674762532114982605e-02
-7.687817215919494629e-01 -1.913368999958038330e-01 3.702121973037719727e-02
-7.828775644302368164e-01 -1.759104132652282715e-01 4.079004004597663879e-02
2.969658672809600830e-01 -2.734869718551635742e-01 4.275968074798583984e-01
2.762799263000488281e-01 -2.900631129741668701e-01 4.303658008575439453e-01
3.043863773345947266e-01 -2.582209110260009766e-01 4.403266906738281250e-01
2.843917012214660645e-01 -2.733262777328491211e-01 4.438999891281127930e-01
2.641304731369018555e-01 -3.752739131450653076e-01 -3.617871999740600586e-01
2.519534826278686523e-01 -3.913279175758361816e-01 -3.561498224735260010e-01
2.807365953922271729e-01 -3.815573751926422119e-01 -3.435529470443725586e-01
2.679998874664306641e-01 -3.959866166114807129e-01 -3.383399546146392822e-01
3.574671745300292969e-01 2.996918261051177979e-01 -3.422381281852722168e-01
3.456661701202392578e-01 3.092804849147796631e-01 -3.453396260738372803e-01
3.734190464019775391e-01 2.985306978225708008e-01 -3.260737359523773193e-01
3.617267608642578125e-01 3.074922263622283936e-01 -3.294452428817749023e-01
1.362131685018539429e-01 8.373263478279113770e-01 1.534750871360301971e-02
1.261597275733947754e-01 8.377536535263061523e-01 3.128682821989059448e-02
1.436372995376586914e-01 8.232123851776123047e-01 3.119725361466407776e-02
1.337307989597320557e-01 8.225443959236145020e-01 4.556696116924285889e-02
-3.940030336380004883e-01 1.659482568502426147e-01 -4.428843557834625244e-01
-4.165432155132293701e-01 1.640008687973022461e-01 -4.290552139282226562e-01
-3.890462815761566162e-01 1.867375522851943970e-01 -4.217784404754638672e-01
-4.114876091480255127e-01 1.835341900587081909e-01 -4.079689383506774902e-01
3.106418251991271973e-01 -5.316107273101806641e-01 1.572265625000000000e-01
2.888617515563964844e-01 -5.350145101547241211e-01 1.732371002435684204e-01
3.069632351398468018e-01 -5.144570469856262207e-01 1.817258596420288086e-01
2.871996164321899414e-01 -5.134997963905334473e-01 2.006061673164367676e-01
1.082222610712051392e-01 -8.885624408721923828e-01 -6.389010231941938400e-03
9.599738568067550659e-02 -8.993800878524780273e-01 1.069111283868551254e-03
1.175731047987937927e-01 -8.850181102752685547e-01 5.863693542778491974e-03
1.049941480159759521e-01 -8.948607444763183594e-01 1.272577233612537384e-02
1.560991108417510986e-01 6.286526918411254883e-01 2.137130647897720337e-01
1.447992324829101562e-01 6.195713281631469727e-01 2.308372855186462402e-01
1.670705676078796387e-01 6.084922552108764648e-01 2.239039540290832520e-01
1.564615219831466675e-01 5.990993976593017578e-01 2.411725968122482300e-01
-2.954230606555938721e-01 -6.970795989036560059e-01 -4.003385081887245178e-02
-3.097271025180816650e-01 -6.876117587089538574e-01 -2.228469029068946838e-02
-2.870338857173919678e-01 -7.049328088760375977e-01 -1.417370606213808060e-02
-3.019704818725585938e-01 -6.929521560668945312e-01 4.461138509213924408e-03
1.151110082864761353e-01 -5.875675678253173828e-01 -2.981686294078826904e-01
1.028398573398590088e-01 -6.004354953765869141e-01 -2.927616536617279053e-01
1.339928656816482544e-01 -5.805253386497497559e-01 -2.851510643959045410e-01
1.223440989851951599e-01 -5.930328965187072754e-01 -2.790417969226837158e-01
-5.348603129386901855e-01 8.132126182317733765e-03 -4.606919288635253906e-01
-5.530420541763305664e-01 9.364767000079154968e-03 -4.444060325622558594e-01
-5.335563421249389648e-01 6.091129500418901443e-03 -4.534874558448791504e-01
-5.517380833625793457e-01 7.323769852519035339e-03 -4.372015595436096191e-01
-4.009574949741363525e-01 -2.678458392620086670e-01 3.277380466461181641e-01
-4.171701967716217041e-01 -2.540305852890014648e-01 3.228624165058135986e-01
-3.898306787014007568e-01 -2.640412747859954834e-01 3.485585153102874756e-01
-4.053186178207397461e-01 -2.493193298578262329e-01 3.443625569343566895e-01
-1.601638644933700562e-01 -1.216415539383888245e-01 -7.190691232681274414e-01
-1.745979189872741699e-01 -1.247401684522628784e-01 -7.028150558471679688e-01
-1.487567275762557983e-01 -1.443151086568832397e-01 -7.081601023674011230e-01
-1.632963716983795166e-01 -1.473791301250457764e-01 -6.921647787094116211e-01
-2.327411025762557983e-01 -2.708216309547424316e-01 -4.982689023017883301e-01
-2.463148236274719238e-01 -2.719404101371765137e-01 -4.827020466327667236e-01
-2.239394187927246094e-01 -2.890137135982513428e-01 -4.892410635948181152e-01
-2.367007583379745483e-01 -2.912221848964691162e-01 -4.742289483547210693e-01
6.047574281692504883e-01 -2.888848483562469482e-01 -1.045576930046081543e-01
5.970697402954101562e-01 -3.074227571487426758e-01 -9.464512020349502563e-02
6.228999495506286621e-01 -2.947802543640136719e-01 -8.550126105546951294e-02
6.136428713798522949e-01 -3.111771941184997559e-01 -7.745253294706344604e-02
3.544115722179412842e-01 -5.903826951980590820e-01 -5.614767223596572876e-02
3.481208384037017822e-01 -6.030377149581909180e-01 -5.354457721114158630e-02
3.666982054710388184e-01 -5.868782997131347656e-01 -4.271871224045753479e-02
3.602882325649261475e-01 -5.992900729179382324e-01 -3.947813808917999268e-02
-4.904980659484863281e-01 1.740719228982925415e-01 3.396739959716796875e-01
-5.037509799003601074e-01 1.533211469650268555e-01 3.468190431594848633e-01
-4.729024469852447510e-01 1.784895211458206177e-01 3.514154255390167236e-01
-4.857560694217681885e-01 1.589453518390655518e-01 3.574909567832946777e-01
6.448308229446411133e-01 8.289235830307006836e-02 2.722558081150054932e-01
6.332150101661682129e-01 7.816478610038757324e-02 2.852881550788879395e-01
6.549993157386779785e-01 6.579378247261047363e-02 2.814335525035858154e-01
