3.209154680371284485e-02 1.642362922430038452e-01 5.343506336212158203e-01
2.150508202612400055e-02 1.615649312734603882e-01 5.466933846473693848e-01
-1.933769583702087402e-01 -3.521384894847869873e-01 3.927222490310668945e-01
-1.986232250928878784e-01 -3.462717235088348389e-01 4.035326540470123291e-01
-1.907449960708618164e-01 -3.596831858158111572e-01 4.067761600017547607e-01
-1.963359117507934570e-01 -3.542076051235198975e-01 4.173930883407592773e-01
-1.745305210351943970e-01 -1.892012655735015869e-01 -1.111147180199623108e-01
-1.820098459720611572e-01 -1.820285916328430176e-01 -1.000222191214561462e-01
-1.777588427066802979e-01 -1.990751624107360840e-01 -9.710606932640075684e-02
-1.869893521070480347e-01 -1.897368878126144409e-01 -8.451548218727111816e-02
-9.162994474172592163e-02 -3.121824860572814941e-01 -1.275520324707031250e-01
-1.035840064287185669e-01 -3.092397749423980713e-01 -1.153478622436523438e-01
-8.544649183750152588e-02 -3.196659386157989502e-01 -1.189980879426002502e-01
-9.733772277832031250e-02 -3.164152503013610840e-01 -1.064989492297172546e-01
-2.351360619068145752e-01 -2.337316609919071198e-02 4.366337060928344727e-01
-2.384202331304550171e-01 -3.279390186071395874e-02 4.468066990375518799e-01
-2.362802475690841675e-01 -1.528401765972375870e-02 4.512196183204650879e-01
-2.398212254047393799e-01 -2.434817329049110413e-02 4.614934027194976807e-01
1.341875195503234863e-01 -4.329790547490119934e-02 -4.991297125816345215e-01
1.297369152307510376e-01 -5.463796481490135193e-02 -4.962881803512573242e-01
1.468205600976943970e-01 -5.350152403116226196e-02 -4.852538406848907471e-01
1.424573361873626709e-01 -6.444939970970153809e-02 -4.826596081256866455e-01
9.705322980880737305e-02 -7.661303132772445679e-02 9.147145748138427734e-01
8.697488158941268921e-02 -9.303998202085494995e-02 9.247993826866149902e-01
1.118952482938766479e-01 -9.067650884389877319e-02 9.149894714355468750e-01
1.023672521114349365e-01 -1.044875457882881165e-01 9.255601167678833008e-01
-1.236744895577430725e-01 -3.984435796737670898e-01 2.204811722040176392e-01
-1.298824548721313477e-01 -3.961488604545593262e-01 2.324360311031341553e-01
-1.199094131588935852e-01 -4.029102325439453125e-01 2.335593849420547485e-01
-1.264030486345291138e-01 -4.013257920742034912e-01 2.462415993213653564e-01
-1.352757066488265991e-01 1.745176464319229126e-01 1.384576559066772461e-01
-1.410745531320571899e-01 1.692501157522201538e-01 1.470127254724502563e-01
-1.261166930198669434e-01 1.697867512702941895e-01 1.508290916681289673e-01
-1.327702105045318604e-01 1.639921963214874268e-01 1.600001156330108643e-01
-2.159021198749542236e-01 -1.751266717910766602e-01 8.688616156578063965e-01
-2.169739454984664917e-01 -1.905495673418045044e-01 8.627751469612121582e-01
-2.061130553483963013e-01 -1.708128750324249268e-01 8.792933821678161621e-01
-2.074533104896545410e-01 -1.848306953907012939e-01 8.746064305305480957e-01
2.268199026584625244e-01 1.048586443066596985e-01 -4.568327963352203369e-01
2.236121147871017456e-01 8.994358777999877930e-02 -4.574771821498870850e-01
2.373393326997756958e-01 1.069741919636726379e-01 -4.425157606601715088e-01
2.351408898830413818e-01 9.259951859712600708e-02 -4.433519244194030762e-01
-7.197113335132598877e-02 -2.554242312908172607e-01 -2.784196138381958008e-01
-8.141955733299255371e-02 -2.558938264846801758e-01 -2.639136016368865967e-01
-6.584718078374862671e-02 -2.675818204879760742e-01 -2.623147964477539062e-01
-7.639287412166595459e-02 -2.677137255668640137e-01 -2.490440756082534790e-01
2.400567531585693359e-01 -2.128098011016845703e-01 3.657839298248291016e-01
2.378961890935897827e-01 -2.243849635124206543e-01 3.756015300750732422e-01
2.428913265466690063e-01 -2.114789038896560669e-01 3.792326748371124268e-01
2.430745661258697510e-01 -2.244105637073516846e-01 3.918884396553039551e-01
2.247977107763290405e-01 4.062471166253089905e-02 -2.577649056911468506e-02
2.228371500968933105e-01 2.665764652192592621e-02 -2.979968674480915070e-02
2.339125871658325195e-01 3.686409443616867065e-02 -1.612779870629310608e-02
2.314041703939437866e-01 2.319685928523540497e-02 -2.017727307975292206e-02
2.712038755416870117e-01 2.040340006351470947e-01 -5.520791932940483093e-02
2.648357450962066650e-01 1.940380781888961792e-01 -5.273788422346115112e-02
2.830721735954284668e-01 2.011361271142959595e-01 -4.605322703719139099e-02
2.768248319625854492e-01 1.913307458162307739e-01 -4.381812363862991333e-02
2.562763094902038574e-01 -1.752601563930511475e-01 8.145759701728820801e-01
2.501080930233001709e-01 -1.896602809429168701e-01 8.206062912940979004e-01
2.515681982040405273e-01 -1.671919524669647217e-01 8.251610398292541504e-01
2.449072897434234619e-01 -1.821728348731994629e-01 8.318646550178527832e-01
1.256660968065261841e-01 1.818475127220153809e-01 4.215977191925048828e-01
1.174851655960083008e-01 1.728538125753402710e-01 4.263572394847869873e-01
1.394969820976257324e-01 1.852662861347198486e-01 4.253629744052886963e-01
1.339249163866043091e-01 1.708712279796600342e-01 4.274741113185882568e-01
-1.035170927643775940e-01 -1.785228252410888672e-01 -3.999269306659698486e-01
-1.125111877918243408e-01 -1.812057346105575562e-01 -3.903763890266418457e-01
-9.538175165653228760e-02 -1.857326477766036987e-01 -3.882345557212829590e-01
-1.037662029266357422e-01 -1.885671764612197876e-01 -3.785796165466308594e-01
2.031720280647277832e-01 -5.825577303767204285e-03 -5.300998687744140625e-02
2.054075747728347778e-01 -2.011988125741481781e-02 -5.315781012177467346e-02
2.072015255689620972e-01 -2.766604535281658173e-03 -4.202889278531074524e-02
2.087557762861251831e-01 -1.734072342514991760e-02 -4.308109357953071594e-02
-1.430732570588588715e-02 2.663715183734893799e-01 -5.034387707710266113e-01
-2.495826967060565948e-02 2.669015526771545410e-01 -4.979579746723175049e-01
-1.848245039582252502e-03 2.677917480468750000e-01 -4.887909591197967529e-01
-1.240882650017738342e-02 2.682838439941406250e-01 -4.835673570632934570e-01
8.750895410776138306e-02 1.931634098291397095e-01 -7.328358292579650879e-02
8.210378885269165039e-02 1.939425468444824219e-01 -6.151190400123596191e-02
9.532555192708969116e-02 1.885985583066940308e-01 -5.926632136106491089e-02
8.938865363597869873e-02 1.894755959510803223e-01 -4.823188483715057373e-02
2.029015868902206421e-01 -1.863573640584945679e-01 -6.463973969221115112e-02
2.028735280036926270e-01 -2.015097439289093018e-01 -6.075851991772651672e-02
2.117960900068283081e-01 -1.871466934680938721e-01 -5.163735896348953247e-02
2.108077853918075562e-01 -2.022708952426910400e-01 -4.929284378886222839e-02
2.009298801422119141e-01 -5.719786882400512695e-02 -5.263387784361839294e-02
1.997191458940505981e-01 -7.309450954198837280e-02 -5.472199246287345886e-02
2.112038284540176392e-01 -5.864251777529716492e-02 -4.079724848270416260e-02
2.098905444145202637e-01 -7.400517910718917847e-02 -4.299961775541305542e-02
5.485495552420616150e-02 -3.280509412288665771e-01 -1.508619785308837891e-01
4.654667526483535767e-02 -3.339291810989379883e-01 -1.439496874809265137e-01
6.082974746823310852e-02 -3.313906490802764893e-01 -1.374323815107345581e-01
5.402125790715217590e-02 -3.376842439174652100e-01 -1.310778558254241943e-01
-3.575006872415542603e-02 1.955509632825851440e-01 1.895106285810470581e-01
-4.969184473156929016e-02 1.919113099575042725e-01 1.993185728788375854e-01
-2.665309607982635498e-02 1.942081451416015625e-01 2.017757445573806763e-01
-3.939246013760566711e-02 1.915266662836074829e-01 2.124743163585662842e-01
2.827954292297363281e-01 -3.785094991326332092e-02 7.212399840354919434e-01
2.729890346527099609e-01 -3.465155512094497681e-02 7.373769283294677734e-01
2.787179350852966309e-01 -4.336957633495330811e-02 7.421946525573730469e-01
2.704127132892608643e-01 -4.215223342180252075e-02 7.581464648246765137e-01
2.326092272996902466e-01 2.138708233833312988e-01 -3.840329349040985107e-01
2.218842655420303345e-01 2.198812812566757202e-01 -3.757582604885101318e-01
2.395301610231399536e-01 2.080321311950683594e-01 -3.702263534069061279e-01
2.303458750247955322e-01 2.145198136568069458e-01 -3.614281117916107178e-01
4.141090214252471924e-01 -1.195440068840980530e-01 -4.619871675968170166e-01
4.066318273544311523e-01 -1.245382800698280334e-01 -4.549648463726043701e-01
4.236733615398406982e-01 -1.198675706982612610e-01 -4.519129097461700439e-01
4.165289700031280518e-01 -1.255393773317337036e-01 -4.452981054782867432e-01
1.782501302659511566e-02 -2.808592915534973145e-01 9.556795358657836914e-01
1.256909687072038651e-02 -2.923372685909271240e-01 9.552179574966430664e-01
3.190519660711288452e-02 -2.788488268852233887e-01 9.545853137969970703e-01
2.816572599112987518e-02 -2.927620410919189453e-01 9.537720084190368652e-01
-2.885931432247161865e-01 -9.848648309707641602e-02 7.497695684432983398e-01
-2.898975610733032227e-01 -1.094236746430397034e-01 7.567304968833923340e-01
-2.807572484016418457e-01 -9.959825873374938965e-02 7.647337913513183594e-01
-2.815877199172973633e-01 -1.106353402137756348e-01 7.714621424674987793e-01
1.843565702438354492e-01 2.329425662755966187e-01 -2.951583564281463623e-01
1.743399649858474731e-01 2.323824465274810791e-01 -2.835862636566162109e-01
1.904117614030838013e-01 2.223102152347564697e-01 -2.821363210678100586e-01
1.807647794485092163e-01 2.218587845563888550e-01 -2.702283859252929688e-01
1.528814285993576050e-01 -3.612801730632781982e-01 1.609225422143936157e-01
1.453802436590194702e-01 -3.701359331607818604e-01 1.667632758617401123e-01
1.596443504095077515e-01 -3.554264307022094727e-01 1.735508590936660767e-01
1.523451209068298340e-01 -3.640027940273284912e-01 1.794426292181015015e-01
-2.861748933792114258e-01 8.509089052677154541e-02 5.800283551216125488e-01
-2.853544056415557861e-01 6.861456483602523804e-02 5.802606344223022461e-01
-2.878689169883728027e-01 9.474141895771026611e-02 5.967401862144470215e-01
-2.868882119655609131e-01 7.793284207582473755e-02 5.964866876602172852e-01
-2.605542242527008057e-01 -1.369644701480865479e-01 1.272277347743511200e-02
-2.667636573314666748e-01 -1.368109434843063354e-01 2.481182850897312164e-02
-2.647541463375091553e-01 -1.436558365821838379e-01 2.899886108934879303e-02
-2.705689072608947754e-01 -1.438148766756057739e-01 4.102932289242744446e-02
9.425364434719085693e-03 1.092391908168792725e-01 6.874898672103881836e-01
-9.407233446836471558e-04 1.040238887071609497e-01 6.970830559730529785e-01
1.738499291241168976e-02 1.052592918276786804e-01 6.969823241233825684e-01
7.375161629170179367e-03 9.994235634803771973e-02 7.069416642189025879e-01
3.065707087516784668e-01 -1.101210191845893860e-01 5.637807250022888184e-01
3.081475794315338135e-01 -1.212190613150596619e-01 5.685437321662902832e-01
3.095653653144836426e-01 -1.094035878777503967e-01 5.775724649429321289e-01
3.111247420310974121e-01 -1.210347339510917664e-01 5.829388499259948730e-01
1.479866206645965576e-01 2.549364268779754639e-01 -3.420397639274597168e-01
1.372603774070739746e-01 2.559540867805480957e-01 -3.301804661750793457e-01
1.588765680789947510e-01 2.489085048437118530e-01 -3.295817077159881592e-01
1.495061069726943970e-01 2.496264278888702393e-01 -3.171364665031433105e-01
-2.544192373752593994e-01 -1.312609761953353882e-01 2.688238024711608887e-01
-2.539476156234741211e-01 -1.461142301559448242e-01 2.787354588508605957e-01
-2.533445656299591064e-01 -1.347569078207015991e-01 2.865993976593017578e-01
-2.533212900161743164e-01 -1.493656635284423828e-01 2.954972386360168457e-01
-1.519317328929901123e-01 -3.955199122428894043e-01 3.330184221267700195e-01
-1.580065488815307617e-01 -3.932057917118072510e-01 3.452540636062622070e-01
-1.482734829187393188e-01 -3.995943665504455566e-01 3.465816974639892578e-01
-1.542097479104995728e-01 -3.974694907665252686e-01 3.575378954410552979e-01
-1.997362636029720306e-02 6.153485551476478577e-02 7.680373191833496094e-01
-2.410229295492172241e-02 5.453193187713623047e-02 7.798120975494384766e-01
-8.918764069676399231e-03 5.433831736445426941e-02 7.784590721130371094e-01
-1.277031563222408295e-02 4.736805334687232971e-02 7.899772524833679199e-01
2.350187897682189941e-01 -5.410354956984519958e-02 -2.267863005399703979e-01
2.292656600475311279e-01 -6.295100599527359009e-02 -2.212307900190353394e-01
2.314262837171554565e-01 -4.526288807392120361e-02 -2.173463255167007446e-01
2.268311232328414917e-01 -5.458825081586837769e-02 -2.119998484849929810e-01
1.042090877890586853e-01 -4.290365576744079590e-01 3.604251742362976074e-01
9.572519361972808838e-02 -4.343813955783843994e-01 3.685623407363891602e-01
1.138907447457313538e-01 -4.293003678321838379e-01 3.717278540134429932e-01
1.057972759008407593e-01 -4.346680641174316406e-01 3.797995448112487793e-01
-3.779994323849678040e-02 -2.049616351723670959e-02 8.736289143562316895e-01
-4.864733293652534485e-02 -2.781117334961891174e-02 8.809871673583984375e-01
-2.488110214471817017e-02 -2.697820961475372314e-02 8.790419697761535645e-01
-3.542003780603408813e-02 -3.391924127936363220e-02 8.848337531089782715e-01
-1.501050144433975220e-01 -4.189871847629547119e-01 4.393326044082641602e-01
-1.571787148714065552e-01 -4.174812138080596924e-01 4.517628848552703857e-01
-1.450886428356170654e-01 -4.239201843738555908e-01 4.512862563133239746e-01
-1.517206430435180664e-01 -4.229081869125366211e-01 4.640111327171325684e-01
1.641195863485336304e-01 2.121344804763793945e-01 -4.953855872154235840e-01
1.567907333374023438e-01 2.224402725696563721e-01 -4.898334145545959473e-01
1.710850596427917480e-01 2.173667550086975098e-01 -4.849920272827148438e-01
1.641792654991149902e-01 2.276707738637924194e-01 -4.791167974472045898e-01
6.223045289516448975e-02 1.624628156423568726e-01 4.789490997791290283e-01
4.631438478827476501e-02 1.673934161663055420e-01 4.923299849033355713e-01
7.260930538177490234e-02 1.652577817440032959e-01 4.915349781513214111e-01
5.853402614593505859e-02 1.682746857404708862e-01 5.048959851264953613e-01
1.337651759386062622e-01 -4.151130616664886475e-01 3.524611592292785645e-01
1.246828287839889526e-01 -4.224468469619750977e-01 3.593237102031707764e-01
1.422116905450820923e-01 -4.133177399635314941e-01 3.655638694763183594e-01
1.331602931022644043e-01 -4.213840365409851074e-01 3.720110952854156494e-01
2.683968544006347656e-01 -2.355626821517944336e-01 4.740982353687286377e-01
2.685291171073913574e-01 -2.494193911552429199e-01 4.827479422092437744e-01
2.752676010131835938e-01 -2.368920743465423584e-01 4.933157563209533691e-01
2.742483913898468018e-01 -2.511140108108520508e-01 5.006837844848632812e-01
-2.575224041938781738e-01 -2.564081177115440369e-02 2.007149308919906616e-01
-2.584564387798309326e-01 -4.172082990407943726e-02 2.020435482263565063e-01
-2.520014941692352295e-01 -2.206894382834434509e-02 2.160253822803497314e-01
-2.528882324695587158e-01 -3.835544735193252563e-02 2.173853665590286255e-01
2.348988801240921021e-01 -2.365250587463378906e-01 2.205234616994857788e-01
2.291281223297119141e-01 -2.503221929073333740e-01 2.216983288526535034e-01
2.382434904575347900e-01 -2.286351174116134644e-01 2.307405322790145874e-01
2.328548431396484375e-01 -2.404634654521942139e-01 2.328258454799652100e-01
1.111316680908203125e-01 -4.347057342529296875e-01 3.977900445461273193e-01
1.020472794771194458e-01 -4.411942660808563232e-01 4.055823385715484619e-01
1.207397580146789551e-01 -4.324134588241577148e-01 4.092732965946197510e-01
1.110278889536857605e-01 -4.396940767765045166e-01 4.153539538383483887e-01
5.351212993264198303e-02 1.545387357473373413e-01 5.654165148735046387e-01
4.618035256862640381e-02 1.500807106494903564e-01 5.773101449012756348e-01
6.538370996713638306e-02 1.572446823120117188e-01 5.789525508880615234e-01
5.855757370591163635e-02 1.512074023485183716e-01 5.892966985702514648e-01
-8.413508534431457520e-02 -4.081750512123107910e-01 1.682537198066711426e-01
-9.869573265314102173e-02 -4.028778076171875000e-01 1.770613342523574829e-01
-7.007695734500885010e-02 -4.180698692798614502e-01 1.785969436168670654e-01
-8.382887393236160278e-02 -4.131016731262207031e-01 1.873679161071777344e-01
2.200484424829483032e-01 -1.924694627523422241e-01 -3.026640415191650391e-02
2.179670333862304688e-01 -2.069071233272552490e-01 -2.908084541559219360e-02
2.278293818235397339e-01 -1.914917230606079102e-01 -1.863239705562591553e-02
2.253278344869613647e-01 -2.053835391998291016e-01 -1.792585663497447968e-02
2.486349195241928101e-01 -1.876097619533538818e-01 4.064244329929351807e-01
2.505081295967102051e-01 -2.032386362552642822e-01 4.174935221672058105e-01
2.545509338378906250e-01 -1.871446222066879272e-01 4.202552139759063721e-01
2.561378777027130127e-01 -2.040934711694717407e-01 4.292187094688415527e-01
-2.622217833995819092e-01 6.484735757112503052e-02 5.038200020790100098e-01
-2.683983445167541504e-01 6.525252014398574829e-02 5.110396146774291992e-01
-2.632507383823394775e-01 6.032392755150794983e-02 5.112597346305847168e-01
-2.663721144199371338e-01 5.626918002963066101e-02 5.170813202857971191e-01
1.541855633258819580e-01 1.897607445716857910e-01 4.056745171546936035e-01
1.506885439157485962e-01 1.722358763217926025e-01 4.071158766746520996e-01
1.712148040533065796e-01 1.868372410535812378e-01 4.060525298118591309e-01
1.676318347454071045e-01 1.685159057378768921e-01 4.076853394508361816e-01
1.053429208695888519e-02 -4.662384092807769775e-01 4.320704042911529541e-01
-3.490680828690528870e-04 -4.691510796546936035e-01 4.435570836067199707e-01
2.105934545397758484e-02 -4.687792360782623291e-01 4.496779441833496094e-01
8.557160384953022003e-03 -4.717991948127746582e-01 4.595807790756225586e-01
-2.019085139036178589e-01 -3.890469372272491455e-01 5.620301961898803711e-01
-2.077206671237945557e-01 -3.837828934192657471e-01 5.758842229843139648e-01
-1.985164582729339600e-01 -3.915915191173553467e-01 5.777669548988342285e-01
-2.042831331491470337e-01 -3.859463930130004883e-01 5.919312238693237305e-01
1.001472473144531250e-01 -4.097321033477783203e-01 2.273226678371429443e-01
9.380793571472167969e-02 -4.183323085308074951e-01 2.410882115364074707e-01
1.093820184469223022e-01 -4.054435491561889648e-01 2.406363785266876221e-01
1.028997749090194702e-01 -4.141284227371215820e-01 2.528683841228485107e-01
-2.019937932491302490e-01 -3.338213860988616943e-01 3.808334171772003174e-01
-2.073992043733596802e-01 -3.272908627986907959e-01 3.915198445320129395e-01
-2.014709711074829102e-01 -3.401715755462646484e-01 3.953497707843780518e-01
-2.068866342306137085e-01 -3.338811397552490234e-01 4.061003923416137695e-01
2.424892783164978027e-01 -3.395161628723144531e-01 6.493850350379943848e-01
2.323926389217376709e-01 -3.484250605106353760e-01 6.566286087036132812e-01
2.454329431056976318e-01 -3.354577720165252686e-01 6.611087322235107422e-01
2.356867641210556030e-01 -3.440981209278106689e-01 6.683264374732971191e-01
1.742490231990814209e-01 -2.550465464591979980e-01 8.886508345603942871e-01
1.606827080249786377e-01 -2.598441839218139648e-01 9.021708369255065918e-01
1.728071272373199463e-01 -2.407202124595642090e-01 8.981233239173889160e-01
1.592509001493453979e-01 -2.462130635976791382e-01 9.110534787178039551e-01
-2.983812391757965088e-01 -1.161821931600570679e-01 5.344726443290710449e-01
-3.012154400348663330e-01 -1.283210963010787964e-01 5.386080741882324219e-01
-3.024148643016815186e-01 -1.123728007078170776e-01 5.487323999404907227e-01
-3.052379488945007324e-01 -1.242706328630447388e-01 5.539739131927490234e-01
9.945850819349288940e-02 -3.659871518611907959e-01 1.535190967842936516e-03
9.373074769973754883e-02 -3.731191456317901611e-01 5.650279112160205841e-03
1.085778623819351196e-01 -3.645066618919372559e-01 1.274359691888093948e-02
1.024232059717178345e-01 -3.720306456089019775e-01 1.726641133427619934e-02
2.538281977176666260e-01 -1.298376023769378662e-01 3.936319649219512939e-01
2.536257803440093994e-01 -1.416686028242111206e-01 3.976163864135742188e-01
2.535154819488525391e-01 -1.281602680683135986e-01 4.088020622730255127e-01
2.541908621788024902e-01 -1.405807882547378540e-01 4.130035042762756348e-01
1.127269715070724487e-01 2.142837345600128174e-01 -1.792738288640975952e-01
9.928820282220840454e-02 2.168426215648651123e-01 -1.674326807260513306e-01
1.188096627593040466e-01 2.080954611301422119e-01 -1.640219092369079590e-01
1.078438907861709595e-01 2.103548049926757812e-01 -1.518298685550689697e-01
-2.525282204151153564e-01 1.606446355581283569e-01 1.247863471508026123e-01
-2.574219107627868652e-01 1.462692469358444214e-01 1.271317005157470703e-01
-2.416216582059860229e-01 1.643817126750946045e-01 1.363018155097961426e-01
-2.471085637807846069e-01 1.504914909601211548e-01 1.389035731554031372e-01
-2.161314152181148529e-02 4.653425142168998718e-02 7.893290519714355469e-01
-2.595022320747375488e-02 3.941402956843376160e-02 8.004351854324340820e-01
-1.155779138207435608e-02 4.059081524610519409e-02 7.990009188652038574e-01
-1.636255905032157898e-02 3.321678563952445984e-02 8.097242116928100586e-01
1.906681209802627563e-01 7.709658890962600708e-02 3.371115624904632568e-01
1.850635558366775513e-01 8.349075168371200562e-02 3.479236960411071777e-01
1.944795846939086914e-01 6.991337239742279053e-02 3.520864844322204590e-01
1.883834600448608398e-01 7.744020223617553711e-02 3.630371391773223877e-01
-2.784926593303680420e-01 -5.859093368053436279e-02 5.089887380599975586e-01
-2.839924395084381104e-01 -6.785412877798080444e-02 5.185375809669494629e-01
-2.836565673351287842e-01 -5.512108653783798218e-02 5.237436890602111816e-01
-2.889074981212615967e-01 -6.396476179361343384e-02 5.335491895675659180e-01
2.411376982927322388e-01 -2.174278348684310913e-01 3.983620107173919678e-01
2.430295944213867188e-01 -2.319080829620361328e-01 4.127160012722015381e-01
2.455160617828369141e-01 -2.168661504983901978e-01 4.118700623512268066e-01
2.474258095026016235e-01 -2.318592220544815063e-01 4.262505769729614258e-01
2.182808816432952881e-01 5.611297488212585449e-02 2.539972364902496338e-01
2.128141373395919800e-01 5.945561081171035767e-02 2.632226645946502686e-01
2.181901782751083374e-01 4.831241816282272339e-02 2.675701379776000977e-01
2.131712883710861206e-01 5.197463557124137878e-02 2.773041427135467529e-01
-1.335018873214721680e-01 -2.800327241420745850e-01 9.120351076126098633e-01
-1.389093399047851562e-01 -2.886313796043395996e-01 9.051313400268554688e-01
-1.237051188945770264e-01 -2.760653495788574219e-01 9.221405982971191406e-01
-1.265461891889572144e-01 -2.922033667564392090e-01 9.140517711639404297e-01
-2.729886397719383240e-02 1.755258888006210327e-01 4.863789677619934082e-01
-4.193025082349777222e-02 1.752305626869201660e-01 4.952546060085296631e-01
-1.907151564955711365e-02 1.724935621023178101e-01 5.000920295715332031e-01
-3.350917994976043701e-02 1.718991845846176147e-01 5.093386173248291016e-01
-8.585036732256412506e-03 2.677895128726959229e-01 -3.290859162807464600e-01
-1.846391521394252777e-02 2.669859826564788818e-01 -3.195483684539794922e-01
-1.425855793058872223e-03 2.679772078990936279e-01 -3.181121349334716797e-01
-1.033414341509342194e-02 2.667827308177947998e-01 -3.082041144371032715e-01
-1.844183951616287231e-01 1.063039153814315796e-01 2.666292190551757812e-01
-1.877837926149368286e-01 9.757647663354873657e-02 2.788280844688415527e-01
-1.797105669975280762e-01 1.054145470261573792e-01 2.820423543453216553e-01
-1.833782196044921875e-01 9.675619006156921387e-02 2.946208119392395020e-01
-1.777131259441375732e-01 1.768074482679367065e-01 3.961915671825408936e-01
-1.823249161243438721e-01 1.622703671455383301e-01 4.017356038093566895e-01
-1.673610359430313110e-01 1.738320589065551758e-01 4.045728743076324463e-01
-1.723746359348297119e-01 1.603450626134872437e-01 4.099482595920562744e-01
1.855864822864532471e-01 -2.901688516139984131e-01 7.331947796046733856e-03
1.798768937587738037e-01 -2.989082634449005127e-01 1.517325080931186676e-02
1.900122761726379395e-01 -2.896886765956878662e-01 1.954702287912368774e-02
1.845343858003616333e-01 -2.986648380756378174e-01 2.776119112968444824e-02
1.195710375905036926e-01 -3.235533833503723145e-01 -6.154337152838706970e-02
1.133724674582481384e-01 -3.315005302429199219e-01 -5.493827909231185913e-02
1.260709613561630249e-01 -3.265269398689270020e-01 -5.196753889322280884e-02
1.201901435852050781e-01 -3.342021703720092773e-01 -4.544370621442794800e-02
-1.037415862083435059e-01 -4.527522027492523193e-01 6.022056937217712402e-01
-1.124993562698364258e-01 -4.463910162448883057e-01 6.130533814430236816e-01
-9.690652787685394287e-02 -4.554309844970703125e-01 6.189227104187011719e-01
-1.050423830747604370e-01 -4.490454196929931641e-01 6.307724118232727051e-01
-6.365232914686203003e-02 2.134764641523361206e-01 -1.217628866434097290e-01
-6.992805004119873047e-02 2.073147445917129517e-01 -1.113614141941070557e-01
-5.743761360645294189e-02 2.136829346418380737e-01 -1.075539365410804749e-01
-6.443893909454345703e-02 2.077684104442596436e-01 -9.725572913885116577e-02
-8.538191020488739014e-02 -4.025512635707855225e-01 1.241201609373092651e-01
-9.866546839475631714e-02 -3.989174067974090576e-01 1.358183324337005615e-01
-6.958793103694915771e-02 -4.119732975959777832e-01 1.373261362314224243e-01
-8.314203470945358276e-02 -4.083932638168334961e-01 1.480294167995452881e-01
-7.762797176837921143e-03 1.071759779006242752e-02 -5.181794762611389160e-01
-1.795381680130958557e-02 -5.675764754414558411e-03 -5.143812894821166992e-01
5.683920346200466156e-03 5.670906975865364075e-04 -5.185077190399169922e-01
-4.595682956278324127e-03 -1.588618010282516479e-02 -5.150119662284851074e-01
2.420291900634765625e-01 -2.072785049676895142e-01 3.927056789398193359e-01
2.440022677183151245e-01 -2.215986549854278564e-01 4.069670140743255615e-01
2.467633485794067383e-01 -2.059149593114852905e-01 4.056481420993804932e-01
2.488509714603424072e-01 -2.212272882461547852e-01 4.191691279411315918e-01
7.564569264650344849e-02 1.984522938728332520e-01 -6.430372595787048340e-02
6.935486942529678345e-02 1.990114599466323853e-01 -5.317306518554687500e-02
8.342085033655166626e-02 1.957823336124420166e-01 -5.057355761528015137e-02
7.683222740888595581e-02 1.961484551429748535e-01 -3.981238603591918945e-02
-2.909919619560241699e-01 -2.037591636180877686e-01 7.217825651168823242e-01
-2.871543765068054199e-01 -2.185950428247451782e-01 7.210736870765686035e-01
-2.890895605087280273e-01 -1.982498019933700562e-01 7.331972122192382812e-01
-2.847786247730255127e-01 -2.140394449234008789e-01 7.313918471336364746e-01
8.714909106492996216e-02 2.270320355892181396e-01 -1.933176219463348389e-01
7.187116146087646484e-02 2.284522652626037598e-01 -1.826451420783996582e-01
9.666910022497177124e-02 2.206536382436752319e-01 -1.799101233482360840e-01
8.160526305437088013e-02 2.227954864501953125e-01 -1.686945855617523193e-01
-3.429552614688873291e-01 -1.051305755972862244e-01 -4.594351947307586670e-01
-3.577153384685516357e-01 -1.068392172455787659e-01 -4.529300034046173096e-01
-3.322958052158355713e-01 -1.019017919898033142e-01 -4.494288861751556396e-01
-3.463490605354309082e-01 -1.024837121367454529e-01 -4.437450468540191650e-01
-3.024574518203735352e-01 -9.280642122030258179e-02 5.592520236968994141e-01
-3.059864044189453125e-01 -1.043348237872123718e-01 5.678371191024780273e-01
-3.056075274944305420e-01 -9.459158778190612793e-02 5.759109258651733398e-01
-3.088421523571014404e-01 -1.069841012358665466e-01 5.859053134918212891e-01
1.947596967220306396e-01 -1.450631469488143921e-01 -2.515389621257781982e-01
1.877031475305557251e-01 -1.517954617738723755e-01 -2.454634904861450195e-01
1.961549073457717896e-01 -1.379322856664657593e-01 -2.390353530645370483e-01
1.888740062713623047e-01 -1.451854109764099121e-01 -2.327706515789031982e-01
2.891049981117248535e-01 -1.530707031488418579e-01 -3.447401523590087891e-01
2.736912965774536133e-01 -1.556518673896789551e-01 -3.414063751697540283e-01
3.007122576236724854e-01 -1.436833590269088745e-01 -3.325271606445312500e-01
2.846001088619232178e-01 -1.470339447259902954e-01 -3.302027285099029541e-01
2.377348691225051880e-01 -2.315287441015243530e-01 1.874788552522659302e-01
2.314806282520294189e-01 -2.481537014245986938e-01 1.891289204359054565e-01
2.428933084011077881e-01 -2.197351008653640747e-01 1.997989863157272339e-01
2.365013659000396729e-01 -2.364837378263473511e-01 2.007611542940139771e-01
2.827560603618621826e-01 2.258957549929618835e-02 5.196024477481842041e-02
2.830793261528015137e-01 9.304285049438476562e-03 5.714130029082298279e-02
2.834155261516571045e-01 1.952901296317577362e-02 6.966056674718856812e-02
2.835084497928619385e-01 6.546009797602891922e-03 7.416401803493499756e-02
6.941018253564834595e-02 2.589675486087799072e-01 -5.291578769683837891e-01
5.849566310644149780e-02 2.629615664482116699e-01 -5.225691199302673340e-01
7.748386263847351074e-02 2.556698918342590332e-01 -5.186257958412170410e-01
6.624127924442291260e-02 2.598008513450622559e-01 -5.122020244598388672e-01
-3.027875423431396484e-01 -5.944040790200233459e-02 6.663715839385986328e-01
-3.023186624050140381e-01 -6.951944530010223389e-02 6.770348548889160156e-01
-2.974506318569183350e-01 -5.679460987448692322e-02 6.818349361419677734e-01
-2.979030311107635498e-01 -6.644213944673538208e-02 6.909720301628112793e-01
-2.200184762477874756e-01 -1.057434380054473877e-01 8.645448684692382812e-01
-2.223898470401763916e-01 -1.245718598365783691e-01 8.639564514160156250e-01
-2.100553214550018311e-01 -1.035935878753662109e-01 8.732638955116271973e-01
-2.129018604755401611e-01 -1.221338286995887756e-01 8.732274174690246582e-01
1.837318986654281616e-01 1.070433259010314941e-01 2.536892890930175781e-01
1.752611547708511353e-01 1.117887273430824280e-01 2.630319595336914062e-01
1.878942549228668213e-01 1.028148084878921509e-01 2.657761275768280029e-01
1.809087991714477539e-01 1.073320135474205017e-01 2.747154831886291504e-01
1.921268105506896973e-01 2.192141562700271606e-01 -4.599965512752532959e-01
1.849556565284729004e-01 2.291490435600280762e-01 -4.528911411762237549e-01
1.998296231031417847e-01 2.197652906179428101e-01 -4.487002193927764893e-01
1.927396655082702637e-01 2.294608652591705322e-01 -4.414654076099395752e-01
7.470266520977020264e-02 1.978121250867843628e-01 7.458005100488662720e-02
6.231486797332763672e-02 1.965224593877792358e-01 8.308560401201248169e-02
8.205680549144744873e-02 1.940425783395767212e-01 8.515445142984390259e-02
7.065604627132415771e-02 1.933263838291168213e-01 9.334011375904083252e-02
-2.459749132394790649e-01 8.033232390880584717e-02 1.768620312213897705e-01
-2.510039508342742920e-01 7.125063240528106689e-02 1.770686954259872437e-01
-2.365729361772537231e-01 8.633628487586975098e-02 1.866863220930099487e-01
-2.415555715560913086e-01 7.713849097490310669e-02 1.870342642068862915e-01
-2.185281217098236084e-01 2.769966050982475281e-02 7.770476341247558594e-01
-2.250026911497116089e-01 1.726578176021575928e-02 7.804129719734191895e-01
-2.058533877134323120e-01 2.553517371416091919e-02 7.920297384262084961e-01
-2.126282304525375366e-01 1.539121568202972412e-02 7.958391308784484863e-01
-1.305398046970367432e-01 1.884849369525909424e-01 -1.474653333425521851e-01
-1.394897997379302979e-01 1.817524582147598267e-01 -1.447177082300186157e-01
-1.195411160588264465e-01 1.912844479084014893e-01 -1.395969837903976440e-01
-1.286834478378295898e-01 1.845615655183792114e-01 -1.371267437934875488e-01
2.680544555187225342e-01 -6.235079467296600342e-02 2.198203653097152710e-02
2.676515877246856689e-01 -7.515024393796920776e-02 2.147641777992248535e-02
2.741701304912567139e-01 -6.014743447303771973e-02 3.244404867291450500e-02
2.742874920368194580e-01 -7.303414493799209595e-02 3.369067981839179993e-02
1.585351228713989258e-01 1.879098564386367798e-01 6.165208220481872559e-01
1.513320356607437134e-01 1.803582608699798584e-01 6.252915263175964355e-01
1.680002510547637939e-01 1.850233674049377441e-01 6.283603310585021973e-01
1.606772989034652710e-01 1.772545129060745239e-01 6.369827389717102051e-01
-2.568995356559753418e-01 -1.547709405422210693e-01 -3.277735114097595215e-01
-2.693863511085510254e-01 -1.460961997509002686e-01 -3.254774510860443115e-01
-2.489154040813446045e-01 -1.498224288225173950e-01 -3.146340847015380859e-01
-2.613938152790069580e-01 -1.402743756771087646e-01 -3.123581409454345703e-01
2.555634081363677979e-01 -1.358532309532165527e-01 2.737123966217041016e-01
2.557069659233093262e-01 -1.450577080249786377e-01 2.829440236091613770e-01
2.537668347358703613e-01 -1.360565423965454102e-01 2.881132960319519043e-01
2.539350688457489014e-01 -1.457492858171463013e-01 2.973008155822753906e-01
-2.845692932605743408e-01 3.360049799084663391e-03 -3.211854398250579834e-01
-2.923352420330047607e-01 -8.802454918622970581e-03 -3.175367414951324463e-01
-2.789417207241058350e-01 4.559934139251708984e-03 -3.105929195880889893e-01
-2.857144474983215332e-01 -7.546861656010150909e-03 -3.071601688861846924e-01
1.418464034795761108e-01 -2.727660238742828369e-01 -1.130602732300758362e-01
1.372874081134796143e-01 -2.838920950889587402e-01 -1.029843240976333618e-01
1.500694155693054199e-01 -2.711467146873474121e-01 -1.004872098565101624e-01
1.453946977853775024e-01 -2.819470763206481934e-01 -9.138911217451095581e-02
-1.910631209611892700e-01 -1.278430819511413574e-01 -1.396814435720443726e-01
-1.859084665775299072e-01 -1.412533223628997803e-01 -1.352764666080474854e-01
-1.936335265636444092e-01 -1.267347186803817749e-01 -1.217599213123321533e-01
-1.896364837884902954e-01 -1.391402781009674072e-01 -1.177017763257026672e-01
-4.653064161539077759e-02 -3.936645984649658203e-01 2.231623511761426926e-03
-5.159487947821617126e-02 -3.995870053768157959e-01 2.231030911207199097e-02
-3.886537626385688782e-02 -4.019193947315216064e-01 2.099136449396610260e-02
-4.399835690855979919e-02 -4.075392484664916992e-01 4.112138599157333374e-02
-2.905249893665313721e-01 1.323065906763076782e-01 4.808568358421325684e-01
-2.996921837329864502e-01 1.415660381317138672e-01 4.920303225517272949e-01
-2.921770513057708740e-01 1.307954639196395874e-01 4.978247880935668945e-01
-2.997716069221496582e-01 1.394025683403015137e-01 5.084918737411499023e-01
1.142548918724060059e-01 1.149355992674827576e-01 -5.058274865150451660e-01
1.103519871830940247e-01 1.006671562790870667e-01 -5.010264515876770020e-01
1.306138783693313599e-01 1.100535318255424500e-01 -4.948536753654479980e-01
1.267253458499908447e-01 9.493304789066314697e-02 -4.907614588737487793e-01
2.798223793506622314e-01 3.794593364000320435e-02 5.653442144393920898e-01
2.821132242679595947e-01 2.351688966155052185e-02 5.703443884849548340e-01
2.839458286762237549e-01 3.779990971088409424e-02 5.791219472885131836e-01
2.852186858654022217e-01 2.398164570331573486e-02 5.847963094711303711e-01
4.239867627620697021e-01 -1.327811181545257568e-01 -3.552099764347076416e-01
4.167393743991851807e-01 -1.274185329675674438e-01 -3.492211103439331055e-01
4.272149205207824707e-01 -1.391013115644454956e-01 -3.474805355072021484e-01
4.200404286384582520e-01 -1.337962746620178223e-01 -3.415057957172393799e-01
-2.112095654010772705e-01 -3.066676259040832520e-01 3.132585287094116211e-01
-2.172091901302337646e-01 -2.983030676841735840e-01 3.218086659908294678e-01
-2.109924107789993286e-01 -3.107045888900756836e-01 3.277192711830139160e-01
-2.170612365007400513e-01 -3.025918006896972656e-01 3.362466096878051758e-01
2.334534674882888794e-01 -2.180023342370986938e-01 1.270178705453872681e-02
2.313872277736663818e-01 -2.295556068420410156e-01 2.475529909133911133e-02
2.397026866674423218e-01 -2.191755473613739014e-01 2.595255710184574127e-02
2.375974357128143311e-01 -2.306565940380096436e-01 3.929002955555915833e-02
2.907480895519256592e-01 -8.324414491653442383e-03 5.947979688644409180e-01
2.941116988658905029e-01 -2.341942489147186279e-02 6.000847816467285156e-01
2.959080636501312256e-01 -8.306479081511497498e-03 6.113069057464599609e-01
2.992931604385375977e-01 -2.347240783274173737e-02 6.170496940612792969e-01
2.555803358554840088e-01 -3.025496602058410645e-01 5.111605525016784668e-01
2.511203289031982422e-01 -3.138916790485382080e-01 5.161421298980712891e-01
2.613120675086975098e-01 -2.957008779048919678e-01 5.225659608840942383e-01
2.571770846843719482e-01 -3.070995509624481201e-01 5.272691249847412109e-01
1.969975084066390991e-01 6.554042547941207886e-02 -1.218934655189514160e-01
1.993107497692108154e-01 5.785199254751205444e-02 -1.193295270204544067e-01
1.949825435876846313e-01 6.441719830036163330e-02 -1.122137308120727539e-01
1.971886008977890015e-01 5.660357698798179626e-02 -1.092781126499176025e-01
-2.060440331697463989e-01 1.820685267448425293e-01 3.847600221633911133e-01
-2.096290439367294312e-01 1.663807779550552368e-01 3.912953138351440430e-01
-1.927825808525085449e-01 1.739265173673629761e-01 3.929860889911651611e-01
-1.968936473131179810e-01 1.587093472480773926e-01 3.990742564201354980e-01
-1.770823448896408081e-01 -4.112077504396438599e-02 -4.592941403388977051e-01
-1.842380613088607788e-01 -4.061983153223991394e-02 -4.518493115901947021e-01
-1.790851354598999023e-01 -4.995492845773696899e-02 -4.504986405372619629e-01
-1.864802986383438110e-01 -5.035365372896194458e-02 -4.428475797176361084e-01
2.590339183807373047e-01 5.078101158142089844e-02 -3.895707195624709129e-04
2.540009319782257080e-01 3.749763593077659607e-02 -2.695005387067794800e-03
2.694541513919830322e-01 4.529219865798950195e-02 1.147012412548065186e-02
2.656742632389068604e-01 3.220204636454582214e-02 1.094541326165199280e-02
9.597022086381912231e-02 1.654793024063110352e-01 -5.740376710891723633e-01
8.933757245540618896e-02 1.560953557491302490e-01 -5.743079781532287598e-01
1.086417287588119507e-01 1.628255844116210938e-01 -5.599216818809509277e-01
1.011589542031288147e-01 1.552976965904235840e-01 -5.595257878303527832e-01
1.750386059284210205e-01 -2.509941160678863525e-01 -7.500167191028594971e-02
1.681382805109024048e-01 -2.611230909824371338e-01 -7.107942551374435425e-02
1.822999715805053711e-01 -2.492495626211166382e-01 -6.447340548038482666e-02
1.754001826047897339e-01 -2.588591575622558594e-01 -6.020756810903549194e-02
1.789690703153610229e-01 -3.226931095123291016e-01 1.217252537608146667e-01
1.717546880245208740e-01 -3.328505158424377441e-01 1.272750794887542725e-01
1.861468255519866943e-01 -3.107369542121887207e-01 1.347911506891250610e-01
1.800568699836730957e-01 -3.203134238719940186e-01 1.408247947692871094e-01
3.341257199645042419e-02 -4.661760330200195312e-01 4.458277523517608643e-01
2.101797796785831451e-02 -4.691696465015411377e-01 4.558011889457702637e-01
4.675390943884849548e-02 -4.668567776679992676e-01 4.597791731357574463e-01
3.367003425955772400e-02 -4.699879586696624756e-01 4.686827659606933594e-01
2.579638957977294922e-01 -1.108315065503120422e-01 2.304850220680236816e-01
2.580985426902770996e-01 -1.200253069400787354e-01 2.414837628602981567e-01
2.552519440650939941e-01 -1.100410521030426025e-01 2.484530210494995117e-01
2.553062140941619873e-01 -1.193511560559272766e-01 2.590994536876678467e-01
2.432979941368103027e-01 -2.239772118628025055e-02 -3.873504400253295898e-01
2.433412820100784302e-01 -3.888168931007385254e-02 -3.893792629241943359e-01
2.523421943187713623e-01 -3.098894469439983368e-02 -3.776139020919799805e-01
2.526391744613647461e-01 -4.769887030124664307e-02 -3.795616030693054199e-01
-3.522169962525367737e-02 1.668629199266433716e-01 5.414341092109680176e-01
-4.832216352224349976e-02 1.662294715642929077e-01 5.509040355682373047e-01
-2.418679557740688324e-02 1.624103188514709473e-01 5.562003850936889648e-01
-3.583901375532150269e-02 1.600918024778366089e-01 5.670660734176635742e-01
-1.324169486761093140e-01 -1.895207613706588745e-01 -3.527713716030120850e-01
-1.407485455274581909e-01 -1.906308680772781372e-01 -3.444911539554595947e-01
-1.203647404909133911e-01 -1.966888755559921265e-01 -3.428576588630676270e-01
-1.283933669328689575e-01 -1.972678601741790771e-01 -3.348683714866638184e-01
-2.995825111865997314e-01 -3.956194967031478882e-02 6.661285161972045898e-01
-2.990930378437042236e-01 -4.958520829677581787e-02 6.769583225250244141e-01
-2.949715256690979004e-01 -3.890552371740341187e-02 6.822641491889953613e-01
-2.944154441356658936e-01 -4.886131361126899719e-02 6.932305097579956055e-01
2.275176495313644409e-01 1.008260529488325119e-02 -2.302648313343524933e-02
2.250165343284606934e-01 -3.703960217535495758e-03 -2.653592266142368317e-02
2.371975481510162354e-01 8.118090219795703888e-03 -1.300458423793315887e-02
2.340228408575057983e-01 -4.671202972531318665e-03 -1.708417013287544250e-02
9.915810823440551758e-02 1.956250667572021484e-01 -9.154910221695899963e-03
8.857757598161697388e-02 1.924403309822082520e-01 -1.709525706246495247e-03
1.070561856031417847e-01 1.969565302133560181e-01 3.625214565545320511e-03
9.695219993591308594e-02 1.933607757091522217e-01 1.146129146218299866e-02
1.951823234558105469e-01 1.344271153211593628e-01 -4.854120612144470215e-01
1.891067624092102051e-01 1.171923577785491943e-01 -4.843138754367828369e-01
2.082426548004150391e-01 1.344902217388153076e-01 -4.728359282016754150e-01
2.032678872346878052e-01 1.169641539454460144e-01 -4.749677479267120361e-01
-1.353552639484405518e-01 -3.121645152568817139e-01 -5.709014832973480225e-02
-1.452575325965881348e-01 -3.070600628852844238e-01 -4.870461300015449524e-02
-1.294778436422348022e-01 -3.251495659351348877e-01 -4.931698739528656006e-02
-1.391800194978713989e-01 -3.199021220207214355e-01 -4.128894954919815063e-02
3.720067813992500305e-02 -1.344461888074874878e-01 -4.799482226371765137e-01
2.960007265210151672e-02 -1.433176845312118530e-01 -4.740836024284362793e-01
4.588885977864265442e-02 -1.390119493007659912e-01 -4.740554094314575195e-01
3.893331438302993774e-02 -1.478994488716125488e-01 -4.677366316318511963e-01
-1.723251193761825562e-01 -4.059448838233947754e-01 6.561082601547241211e-01
-1.827054023742675781e-01 -3.938104510307312012e-01 6.648323535919189453e-01
-1.635469049215316772e-01 -4.117116332054138184e-01 6.681218147277832031e-01
-1.750010550022125244e-01 -3.985308408737182617e-01 6.761623024940490723e-01
2.026136517524719238e-01 6.574910879135131836e-02 -1.417049169540405273e-01
2.048345804214477539e-01 5.759364739060401917e-02 -1.397288441658020020e-01
2.003527879714965820e-01 6.194496899843215942e-02 -1.329571753740310669e-01
2.027413398027420044e-01 5.399449169635772705e-02 -1.308788210153579712e-01
1.680081337690353394e-02 -4.480435848236083984e-01 3.353722691535949707e-01
1.146981865167617798e-02 -4.521319270133972168e-01 3.485024869441986084e-01
2.156099677085876465e-02 -4.485445618629455566e-01 3.494427502155303955e-01
1.645195484161376953e-02 -4.530887305736541748e-01 3.625346124172210693e-01
2.262297570705413818e-01 2.115077525377273560e-02 3.152530193328857422e-01
2.225684225559234619e-01 2.558820135891437531e-02 3.277986943721771240e-01
2.262409478425979614e-01 1.566757634282112122e-02 3.312895894050598145e-01
2.222495377063751221e-01 2.018921449780464172e-02 3.441384136676788330e-01
-3.075918741524219513e-02 -3.368270695209503174e-01 9.300631880760192871e-01
-4.104693233966827393e-02 -3.240866363048553467e-01 9.355545639991760254e-01
-2.215605974197387695e-02 -3.276692628860473633e-01 9.375674724578857422e-01
-3.332686796784400940e-02 -3.145261704921722412e-01 9.427602887153625488e-01
-8.511859178543090820e-02 2.624332606792449951e-01 -4.265365302562713623e-01
-9.141240268945693970e-02 2.625800669193267822e-01 -4.177652895450592041e-01
-7.799314707517623901e-02 2.651215791702270508e-01 -4.107448160648345947e-01
-8.493488281965255737e-02 2.647461295127868652e-01 -4.018760621547698975e-01
-8.728181570768356323e-02 2.667160928249359131e-01 -3.872714340686798096e-01
-9.438054263591766357e-02 2.652011513710021973e-01 -3.768322169780731201e-01
-7.774442434310913086e-02 2.671379745006561279e-01 -3.710787594318389893e-01
-8.619835972785949707e-02 2.651148736476898193e-01 -3.611839115619659424e-01
3.603113815188407898e-02 5.200032610446214676e-03 -5.192584395408630371e-01
2.928459271788597107e-02 -9.612280875444412231e-03 -5.182411670684814453e-01
5.088346824049949646e-02 -3.996831830590963364e-03 -5.166302323341369629e-01
4.426943138241767883e-02 -1.900220848619937897e-02 -5.156096816062927246e-01
-2.806954085826873779e-01 -1.644044518470764160e-01 -4.512644708156585693e-01
-2.940612435340881348e-01 -1.634943336248397827e-01 -4.410160779953002930e-01
-2.734810709953308105e-01 -1.681204140186309814e-01 -4.385093450546264648e-01
-2.865379750728607178e-01 -1.673928350210189819e-01 -4.279163777828216553e-01
1.366638988256454468e-01 -2.629831433296203613e-01 9.175142049789428711e-01
1.217364743351936340e-01 -2.691253721714019775e-01 9.272598028182983398e-01
1.424042582511901855e-01 -2.432694733142852783e-01 9.214535951614379883e-01
1.280556470155715942e-01 -2.509441375732421875e-01 9.305266737937927246e-01
2.260376662015914917e-01 -1.572307348251342773e-01 -4.574546217918395996e-01
2.167223542928695679e-01 -1.599824875593185425e-01 -4.503530859947204590e-01
2.331327199935913086e-01 -1.613476425409317017e-01 -4.525645673274993896e-01
2.233547568321228027e-01 -1.641052365303039551e-01 -4.454661309719085693e-01
3.006961643695831299e-01 -2.231097966432571411e-01 6.229806542396545410e-01
2.984113693237304688e-01 -2.320727705955505371e-01 6.289345622062683105e-01
3.029894232749938965e-01 -2.206135690212249756e-01 6.349927783012390137e-01
3.003776371479034424e-01 -2.299933135509490967e-01 6.414602398872375488e-01
-1.307428535073995590e-02 1.985760778188705444e-01 -6.169307827949523926e-01
-1.934974454343318939e-02 1.863371878862380981e-01 -6.147826910018920898e-01
1.475674565881490707e-03 1.917441487312316895e-01 -6.150773167610168457e-01
-5.575518589466810226e-03 1.795262843370437622e-01 -6.130790114402770996e-01
-3.114412128925323486e-01 -1.769510805606842041e-01 6.090772151947021484e-01
-3.087002038955688477e-01 -1.876664608716964722e-01 6.113469004631042480e-01
-3.129267692565917969e-01 -1.716253012418746948e-01 6.252800822257995605e-01
-3.097544908523559570e-01 -1.839357167482376099e-01 6.280336380004882812e-01
2.075162082910537720e-01 7.329886406660079956e-02 2.571621835231781006e-01
2.026975899934768677e-01 7.549619674682617188e-02 2.662689983844757080e-01
2.069716751575469971e-01 6.545093655586242676e-02 2.721751034259796143e-01
2.025298625230789185e-01 6.776688992977142334e-02 2.818396687507629395e-01
6.733569502830505371e-02 1.902800649404525757e-01 1.702988594770431519e-01
5.942361429333686829e-02 1.902027726173400879e-01 1.854542791843414307e-01
7.352048158645629883e-02 1.861646324396133423e-01 1.846452951431274414e-01
6.601513922214508057e-02 1.861160546541213989e-01 1.996897459030151367e-01
1.491457223892211914e-01 2.307557463645935059e-01 -2.477524727582931519e-01
1.406143605709075928e-01 2.281317263841629028e-01 -2.361402958631515503e-01
1.604290008544921875e-01 2.199353426694869995e-01 -2.360250204801559448e-01
1.514967083930969238e-01 2.175014764070510864e-01 -2.247197926044464111e-01
-1.331432163715362549e-02 -4.805462658405303955e-01 6.319788098335266113e-01
-2.397377043962478638e-02 -4.777642786502838135e-01 6.393291354179382324e-01
-4.471425432711839676e-03 -4.805711507797241211e-01 6.457613706588745117e-01
-1.605579257011413574e-02 -4.776687324047088623e-01 6.527543663978576660e-01
2.609415054321289062e-01 1.825074404478073120e-01 -3.517976999282836914e-01
2.569312155246734619e-01 1.846756339073181152e-01 -3.394900560379028320e-01
2.626016736030578613e-01 1.747630983591079712e-01 -3.359210193157196045e-01
2.591946423053741455e-01 1.736521422863006592e-01 -3.243729472160339355e-01
1.273563653230667114e-01 2.126053571701049805e-01 5.297501385211944580e-02
1.188192218542098999e-01 2.103453576564788818e-01 6.306795030832290649e-02
1.330876946449279785e-01 2.106246352195739746e-01 6.503466516733169556e-02
1.249081492424011230e-01 2.085156142711639404e-01 7.624293863773345947e-02
-3.100388348102569580e-01 -2.122508361935615540e-02 -3.478676080703735352e-01
-3.146601617336273193e-01 -3.481174632906913757e-02 -3.426697850227355957e-01
