-1.338566690683364868e-01 8.286110162734985352e-01 3.039364218711853027e-01
-1.235616803169250488e-01 8.516899943351745605e-01 3.090792596340179443e-01
-1.298356205224990845e-01 8.384781479835510254e-01 3.138811588287353516e-01
-1.715629398822784424e-01 -4.110551774501800537e-01 -2.044203877449035645e-02
-1.833890825510025024e-01 -4.047112166881561279e-01 -1.144763454794883728e-02
-1.662420481443405151e-01 -4.057897031307220459e-01 -1.270702108740806580e-02
-1.784182041883468628e-01 -3.997914195060729980e-01 -4.365616478025913239e-03
-1.420590430498123169e-01 5.038956180214881897e-02 1.812700182199478149e-01
-1.502046734094619751e-01 4.183105006814002991e-02 1.891141533851623535e-01
-1.319609284400939941e-01 4.324944689869880676e-02 1.824997365474700928e-01
-1.395206600427627563e-01 3.341061249375343323e-02 1.899891942739486694e-01
-1.700331717729568481e-01 1.950680315494537354e-01 2.242740988731384277e-01
-1.776539981365203857e-01 1.861873716115951538e-01 2.300399094820022583e-01
-1.725409924983978271e-01 2.050381898880004883e-01 2.334820777177810669e-01
-1.795967817306518555e-01 1.962931007146835327e-01 2.390277981758117676e-01
-1.784908622503280640e-01 6.802559494972229004e-01 5.133326053619384766e-01
-1.820393800735473633e-01 6.704410910606384277e-01 5.167585015296936035e-01
-1.816288828849792480e-01 6.904010176658630371e-01 5.221648216247558594e-01
-1.851467043161392212e-01 6.802591085433959961e-01 5.261015892028808594e-01
-2.859415709972381592e-01 -5.412517786026000977e-01 -2.518154978752136230e-01
-2.945659160614013672e-01 -5.390435457229614258e-01 -2.392655611038208008e-01
-2.804234325885772705e-01 -5.466012358665466309e-01 -2.401727735996246338e-01
-2.902967333793640137e-01 -5.448442697525024414e-01 -2.279824614524841309e-01
-2.040118873119354248e-01 -2.099976092576980591e-01 1.006927415728569031e-01
-2.171226590871810913e-01 -1.946487724781036377e-01 1.083692312240600586e-01
-1.919751763343811035e-01 -1.971923708915710449e-01 9.993375837802886963e-02
-2.053809762001037598e-01 -1.824865341186523438e-01 1.076889410614967346e-01
1.973416209220886230e-01 -3.583160638809204102e-01 -3.541185557842254639e-01
1.818175911903381348e-01 -3.551508784294128418e-01 -3.432931602001190186e-01
2.135208547115325928e-01 -3.673886060714721680e-01 -3.523004055023193359e-01
1.975217312574386597e-01 -3.648855686187744141e-01 -3.412799537181854248e-01
4.549704194068908691e-01 -3.655957281589508057e-01 -3.285671770572662354e-01
4.558510184288024902e-01 -3.803095221519470215e-01 -3.280486166477203369e-01
4.588177502155303955e-01 -3.616943955421447754e-01 -3.128379881381988525e-01
4.595810770988464355e-01 -3.763829469680786133e-01 -3.117238581180572510e-01
4.491675794124603271e-01 -3.010725677013397217e-01 -3.411307632923126221e-01
4.368292391300201416e-01 -2.989033460617065430e-01 -3.466506600379943848e-01
4.604923427104949951e-01 -2.994514703750610352e-01 -3.305164873600006104e-01
4.514464735984802246e-01 -3.032010793685913086e-01 -3.366513550281524658e-01
-1.790221929550170898e-01 3.892531096935272217e-01 3.421797752380371094e-01
-1.876549124717712402e-01 3.817215263843536377e-01 3.497996628284454346e-01
-1.784914582967758179e-01 4.032096564769744873e-01 3.507501482963562012e-01
-1.877576708793640137e-01 3.946231901645660400e-01 3.576939105987548828e-01
4.551237821578979492e-01 -6.226775646209716797e-01 -4.355675280094146729e-01
4.527991116046905518e-01 -6.321769952774047852e-01 -4.309873580932617188e-01
4.579512774944305420e-01 -6.242650151252746582e-01 -4.235814213752746582e-01
4.547297060489654541e-01 -6.324182748794555664e-01 -4.172902405261993408e-01
4.651027917861938477e-01 7.384827733039855957e-02 -9.968630969524383545e-02
4.679798185825347900e-01 6.132940575480461121e-02 -9.723206609487533569e-02
4.672679901123046875e-01 7.482913136482238770e-02 -8.677907288074493408e-02
4.707617759704589844e-01 6.221871078014373779e-02 -8.464898914098739624e-02
-1.924563795328140259e-01 7.053692340850830078e-01 5.578930974006652832e-01
-1.981642097234725952e-01 6.914135813713073730e-01 5.638717412948608398e-01
-1.918829679489135742e-01 7.114109396934509277e-01 5.662187933921813965e-01
-1.981827616691589355e-01 6.970435380935668945e-01 5.725188255310058594e-01
-2.989522740244865417e-02 4.291737973690032959e-01 1.895686984062194824e-02
-4.684698954224586487e-02 4.311378002166748047e-01 2.549563907086849213e-02
-2.124831080436706543e-02 4.420310258865356445e-01 2.010167017579078674e-02
-3.826717659831047058e-02 4.441509842872619629e-01 2.636175788938999176e-02
1.604545563459396362e-01 1.394364833831787109e-01 -6.826262176036834717e-02
1.493421345949172974e-01 1.510673761367797852e-01 -6.627883017063140869e-02
1.687110811471939087e-01 1.395873427391052246e-01 -5.603613704442977905e-02
1.580381691455841064e-01 1.505637615919113159e-01 -5.629072338342666626e-02
1.004804670810699463e-01 -1.807909086346626282e-02 -1.889111101627349854e-01
8.979422599077224731e-02 -2.791650779545307159e-02 -1.852958500385284424e-01
1.177016943693161011e-01 -1.441224664449691772e-02 -1.946452707052230835e-01
1.102735102176666260e-01 -2.868261933326721191e-02 -1.927172541618347168e-01
-1.096421852707862854e-01 5.737439990043640137e-01 3.334828615188598633e-01
-1.191481947898864746e-01 5.694774985313415527e-01 3.426615595817565918e-01
-1.130256503820419312e-01 5.866565108299255371e-01 3.447530865669250488e-01
-1.228001862764358521e-01 5.825749635696411133e-01 3.546848297119140625e-01
-1.937806457281112671e-01 4.652843773365020752e-01 2.747142016887664795e-01
-1.987720131874084473e-01 4.518440365791320801e-01 2.783396840095520020e-01
-1.962608098983764648e-01 4.746251106262207031e-01 2.900888323783874512e-01
-2.009375393390655518e-01 4.612444341182708740e-01 2.932104766368865967e-01
4.749497771263122559e-01 -5.581903457641601562e-01 -1.887401491403579712e-01
4.612944126129150391e-01 -5.523380041122436523e-01 -1.816354691982269287e-01
4.819639921188354492e-01 -5.462644696235656738e-01 -1.852099001407623291e-01
4.690716862678527832e-01 -5.419005751609802246e-01 -1.782469451427459717e-01
1.677902787923812866e-01 -1.059323828667402267e-02 1.190491914749145508e-01
1.535789519548416138e-01 -6.846812553703784943e-03 1.245474815368652344e-01
1.825812608003616333e-01 4.301189444959163666e-03 1.188038885593414307e-01
1.690049469470977783e-01 6.089058704674243927e-03 1.239908337593078613e-01
-1.870576292276382446e-01 -2.495634853839874268e-01 -8.123520761728286743e-02
-1.948274970054626465e-01 -2.563774883747100830e-01 -7.553894072771072388e-02
-1.759917736053466797e-01 -2.488031834363937378e-01 -7.466467469930648804e-02
-1.836016178131103516e-01 -2.550401687622070312e-01 -6.726855784654617310e-02
-4.094133973121643066e-01 -5.900334119796752930e-01 -2.233413308858871460e-01
-4.072880148887634277e-01 -6.068162918090820312e-01 -2.160110920667648315e-01
-4.062717258930206299e-01 -5.942245721817016602e-01 -2.073002010583877563e-01
-4.047039747238159180e-01 -6.102580428123474121e-01 -1.997209638357162476e-01
-3.982081115245819092e-01 -1.493650674819946289e-01 2.776101045310497284e-02
-3.972375392913818359e-01 -1.651809513568878174e-01 3.028406202793121338e-02
-3.946083188056945801e-01 -1.489622294902801514e-01 4.617362469434738159e-02
-3.930398523807525635e-01 -1.642789095640182495e-01 4.899981617927551270e-02
-3.906487226486206055e-01 -6.450088620185852051e-01 -3.574402332305908203e-01
-4.074903130531311035e-01 -6.407474875450134277e-01 -3.467210233211517334e-01
-3.869404494762420654e-01 -6.198570728302001953e-01 -3.516210019588470459e-01
-4.041162431240081787e-01 -6.173152923583984375e-01 -3.428886234760284424e-01
-3.147078156471252441e-01 -7.355231046676635742e-01 -1.231706142425537109e-01
-3.271661698818206787e-01 -7.270873785018920898e-01 -1.157747507095336914e-01
-3.064446747303009033e-01 -7.271692752838134766e-01 -1.167791262269020081e-01
-3.188780844211578369e-01 -7.179811000823974609e-01 -1.090346798300743103e-01
4.783169329166412354e-01 1.976300776004791260e-02 -3.953894227743148804e-02
4.802095293998718262e-01 7.003095932304859161e-03 -3.655224293470382690e-02
4.812316000461578369e-01 1.738707348704338074e-02 -2.473837696015834808e-02
4.828000366687774658e-01 4.484450444579124451e-03 -2.141614817082881927e-02
3.140588700771331787e-01 -6.560482978820800781e-01 -3.861061632633209229e-01
3.078242540359497070e-01 -6.611602306365966797e-01 -3.729403316974639893e-01
3.257610797882080078e-01 -6.613765954971313477e-01 -3.736932873725891113e-01
3.194845616817474365e-01 -6.662119626998901367e-01 -3.611123561859130859e-01
1.838629990816116333e-01 -2.977341711521148682e-01 -1.508740931749343872e-01
1.856379359960556030e-01 -3.112626075744628906e-01 -1.487673074007034302e-01
1.865795403718948364e-01 -2.976346611976623535e-01 -1.357906609773635864e-01
1.879661977291107178e-01 -3.103450536727905273e-01 -1.340072154998779297e-01
-2.936495244503021240e-01 -3.994936123490333557e-02 -1.124121546745300293e-01
-3.071583509445190430e-01 -3.159268200397491455e-02 -1.028147414326667786e-01
-2.875207364559173584e-01 -2.464226819574832916e-02 -1.047735959291458130e-01
-3.017445802688598633e-01 -1.508218888193368912e-02 -9.453005343675613403e-02
-3.078685700893402100e-01 -3.499150872230529785e-01 -2.534243166446685791e-01
-3.276407122611999512e-01 -3.395685553550720215e-01 -2.478898763656616211e-01
-2.995259761810302734e-01 -3.348041176795959473e-01 -2.522018253803253174e-01
-3.193637132644653320e-01 -3.190150558948516846e-01 -2.449181079864501953e-01
-1.031737923622131348e-01 6.759294867515563965e-01 1.788364797830581665e-01
-1.105575338006019592e-01 6.631656885147094727e-01 1.829520016908645630e-01
-1.068428084254264832e-01 6.863409876823425293e-01 1.891530007123947144e-01
-1.139892861247062683e-01 6.739521026611328125e-01 1.932130008935928345e-01
6.196878477931022644e-02 2.168640196323394775e-01 -8.338060230016708374e-02
4.721841216087341309e-02 2.296645492315292358e-01 -7.940404117107391357e-02
7.537304610013961792e-02 2.223984748125076294e-01 -7.748222351074218750e-02
6.076789647340774536e-02 2.353737652301788330e-01 -7.395289838314056396e-02
3.840283453464508057e-01 -2.009337842464447021e-01 -8.914099074900150299e-03
3.718470931053161621e-01 -1.929850429296493530e-01 -3.167516086250543594e-03
3.955608308315277100e-01 -1.884355694055557251e-01 -3.707191906869411469e-03
3.829316794872283936e-01 -1.800572574138641357e-01 2.122495090588927269e-03
2.775324285030364990e-01 -7.249451428651809692e-02 7.049290835857391357e-02
2.635277509689331055e-01 -6.101168692111968994e-02 7.844064384698867798e-02
2.874886393547058105e-01 -5.801254138350486755e-02 7.367903739213943481e-02
2.730261683464050293e-01 -4.583147540688514709e-02 8.204732835292816162e-02
4.650161564350128174e-01 -6.866067647933959961e-01 -3.134675025939941406e-01
4.556765258312225342e-01 -6.911678314208984375e-01 -3.009621500968933105e-01
4.727305769920349121e-01 -6.843726038932800293e-01 -2.983522415161132812e-01
4.628732204437255859e-01 -6.886155009269714355e-01 -2.867473363876342773e-01
1.260011196136474609e-01 -3.411386311054229736e-01 -3.333700299263000488e-01
1.140120178461074829e-01 -3.409252762794494629e-01 -3.258502185344696045e-01
1.337495595216751099e-01 -3.333493769168853760e-01 -3.306050598621368408e-01
1.215908378362655640e-01 -3.317713141441345215e-01 -3.237595558166503906e-01
-2.572478950023651123e-01 -1.848949342966079712e-01 1.053599640727043152e-01
-2.725990712642669678e-01 -1.711057424545288086e-01 1.119180247187614441e-01
-2.421077787876129150e-01 -1.787114739418029785e-01 1.050244867801666260e-01
-2.571141421794891357e-01 -1.649581491947174072e-01 1.112460494041442871e-01
-2.758372426033020020e-01 6.569299101829528809e-02 1.643330752849578857e-01
-2.908886075019836426e-01 6.216286867856979370e-02 1.762496381998062134e-01
-2.644364535808563232e-01 6.106315553188323975e-02 1.809237152338027954e-01
-2.781201004981994629e-01 5.723791942000389099e-02 1.909708082675933838e-01
-4.105196893215179443e-01 -5.048331618309020996e-01 -1.933397054672241211e-01
-4.098842442035675049e-01 -5.186355113983154297e-01 -1.936067044734954834e-01
-4.088526070117950439e-01 -5.000228881835937500e-01 -1.775230914354324341e-01
-4.075895547866821289e-01 -5.146519541740417480e-01 -1.761910915374755859e-01
-4.079053997993469238e-01 -6.955237388610839844e-01 -2.635909318923950195e-01
-4.160978198051452637e-01 -6.929101943969726562e-01 -2.526864409446716309e-01
-3.997206985950469971e-01 -7.025988698005676270e-01 -2.526397705078125000e-01
-4.093091487884521484e-01 -6.990942955017089844e-01 -2.427129447460174561e-01
-2.209567278623580933e-01 -3.433395326137542725e-01 -2.686230540275573730e-01
-2.361121475696563721e-01 -3.422515988349914551e-01 -2.684908509254455566e-01
-2.078524529933929443e-01 -3.400099873542785645e-01 -2.665367126464843750e-01
-2.228122502565383911e-01 -3.383002579212188721e-01 -2.666693031787872314e-01
4.229567050933837891e-01 -4.040808975696563721e-01 -1.081179231405258179e-01
4.077936708927154541e-01 -3.983494341373443604e-01 -1.001443937420845032e-01
4.308331608772277832e-01 -3.880068063735961914e-01 -1.046288982033729553e-01
4.166464507579803467e-01 -3.826078772544860840e-01 -9.734186530113220215e-02
-1.929866969585418701e-01 1.160306707024574280e-01 3.905924409627914429e-02
-2.012179046869277954e-01 1.091019436717033386e-01 4.582437872886657715e-02
-1.898028701543807983e-01 1.205615922808647156e-01 5.030032619833946228e-02
-1.981610655784606934e-01 1.130199655890464783e-01 5.622250214219093323e-02
-1.613971740007400513e-01 -3.900826871395111084e-01 -2.036106735467910767e-01
-1.652749627828598022e-01 -4.016006290912628174e-01 -1.985895186662673950e-01
-1.547961682081222534e-01 -3.883359134197235107e-01 -1.910376548767089844e-01
-1.579848527908325195e-01 -4.007918238639831543e-01 -1.865129917860031128e-01
2.735245414078235626e-02 -2.682832777500152588e-01 -1.881706714630126953e-02
1.696027442812919617e-02 -2.644854485988616943e-01 -1.013834401965141296e-02
3.783515095710754395e-02 -2.661438584327697754e-01 -7.094682194292545319e-03
2.723373845219612122e-02 -2.627175450325012207e-01 2.787235425785183907e-04
9.672219306230545044e-02 3.581763505935668945e-01 -6.779344752430915833e-03
8.967652171850204468e-02 3.541658818721771240e-01 -1.200970169156789780e-02
1.099658906459808350e-01 3.664288222789764404e-01 2.913574688136577606e-03
1.045072823762893677e-01 3.603257834911346436e-01 -2.980087185278534889e-03
-6.008941680192947388e-02 7.290753722190856934e-01 1.580266654491424561e-01
-7.143589109182357788e-02 7.202906012535095215e-01 1.663795709609985352e-01
-6.056946888566017151e-02 7.442038655281066895e-01 1.621944904327392578e-01
-7.157245278358459473e-02 7.350885272026062012e-01 1.705477386713027954e-01
-2.441446781158447266e-01 1.235350295901298523e-01 -7.408094406127929688e-02
-2.555766105651855469e-01 1.240404769778251648e-01 -6.751200556755065918e-02
-2.358924150466918945e-01 1.303222328424453735e-01 -6.467925012111663818e-02
-2.471091896295547485e-01 1.303354054689407349e-01 -5.800374969840049744e-02
-1.757266372442245483e-01 4.542274773120880127e-01 2.089808583259582520e-01
-1.813365817070007324e-01 4.419095516204833984e-01 2.132969647645950317e-01
-1.790367960929870605e-01 4.620975553989410400e-01 2.229985892772674561e-01
-1.845311969518661499e-01 4.499369859695434570e-01 2.276679575443267822e-01
4.211578071117401123e-01 -6.802548170089721680e-01 -3.219231367111206055e-01
4.124002754688262939e-01 -6.857671737670898438e-01 -3.104434013366699219e-01
4.271040558815002441e-01 -6.852555274963378906e-01 -3.101312220096588135e-01
4.191073179244995117e-01 -6.913519501686096191e-01 -2.976294159889221191e-01
2.654121816158294678e-01 -6.707435250282287598e-01 -3.307076394557952881e-01
2.567299902439117432e-01 -6.746767163276672363e-01 -3.120047152042388916e-01
2.699809670448303223e-01 -6.806225776672363281e-01 -3.127295076847076416e-01
2.615803480148315430e-01 -6.852653622627258301e-01 -2.936802208423614502e-01
-3.994488418102264404e-01 -5.615104362368583679e-02 5.407439544796943665e-02
-3.993112444877624512e-01 -6.817021965980529785e-02 5.532649531960487366e-02
-3.978637158870697021e-01 -5.344001203775405884e-02 6.699058413505554199e-02
-3.976976573467254639e-01 -6.554084271192550659e-02 6.798391789197921753e-02
-1.105790883302688599e-01 -1.187087744474411011e-01 -2.031543701887130737e-01
-1.252041161060333252e-01 -1.161896064877510071e-01 -2.005094140768051147e-01
-1.010712236166000366e-01 -1.097007542848587036e-01 -1.969812810420989990e-01
-1.151417940855026245e-01 -1.046962440013885498e-01 -1.934366226196289062e-01
-3.961366713047027588e-01 -3.603144288063049316e-01 -4.929234459996223450e-02
-3.948256969451904297e-01 -3.762209117412567139e-01 -4.772009700536727905e-02
-3.929964601993560791e-01 -3.589089810848236084e-01 -3.042495809495449066e-02
-3.922373950481414795e-01 -3.747301995754241943e-01 -3.037590160965919495e-02
-2.648311853408813477e-01 -5.615878105163574219e-01 -3.476410806179046631e-01
-2.616972625255584717e-01 -5.761036872863769531e-01 -3.452210724353790283e-01
-2.614679038524627686e-01 -5.592046976089477539e-01 -3.339098989963531494e-01
-2.581332325935363770e-01 -5.736134648323059082e-01 -3.315880596637725830e-01
-2.670820653438568115e-01 -3.730608895421028137e-02 3.133004307746887207e-01
-2.846390008926391602e-01 -3.997034579515457153e-02 3.194895982742309570e-01
-2.563952803611755371e-01 -3.923171758651733398e-02 3.211080729961395264e-01
-2.737888693809509277e-01 -4.286184161901473999e-02 3.270527124404907227e-01
4.612601101398468018e-01 -5.610953569412231445e-01 -3.649010658264160156e-01
4.621813595294952393e-01 -5.735010504722595215e-01 -3.594498932361602783e-01
4.621245861053466797e-01 -5.619141459465026855e-01 -3.490630090236663818e-01
4.630570709705352783e-01 -5.741211771965026855e-01 -3.442223668098449707e-01
-1.284512132406234741e-01 4.302421510219573975e-01 1.052187606692314148e-01
-1.378401368856430054e-01 4.258874356746673584e-01 1.134599372744560242e-01
-1.315557658672332764e-01 4.431198537349700928e-01 1.145342215895652771e-01
-1.390355080366134644e-01 4.346792697906494141e-01 1.203854382038116455e-01
1.661488562822341919e-01 5.332772731781005859e-01 2.414315491914749146e-01
1.485985517501831055e-01 5.427688360214233398e-01 2.384192198514938354e-01
1.831875741481781006e-01 5.425344705581665039e-01 2.482791692018508911e-01
1.665634363889694214e-01 5.498995780944824219e-01 2.446684390306472778e-01
-2.446221560239791870e-01 -5.827963948249816895e-01 -1.611221879720687866e-01
-2.540921866893768311e-01 -5.806856751441955566e-01 -1.512053459882736206e-01
-2.383254170417785645e-01 -5.934085845947265625e-01 -1.523863077163696289e-01
-2.485866695642471313e-01 -5.909894704818725586e-01 -1.421842128038406372e-01
-8.635161817073822021e-02 -1.972328275442123413e-01 8.005579560995101929e-02
-1.001234725117683411e-01 -1.879180520772933960e-01 8.703648298978805542e-02
-7.593498378992080688e-02 -1.817118376493453979e-01 8.079073578119277954e-02
-9.097190201282501221e-02 -1.701527088880538940e-01 8.921713382005691528e-02
4.641283452510833740e-01 -5.540961027145385742e-02 -1.683630794286727905e-01
4.657106697559356689e-01 -6.991203129291534424e-02 -1.615038067102432251e-01
4.666427671909332275e-01 -5.555919185280799866e-02 -1.477540284395217896e-01
4.686055183410644531e-01 -7.061702758073806763e-02 -1.407411098480224609e-01
-3.840088546276092529e-01 1.821092888712882996e-02 1.750344634056091309e-01
-3.822184205055236816e-01 4.605110734701156616e-03 1.793292015790939331e-01
-3.811026513576507568e-01 1.707316562533378601e-02 1.908289939165115356e-01
-3.794406950473785400e-01 3.511021379381418228e-03 1.977366656064987183e-01
-4.184110760688781738e-01 -2.376923412084579468e-01 -1.337734013795852661e-01
-4.160344004631042480e-01 -2.526448965072631836e-01 -1.302919536828994751e-01
-4.170725345611572266e-01 -2.356862574815750122e-01 -1.210056692361831665e-01
-4.145882725715637207e-01 -2.507007122039794922e-01 -1.173595711588859558e-01
-1.743078678846359253e-01 -7.173655927181243896e-02 1.560255140066146851e-01
-1.886525899171829224e-01 -6.628640741109848022e-02 1.603600978851318359e-01
-1.657339930534362793e-01 -6.024520471692085266e-02 1.593124270439147949e-01
-1.801465749740600586e-01 -5.514427274465560913e-02 1.639213711023330688e-01
2.402573972940444946e-01 1.109315305948257446e-01 1.802479475736618042e-02
2.332235872745513916e-01 1.202317774295806885e-01 1.941516436636447906e-02
2.462439388036727905e-01 1.162337586283683777e-01 2.822878956794738770e-02
2.398531585931777954e-01 1.216710433363914490e-01 3.136049583554267883e-02
-2.100865542888641357e-01 5.215296894311904907e-02 2.179069221019744873e-01
-2.174905687570571899e-01 4.887399077415466309e-02 2.227579057216644287e-01
-2.106914669275283813e-01 6.235995888710021973e-02 2.231817543506622314e-01
-2.170991152524948120e-01 5.683593824505805969e-02 2.286169975996017456e-01
2.536346912384033203e-01 -8.316091448068618774e-02 7.131696492433547974e-02
2.401980459690093994e-01 -7.376364618539810181e-02 7.804253697395324707e-02
2.629737854003906250e-01 -6.939190626144409180e-02 7.411038875579833984e-02
2.487548142671585083e-01 -5.761213228106498718e-02 8.209778368473052979e-02
3.081730008125305176e-01 -1.641160994768142700e-01 2.191409096121788025e-02
2.925114333629608154e-01 -1.629260778427124023e-01 2.423370629549026489e-02
3.192135989665985107e-01 -1.502747386693954468e-01 2.846342325210571289e-02
3.037000596523284912e-01 -1.485157608985900879e-01 3.095745295286178589e-02
4.471416175365447998e-01 5.674035474658012390e-02 1.764659024775028229e-02
4.396868050098419189e-01 5.647872760891914368e-02 2.620616555213928223e-02
4.500937163829803467e-01 4.601751267910003662e-02 2.807941101491451263e-02
4.420770108699798584e-01 4.615952074527740479e-02 3.618700429797172546e-02
-1.974347382783889771e-01 3.155531287193298340e-01 3.360234498977661133e-01
-2.050141990184783936e-01 3.111190497875213623e-01 3.463045656681060791e-01
-2.006637156009674072e-01 3.242073357105255127e-01 3.452321588993072510e-01
-2.071224451065063477e-01 3.190696239471435547e-01 3.527726233005523682e-01
-1.492261048406362534e-02 -2.798335552215576172e-01 1.784581504762172699e-02
-2.912717498838901520e-02 -2.726367712020874023e-01 2.783144637942314148e-02
-2.051854506134986877e-03 -2.744642496109008789e-01 3.019594773650169373e-02
-1.684495992958545685e-02 -2.668973207473754883e-01 4.012094438076019287e-02
-1.784905344247817993e-01 -1.350047141313552856e-01 -1.944777220487594604e-01
-1.913398206233978271e-01 -1.306758821010589600e-01 -1.906886696815490723e-01
-1.636828929185867310e-01 -1.266542077064514160e-01 -1.939122080802917480e-01
-1.768124252557754517e-01 -1.222678124904632568e-01 -1.901240497827529907e-01
3.886968493461608887e-01 -2.839425206184387207e-01 -3.336313664913177490e-01
3.765403330326080322e-01 -2.749605774879455566e-01 -3.297144174575805664e-01
3.987613618373870850e-01 -2.775977849960327148e-01 -3.295979797840118408e-01
3.874080777168273926e-01 -2.696866989135742188e-01 -3.267095088958740234e-01
-1.903724670410156250e-01 3.683743476867675781e-01 3.456003367900848389e-01
-1.991825103759765625e-01 3.607186973094940186e-01 3.539998233318328857e-01
-1.908783167600631714e-01 3.806485831737518311e-01 3.530873656272888184e-01
-2.006517052650451660e-01 3.726256191730499268e-01 3.629552125930786133e-01
-1.750440299510955811e-01 4.446813166141510010e-01 2.003116309642791748e-01
-1.806967258453369141e-01 4.317471683025360107e-01 2.044979184865951538e-01
-1.775216609239578247e-01 4.531199932098388672e-01 2.135432809591293335e-01
-1.831316053867340088e-01 4.408020675182342529e-01 2.178593873977661133e-01
1.849232465028762817e-01 4.944281578063964844e-01 1.250055134296417236e-01
1.820387840270996094e-01 4.816920161247253418e-01 1.190503016114234924e-01
1.949070394039154053e-01 4.958755671977996826e-01 1.400227844715118408e-01
1.924176812171936035e-01 4.833761453628540039e-01 1.349354833364486694e-01
-2.218969017267227173e-01 -6.159888505935668945e-01 -1.549315005540847778e-01
-2.315144985914230347e-01 -6.148615479469299316e-01 -1.448827683925628662e-01
-2.173603028059005737e-01 -6.251514554023742676e-01 -1.414342224597930908e-01
-2.283682525157928467e-01 -6.235848665237426758e-01 -1.313752681016921997e-01
4.989547729492187500e-01 -3.829519450664520264e-02 2.203022502362728119e-02
4.935391247272491455e-01 -4.852852225303649902e-02 2.685673907399177551e-02
4.955729842185974121e-01 -2.860212326049804688e-02 3.067138604819774628e-02
4.904577136039733887e-01 -3.928216546773910522e-02 3.518110513687133789e-02
-2.646895498037338257e-02 -2.000041157007217407e-01 -1.619825810194015503e-01
-3.871232271194458008e-02 -2.038066387176513672e-01 -1.536004990339279175e-01
-1.436060853302478790e-02 -2.051142752170562744e-01 -1.501296609640121460e-01
-2.673223242163658142e-02 -2.090612947940826416e-01 -1.415753066539764404e-01
-2.013742029666900635e-01 4.708950519561767578e-01 4.350157976150512695e-01
-2.082965672016143799e-01 4.612894058227539062e-01 4.398391842842102051e-01
-1.921436786651611328e-01 4.629088342189788818e-01 4.443624615669250488e-01
-1.987097114324569702e-01 4.530474245548248291e-01 4.490970671176910400e-01
-4.232151508331298828e-01 3.042816184461116791e-03 -9.901073575019836426e-02
-4.229570031166076660e-01 -1.158860139548778534e-02 -9.770219773054122925e-02
-4.235751032829284668e-01 7.333644665777683258e-03 -8.794628083705902100e-02
-4.223987758159637451e-01 -6.461703218519687653e-03 -8.637177199125289917e-02
-1.993203610181808472e-01 1.804937273263931274e-01 2.621831297874450684e-01
-2.052834928035736084e-01 1.713390201330184937e-01 2.686657011508941650e-01
-2.016639411449432373e-01 1.896987557411193848e-01 2.729587852954864502e-01
-2.073798626661300659e-01 1.800155043601989746e-01 2.792021930217742920e-01
-2.335783988237380981e-01 -6.267700195312500000e-01 -9.259591996669769287e-02
-2.476125657558441162e-01 -6.223140358924865723e-01 -8.401471376419067383e-02
-2.305066734552383423e-01 -6.361197829246520996e-01 -8.479024469852447510e-02
-2.449517995119094849e-01 -6.315929889678955078e-01 -7.591801136732101440e-02
2.599189579486846924e-01 -6.410873532295227051e-01 -4.059676527976989746e-01
2.506870627403259277e-01 -6.456697583198547363e-01 -3.903547227382659912e-01
2.678870558738708496e-01 -6.539147496223449707e-01 -3.903436362743377686e-01
2.581557631492614746e-01 -6.578575372695922852e-01 -3.745166659355163574e-01
4.495513439178466797e-01 -5.938732028007507324e-01 -4.471929967403411865e-01
4.500104188919067383e-01 -6.063824295997619629e-01 -4.444040060043334961e-01
4.543326497077941895e-01 -5.982403755187988281e-01 -4.351618289947509766e-01
4.541642665863037109e-01 -6.094430088996887207e-01 -4.307290017604827881e-01
7.765544950962066650e-02 4.775803536176681519e-02 1.442883610725402832e-01
6.986819952726364136e-02 3.158277273178100586e-02 1.474072486162185669e-01
9.348919987678527832e-02 5.258869752287864685e-02 1.452549546957015991e-01
8.597230911254882812e-02 3.616901114583015442e-02 1.476465910673141479e-01
-9.140190482139587402e-02 5.470700860023498535e-01 3.008168041706085205e-01
-1.017058342695236206e-01 5.404387116432189941e-01 3.087205290794372559e-01
-9.526908397674560547e-02 5.620780587196350098e-01 3.109492063522338867e-01
-1.054978519678115845e-01 5.558562874794006348e-01 3.186561763286590576e-01
-9.654873609542846680e-02 2.950073480606079102e-01 1.913151741027832031e-01
-1.092074513435363770e-01 2.863906025886535645e-01 1.967423111200332642e-01
-9.738120436668395996e-02 3.082079291343688965e-01 1.978814303874969482e-01
-1.097438260912895203e-01 2.998359501361846924e-01 2.038935422897338867e-01
4.340649843215942383e-01 -2.061050385236740112e-01 -3.199741840362548828e-01
4.307819604873657227e-01 -2.202270776033401489e-01 -3.238615691661834717e-01
4.434543251991271973e-01 -2.017325311899185181e-01 -3.165815770626068115e-01
4.400209486484527588e-01 -2.163004428148269653e-01 -3.199073970317840576e-01
3.716858625411987305e-01 -1.917100250720977783e-01 -2.062675543129444122e-03
3.584297299385070801e-01 -1.866259425878524780e-01 2.434065798297524452e-03
3.815964758396148682e-01 -1.811090558767318726e-01 2.733589615672826767e-03
3.687729537487030029e-01 -1.725328862667083740e-01 8.419020101428031921e-03
1.867243498563766479e-01 -3.243370354175567627e-01 -1.344057768583297729e-01
1.867813169956207275e-01 -3.366213738918304443e-01 -1.326356381177902222e-01
1.905047297477722168e-01 -3.201590478420257568e-01 -1.183127462863922119e-01
1.905068308115005493e-01 -3.324915766716003418e-01 -1.169729977846145630e-01
9.772273153066635132e-02 6.079240441322326660e-01 2.561616599559783936e-01
8.253934234380722046e-02 6.248733997344970703e-01 2.601683139801025391e-01
1.118729263544082642e-01 6.196886897087097168e-01 2.621147036552429199e-01
9.684998542070388794e-02 6.370653510093688965e-01 2.654590308666229248e-01
-3.226842582225799561e-01 -4.574867784976959229e-01 -2.873591482639312744e-01
-3.211481869220733643e-01 -4.685872793197631836e-01 -2.818985879421234131e-01
-3.194777369499206543e-01 -4.614516198635101318e-01 -2.704697251319885254e-01
-3.182998299598693848e-01 -4.730458557605743408e-01 -2.653393149375915527e-01
-3.794192075729370117e-01 -2.772541046142578125e-01 -2.167977988719940186e-01
-3.928960561752319336e-01 -2.748812735080718994e-01 -2.096559703350067139e-01
-3.736799359321594238e-01 -2.628912329673767090e-01 -2.130630314350128174e-01
-3.877786099910736084e-01 -2.585071027278900146e-01 -2.042936831712722778e-01
2.795141339302062988e-01 -5.106579065322875977e-01 -2.373722493648529053e-01
2.741935253143310547e-01 -5.222479104995727539e-01 -2.331623286008834839e-01
2.830303609371185303e-01 -5.129869580268859863e-01 -2.206922471523284912e-01
2.773518860340118408e-01 -5.219014883041381836e-01 -2.149757295846939087e-01
2.928910553455352783e-01 -3.733082413673400879e-01 -3.742513954639434814e-01
2.807004451751708984e-01 -3.647358119487762451e-01 -3.683505654335021973e-01
2.996153235435485840e-01 -3.618326783180236816e-01 -3.730214834213256836e-01
2.874922752380371094e-01 -3.525907397270202637e-01 -3.670229613780975342e-01
-1.027661710977554321e-01 7.660291790962219238e-01 4.215771555900573730e-01
-1.087314710021018982e-01 7.528718709945678711e-01 4.249235987663269043e-01
-1.051679477095603943e-01 7.789751291275024414e-01 4.296153187751770020e-01
-1.109968349337577820e-01 7.655863761901855469e-01 4.328722059726715088e-01
1.327844560146331787e-01 8.547294884920120239e-03 -1.959314346313476562e-01
1.254033893346786499e-01 2.844262402504682541e-03 -1.929180175065994263e-01
1.451832056045532227e-01 8.924658410251140594e-03 -1.982329040765762329e-01
1.362679600715637207e-01 9.575213305652141571e-03 -1.942322850227355957e-01
-4.049595296382904053e-01 4.837903380393981934e-02 4.314986243844032288e-02
-4.137554168701171875e-01 4.435249045491218567e-02 5.057409405708312988e-02
-3.961353600025177002e-01 5.087294429540634155e-02 5.489174276590347290e-02
-4.033489227294921875e-01 4.495657607913017273e-02 6.243531033396720886e-02
-3.259012103080749512e-02 4.585774838924407959e-01 3.173872828483581543e-02
-4.712302237749099731e-02 4.592700898647308350e-01 3.805622085928916931e-02
-2.293783053755760193e-02 4.725895822048187256e-01 3.390021249651908875e-02
-3.645382449030876160e-02 4.726389646530151367e-01 3.975987806916236877e-02
-1.994492709636688232e-01 -2.300374656915664673e-01 9.033232182264328003e-02
-2.127889543771743774e-01 -2.152875959873199463e-01 9.805748611688613892e-02
-1.885894387960433960e-01 -2.171386927366256714e-01 9.067331999540328979e-02
-2.018610388040542603e-01 -2.018400132656097412e-01 9.830880165100097656e-02
-2.174193505197763443e-03 -2.366360574960708618e-01 -7.361173629760742188e-02
-1.509536989033222198e-02 -2.433734983205795288e-01 -6.347068399190902710e-02
1.331330463290214539e-02 -2.381234019994735718e-01 -6.522136181592941284e-02
4.477836191654205322e-04 -2.450232058763504028e-01 -5.554437637329101562e-02
1.593803465366363525e-01 -1.274421066045761108e-01 -2.260974794626235962e-01
1.466177850961685181e-01 -1.112182736396789551e-01 -2.162911891937255859e-01
1.675406396389007568e-01 -1.153619363903999329e-01 -2.205805629491806030e-01
1.546827405691146851e-01 -9.879195690155029297e-02 -2.107008993625640869e-01
-1.548475474119186401e-01 3.297428786754608154e-01 2.745665013790130615e-01
-1.619620621204376221e-01 3.244408667087554932e-01 2.795948982238769531e-01
-1.573413461446762085e-01 3.393162786960601807e-01 2.815041840076446533e-01
-1.637909859418869019e-01 3.331589102745056152e-01 2.858561277389526367e-01
-1.973754465579986572e-01 1.900718361139297485e-01 1.053672507405281067e-01
-2.044527828693389893e-01 1.808303594589233398e-01 1.155059859156608582e-01
-1.990140825510025024e-01 1.982874572277069092e-01 1.205029115080833435e-01
-2.072253823280334473e-01 1.873729974031448364e-01 1.310985684394836426e-01
2.763534188270568848e-01 -5.096368193626403809e-01 -4.243394434452056885e-01
2.582636773586273193e-01 -5.046411156654357910e-01 -4.207150340080261230e-01
2.810803353786468506e-01 -4.955036640167236328e-01 -4.226645231246948242e-01
2.635051906108856201e-01 -4.905723631381988525e-01 -4.180485904216766357e-01
6.040353327989578247e-02 7.826351523399353027e-01 1.508843302726745605e-01
6.033492833375930786e-02 7.592828869819641113e-01 1.423885822296142578e-01
7.238960266113281250e-02 7.876044511795043945e-01 1.572200953960418701e-01
7.264455407857894897e-02 7.642089128494262695e-01 1.480094939470291138e-01
3.669143915176391602e-01 -6.319183111190795898e-01 -4.467608332633972168e-01
3.580691814422607422e-01 -6.361237168312072754e-01 -4.380065500736236572e-01
3.755760788917541504e-01 -6.388257741928100586e-01 -4.336645007133483887e-01
3.681902289390563965e-01 -6.430638432502746582e-01 -4.251137077808380127e-01
3.724762499332427979e-01 1.047583073377609253e-01 -2.025974839925765991e-01
3.567796647548675537e-01 1.103919222950935364e-01 -1.966301351785659790e-01
3.862855136394500732e-01 1.097437441349029541e-01 -1.989725083112716675e-01
3.710826635360717773e-01 1.146484613418579102e-01 -1.933073550462722778e-01
4.454552829265594482e-01 -4.409932196140289307e-01 -4.118326008319854736e-01
4.452173411846160889e-01 -4.581111073493957520e-01 -4.176290035247802734e-01
4.522121250629425049e-01 -4.329411387443542480e-01 -4.062027335166931152e-01
4.525966346263885498e-01 -4.490086436271667480e-01 -4.109409153461456299e-01
1.387857180088758469e-02 8.131244182586669922e-01 3.324635624885559082e-01
-3.847145941108465195e-03 8.221791386604309082e-01 3.414793908596038818e-01
2.994620613753795624e-02 8.243028521537780762e-01 3.271108567714691162e-01
1.253735646605491638e-02 8.331547975540161133e-01 3.355111777782440186e-01
1.535885632038116455e-01 6.672146916389465332e-01 2.899424731731414795e-01
1.372385025024414062e-01 6.818864941596984863e-01 2.914920747280120850e-01
1.668653637170791626e-01 6.791432499885559082e-01 2.954757213592529297e-01
1.522668898105621338e-01 6.893171072006225586e-01 2.967762649059295654e-01
-2.421363741159439087e-01 7.873483747243881226e-02 2.512012720108032227e-01
-2.463160306215286255e-01 6.529586017131805420e-02 2.577803432941436768e-01
-2.482244074344635010e-01 8.573077619075775146e-02 2.673782408237457275e-01
-2.531720101833343506e-01 7.066795974969863892e-02 2.761260867118835449e-01
1.494433581829071045e-01 2.799055576324462891e-01 -7.284875959157943726e-03
1.482363790273666382e-01 2.658940851688385010e-01 -1.334318984299898148e-02
1.614512801170349121e-01 2.764312922954559326e-01 3.343564691022038460e-03
1.602363288402557373e-01 2.626117169857025146e-01 -2.296685706824064255e-03
5.961290001869201660e-02 9.506581425666809082e-01 2.320274114608764648e-01
5.287320166826248169e-02 9.551616907119750977e-01 2.416384071111679077e-01
6.776450574398040771e-02 9.536011219024658203e-01 2.463413178920745850e-01
6.047086045145988464e-02 9.583576321601867676e-01 2.565418779850006104e-01
2.523866891860961914e-01 8.301346749067306519e-02 9.873075038194656372e-02
2.488616257905960083e-01 6.943045556545257568e-02 9.901823103427886963e-02
2.648368775844573975e-01 7.657840847969055176e-02 1.012510135769844055e-01
2.614891231060028076e-01 6.474035978317260742e-02 1.021689921617507935e-01
7.119440287351608276e-02 1.828310489654541016e-01 7.839208841323852539e-02
5.681105703115463257e-02 1.895229071378707886e-01 7.942896336317062378e-02
8.457829058170318604e-02 1.917845606803894043e-01 8.246410638093948364e-02
6.946342438459396362e-02 2.028543800115585327e-01 8.410482853651046753e-02
-2.369810342788696289e-01 -4.996192455291748047e-02 1.769319623708724976e-01
-2.485558986663818359e-01 -4.445889219641685486e-02 1.819252818822860718e-01
-2.310258001089096069e-01 -3.881630674004554749e-02 1.813033819198608398e-01
-2.424482107162475586e-01 -3.319813683629035950e-02 1.867209225893020630e-01
3.456787765026092529e-01 8.548975735902786255e-02 -3.999328985810279846e-02
3.345518410205841064e-01 8.316127955913543701e-02 -3.173612058162689209e-02
3.571549355983734131e-01 7.994717359542846680e-02 -2.980441413819789886e-02
3.454549312591552734e-01 7.804480195045471191e-02 -2.164967358112335205e-02
3.070571646094322205e-02 -7.044795900583267212e-02 -1.787562966346740723e-01
1.707739196717739105e-02 -6.408102810382843018e-02 -1.715435385704040527e-01
4.066200926899909973e-02 -5.551300197839736938e-02 -1.724268496036529541e-01
2.640713937580585480e-02 -4.889811202883720398e-02 -1.653980016708374023e-01
-3.305918574333190918e-01 6.734612584114074707e-02 1.667310856282711029e-02
-3.473247885704040527e-01 6.228270381689071655e-02 2.631964161992073059e-02
-3.160258829593658447e-01 6.986528635025024414e-02 2.891611680388450623e-02
-3.338032960891723633e-01 6.432835757732391357e-02 3.863133490085601807e-02
-2.047369182109832764e-01 2.270370870828628540e-01 1.523413509130477905e-01
-2.142866998910903931e-01 2.129212319850921631e-01 1.620189994573593140e-01
-2.075333297252655029e-01 2.391696870326995850e-01 1.709108352661132812e-01
-2.154403626918792725e-01 2.248502820730209351e-01 1.790699511766433716e-01
2.366539239883422852e-01 -6.744956970214843750e-01 -2.526699900627136230e-01
2.287476360797882080e-01 -6.657797694206237793e-01 -2.449110448360443115e-01
2.401718348264694214e-01 -6.770311594009399414e-01 -2.382502704858779907e-01
2.322895973920822144e-01 -6.675224304199218750e-01 -2.305517494678497314e-01
-3.310300111770629883e-01 4.313895106315612793e-02 -9.328284114599227905e-02
-3.428853452205657959e-01 5.368522554636001587e-02 -8.580105006694793701e-02
-3.226747214794158936e-01 5.551138892769813538e-02 -9.160515666007995605e-02
-3.349507451057434082e-01 6.549918651580810547e-02 -8.371015638113021851e-02
-1.916158348321914673e-01 6.635817885398864746e-01 3.879988193511962891e-01
-1.938301622867584229e-01 6.551656126976013184e-01 3.952884972095489502e-01
-1.924259811639785767e-01 6.702076196670532227e-01 3.979681134223937988e-01
-1.946243196725845337e-01 6.614342331886291504e-01 4.050229787826538086e-01
-6.016846001148223877e-02 4.363973438739776611e-01 3.636581823229789734e-02
-7.261899858713150024e-02 4.375440776348114014e-01 4.371374472975730896e-02
-5.450563505291938782e-02 4.515600502490997314e-01 3.907254710793495178e-02
-6.649470329284667969e-02 4.505451321601867676e-01 4.554763063788414001e-02
-7.773716002702713013e-02 -2.579792737960815430e-01 -2.805398963391780853e-02
-8.452603965997695923e-02 -2.643742263317108154e-01 -1.225266233086585999e-02
-6.529758125543594360e-02 -2.622504532337188721e-01 -1.512004435062408447e-02
-7.273458689451217651e-02 -2.686783373355865479e-01 9.334478527307510376e-04
-1.167256087064743042e-01 6.909096837043762207e-01 2.039569318294525146e-01
-1.232202053070068359e-01 6.787570714950561523e-01 2.082365304231643677e-01
-1.195378899574279785e-01 7.011495828628540039e-01 2.126223146915435791e-01
-1.254168152809143066e-01 6.887426972389221191e-01 2.166406512260437012e-01
-3.086635656654834747e-02 2.609535753726959229e-01 -5.609931051731109619e-02
-4.484657198190689087e-02 2.662091553211212158e-01 -4.883299022912979126e-02
-2.387312054634094238e-02 2.751314640045166016e-01 -5.240520834922790527e-02
-3.837598860263824463e-02 2.802294790744781494e-01 -4.617954418063163757e-02
-2.710042893886566162e-01 -5.295079350471496582e-01 -3.416391909122467041e-01
-2.681579887866973877e-01 -5.430640578269958496e-01 -3.401661813259124756e-01
-2.660253643989562988e-01 -5.231396555900573730e-01 -3.277123272418975830e-01
-2.638326287269592285e-01 -5.358526706695556641e-01 -3.262963891029357910e-01
3.576991856098175049e-01 5.807084590196609497e-02 3.034709580242633820e-02
3.486808836460113525e-01 5.570179224014282227e-02 4.012854397296905518e-02
3.701419234275817871e-01 5.239028111100196838e-02 4.042519629001617432e-02
3.613977432250976562e-01 4.876196756958961487e-02 4.943681880831718445e-02
-3.865118026733398438e-01 3.368932381272315979e-02 1.379039883613586426e-01
-3.873532116413116455e-01 2.404117397964000702e-02 1.415334343910217285e-01
-3.828139007091522217e-01 3.286111727356910706e-02 1.507391333580017090e-01
-3.834664821624755859e-01 2.339172549545764923e-02 1.544180214405059814e-01
-3.998897075653076172e-01 -6.938503980636596680e-01 -2.876073122024536133e-01
-4.079800844192504883e-01 -6.940450668334960938e-01 -2.760324478149414062e-01
-3.896636068820953369e-01 -7.026679515838623047e-01 -2.797854542732238770e-01
-3.987071216106414795e-01 -7.016420364379882812e-01 -2.689362168312072754e-01
-8.686482906341552734e-02 3.470245599746704102e-01 1.949806138873100281e-02
-1.038034707307815552e-01 3.521197736263275146e-01 2.979008667171001434e-02
-8.880569785833358765e-02 3.599662482738494873e-01 2.820977382361888885e-02
-1.053133234381675720e-01 3.647698163986206055e-01 3.807375952601432800e-02
-1.799038946628570557e-01 5.243461728096008301e-01 4.099543690681457520e-01
-1.845297962427139282e-01 5.141696929931640625e-01 4.190239608287811279e-01
-1.813981682062149048e-01 5.369756817817687988e-01 4.205821156501770020e-01
-1.852333098649978638e-01 5.280662775039672852e-01 4.298643171787261963e-01
-8.292560279369354248e-02 9.199700951576232910e-01 3.898698091506958008e-01
-8.943866193294525146e-02 9.082642793655395508e-01 3.963069915771484375e-01
-6.735464185476303101e-02 9.079058766365051270e-01 3.896276950836181641e-01
-7.417391985654830933e-02 8.984325528144836426e-01 3.961573839187622070e-01
2.577346563339233398e-01 2.938662767410278320e-01 1.504898667335510254e-01
2.597768008708953857e-01 2.779970467090606689e-01 1.481395363807678223e-01
2.637142241001129150e-01 2.945906519889831543e-01 1.628675758838653564e-01
2.645868957042694092e-01 2.786528170108795166e-01 1.599135547876358032e-01
-1.840658672153949738e-02 -2.763115763664245605e-01 9.639643132686614990e-03
-3.180140629410743713e-02 -2.705213129520416260e-01 1.992454752326011658e-02
-7.242730818688869476e-03 -2.745524644851684570e-01 2.005913853645324707e-02
-2.223123610019683838e-02 -2.673636674880981445e-01 3.014352172613143921e-02
-1.374172419309616089e-01 -2.623346745967864990e-01 -2.471214905381202698e-02
-1.443417519330978394e-01 -2.682520747184753418e-01 -1.256641745567321777e-02
-1.237998157739639282e-01 -2.653436064720153809e-01 -1.172801293432712555e-02
-1.304924935102462769e-01 -2.712476849555969238e-01 3.336658701300621033e-04
2.719022631645202637e-01 -4.807663261890411377e-01 -2.691883742809295654e-01
2.723647654056549072e-01 -4.950637519359588623e-01 -2.639223635196685791e-01
2.711945772171020508e-01 -4.769393801689147949e-01 -2.513657212257385254e-01
2.731752097606658936e-01 -4.918527305126190186e-01 -2.459285408258438110e-01
1.726647764444351196e-01 -3.612041175365447998e-01 -3.445176482200622559e-01
1.587961018085479736e-01 -3.564441204071044922e-01 -3.339732587337493896e-01
1.877573281526565552e-01 -3.681581318378448486e-01 -3.422261178493499756e-01
1.731053292751312256e-01 -3.656992912292480469e-01 -3.314788341522216797e-01
1.246984377503395081e-01 -3.753816485404968262e-01 -1.591656953096389771e-01
1.272571980953216553e-01 -3.879863321781158447e-01 -1.515871584415435791e-01
1.305763423442840576e-01 -3.763065040111541748e-01 -1.466698348522186279e-01
1.316449195146560669e-01 -3.901483416557312012e-01 -1.392561644315719604e-01
5.847355350852012634e-02 3.914940059185028076e-01 1.658336222171783447e-01
4.613963514566421509e-02 4.036584794521331787e-01 1.713002473115921021e-01
6.482444703578948975e-02 4.063636660575866699e-01 1.701380163431167603e-01
5.280087143182754517e-02 4.190026819705963135e-01 1.753475666046142578e-01
1.915341019630432129e-01 -3.600405454635620117e-01 -3.520916104316711426e-01
1.760100871324539185e-01 -3.568753600120544434e-01 -3.412662148475646973e-01
2.079394310712814331e-01 -3.688195943832397461e-01 -3.500950634479522705e-01
1.924823820590972900e-01 -3.672181367874145508e-01 -3.393155038356781006e-01
1.940328180789947510e-01 1.218045800924301147e-01 -1.023755818605422974e-01
1.838866174221038818e-01 1.245964989066123962e-01 -9.353145211935043335e-02
2.029208838939666748e-01 1.180813834071159363e-01 -8.962760120630264282e-02
1.932063400745391846e-01 1.208846271038055420e-01 -8.107764273881912231e-02
3.903464972972869873e-01 -6.383758783340454102e-01 -4.276164770126342773e-01
3.830054104328155518e-01 -6.422373652458190918e-01 -4.192240238189697266e-01
3.995057940483093262e-01 -6.421443819999694824e-01 -4.175258278846740723e-01
3.927015364170074463e-01 -6.460175514221191406e-01 -4.092280864715576172e-01
2.738310098648071289e-01 -4.649957120418548584e-01 -2.285075634717941284e-01
2.739471793174743652e-01 -4.761830866336822510e-01 -2.223479449748992920e-01
2.765890955924987793e-01 -4.641419947147369385e-01 -2.153944373130798340e-01
2.762774229049682617e-01 -4.747323393821716309e-01 -2.103694528341293335e-01
4.499139487743377686e-01 -3.285863995552062988e-02 -2.258167415857315063e-01
4.512259364128112793e-01 -4.804166778922080994e-02 -2.286020517349243164e-01
4.555957019329071045e-01 -2.938740700483322144e-02 -2.165911793708801270e-01
4.574183523654937744e-01 -4.495626688003540039e-02 -2.158291935920715332e-01
-1.958899050951004028e-01 6.178284287452697754e-01 3.746592104434967041e-01
-1.980212926864624023e-01 6.073481440544128418e-01 3.775272369384765625e-01
-1.964296996593475342e-01 6.230710744857788086e-01 3.868406713008880615e-01
-1.983001381158828735e-01 6.122128367424011230e-01 3.896516263484954834e-01
-3.463959395885467529e-01 -7.192309498786926270e-01 -2.433468252420425415e-01
-3.538103699684143066e-01 -7.214399576187133789e-01 -2.312820702791213989e-01
-3.405385315418243408e-01 -7.254006266593933105e-01 -2.255521863698959351e-01
-3.464587926864624023e-01 -7.306647300720214844e-01 -2.100150436162948608e-01
-4.091376364231109619e-01 -3.927360177040100098e-01 -2.731563448905944824e-01
-4.121110141277313232e-01 -4.076080024242401123e-01 -2.620627582073211670e-01
-4.119069278240203857e-01 -3.909239172935485840e-01 -2.585317194461822510e-01
-4.150349497795104980e-01 -4.046149551868438721e-01 -2.476118654012680054e-01
1.257030963897705078e-01 -3.572832345962524414e-01 -1.558992862701416016e-01
1.246608272194862366e-01 -3.686899542808532715e-01 -1.505694091320037842e-01
1.312969475984573364e-01 -3.551937639713287354e-01 -1.429045200347900391e-01
1.303594559431076050e-01 -3.671707510948181152e-01 -1.375492662191390991e-01
1.908333599567413330e-01 4.132568538188934326e-01 9.916037321090698242e-02
1.899701356887817383e-01 3.993901312351226807e-01 9.105268120765686035e-02
2.044596672058105469e-01 4.149710536003112793e-01 1.155824661254882812e-01
2.037429213523864746e-01 4.019796848297119141e-01 1.076930761337280273e-01
-6.297873333096504211e-04 5.794411301612854004e-01 7.322032749652862549e-02
-1.631105504930019379e-02 5.886737108230590820e-01 7.878778874874114990e-02
1.020711846649646759e-02 5.963654518127441406e-01 7.660660147666931152e-02
-4.275159444659948349e-03 6.053022146224975586e-01 8.182143419981002808e-02
1.359912157058715820e-01 2.443748712539672852e-01 1.118348613381385803e-01
1.225120499730110168e-01 2.584380209445953369e-01 1.132292151451110840e-01
1.490843296051025391e-01 2.484468072652816772e-01 1.174348592758178711e-01
