1.777549833059310913e-01 -3.896384537220001221e-01 -5.345812439918518066e-01
1.684865355491638184e-01 -4.039438962936401367e-01 -5.230380892753601074e-01
-1.551460921764373779e-01 -4.435708820819854736e-01 4.811769723892211914e-01
-1.700337827205657959e-01 -4.298771023750305176e-01 4.881847500801086426e-01
-1.467927396297454834e-01 -4.274767041206359863e-01 5.076274275779724121e-01
-1.617288291454315186e-01 -4.127319157123565674e-01 5.168297886848449707e-01
-5.566603541374206543e-01 -3.776645958423614502e-01 -1.753533631563186646e-01
-5.713008046150207520e-01 -3.760783076286315918e-01 -1.533782035112380981e-01
-5.478059053421020508e-01 -3.879525363445281982e-01 -1.579379588365554810e-01
-5.639268755912780762e-01 -3.860084414482116699e-01 -1.336311697959899902e-01
2.668743431568145752e-01 -3.297195211052894592e-02 7.702798843383789062e-01
2.587835192680358887e-01 -5.320025235414505005e-02 7.785589694976806641e-01
2.583227753639221191e-01 -1.610350608825683594e-02 7.848398089408874512e-01
2.506174743175506592e-01 -3.700388222932815552e-02 7.924510836601257324e-01
5.991997122764587402e-01 -3.697154521942138672e-01 9.508027136325836182e-02
5.855379104614257812e-01 -3.755293488502502441e-01 1.066319644451141357e-01
6.064718365669250488e-01 -3.609660863876342773e-01 1.137823536992073059e-01
5.919392108917236328e-01 -3.663206696510314941e-01 1.271966993808746338e-01
8.712427616119384766e-01 1.262921839952468872e-01 -1.590023934841156006e-01
8.624250888824462891e-01 1.444417685270309448e-01 -1.521738618612289429e-01
8.795139789581298828e-01 1.328899115324020386e-01 -1.367824375629425049e-01
8.693841695785522461e-01 1.524864137172698975e-01 -1.277815997600555420e-01
5.721600651741027832e-01 -4.596395045518875122e-02 3.946987688541412354e-01
5.506507158279418945e-01 -5.471286177635192871e-02 4.091579318046569824e-01
5.721633434295654297e-01 -1.971191167831420898e-02 3.984490931034088135e-01
5.512459874153137207e-01 -2.778661809861660004e-02 4.135599434375762939e-01
4.306438565254211426e-01 1.893832087516784668e-01 4.702576398849487305e-01
4.186717569828033447e-01 1.781358420848846436e-01 4.947945475578308105e-01
4.299433529376983643e-01 1.675869524478912354e-01 4.836180806159973145e-01
4.181983768939971924e-01 1.564401090145111084e-01 5.078434944152832031e-01
-2.958263754844665527e-01 6.387716531753540039e-01 2.028717398643493652e-01
-3.088315725326538086e-01 6.197557449340820312e-01 2.067197859287261963e-01
-2.734332680702209473e-01 6.421797275543212891e-01 2.250942587852478027e-01
-2.878952324390411377e-01 6.213908791542053223e-01 2.288670837879180908e-01
-4.335807859897613525e-01 4.102171659469604492e-01 2.793184518814086914e-01
-4.479180872440338135e-01 3.971012830734252930e-01 2.867074012756347656e-01
-4.177891612052917480e-01 4.053872823715209961e-01 3.020090758800506592e-01
-4.318308532238006592e-01 3.917876183986663818e-01 3.092012107372283936e-01
-2.756640613079071045e-01 -1.471764594316482544e-01 7.138889431953430176e-01
-2.796505987644195557e-01 -1.526562869548797607e-01 7.041307687759399414e-01
-2.630959451198577881e-01 -1.413322240114212036e-01 7.321875095367431641e-01
-2.657682001590728760e-01 -1.522186547517776489e-01 7.225643396377563477e-01
3.820794522762298584e-01 -2.886070609092712402e-01 -4.629329144954681396e-01
3.673313856124877930e-01 -3.065324723720550537e-01 -4.584675729274749756e-01
4.003804624080657959e-01 -2.897128760814666748e-01 -4.469541311264038086e-01
3.871088027954101562e-01 -3.062087595462799072e-01 -4.436813890933990479e-01
2.685478031635284424e-01 -6.134535074234008789e-01 -2.682264149188995361e-01
2.580332756042480469e-01 -6.314002275466918945e-01 -2.592509388923645020e-01
2.777851819992065430e-01 -6.231310367584228516e-01 -2.513166964054107666e-01
2.678425014019012451e-01 -6.405079364776611328e-01 -2.419220954179763794e-01
-5.326332449913024902e-01 1.490990370512008667e-01 -4.111367166042327881e-01
-5.461344122886657715e-01 1.375501155853271484e-01 -4.007473289966583252e-01
-5.271325111389160156e-01 1.733956485986709595e-01 -4.015029370784759521e-01
-5.429593920707702637e-01 1.620084792375564575e-01 -3.909807503223419189e-01
9.697076678276062012e-02 2.434720695018768311e-01 -7.864493727684020996e-01
8.117247372865676880e-02 2.563669085502624512e-01 -7.745993137359619141e-01
1.082680523395538330e-01 2.539770305156707764e-01 -7.623016834259033203e-01
9.284651279449462891e-02 2.662758827209472656e-01 -7.512861490249633789e-01
3.120340406894683838e-01 -1.985880136489868164e-01 6.187642216682434082e-01
2.979967296123504639e-01 -1.991037726402282715e-01 6.323260068893432617e-01
3.052267432212829590e-01 -1.797239184379577637e-01 6.414010524749755859e-01
2.903246283531188965e-01 -1.784443855285644531e-01 6.570549011230468750e-01
-4.860896766185760498e-01 6.866870820522308350e-02 -4.692219793796539307e-01
-4.984759390354156494e-01 5.293601378798484802e-02 -4.613951146602630615e-01
-4.925901591777801514e-01 8.925659209489822388e-02 -4.599514603614807129e-01
-5.048975944519042969e-01 7.715131342411041260e-02 -4.513700902462005615e-01
5.330311134457588196e-02 -5.882464647293090820e-01 -3.860990405082702637e-01
3.749265521764755249e-02 -6.010617017745971680e-01 -3.777072727680206299e-01
7.302805036306381226e-02 -5.936008691787719727e-01 -3.792206048965454102e-01
5.642111599445343018e-02 -6.060471534729003906e-01 -3.719430267810821533e-01
-1.694877743721008301e-01 -6.872165203094482422e-01 -2.851781845092773438e-01
-1.794147938489913940e-01 -6.987969875335693359e-01 -2.703886926174163818e-01
-1.553140431642532349e-01 -7.127334475517272949e-01 -2.756604850292205811e-01
-1.680872738361358643e-01 -7.226286530494689941e-01 -2.606899738311767578e-01
-3.271836340427398682e-01 -5.606422424316406250e-01 2.473095208406448364e-01
-3.397943377494812012e-01 -5.355301499366760254e-01 2.558678090572357178e-01
-3.196077942848205566e-01 -5.493119955062866211e-01 2.724348008632659912e-01
-3.330483436584472656e-01 -5.275914072990417480e-01 2.774040699005126953e-01
3.258433043956756592e-01 2.803943157196044922e-01 -5.287117362022399902e-01
3.141410648822784424e-01 2.932006418704986572e-01 -5.319246649742126465e-01
3.392126560211181641e-01 2.859368026256561279e-01 -5.083385109901428223e-01
3.269945681095123291e-01 2.989589571952819824e-01 -5.124804377555847168e-01
-5.234453082084655762e-01 4.300394952297210693e-01 -8.991312980651855469e-02
-5.364418625831604004e-01 4.209053218364715576e-01 -7.969120889902114868e-02
-5.124197006225585938e-01 4.398347139358520508e-01 -7.260869443416595459e-02
-5.249195694923400879e-01 4.304537475109100342e-01 -6.280206143856048584e-02
-4.013301134109497070e-01 2.827299237251281738e-01 4.485960602760314941e-01
-4.093306362628936768e-01 2.574305236339569092e-01 4.543927609920501709e-01
-3.825195729732513428e-01 2.828377485275268555e-01 4.678048789501190186e-01
-3.912058770656585693e-01 2.574288547039031982e-01 4.734396934509277344e-01
1.394972801208496094e-01 4.065790474414825439e-01 5.286097526550292969e-01
1.273668706417083740e-01 4.025462567806243896e-01 5.450587868690490723e-01
1.521760076284408569e-01 3.873338997364044189e-01 5.387688875198364258e-01
1.398202925920486450e-01 3.868578076362609863e-01 5.562718510627746582e-01
-4.367038309574127197e-01 5.192865133285522461e-01 6.819622963666915894e-02
-4.489527940750122070e-01 5.038666725158691406e-01 7.984064519405364990e-02
-4.251876175403594971e-01 5.251217484474182129e-01 9.427589923143386841e-02
-4.363618195056915283e-01 5.086015462875366211e-01 1.059364974498748779e-01
2.459482848644256592e-02 -3.647048771381378174e-01 -6.209577322006225586e-01
3.529988694936037064e-03 -3.728456497192382812e-01 -6.110644340515136719e-01
4.472197219729423523e-02 -3.756994009017944336e-01 -6.075287461280822754e-01
2.284292690455913544e-02 -3.829952776432037354e-01 -5.992339253425598145e-01
-3.765184581279754639e-01 2.007463574409484863e-01 -5.362203121185302734e-01
-3.909136354923248291e-01 1.849661767482757568e-01 -5.289205908775329590e-01
-3.782862722873687744e-01 2.190185636281967163e-01 -5.226834416389465332e-01
-3.931227326393127441e-01 2.049701064825057983e-01 -5.144983530044555664e-01
4.717133641242980957e-01 4.794670343399047852e-01 4.609928280115127563e-02
4.614742100238800049e-01 4.897952973842620850e-01 5.988600105047225952e-02
4.780780971050262451e-01 4.733361601829528809e-01 6.461705267429351807e-02
4.664450287818908691e-01 4.843430817127227783e-01 7.773202657699584961e-02
4.625186324119567871e-01 2.077003866434097290e-01 -4.395468831062316895e-01
4.530275762081146240e-01 2.036050856113433838e-01 -4.485381245613098145e-01
4.743268489837646484e-01 2.228477299213409424e-01 -4.193586707115173340e-01
4.669400155544281006e-01 2.122425734996795654e-01 -4.291417896747589111e-01
2.308589667081832886e-01 8.030611276626586914e-02 -8.130311965942382812e-01
2.324164062738418579e-01 5.851218476891517639e-02 -8.252085447311401367e-01
2.397851794958114624e-01 8.921629935503005981e-02 -7.927967905998229980e-01
2.415202260017395020e-01 6.571200489997863770e-02 -8.044701814651489258e-01
2.123831957578659058e-01 9.582581371068954468e-02 -8.240846395492553711e-01
2.127418816089630127e-01 7.557800412178039551e-02 -8.379771709442138672e-01
2.296810895204544067e-01 1.028310805559158325e-01 -8.008180856704711914e-01
2.282832711935043335e-01 8.665902167558670044e-02 -8.127735853195190430e-01
-4.695991575717926025e-01 -4.041906893253326416e-01 2.508405447006225586e-01
-4.838334321975708008e-01 -3.915596306324005127e-01 2.524861693382263184e-01
-4.585677981376647949e-01 -3.972878158092498779e-01 2.742529511451721191e-01
-4.731846749782562256e-01 -3.850696086883544922e-01 2.740193605422973633e-01
-5.546744465827941895e-01 -3.954506516456604004e-01 -1.323272287845611572e-01
-5.710412859916687012e-01 -3.935747444629669189e-01 -1.078870669007301331e-01
-5.470288991928100586e-01 -4.023121595382690430e-01 -1.146601513028144836e-01
-5.627837777137756348e-01 -4.000101387500762939e-01 -9.036506712436676025e-02
-2.380609959363937378e-01 -3.933385312557220459e-01 -5.007838606834411621e-01
-2.560100257396697998e-01 -3.990345001220703125e-01 -4.799663722515106201e-01
-2.160357385873794556e-01 -4.077613055706024170e-01 -4.897992312908172607e-01
-2.371400445699691772e-01 -4.089646637439727783e-01 -4.733124971389770508e-01
-2.540637552738189697e-02 7.068715989589691162e-02 -9.796831607818603516e-01
-3.972468525171279907e-02 5.058059096336364746e-02 -9.811567068099975586e-01
2.482672221958637238e-03 9.245786070823669434e-02 -9.778217077255249023e-01
-1.106231007725000381e-02 6.860308349132537842e-02 -9.810933470726013184e-01
-6.008367538452148438e-01 -2.972287535667419434e-01 2.452190518379211426e-01
-6.166576147079467773e-01 -2.834737300872802734e-01 2.460729777812957764e-01
-5.859568715095520020e-01 -2.946857213973999023e-01 2.593949437141418457e-01
-5.998736619949340820e-01 -2.793292105197906494e-01 2.613013386726379395e-01
2.721418440341949463e-01 4.248985350131988525e-01 4.264630377292633057e-01
2.583556473255157471e-01 4.237120151519775391e-01 4.420284330844879150e-01
2.847319543361663818e-01 4.042530655860900879e-01 4.330261647701263428e-01
2.692087888717651367e-01 4.060289263725280762e-01 4.490669965744018555e-01
-3.210452795028686523e-01 -5.912696719169616699e-01 2.300104647874832153e-01
-3.327321708202362061e-01 -5.666154026985168457e-01 2.389091402292251587e-01
-3.086435198783874512e-01 -5.799476504325866699e-01 2.562745213508605957e-01
-3.217703700065612793e-01 -5.572969913482666016e-01 2.624845206737518311e-01
2.685528695583343506e-01 4.276500940322875977e-01 -4.290801882743835449e-01
2.523900866508483887e-01 4.411076009273529053e-01 -4.286265969276428223e-01
2.860683798789978027e-01 4.286895394325256348e-01 -4.117414951324462891e-01
2.700038850307464600e-01 4.418097436428070068e-01 -4.117338359355926514e-01
3.783749043941497803e-01 1.956916153430938721e-01 5.314258933067321777e-01
3.691857159137725830e-01 1.892429739236831665e-01 5.480911731719970703e-01
3.778332471847534180e-01 1.748787164688110352e-01 5.454571843147277832e-01
3.708171248435974121e-01 1.666984707117080688e-01 5.620267987251281738e-01
-7.924540042877197266e-01 -7.920230180025100708e-02 2.430135160684585571e-01
-8.001592159271240234e-01 -9.075704216957092285e-02 2.344701439142227173e-01
-7.751932740211486816e-01 -7.967187464237213135e-02 2.545829415321350098e-01
-7.831327915191650391e-01 -9.214190393686294556e-02 2.460636198520660400e-01
-1.488229036331176758e-01 -2.319150418043136597e-01 -7.707499265670776367e-01
-1.571618169546127319e-01 -2.411604821681976318e-01 -7.503719925880432129e-01
-1.423508971929550171e-01 -2.521430253982543945e-01 -7.516383528709411621e-01
-1.514481455087661743e-01 -2.612053453922271729e-01 -7.309059500694274902e-01
-4.236970543861389160e-01 -5.481529235839843750e-01 2.662514150142669678e-02
-4.318856298923492432e-01 -5.354038476943969727e-01 3.869661316275596619e-02
-4.105370640754699707e-01 -5.598943829536437988e-01 5.163071304559707642e-02
-4.191868305206298828e-01 -5.457434058189392090e-01 6.342546641826629639e-02
-4.934966936707496643e-02 6.130793690681457520e-01 3.603802323341369629e-01
-5.697763338685035706e-02 5.957317948341369629e-01 3.731047213077545166e-01
-3.001114912331104279e-02 6.106205582618713379e-01 3.667643368244171143e-01
-3.806905448436737061e-02 5.943834185600280762e-01 3.792605698108673096e-01
5.259981751441955566e-01 -3.825083673000335693e-01 -2.095492482185363770e-01
5.150159597396850586e-01 -3.957223296165466309e-01 -2.004911452531814575e-01
5.348289012908935547e-01 -3.858921825885772705e-01 -1.878558695316314697e-01
5.241462588310241699e-01 -3.998190760612487793e-01 -1.777054369449615479e-01
-5.755219459533691406e-01 -1.990701705217361450e-01 -3.548575341701507568e-01
-5.949791669845581055e-01 -1.964815855026245117e-01 -3.382964432239532471e-01
-5.615307092666625977e-01 -2.196115255355834961e-01 -3.492286205291748047e-01
-5.775861144065856934e-01 -2.211834639310836792e-01 -3.328790962696075439e-01
-8.486411720514297485e-02 -3.897818624973297119e-01 -5.755293965339660645e-01
-9.346991032361984253e-02 -4.087820351123809814e-01 -5.475519895553588867e-01
-7.497852295637130737e-02 -4.076159298419952393e-01 -5.557520985603332520e-01
-8.336628973484039307e-02 -4.261085689067840576e-01 -5.284167528152465820e-01
7.528346776962280273e-01 -1.986103057861328125e-01 -2.066516578197479248e-01
7.444991469383239746e-01 -2.144770771265029907e-01 -2.027875781059265137e-01
7.705225944519042969e-01 -2.002158761024475098e-01 -1.925448030233383179e-01
7.615072131156921387e-01 -2.155090421438217163e-01 -1.886085271835327148e-01
5.520066618919372559e-01 4.119700193405151367e-01 -1.857138983905315399e-02
5.416488051414489746e-01 4.196750819683074951e-01 -6.609382107853889465e-04
5.657934546470642090e-01 3.996818363666534424e-01 5.271967500448226929e-03
5.536322593688964844e-01 4.065532088279724121e-01 2.293370291590690613e-02
-5.364664196968078613e-01 -4.285909831523895264e-01 3.311860933899879456e-02
-5.428040027618408203e-01 -4.203957617282867432e-01 4.920216649770736694e-02
-5.289414525032043457e-01 -4.331997931003570557e-01 5.849874019622802734e-02
-5.355179309844970703e-01 -4.245816469192504883e-01 7.340460270643234253e-02
4.829739779233932495e-02 -2.575233280658721924e-01 7.819012999534606934e-01
3.526069968938827515e-02 -2.553391158580780029e-01 7.902060151100158691e-01
6.142519414424896240e-02 -2.483916282653808594e-01 7.938953638076782227e-01
4.906338453292846680e-02 -2.462631165981292725e-01 8.021212220191955566e-01
-3.773506879806518555e-01 1.804126501083374023e-01 -5.496081113815307617e-01
-3.908920288085937500e-01 1.646809875965118408e-01 -5.420623421669006348e-01
-3.801714479923248291e-01 1.989709138870239258e-01 -5.335677862167358398e-01
-3.943598568439483643e-01 1.831900030374526978e-01 -5.262022018432617188e-01
-1.850929707288742065e-01 3.170592784881591797e-01 6.193910837173461914e-01
-1.976611018180847168e-01 3.013294041156768799e-01 6.325294971466064453e-01
-1.682514250278472900e-01 3.121230304241180420e-01 6.404521465301513672e-01
-1.811289936304092407e-01 2.964917421340942383e-01 6.532939672470092773e-01
1.678422689437866211e-01 3.594001829624176025e-01 -5.820932388305664062e-01
1.543731093406677246e-01 3.767443299293518066e-01 -5.673856139183044434e-01
1.787504851818084717e-01 3.619222640991210938e-01 -5.608840584754943848e-01
1.656726598739624023e-01 3.799186944961547852e-01 -5.451879501342773438e-01
-5.300893783569335938e-01 -4.117440283298492432e-01 -1.435448229312896729e-01
-5.463936924934387207e-01 -4.092023372650146484e-01 -1.189105808734893799e-01
-5.232137441635131836e-01 -4.198755323886871338e-01 -1.256623417139053345e-01
-5.382261872291564941e-01 -4.174653589725494385e-01 -1.023007631301879883e-01
-2.498007267713546753e-01 7.988562583923339844e-01 -1.698811911046504974e-02
-2.625166773796081543e-01 7.825418114662170410e-01 -4.813893698155879974e-03
-2.433844208717346191e-01 8.080437183380126953e-01 5.973135121166706085e-04
-2.556696236133575439e-01 7.924984097480773926e-01 1.255139242857694626e-02
-4.102274477481842041e-01 5.536113977432250977e-01 3.726656362414360046e-02
-4.210861325263977051e-01 5.392945408821105957e-01 4.658035933971405029e-02
-4.004209637641906738e-01 5.660488009452819824e-01 5.710219219326972961e-02
-4.113618135452270508e-01 5.518592596054077148e-01 6.479495763778686523e-02
7.976943254470825195e-01 -4.941554367542266846e-02 2.450612783432006836e-01
7.774221301078796387e-01 -5.450497195124626160e-02 2.603666782379150391e-01
8.019630908966064453e-01 -2.508689649403095245e-02 2.454519420862197876e-01
7.818439006805419922e-01 -3.220539167523384094e-02 2.607240676879882812e-01
8.324509859085083008e-02 6.211593747138977051e-01 3.549237251281738281e-01
6.730856746435165405e-02 6.099385023117065430e-01 3.684575855731964111e-01
1.026113778352737427e-01 6.102604269981384277e-01 3.549944758415222168e-01
8.693820238113403320e-02 5.993482470512390137e-01 3.685590624809265137e-01
-5.211456120014190674e-02 6.726245284080505371e-01 -3.282839953899383545e-01
-7.968706637620925903e-02 6.804293394088745117e-01 -3.178213834762573242e-01
-3.154549747705459595e-02 6.941449046134948730e-01 -3.197162449359893799e-01
-5.848410725593566895e-02 7.003336548805236816e-01 -3.115305304527282715e-01
-4.036971926689147949e-01 5.417895317077636719e-01 -1.320171654224395752e-01
-4.166404604911804199e-01 5.306536555290222168e-01 -1.198563352227210999e-01
-4.019229412078857422e-01 5.535024404525756836e-01 -1.073498278856277466e-01
-4.143771231174468994e-01 5.415676832199096680e-01 -9.551265835762023926e-02
2.608678042888641357e-01 -7.581672072410583496e-01 1.075408458709716797e-01
2.459522932767868042e-01 -7.702578306198120117e-01 1.175544783473014832e-01
2.618999481201171875e-01 -7.457486391067504883e-01 1.281249672174453735e-01
2.454520612955093384e-01 -7.578489184379577637e-01 1.372053772211074829e-01
-6.607297062873840332e-01 -1.671752780675888062e-01 3.007728457450866699e-01
-6.675467491149902344e-01 -1.784422546625137329e-01 2.922941744327545166e-01
-6.442074775695800781e-01 -1.605747789144515991e-01 3.157315850257873535e-01
-6.499016880989074707e-01 -1.771416962146759033e-01 3.052114546298980713e-01
-2.243383824825286865e-01 4.152964353561401367e-01 -4.811360836029052734e-01
-2.492991834878921509e-01 4.059267938137054443e-01 -4.721637666225433350e-01
-2.082213759422302246e-01 4.382949769496917725e-01 -4.627627134323120117e-01
-2.332153618335723877e-01 4.302943348884582520e-01 -4.533573389053344727e-01
-4.943947494029998779e-02 4.099294841289520264e-01 5.540336966514587402e-01
-6.002270802855491638e-02 3.954918086528778076e-01 5.672695636749267578e-01
-2.569631859660148621e-02 3.971638381481170654e-01 5.713776946067810059e-01
-3.783237934112548828e-02 3.828215003013610840e-01 5.840727686882019043e-01
6.129635870456695557e-02 -9.277262687683105469e-01 1.324298381805419922e-01
4.571754112839698792e-02 -9.236291050910949707e-01 1.427282989025115967e-01
6.953494250774383545e-02 -9.096683859825134277e-01 1.515968292951583862e-01
5.377695336937904358e-02 -9.043912887573242188e-01 1.626049578189849854e-01
-3.338938057422637939e-01 -7.737724483013153076e-02 6.597585678100585938e-01
-3.296434283256530762e-01 -9.883596003055572510e-02 6.540585160255432129e-01
-3.247067928314208984e-01 -7.716643810272216797e-02 6.747770309448242188e-01
-3.203554153442382812e-01 -9.844902902841567993e-02 6.691644787788391113e-01
-5.512646958231925964e-02 2.339580059051513672e-01 -8.175361752510070801e-01
-7.514258474111557007e-02 2.341081649065017700e-01 -8.115509152412414551e-01
-3.826243057847023010e-02 2.424863576889038086e-01 -8.098160028457641602e-01
-5.862987786531448364e-02 2.422893494367599487e-01 -8.036935925483703613e-01
-2.441832236945629120e-02 6.823726296424865723e-01 -3.247065842151641846e-01
-5.143959447741508484e-02 6.883360743522644043e-01 -3.166679143905639648e-01
-4.852181300520896912e-03 7.045649290084838867e-01 -3.165682554244995117e-01
-3.182785958051681519e-02 7.077587842941284180e-01 -3.116995990276336670e-01
8.208918571472167969e-02 -6.949399709701538086e-01 -3.103175163269042969e-01
7.145807147026062012e-02 -7.075113058090209961e-01 -3.043481409549713135e-01
1.031861379742622375e-01 -7.072277665138244629e-01 -2.979331314563751221e-01
9.290397912263870239e-02 -7.205193042755126953e-01 -2.916194796562194824e-01
9.512518644332885742e-01 -1.144051477313041687e-01 3.597034513950347900e-02
9.393336772918701172e-01 -1.266836971044540405e-01 4.640511050820350647e-02
9.505885243415832520e-01 -1.016746610403060913e-01 5.596773326396942139e-02
9.380860328674316406e-01 -1.141234785318374634e-01 6.669592112302780151e-02
2.231165319681167603e-01 -7.137906551361083984e-01 -2.202249318361282349e-01
2.105644196271896362e-01 -7.368183135986328125e-01 -2.106611430644989014e-01
2.421365231275558472e-01 -7.140514254570007324e-01 -1.983293145895004272e-01
2.296621799468994141e-01 -7.362824082374572754e-01 -1.894358992576599121e-01
-2.732830047607421875e-01 4.784584939479827881e-01 -3.824460506439208984e-01
-2.927141487598419189e-01 4.843783378601074219e-01 -3.637342453002929688e-01
-2.655515670776367188e-01 5.000735521316528320e-01 -3.648024201393127441e-01
-2.852486968040466309e-01 5.057790875434875488e-01 -3.461838960647583008e-01
8.762272000312805176e-01 -8.169077336788177490e-03 1.882248669862747192e-01
8.542908430099487305e-01 -1.038330141454935074e-02 2.064655125141143799e-01
8.739392161369323730e-01 6.317049264907836914e-04 1.969191730022430420e-01
8.513500094413757324e-01 -3.004781901836395264e-04 2.155037820339202881e-01
-3.235462605953216553e-01 5.922498703002929688e-01 2.175180613994598389e-01
-3.385238647460937500e-01 5.711485743522644043e-01 2.219022661447525024e-01
-3.056357204914093018e-01 5.914477705955505371e-01 2.384684383869171143e-01
-3.210712969303131104e-01 5.696423649787902832e-01 2.426344305276870728e-01
-2.554062306880950928e-01 -7.995602488517761230e-01 2.015195973217487335e-02
-2.637603580951690674e-01 -7.858113050460815430e-01 3.452616557478904724e-02
-2.458392232656478882e-01 -8.020058870315551758e-01 4.097027704119682312e-02
-2.556039690971374512e-01 -7.853428721427917480e-01 5.418950691819190979e-02
-9.714914560317993164e-01 3.277762234210968018e-02 8.297444134950637817e-02
-9.686381816864013672e-01 7.586192339658737183e-03 8.891993016004562378e-02
-9.643026590347290039e-01 3.346303105354309082e-02 1.001247167587280273e-01
-9.620566368103027344e-01 7.272577844560146332e-03 1.043387502431869507e-01
-7.634770274162292480e-01 -1.236684396862983704e-01 2.470157146453857422e-01
-7.733262777328491211e-01 -1.283336579799652100e-01 2.396052479743957520e-01
-7.440384626388549805e-01 -1.223917752504348755e-01 2.615619599819183350e-01
-7.524188756942749023e-01 -1.342891901731491089e-01 2.520235478878021240e-01
-5.771061778068542480e-01 -2.162306755781173706e-01 3.362858891487121582e-01
-5.826926827430725098e-01 -2.321163266897201538e-01 3.245111107826232910e-01
-5.566603541374206543e-01 -2.050463408231735229e-01 3.537216484546661377e-01
-5.616917610168457031e-01 -2.241464555263519287e-01 3.414506614208221436e-01
5.692570209503173828e-01 2.725263833999633789e-01 2.947070300579071045e-01
5.589388012886047363e-01 2.629310190677642822e-01 3.109395802021026611e-01
5.769230127334594727e-01 2.470686137676239014e-01 3.088829815387725830e-01
5.655302405357360840e-01 2.367337495088577271e-01 3.254813849925994873e-01
7.884865999221801758e-01 1.011890619993209839e-01 -2.458494752645492554e-01
7.725691199302673340e-01 1.106033772230148315e-01 -2.527540326118469238e-01
8.083913326263427734e-01 1.043836772441864014e-01 -2.268072962760925293e-01
7.930002808570861816e-01 1.156440824270248413e-01 -2.330940961837768555e-01
4.369719326496124268e-01 4.999582767486572266e-01 1.134013682603836060e-01
4.239257872104644775e-01 5.113658905029296875e-01 1.269325166940689087e-01
4.473715424537658691e-01 4.874398410320281982e-01 1.259004473686218262e-01
4.331337213516235352e-01 4.989444017410278320e-01 1.405394375324249268e-01
-3.697319328784942627e-01 6.661053001880645752e-02 6.105803847312927246e-01
-3.719022572040557861e-01 4.402877390384674072e-02 6.106891036033630371e-01
-3.552891314029693604e-01 5.952816084027290344e-02 6.286766529083251953e-01
-3.571362197399139404e-01 3.810072690248489380e-02 6.291573047637939453e-01
-1.587192863225936890e-01 3.411761224269866943e-01 6.090907454490661621e-01
-1.687807142734527588e-01 3.244129419326782227e-01 6.263900995254516602e-01
-1.377574354410171509e-01 3.361185491085052490e-01 6.261371970176696777e-01
-1.479122042655944824e-01 3.190552890300750732e-01 6.433621644973754883e-01
7.831158041954040527e-01 2.051408290863037109e-01 -1.644899845123291016e-01
7.650703191757202148e-01 2.193166762590408325e-01 -1.688072681427001953e-01
8.036360740661621094e-01 2.033089697360992432e-01 -1.436794400215148926e-01
7.855352163314819336e-01 2.174721807241439819e-01 -1.483954042196273804e-01
1.046122312545776367e-01 5.569590330123901367e-01 3.977343142032623291e-01
9.249014407396316528e-02 5.401754379272460938e-01 4.137482345104217529e-01
1.239291578531265259e-01 5.381065011024475098e-01 4.027665555477142334e-01
1.108158528804779053e-01 5.221378207206726074e-01 4.187740385532379150e-01
1.910743117332458496e-01 -2.369000464677810669e-01 -7.236855626106262207e-01
1.835217624902725220e-01 -2.513735592365264893e-01 -7.130935788154602051e-01
2.049267441034317017e-01 -2.393759638071060181e-01 -7.119124531745910645e-01
1.980095654726028442e-01 -2.548461854457855225e-01 -7.015489935874938965e-01
-3.807957768440246582e-01 -1.183408126235008240e-01 -5.802559852600097656e-01
-3.916680812835693359e-01 -1.202210262417793274e-01 -5.653671622276306152e-01
-3.856275379657745361e-01 -1.386407166719436646e-01 -5.679173469543457031e-01
-3.959048688411712646e-01 -1.421663314104080200e-01 -5.523014664649963379e-01
-1.716541349887847900e-01 -1.416941434144973755e-01 -8.493689894676208496e-01
-1.821508407592773438e-01 -1.485476940870285034e-01 -8.315983414649963379e-01
-1.653985977172851562e-01 -1.690700501203536987e-01 -8.394899964332580566e-01
-1.755032241344451904e-01 -1.748342961072921753e-01 -8.234019875526428223e-01
2.386537343263626099e-01 -6.842135190963745117e-01 -2.255815118551254272e-01
2.264370918273925781e-01 -7.072921395301818848e-01 -2.157169580459594727e-01
2.579245865345001221e-01 -6.849660873413085938e-01 -2.081498801708221436e-01
2.456254214048385620e-01 -7.072502970695495605e-01 -1.987537145614624023e-01
-3.843377158045768738e-02 7.010964155197143555e-01 -3.124234378337860107e-01
-6.554668396711349487e-02 7.061699032783508301e-01 -3.054365515708923340e-01
-1.914521865546703339e-02 7.224167585372924805e-01 -3.028342425823211670e-01
-4.702244699001312256e-02 7.245624661445617676e-01 -2.999355792999267578e-01
-3.640269488096237183e-02 4.813864529132843018e-01 4.744719862937927246e-01
-4.388164356350898743e-02 4.652307033538818359e-01 4.882161617279052734e-01
-1.366314385086297989e-02 4.674624204635620117e-01 4.876451492309570312e-01
-2.179643511772155762e-02 4.513605237007141113e-01 5.010327696800231934e-01
-7.959550619125366211e-01 5.507241562008857727e-02 2.467334717512130737e-01
-8.062968254089355469e-01 3.417465835809707642e-02 2.469809651374816895e-01
-7.715190649032592773e-01 6.144521385431289673e-02 2.587439119815826416e-01
-7.826172709465026855e-01 3.965482488274574280e-02 2.605705559253692627e-01
3.050188124179840088e-01 6.285051703453063965e-01 -2.095107585191726685e-01
2.960919141769409180e-01 6.423526406288146973e-01 -2.041790783405303955e-01
3.074291646480560303e-01 6.279818415641784668e-01 -1.911006867885589600e-01
3.017284274101257324e-01 6.415846943855285645e-01 -1.800946146249771118e-01
-8.808353543281555176e-02 6.999502778053283691e-01 -3.035173416137695312e-01
-1.150400415062904358e-01 7.035874128341674805e-01 -2.955664396286010742e-01
-7.381361722946166992e-02 7.213988304138183594e-01 -2.946754395961761475e-01
-1.004438176751136780e-01 7.210989594459533691e-01 -2.886742651462554932e-01
6.543498635292053223e-01 3.268925547599792480e-01 1.003290638327598572e-01
6.384630203247070312e-01 3.315307497978210449e-01 1.217162087559700012e-01
6.665112972259521484e-01 3.118990659713745117e-01 1.143992021679878235e-01
6.502082347869873047e-01 3.175718188285827637e-01 1.345493197441101074e-01
-3.013913929462432861e-01 1.410742998123168945e-01 6.708683967590332031e-01
-3.142462372779846191e-01 1.189727112650871277e-01 6.733784675598144531e-01
-2.820048928260803223e-01 1.479631513357162476e-01 6.925652623176574707e-01
-2.950273156166076660e-01 1.249641254544258118e-01 6.945057511329650879e-01
-9.460401535034179688e-01 -1.115098223090171814e-01 5.805598199367523193e-02
-9.502201676368713379e-01 -1.006100401282310486e-01 6.646890938282012939e-02
-9.424715638160705566e-01 -1.036769002676010132e-01 7.973533123731613159e-02
-9.472936987876892090e-01 -9.621632844209671021e-02 8.377963304519653320e-02
3.838883340358734131e-01 8.600777387619018555e-02 5.745211839675903320e-01
3.770956397056579590e-01 7.459360361099243164e-02 5.869728326797485352e-01
3.755363225936889648e-01 7.847919315099716187e-02 5.920366048812866211e-01
3.679914176464080811e-01 7.007707655429840088e-02 6.049953699111938477e-01
-2.631553709506988525e-01 -4.550099670886993408e-01 4.074600636959075928e-01
-2.784433960914611816e-01 -4.433391988277435303e-01 4.060243964195251465e-01
-2.470480054616928101e-01 -4.435817599296569824e-01 4.318619072437286377e-01
-2.624055445194244385e-01 -4.328717589378356934e-01 4.310599863529205322e-01
2.644725739955902100e-01 3.738043829798698425e-02 -7.695412635803222656e-01
2.664749920368194580e-01 8.993014693260192871e-03 -7.729936838150024414e-01
2.782020270824432373e-01 4.338509216904640198e-02 -7.500876188278198242e-01
2.802540361881256104e-01 1.468870323151350021e-02 -7.537788152694702148e-01
1.844666600227355957e-01 -4.598210453987121582e-01 -4.556811749935150146e-01
1.750922054052352905e-01 -4.749845862388610840e-01 -4.448012411594390869e-01
2.044879943132400513e-01 -4.601607024669647217e-01 -4.459958970546722412e-01
1.948637068271636963e-01 -4.757314920425415039e-01 -4.347122311592102051e-01
-5.137298703193664551e-01 -3.116495162248611450e-02 4.452989995479583740e-01
-5.163259506225585938e-01 -5.011434480547904968e-02 4.416002333164215088e-01
-5.003970861434936523e-01 -2.910497970879077911e-02 4.565260708332061768e-01
-5.033549070358276367e-01 -4.754372686147689819e-02 4.528895020484924316e-01
5.830436348915100098e-01 3.857206106185913086e-01 6.939797848463058472e-02
5.703865885734558105e-01 3.900892436504364014e-01 8.802086859941482544e-02
5.904320478439331055e-01 3.745945990085601807e-01 9.004312753677368164e-02
5.765853524208068848e-01 3.772891461849212646e-01 1.079913452267646790e-01
-8.878512978553771973e-01 4.014331102371215820e-02 1.813061237335205078e-01
-8.873617053031921387e-01 1.653760485351085663e-02 1.789138764142990112e-01
-8.755368590354919434e-01 2.974100597202777863e-02 1.953595876693725586e-01
-8.751546740531921387e-01 7.572699338197708130e-03 1.918168663978576660e-01
3.613933548331260681e-02 -2.202613204717636108e-01 8.369540572166442871e-01
2.281036227941513062e-02 -2.146116942167282104e-01 8.487441539764404297e-01
4.379173740744590759e-02 -2.122853696346282959e-01 8.487580418586730957e-01
2.996602281928062439e-02 -2.041995674371719360e-01 8.617668151855468750e-01
-9.270273447036743164e-01 1.230295300483703613e-01 8.895477652549743652e-02
-9.315304160118103027e-01 1.030933558940887451e-01 9.746220707893371582e-02
-9.131072163581848145e-01 1.233812198042869568e-01 1.064704060554504395e-01
-9.185585975646972656e-01 1.033647805452346802e-01 1.145426258444786072e-01
5.214864015579223633e-02 -4.128912091255187988e-01 5.470811724662780762e-01
1.638510450720787048e-02 -4.099313616752624512e-01 5.480244755744934082e-01
6.875632703304290771e-02 -4.045428335666656494e-01 5.690224170684814453e-01
3.211179748177528381e-02 -4.026272296905517578e-01 5.696766376495361328e-01
-7.047042250633239746e-01 -2.215696871280670166e-01 2.286910265684127808e-01
-7.206385135650634766e-01 -1.997159570455551147e-01 2.311490327119827271e-01
-6.965792179107666016e-01 -2.055601924657821655e-01 2.499248683452606201e-01
-7.124007940292358398e-01 -1.823452115058898926e-01 2.526285052299499512e-01
-5.404003858566284180e-01 -2.761187851428985596e-01 3.206117451190948486e-01
-5.526474714279174805e-01 -2.525383830070495605e-01 3.294936120510101318e-01
-5.283930301666259766e-01 -2.689467668533325195e-01 3.418937325477600098e-01
-5.408429503440856934e-01 -2.451296597719192505e-01 3.501610457897186279e-01
-1.903723925352096558e-01 -1.806086897850036621e-01 7.910344600677490234e-01
-2.039055675268173218e-01 -1.664375215768814087e-01 7.873805761337280273e-01
-1.741099059581756592e-01 -1.785662919282913208e-01 8.091626763343811035e-01
-1.865716278553009033e-01 -1.692773550748825073e-01 8.059575557708740234e-01
-6.370844244956970215e-01 1.017020046710968018e-01 3.406099677085876465e-01
-6.463993787765502930e-01 7.632388174533843994e-02 3.449326753616333008e-01
-6.185266375541687012e-01 1.009460613131523132e-01 3.516762256622314453e-01
-6.275605559349060059e-01 7.538589090108871460e-02 3.563931286334991455e-01
-8.376339077949523926e-01 -1.427307128906250000e-01 1.759295761585235596e-01
-8.511825799942016602e-01 -1.240256652235984802e-01 1.749940365552902222e-01
-8.261637687683105469e-01 -1.382477283477783203e-01 1.935389190912246704e-01
-8.403542041778564453e-01 -1.181171461939811707e-01 1.926342546939849854e-01
7.912768721580505371e-01 -1.414550393819808960e-01 2.147813737392425537e-01
7.693359255790710449e-01 -1.469179540872573853e-01 2.279966920614242554e-01
7.987011671066284180e-01 -1.170802861452102661e-01 2.241823524236679077e-01
7.772395610809326172e-01 -1.211163327097892761e-01 2.376074790954589844e-01
-2.184140384197235107e-01 -3.872352540493011475e-01 5.114219188690185547e-01
-2.336698174476623535e-01 -3.733254075050354004e-01 5.166866183280944824e-01
-2.094534784555435181e-01 -3.716130554676055908e-01 5.394476056098937988e-01
-2.250036001205444336e-01 -3.576976060867309570e-01 5.445098280906677246e-01
-5.860891938209533691e-02 -2.504278719425201416e-01 7.947737574577331543e-01
-7.916972041130065918e-02 -2.377147972583770752e-01 8.006280064582824707e-01
-5.141815170645713806e-02 -2.416997253894805908e-01 8.137800097465515137e-01
-6.981716305017471313e-02 -2.271638959646224976e-01 8.225161433219909668e-01
-8.478064835071563721e-02 -9.789985418319702148e-01 -3.288935869932174683e-02
-1.001091822981834412e-01 -9.729711413383483887e-01 -2.310429699718952179e-02
-7.202938944101333618e-02 -9.826200604438781738e-01 -7.470336742699146271e-03
-8.759105205535888672e-02 -9.761050343513488770e-01 2.191551728174090385e-03
4.168182909488677979e-01 -5.141448378562927246e-01 -1.479234546422958374e-01
4.083310663700103760e-01 -5.279568433761596680e-01 -1.417491585016250610e-01
4.301604628562927246e-01 -5.075803399085998535e-01 -1.319991797208786011e-01
4.217790961265563965e-01 -5.207529067993164062e-01 -1.253907829523086548e-01
5.839781761169433594e-01 -1.193090602755546570e-01 -3.755123317241668701e-01
5.754791498184204102e-01 -1.437168419361114502e-01 -3.739484548568725586e-01
6.020961999893188477e-01 -1.239180415868759155e-01 -3.609252870082855225e-01
5.944445133209228516e-01 -1.489704847335815430e-01 -3.580792844295501709e-01
7.537775635719299316e-01 2.068718522787094116e-01 1.966022700071334839e-01
7.428409457206726074e-01 2.036412358283996582e-01 2.098089754581451416e-01
7.654303312301635742e-01 1.866420060396194458e-01 2.025597691535949707e-01
7.542890310287475586e-01 1.824199557304382324e-01 2.146709412336349487e-01
9.731641411781311035e-02 -9.495685100555419922e-01 -8.628117293119430542e-02
7.982665300369262695e-02 -9.603748321533203125e-01 -8.071462064981460571e-02
1.102360859513282776e-01 -9.428730010986328125e-01 -6.848927587270736694e-02
9.570029377937316895e-02 -9.550974369049072266e-01 -6.133985891938209534e-02
1.336296498775482178e-01 2.112744301557540894e-01 -8.035138845443725586e-01
1.176367029547691345e-01 2.265898734331130981e-01 -7.964758872985839844e-01
1.459043920040130615e-01 2.196302860975265503e-01 -7.842162251472473145e-01
1.305168271064758301e-01 2.339408695697784424e-01 -7.769185304641723633e-01
9.422723203897476196e-03 -7.422473430633544922e-01 -2.878227531909942627e-01
-2.674212213605642319e-03 -7.580695748329162598e-01 -2.772286534309387207e-01
2.207702398300170898e-02 -7.496954798698425293e-01 -2.841780781745910645e-01
1.124820858240127563e-02 -7.658560872077941895e-01 -2.737707793712615967e-01
6.253872513771057129e-01 1.080388799309730530e-01 -3.528009653091430664e-01
6.212098598480224609e-01 8.926544338464736938e-02 -3.590096235275268555e-01
6.422371268272399902e-01 1.037447303533554077e-01 -3.354625999927520752e-01
6.398855447769165039e-01 8.420749753713607788e-02 -3.431323766708374023e-01
-2.131713181734085083e-01 7.598828673362731934e-01 -1.839379072189331055e-01
-2.319372892379760742e-01 7.508324980735778809e-01 -1.752960830926895142e-01
-2.082941085100173950e-01 7.792884707450866699e-01 -1.685751676559448242e-01
-2.256341427564620972e-01 7.693481445312500000e-01 -1.585523635149002075e-01
1.624165326356887817e-01 3.399464190006256104e-01 6.007198095321655273e-01
1.506098508834838867e-01 3.349568545818328857e-01 6.195300221443176270e-01
1.736378818750381470e-01 3.214285969734191895e-01 6.173442602157592773e-01
1.618567258119583130e-01 3.159748911857604980e-01 6.366346478462219238e-01
-2.253468930721282959e-01 -1.017820164561271667e-01 -8.104804754257202148e-01
-2.369899749755859375e-01 -1.112519949674606323e-01 -7.888501286506652832e-01
-2.258223891258239746e-01 -1.284467577934265137e-01 -7.994217872619628906e-01
-2.368325889110565186e-01 -1.378448456525802612e-01 -7.784112095832824707e-01
-7.144169211387634277e-01 -2.799268960952758789e-01 1.306385099887847900e-01
-7.245578765869140625e-01 -2.627603411674499512e-01 1.542354673147201538e-01
-7.030879855155944824e-01 -2.812806367874145508e-01 1.513525545597076416e-01
-7.130913734436035156e-01 -2.639715969562530518e-01 1.742145121097564697e-01
1.610812172293663025e-02 -5.245577692985534668e-01 4.362793862819671631e-01
-4.301370121538639069e-03 -5.154706835746765137e-01 4.426474869251251221e-01
2.875534445047378540e-02 -5.087249279022216797e-01 4.502580463886260986e-01
8.610384538769721985e-03 -5.013518333435058594e-01 4.571810960769653320e-01
-5.211648941040039062e-01 1.459624618291854858e-01 4.143926203250885010e-01
-5.299568176269531250e-01 1.222102046012878418e-01 4.148772060871124268e-01
-4.987534582614898682e-01 1.499854922294616699e-01 4.296334385871887207e-01
-5.072684288024902344e-01 1.244360506534576416e-01 4.296711683273315430e-01
-3.831613063812255859e-01 5.905114412307739258e-01 -4.108141735196113586e-02
-3.973603248596191406e-01 5.755277872085571289e-01 -3.145090490579605103e-02
-3.732600808143615723e-01 6.060829758644104004e-01 -2.256757393479347229e-02
-3.874570429325103760e-01 5.888269543647766113e-01 -1.419219281524419785e-02
2.203855514526367188e-01 7.611178755760192871e-01 -1.774816811084747314e-01
2.089868634939193726e-01 7.776937484741210938e-01 -1.765697151422500610e-01
2.289102524518966675e-01 7.574366331100463867e-01 -1.547355055809020996e-01
2.214493602514266968e-01 7.741153240203857422e-01 -1.491218060255050659e-01
4.291844964027404785e-01 -3.675591051578521729e-01 -3.410355746746063232e-01
4.161277413368225098e-01 -3.815931975841522217e-01 -3.395593464374542236e-01
4.492261707782745361e-01 -3.614513576030731201e-01 -3.250199556350708008e-01
4.353297352790832520e-01 -3.754223585128784180e-01 -3.234666883945465088e-01
1.966065466403961182e-01 -4.488501697778701782e-03 -8.707277774810791016e-01
1.946618705987930298e-01 -2.492649853229522705e-02 -8.740463256835937500e-01
2.118180096149444580e-01 -6.234118714928627014e-03 -8.525068163871765137e-01
2.116787880659103394e-01 -2.765716426074504852e-02 -8.555637001991271973e-01
3.365005254745483398e-01 1.858081966638565063e-01 -5.967561602592468262e-01
3.243805170059204102e-01 2.067393362522125244e-01 -5.952696800231933594e-01
3.427632749080657959e-01 1.970181763172149658e-01 -5.777143836021423340e-01
3.310267329216003418e-01 2.169017046689987183e-01 -5.764629840850830078e-01
1.878854632377624512e-01 -1.714936643838882446e-02 8.788458704948425293e-01
1.782059669494628906e-01 -3.233018517494201660e-02 8.870921134948730469e-01
1.825394779443740845e-01 -1.704582944512367249e-03 8.892163038253784180e-01
1.726631820201873779e-01 -1.586027070879936218e-02 8.992160558700561523e-01
-8.253238201141357422e-01 -1.933273375034332275e-01 1.348329484462738037e-01
-8.398758172988891602e-01 -1.794443577527999878e-01 1.367416977882385254e-01
-8.130180239677429199e-01 -1.947168558835983276e-01 1.520467102527618408e-01
-8.275324702262878418e-01 -1.809840649366378784e-01 1.532876938581466675e-01
-9.133003354072570801e-01 9.268326312303543091e-02 -1.317706108093261719e-01
-9.238484501838684082e-01 8.571101725101470947e-02 -1.243028342723846436e-01
-9.138047695159912109e-01 1.035097017884254456e-01 -1.215341612696647644e-01
-9.247901439666748047e-01 9.572690725326538086e-02 -1.150189712643623352e-01
-3.764075338840484619e-01 5.919268131256103516e-01 8.116256445646286011e-02
-3.859778344631195068e-01 5.763782262802124023e-01 8.800905197858810425e-02
-3.685950636863708496e-01 5.999543666839599609e-01 9.794341027736663818e-02
-3.776203095912933350e-01 5.834336280822753906e-01 1.043668538331985474e-01
-7.717691361904144287e-03 -4.862391650676727295e-01 -4.754288196563720703e-01
-1.270506531000137329e-02 -5.003011226654052734e-01 -4.608304798603057861e-01
1.047221664339303970e-02 -4.973132610321044922e-01 -4.647124111652374268e-01
3.724426031112670898e-03 -5.110800266265869141e-01 -4.511988461017608643e-01
-4.887761548161506653e-02 -5.299040079116821289e-01 -4.357105791568756104e-01
-5.798609182238578796e-02 -5.446093678474426270e-01 -4.218744635581970215e-01
-2.803715318441390991e-02 -5.385665297508239746e-01 -4.279485642910003662e-01
-3.947492316365242004e-02 -5.524488687515258789e-01 -4.167325496673583984e-01
1.572143733501434326e-01 -8.583632707595825195e-01 -1.521147936582565308e-01
1.449981629848480225e-01 -8.729652166366577148e-01 -1.431230753660202026e-01
1.698643565177917480e-01 -8.578183054924011230e-01 -1.295766830444335938e-01
1.588779985904693604e-01 -8.726679086685180664e-01 -1.195082068443298340e-01
-1.603686362504959106e-01 7.955693602561950684e-01 -2.009492218494415283e-01
-1.808696389198303223e-01 7.904277443885803223e-01 -1.902698725461959839e-01
-1.513103544712066650e-01 8.165378570556640625e-01 -1.874279081821441650e-01
-1.717108637094497681e-01 8.112812638282775879e-01 -1.758991181850433350e-01
4.526570737361907959e-01 2.496047914028167725e-01 -4.179310202598571777e-01
4.380354285240173340e-01 2.641881704330444336e-01 -4.264019429683685303e-01
4.684294760227203369e-01 2.523272335529327393e-01 -3.972542881965637207e-01
4.541520774364471436e-01 2.668066918849945068e-01 -4.050781428813934326e-01
-6.353415250778198242e-01 3.519836068153381348e-01 -3.940568119287490845e-02
-6.464996933937072754e-01 3.469132781028747559e-01 -2.119711600244045258e-02
-6.342239379882812500e-01 3.534975945949554443e-01 -1.990115083754062653e-02
-6.442239880561828613e-01 3.479229211807250977e-01 1.060534268617630005e-04
2.867409214377403259e-02 -2.281489521265029907e-01 8.256973624229431152e-01
1.563493907451629639e-02 -2.226325124502182007e-01 8.379182219505310059e-01
3.591736778616905212e-02 -2.182889133691787720e-01 8.406435847282409668e-01
2.258839458227157593e-02 -2.126392871141433716e-01 8.524336814880371094e-01
-6.283656954765319824e-01 -2.670953273773193359e-01 -2.565961778163909912e-01
-6.362691521644592285e-01 -2.733479142189025879e-01 -2.436761409044265747e-01
-6.192969083786010742e-01 -2.872298061847686768e-01 -2.475834637880325317e-01
-6.280772089958190918e-01 -2.915129959583282471e-01 -2.341730594635009766e-01
-9.196762740612030029e-02 6.439057588577270508e-01 -3.398698270320892334e-01
-1.196053624153137207e-01 6.549091935157775879e-01 -3.253498077392578125e-01
-7.393686473369598389e-02 6.616174578666687012e-01 -3.321611583232879639e-01
-1.019427031278610229e-01 6.730477213859558105e-01 -3.178899288177490234e-01
4.810255765914916992e-01 -4.075123369693756104e-01 -2.262451052665710449e-01
4.712165594100952148e-01 -4.205408990383148193e-01 -2.197024375200271606e-01
4.915014803409576416e-01 -4.106515645980834961e-01 -2.078791707754135132e-01
4.826562106609344482e-01 -4.236572086811065674e-01 -1.999899148941040039e-01
1.721193492412567139e-01 -9.039745926856994629e-01 -5.344277247786521912e-03
1.620907187461853027e-01 -9.132481217384338379e-01 3.007429884746670723e-03
1.810660362243652344e-01 -8.920536637306213379e-01 1.266116090118885040e-02
1.704492121934890747e-01 -9.016224145889282227e-01 2.019918709993362427e-02
-3.054426237940788269e-02 -3.484027087688446045e-01 6.420943140983581543e-01
-5.097575485706329346e-02 -3.385277688503265381e-01 6.498403549194335938e-01
-1.112992409616708755e-02 -3.402403593063354492e-01 6.630777716636657715e-01
-3.188206627964973450e-02 -3.324797451496124268e-01 6.704934835433959961e-01
-6.637327373027801514e-02 2.896291911602020264e-01 7.244940400123596191e-01
-7.807643711566925049e-02 2.779892385005950928e-01 7.411117553710937500e-01
-4.921806603670120239e-02 2.807530760765075684e-01 7.433477640151977539e-01
-5.981830507516860962e-02 2.681087255477905273e-01 7.616148591041564941e-01
-1.034244000911712646e-01 -6.738793253898620605e-01 3.147841095924377441e-01
-1.240816935896873474e-01 -6.633762717247009277e-01 3.136922121047973633e-01
-8.390659093856811523e-02 -6.619616746902465820e-01 3.289147019386291504e-01
-1.052804216742515564e-01 -6.508025527000427246e-01 3.287400007247924805e-01
3.287603333592414856e-02 6.259352564811706543e-01 -3.614577054977416992e-01
7.991869002580642700e-03 6.319521665573120117e-01 -3.576796650886535645e-01
5.827375128865242004e-02 6.465479135513305664e-01 -3.450050055980682373e-01
3.336100652813911438e-02 6.535405516624450684e-01 -3.418580591678619385e-01
-3.204805254936218262e-01 3.467921614646911621e-01 -4.682828783988952637e-01
-3.419640362262725830e-01 3.395317792892456055e-01 -4.563757181167602539e-01
-3.173923194408416748e-01 3.670970797538757324e-01 -4.510607421398162842e-01
-3.389870822429656982e-01 3.613819777965545654e-01 -4.381846189498901367e-01
-5.083650946617126465e-01 -4.553464055061340332e-01 -2.172801643610000610e-02
-5.198603868484497070e-01 -4.439963102340698242e-01 -6.706680171191692352e-03
-5.020933747291564941e-01 -4.617520272731781006e-01 1.173225231468677521e-03
-5.130366683006286621e-01 -4.502756893634796143e-01 1.628119125962257385e-02
7.170163989067077637e-01 1.221813336014747620e-01 -2.829881310462951660e-01
7.108079791069030762e-01 1.013167500495910645e-01 -2.949758470058441162e-01
7.355741858482360840e-01 1.221229210495948792e-01 -2.669800519943237305e-01
7.277658581733703613e-01 1.066138148307800293e-01 -2.792200148105621338e-01
3.127602115273475647e-02 -9.447681903839111328e-01 -1.273974627256393433e-01
