-0.0360821 0.201726 -0.615731 0.000232622
-0.041805 0.194038 -0.614134 0.00225038
-0.0184745 0.00292866 -0.566694 0.00212384
-0.0158937 -0.0110555 -0.561645 0.00360302
-0.017256 0.00101573 -0.554863 0.00350093
-0.0149507 -0.013732 -0.547731 0.00975845
-0.0431243 0.075955 -0.406201 0.00117329
-0.0520375 0.0710263 -0.397355 0.000613319
-0.0435341 0.0756473 -0.398269 0.00398219
-0.0522897 0.0703553 -0.389374 0.00434297
0.136603 0.0631762 0.160032 0.00158116
0.128911 0.057575 0.165916 0.00216375
0.134503 0.0738379 0.168394 0.000596202
0.128041 0.0673645 0.1742 0.00286823
0.139447 0.0556742 0.146048 0.00330906
0.131342 0.0491968 0.152529 0.00140231
0.135937 0.0652441 0.156119 0.000399995
0.128246 0.0596429 0.162003 0.00464442
-0.211955 0.174059 -0.235311 0.00032307
-0.213471 0.163645 -0.230162 0.00035768
-0.215319 0.174206 -0.22065 0.000127735
-0.216993 0.164223 -0.215391 0.000697249
0.0434208 -0.119056 0.0284758 0.00130572
0.0423739 -0.132483 0.0310495 0.000816524
0.0395437 -0.114139 0.0379181 0.00250755
0.039479 -0.127859 0.0404809 0.000896659
0.119879 0.435488 -0.181081 0.000426997
0.11435 0.440221 -0.16971 0.000650933
0.121432 0.426066 -0.164927 0.00105526
0.116103 0.429355 -0.154505 0.000630787
-0.102403 -0.67304 0.0168546 0.000696489
-0.107967 -0.689078 0.0224966 0.00799039
-0.0918288 -0.681085 0.0236602 0.00499767
-0.0979072 -0.696558 0.0296448 0.00415775
0.06678 -0.66668 -0.593808 0.00332234
0.0672428 -0.682876 -0.586947 0.00362166
0.0742659 -0.672025 -0.585755 0.00148509
0.0747597 -0.687201 -0.578933 0.0053578
-0.0438568 -0.241176 -0.627222 0.00249454
-0.0460284 -0.256243 -0.627247 0.000248197
-0.0436433 -0.231996 -0.619615 0.000180842
-0.0479787 -0.244919 -0.617111 0.00144949
-0.015128 0.653229 0.479143 0.00159281
-0.0259083 0.651314 0.485209 7.7101e-05
-0.00645872 0.653367 0.489136 0.000300453
-0.0173852 0.651812 0.495081 0.000683487
0.11391 0.284841 0.188362 0.000418992
0.108516 0.282044 0.198299 0.000118915
0.115848 0.270857 0.20012 0.000147488
0.109842 0.270428 0.209092 0.00120324
0.133363 -0.742386 -0.553103 0.000897137
0.125919 -0.742061 -0.553374 0.00275418
0.140705 -0.740224 -0.54645 0.00335027
0.133734 -0.741432 -0.547201 0.000512493
0.0896229 -0.0164902 0.134428 0.00284135
0.0787112 -0.0091458 0.141766 0.000346872
0.0955212 -0.00333579 0.141517 0.00103044
0.084373 0.00302655 0.149271 0.00364867
-0.0819956 0.227125 0.308496 0.000388464
-0.0802009 0.216463 0.31427 0.00246878
-0.0837913 0.231981 0.324795 0.00280409
-0.0826959 0.221149 0.330957 0.00227102
-0.0384013 0.525523 0.633705 0.000398775
-0.0437311 0.531999 0.637729 0.00240854
-0.0330078 0.523804 0.639271 3.21019e-05
-0.0381065 0.529988 0.643081 0.00395611
0.145641 0.024454 0.104176 0.000582402
0.136225 0.0158159 0.111583 0.000224183
0.142961 0.0341517 0.115525 0.000892865
0.133434 0.0262852 0.123738 0.000714415
0.215569 0.175382 -0.211373 0.000567023
0.216157 0.165203 -0.20876 0.000325421
0.218095 0.17969 -0.200444 0.00058862
0.218407 0.169556 -0.19714 0.000956419
0.0486265 0.288594 -0.570694 0.00102865
0.0397624 0.297664 -0.567446 0.0009325
0.0569965 0.295704 -0.560629 0.000201035
0.0479066 0.304908 -0.557421 2.98204e-06
0.082782 -0.746467 0.134547 0.000125144
0.0697078 -0.746125 0.141145 0.000164836
0.0968495 -0.745628 0.149688 0.000251855
0.0819297 -0.745598 0.154829 0.00111661
-0.123545 0.385349 -0.113173 0.000308659
-0.129012 0.374969 -0.113094 4.71331e-05
-0.116604 0.391098 -0.10476 0.000173501
-0.122412 0.38038 -0.104461 0.000403508
0.0532931 -0.721907 0.013855 0.00249238
0.0486658 -0.732956 0.0203052 0.000973837
0.0538168 -0.716357 0.0218783 0.00176662
0.0490756 -0.726975 0.0284858 0.000981638
-0.00628532 0.566518 -0.189424 0.000476317
-0.011894 0.564081 -0.180692 0.000778931
0.00275355 0.563021 -0.179702 0.00065536
-0.00293966 0.56024 -0.170803 0.000105863
-0.0698115 0.225266 -0.597923 0.00180169
-0.0824452 0.231061 -0.589475 0.00141839
-0.05857 0.236868 -0.597854 0.000680534
-0.0711403 0.241916 -0.589387 0.000117454
0.136679 -0.735529 -0.546729 0.00165642
0.129729 -0.737391 -0.547641 0.00324519
0.144566 -0.734596 -0.541792 0.00444738
0.137525 -0.738773 -0.542787 6.45296e-05
-0.102102 -0.133448 -0.621429 0.000147161
-0.106741 -0.141501 -0.6155 0.00173005
-0.105478 -0.136266 -0.612263 0.00165759
-0.110732 -0.13921 -0.606082 0.00041327
0.0366857 -0.650793 0.0580494 0.0016611
0.0371274 -0.66486 0.0621916 0.000318451
0.0392893 -0.654739 0.066272 4.39002e-05
0.0393698 -0.669035 0.0710954 0.00280466
0.129173 0.190005 -0.57285 0.00130357
0.128221 0.17648 -0.578013 0.00117862
0.139488 0.194751 -0.557982 0.00118044
0.138447 0.181261 -0.563513 0.00176256
0.0894907 -0.619089 -0.672075 8.46062e-05
0.0833491 -0.63012 -0.668574 0.0022662
0.097893 -0.631332 -0.670696 0.00216912
0.0917643 -0.641695 -0.66734 0.000832473
0.152956 0.0333282 -0.261017 0.000752803
0.148589 0.0263729 -0.254766 0.000209059
0.158003 0.0339247 -0.249607 0.000779505
0.15327 0.0269153 -0.244315 0.000563224
-0.173118 0.214793 -0.498881 0.000417255
-0.177724 0.206336 -0.495041 0.00165571
-0.173675 0.223266 -0.491485 0.000836413
-0.178164 0.214912 -0.487752 0.00197305
-0.163906 0.286888 -0.319305 0.00112716
-0.168561 0.272758 -0.319435 0.00124235
-0.160673 0.29597 -0.310574 2.71694e-05
-0.165449 0.281584 -0.311021 0.000204242
0.0158208 0.30721 0.323966 0.000799995
0.00675387 0.310855 0.326715 0.000442694
0.0214042 0.313983 0.333857 0.000259004
0.0121912 0.317544 0.335986 0.00043685
-0.043106 -0.739869 0.04037 0.00100466
-0.0537696 -0.743102 0.0507228 0.000203385
-0.0362101 -0.737367 0.0507888 0.00393663
-0.046465 -0.740817 0.0613199 0.00140202
0.0185441 -0.0143614 -0.306383 0.00229141
0.0108643 -0.0215778 -0.297586 0.00393841
0.0270146 -0.0204272 -0.293177 0.000574737
0.0198273 -0.0271887 -0.283616 0.00164915
-0.0604908 0.119578 0.280456 0.000701219
-0.0632787 0.125569 0.285762 0.00160209
-0.0559566 0.117615 0.290686 0.000841332
-0.0590448 0.123801 0.295448 0.00146295
0.128714 0.0231557 -0.291075 0.000508636
0.121955 0.0165631 -0.285571 0.000740958
0.132855 0.0191772 -0.280723 0.0022658
0.126673 0.0125012 -0.274869 0.00141937
0.0142299 0.444417 0.0612042 0.00119945
0.00635743 0.44456 0.0686696 0.000197854
0.0208361 0.441484 0.0714005 0.000312768
0.0130773 0.441973 0.0794449 0.00101442
-0.117783 -0.624202 -0.630482 0.000463452
-0.121343 -0.632853 -0.625804 0.000962656
-0.110761 -0.623321 -0.624782 0.000425565
-0.113926 -0.631709 -0.620401 0.000290965
0.15038 0.359926 -0.160341 0.000981954
0.14648 0.363344 -0.150375 0.000327069
0.150788 0.352694 -0.148067 0.000514987
0.1468 0.356113 -0.138081 0.00043871
0.00959475 -0.363085 -0.705264 0.00586811
0.00775463 -0.376209 -0.702141 0.00813325
0.0137515 -0.352883 -0.694114 0.00508382
0.0114002 -0.366444 -0.69128 0.000614035
0.171567 -0.00462001 -0.49546 0.00098292
0.169771 -0.0163086 -0.491792 0.00155219
0.17439 -0.00181193 -0.485238 0.000964284
0.171966 -0.0123277 -0.482166 0.000539986
-0.0316705 -0.253442 -0.663954 0.00312999
-0.0300581 -0.271979 -0.663333 0.0032244
-0.0292665 -0.246342 -0.660127 0.000227337
-0.0274705 -0.265081 -0.658882 0.00149435
-0.0868587 0.391825 -0.0100759 0.00114441
-0.0929099 0.384551 -0.00524201 0.0015986
-0.0789077 0.398272 0.00201866 0.000868286
-0.0859695 0.39019 0.00817476 0.00153004
0.120335 0.364971 -0.0739086 0.000524376
0.114505 0.368183 -0.0662845 6.32942e-05
0.120476 0.358809 -0.0641053 0.000720919
0.114758 0.362392 -0.0566374 0.000359237
-0.111225 -0.608555 -0.636933 0.00025812
-0.114784 -0.617303 -0.632093 0.00111178
-0.104258 -0.611065 -0.629762 0.0011277
-0.108166 -0.620368 -0.625387 0.000895372
0.181576 0.156468 0.0542545 0.000469416
0.185219 0.143266 0.0560734 0.000143345
0.181438 0.159159 0.0663113 0.000982235
0.183943 0.146518 0.0683968 0.000969
-0.174902 0.207848 0.100328 0.000670331
-0.176163 0.197056 0.102054 0.000810175
-0.170954 0.212026 0.113986 0.000277408
-0.172653 0.200524 0.115715 0.000485956
-0.0143802 0.00722339 -0.575564 0.00119944
-0.0130774 -0.00482437 -0.574173 0.00112153
-0.0120829 0.00763028 -0.568475 0.00247965
-0.00951418 -0.00621114 -0.563402 0.00847326
-0.0594149 -0.741391 0.0832415 0.0029782
-0.0668022 -0.743788 0.091721 0.00153534
-0.0561437 -0.742888 0.0959867 0.000744131
-0.0633888 -0.74536 0.10437 4.00288e-05
0.107637 0.337332 -0.463532 0.000119451
0.0991445 0.345317 -0.457518 0.000549461
0.111025 0.338512 -0.451622 0.000325284
0.10319 0.34637 -0.445761 0.000180066
-0.056399 -0.451093 -0.659763 0.00603894
-0.0556585 -0.47192 -0.656463 0.00514122
-0.0580582 -0.44581 -0.651601 0.00277783
-0.0571295 -0.466174 -0.648093 0.00391336
-0.195977 0.270379 -0.22307 0.00171287
-0.200848 0.263252 -0.213247 0.00134874
-0.195656 0.276515 -0.212267 0.000477362
-0.20057 0.269298 -0.201949 0.000602739
0.20277 0.0889973 -0.187467 0.000630284
0.199345 0.0802202 -0.184712 0.000632512
0.206336 0.0958873 -0.174474 0.000816929
0.202406 0.0862398 -0.172289 0.000665302
-0.0375563 -0.132483 -0.577796 0.00152063
-0.0422281 -0.139869 -0.57027 0.00170594
-0.0427579 -0.129482 -0.564905 0.000787773
-0.0482366 -0.135662 -0.55906 0.000238828
-0.0403858 0.206444 0.429601 0.000325299
-0.0503205 0.21514 0.426529 0.00229786
-0.0291499 0.202801 0.438152 0.000255878
-0.0390048 0.211279 0.435207 0.000211299
-0.0847371 0.36088 -0.432488 0.000286335
-0.0930191 0.357065 -0.426887 0.000257265
-0.0780553 0.367246 -0.425099 0.00107758
-0.0867676 0.363259 -0.419949 0.000490519
-0.0866834 0.299655 -0.540284 0.0015661
-0.0986595 0.298872 -0.532702 0.00189525
-0.0812686 0.308646 -0.529619 0.00180434
-0.0943327 0.307944 -0.522142 0.00107027
0.177574 0.177975 0.0617575 0.000348178
0.181227 0.164113 0.0630485 0.000200989
0.179615 0.179065 0.0706724 0.00085813
0.181081 0.166334 0.0722456 2.65441e-05
0.0982118 0.49577 -0.258232 0.00240131
0.0924758 0.504067 -0.250422 1.0156e-05
0.101373 0.489361 -0.244285 0.000261441
0.0954519 0.49736 -0.23647 0.00350108
-0.043076 0.125341 0.32592 0.000125474
-0.0508177 0.132061 0.325386 0.000818365
-0.0348939 0.122704 0.334192 0.00101274
-0.0432385 0.129699 0.333089 0.000238256
-0.0254011 0.393877 0.155602 0.000931076
-0.0336118 0.385599 0.16398 0.0014753
-0.0098079 0.388702 0.164125 0.00141724
-0.0172661 0.380743 0.171818 7.16947e-05
-0.175828 0.195127 -0.305098 0.00236252
-0.173973 0.180979 -0.299747 0.00228068
-0.177015 0.197461 -0.29327 0.00301823
-0.175733 0.183853 -0.287455 0.00762268
0.0370786 -0.569296 -0.00377505 0.00303162
0.0337531 -0.583341 -0.0025625 0.00705424
0.0418817 -0.571713 0.00524023 0.00628771
0.0388298 -0.586185 0.00652571 0.00222249
-0.0113733 0.218273 0.45913 0.0016898
-0.0202632 0.221509 0.460238 0.000120739
-0.00571792 0.223934 0.464999 0.000779792
-0.0144501 0.225733 0.4679 0.00258214
-0.107563 -0.0183968 -0.0651357 0.0023692
-0.115255 -0.0110386 -0.0553234 0.00191703
-0.104549 -0.0193686 -0.0512058 5.31678e-05
-0.11103 -0.0136395 -0.041999 0.000809155
-0.133676 -0.697839 -0.589632 0.00104284
-0.137768 -0.706366 -0.58299 0.00123236
-0.126534 -0.69989 -0.579151 0.00181835
-0.132274 -0.707563 -0.572782 0.00028457
0.0597322 -0.0631074 0.108477 0.00120473
0.0533413 -0.0579501 0.107906 0.00112249
0.0661725 -0.0617716 0.117978 0.00363035
0.0590791 -0.0578635 0.117466 0.00543778
-0.158912 0.0398777 0.0067898 0.00337236
-0.164331 0.0451265 0.0188048 0.000353362
-0.160065 0.0348769 0.0184419 0.00135612
-0.16589 0.0420385 0.0308219 0.00340021
-0.183197 0.138632 0.0960689 0.000597475
-0.185053 0.126999 0.0965184 0.000482837
-0.180393 0.141012 0.10619 5.50824e-05
-0.181965 0.12914 0.106034 0.00136047
-0.169946 0.276505 -0.299146 0.00100705
-0.174333 0.263849 -0.297989 0.00225777
-0.168134 0.286785 -0.288982 0.00147975
-0.172708 0.273884 -0.287871 0.00124617
-0.0860269 -0.614382 0.0441424 0.000380084
-0.0906192 -0.631138 0.0504694 0.00146445
-0.080522 -0.613644 0.0491261 0.000809199
-0.0853126 -0.63115 0.0559536 0.000221162
0.17805 0.0968474 -0.28468 5.89739e-05
0.174481 0.0856988 -0.285437 0.000140776
0.184038 0.100918 -0.273739 0.000284798
0.180245 0.0898646 -0.274593 0.000464345
-0.134928 0.085801 -0.350295 0.000518399
-0.139167 0.0829468 -0.341966 0.000789272
-0.134768 0.0757181 -0.343492 0.000708828
-0.139089 0.0724795 -0.335199 0.000816621
-0.170378 0.0457348 -0.23418 0.000693764
-0.18162 0.0524209 -0.225215 0.00374869
-0.163799 0.0361303 -0.226164 0.00110147
-0.175022 0.0427613 -0.217077 0.00223508
-0.0895903 -0.0599645 0.00701237 0.00276248
-0.0916141 -0.0720616 0.00656425 0.0034848
-0.0824867 -0.0566758 0.0107666 0.00109259
-0.0843459 -0.0692438 0.0100296 0.000456974
-0.0323299 -0.209202 -0.644123 0.000500722
-0.0337233 -0.224268 -0.64309 0.000938752
-0.0340741 -0.201581 -0.631995 0.000392825
-0.0380506 -0.215094 -0.629549 0.00202658
0.170095 0.314468 -0.264055 0.00241214
0.167292 0.323174 -0.253158 0.000688319
0.172301 0.311096 -0.249084 0.00118693
0.169554 0.319795 -0.238275 0.00216713
0.0406361 0.434521 -0.045315 0.00124679
0.0327404 0.432317 -0.0364099 0.001616
0.0474576 0.426819 -0.037909 0.000121268
0.0395901 0.425352 -0.0298693 0.00156285
-0.171925 -0.744425 -0.572892 0.00077167
-0.179489 -0.74652 -0.561626 0.00364589
-0.160407 -0.746576 -0.558362 0.000141806
-0.168555 -0.748214 -0.547608 0.00165493
-0.185478 0.191172 -0.462755 0.000621538
-0.189452 0.178561 -0.460163 0.00135347
-0.18862 0.19407 -0.448938 0.000795013
-0.191648 0.181368 -0.445632 0.00198877
-0.0845172 0.457457 -0.121754 0.00189634
-0.0909192 0.447241 -0.116257 0.00041552
-0.0788121 0.456503 -0.112512 0.00303526
-0.0855836 0.446306 -0.107581 0.000826477
0.0187164 0.561536 0.350418 0.000280994
0.0156759 0.548745 0.351026 0.000226424
0.0270888 0.557517 0.356102 0.000645828
0.0246184 0.544605 0.356211 0.000673784
-0.105943 0.361976 -0.00113763 0.000214166
-0.110386 0.355507 0.00424088 0.000133783
-0.102263 0.36629 0.0118498 0.00167485
-0.10737 0.359094 0.0175455 0.000947821
-0.00395021 -0.0340967 0.032366 0.0018917
-0.0100501 -0.0350662 0.0397307 0.00307009
0.000603646 -0.0386053 0.0433065 0.0001344
-0.00508185 -0.0390733 0.0505934 0.00118193
-0.0323039 0.520486 0.632169 0.00607539
-0.0380425 0.526882 0.636161 0.00133776
-0.0256809 0.517579 0.639508 0.00612516
-0.0315146 0.523363 0.643219 0.00137642
0.0403129 -0.105371 -0.646039 0.0036853
0.0382542 -0.121668 -0.646619 0.00082848
0.0483461 -0.101359 -0.642434 0.000110027
0.0462534 -0.116992 -0.644229 0.00285464
-0.0311048 -0.56247 0.0132343 0.00296306
-0.0332764 -0.573042 0.0119172 0.00312617
-0.0251867 -0.564559 0.0209691 0.00234903
-0.0275613 -0.574716 0.019862 0.000815551
-0.112087 -0.704866 -0.648756 0.00742433
-0.119657 -0.704294 -0.644014 0.0079264
-0.106358 -0.703145 -0.638843 0.00111899
-0.113376 -0.702004 -0.63554 0.000163754
0.10348 -0.0554093 -0.453953 0.000742065
0.0914198 -0.0412602 -0.452956 0.000775085
0.10898 -0.04371 -0.446886 0.000330562
0.0973541 -0.0333556 -0.445921 0.000198113
-0.087956 0.362697 0.10256 0.00169267
-0.0943315 0.353275 0.107245 0.000995462
-0.082838 0.366761 0.115615 0.000196271
-0.0891933 0.357919 0.12059 0.00119092
-0.120963 -0.625132 -0.660014 0.00389572
-0.125036 -0.633846 -0.654489 0.0026858
-0.116115 -0.622543 -0.654244 0.00290748
-0.120173 -0.631265 -0.64888 0.00379726
0.0290375 -0.0546805 -0.554807 0.00107768
0.0300467 -0.0682981 -0.556587 0.000256881
0.0339697 -0.0506703 -0.541864 0.000763429
0.0349969 -0.0640198 -0.544006 0.000286159
-0.0510614 0.547757 0.546865 0.00049742
-0.0515119 0.535435 0.553803 0.00716942
-0.0497762 0.548766 0.558235 0.00166931
-0.0506974 0.536589 0.565323 0.00523591
-0.0447376 -0.0736453 0.0437895 0.00230711
-0.0460457 -0.0852085 0.0476184 0.00311036
-0.0391762 -0.0737934 0.0508076 0.000989393
-0.0405859 -0.0851789 0.0544094 0.00218385
-0.0159501 0.567272 -0.258158 0.000598333
-0.0248505 0.566727 -0.252031 0.000559945
-0.00935747 0.571323 -0.247467 0.000739807
-0.0173812 0.57084 -0.24066 0.0012031
-0.00953545 0.353297 -0.523186 8.73719e-05
-0.0231094 0.353765 -0.520352 0.00323235
0.00087777 0.359658 -0.513203 0.00241248
-0.0133674 0.360348 -0.511367 5.84285e-05
0.15077 0.318411 -0.311826 0.000519526
0.148325 0.325981 -0.303646 0.000584921
0.152458 0.316919 -0.298695 0.00144548
0.14954 0.325395 -0.289994 0.00246705
0.0546449 -0.146822 -0.550516 0.000850289
0.0493053 -0.134568 -0.547501 0.00321894
0.0620289 -0.142516 -0.53823 0.000416518
0.055666 -0.127982 -0.534833 0.00208085
-0.0536439 0.19497 -0.613479 0.00065806
-0.0655375 0.199388 -0.607592 0.000654902
-0.0467071 0.204802 -0.613109 0.0010648
-0.0584687 0.209214 -0.607173 0.000999661
0.189997 0.13658 0.0588462 0.00361609
0.189863 0.12461 0.0633028 0.00150432
0.186991 0.135978 0.0728755 5.05544e-05
0.185552 0.124878 0.0782786 0.00241605
-0.18973 0.186916 -0.434254 0.000110159
-0.190944 0.174504 -0.430834 0.000671979
-0.189905 0.187274 -0.421083 0.00016914
-0.19047 0.174994 -0.417407 0.000820326
0.139092 0.394077 -0.224802 0.00238735
0.133129 0.404237 -0.214972 0.000172433
0.138811 0.390734 -0.210234 0.000743891
0.132918 0.399688 -0.200403 0.00211345
0.051677 0.525556 -0.1479 0.000106916
0.0455801 0.525667 -0.139431 6.0039e-05
0.0553661 0.517479 -0.142441 0.000891954
0.049287 0.517419 -0.134238 0.000208919
-0.0531879 -0.203465 -0.00450298 0.000738137
-0.0543749 -0.214771 -0.00611645 0.000150551
-0.0446911 -0.202623 0.00599561 0.000669197
-0.0451957 -0.213838 0.00425868 0.000190784
0.0745073 -0.518114 -0.656572 0.00497219
0.0755064 -0.540636 -0.650168 0.00519493
0.0804976 -0.526005 -0.649774 0.00203347
0.0810574 -0.548087 -0.643615 0.000750105
0.0868952 0.347532 0.13895 0.000181295
0.0808017 0.348221 0.147884 0.00080686
0.0894844 0.338164 0.146983 0.0014607
0.0835993 0.337923 0.156144 0.00198388
0.122174 0.00938726 -0.270599 0.000463373
0.114362 0.00235603 -0.265856 0.00161186
0.12826 0.00752626 -0.261201 0.00166348
0.120824 0.000658811 -0.256628 0.00103111
0.138469 -0.10702 0.0600767 0.00231629
0.138645 -0.120275 0.0621975 0.00100969
0.137282 -0.100376 0.0701682 0.00221862
0.137323 -0.113329 0.0718823 0.00144382
-0.14077 -0.0731293 -0.486003 0.00257964
-0.14932 -0.059228 -0.480149 0.00125454
-0.133341 -0.0739464 -0.475236 0.00033428
-0.141764 -0.0606007 -0.469445 0.000387032
-0.0198152 -0.403917 -0.718517 0.000582413
-0.0225665 -0.413845 -0.715888 0.000169554
-0.0158537 -0.407913 -0.711833 0.00201068
-0.0181832 -0.418212 -0.70891 0.001751
-0.0361707 0.277167 0.283081 0.00162384
-0.0439768 0.275467 0.290933 0.00190604
-0.0317915 0.283519 0.291491 0.000406639
-0.0396306 0.282415 0.298819 0.00021175
0.183375 0.155862 0.0849854 0.000945733
0.183141 0.145332 0.0888359 0.000234971
0.179799 0.153856 0.0988415 0.000504397
0.178212 0.144873 0.105108 0.00103722
0.171648 0.0269895 -0.158194 0.00162243
0.166651 0.0199877 -0.149803 0.000737539
0.175658 0.0325434 -0.143782 0.000733167
0.170121 0.0251404 -0.135503 0.000123159
0.0533505 0.583654 0.596324 0.00349262
0.0468022 0.583606 0.606203 0.00127974
0.0542889 0.574445 0.608757 0.00028213
0.0468759 0.574482 0.619476 0.00485064
-0.0191858 -0.375202 -0.715553 0.00305709
-0.0200443 -0.387022 -0.711844 0.00359331
-0.014648 -0.375119 -0.707408 0.0021269
-0.0158521 -0.386959 -0.7033 0.00105428
-0.0213505 0.375875 0.501264 0.000980124
-0.0253901 0.363658 0.501238 0.000608802
-0.012703 0.373708 0.502374 0.0023569
-0.0163343 0.361084 0.50292 0.000700363
-0.169679 -0.739705 0.126801 0.00127691
-0.178025 -0.744824 0.142233 0.00990315
-0.15789 -0.742498 0.141708 0.00427833
-0.165949 -0.747629 0.156576 0.00967713
-0.121337 -0.166162 0.0175904 0.00270264
-0.118451 -0.177725 0.0204755 0.000187868
-0.121837 -0.171693 0.0251533 0.000245135
-0.119338 -0.181034 0.0287765 0.00119166
-0.124983 0.326753 0.0183379 0.000371264
-0.128321 0.318511 0.0261359 0.000810175
-0.119788 0.332757 0.0303473 0.00128446
-0.123712 0.324401 0.0373131 0.000107807
-0.0696794 0.151032 -0.618538 0.00060885
-0.0820955 0.151402 -0.611651 0.00067187
-0.0661954 0.166468 -0.617759 0.00162476
-0.0785665 0.167796 -0.610566 0.000192607
0.158068 0.195477 0.159449 0.000331871
0.157014 0.186682 0.163381 0.000321061
0.156248 0.199344 0.16883 0.00105555
0.153853 0.192109 0.17276 0.000538254
0.00595551 0.0119923 -0.583748 0.00600626
0.00665828 0.000415297 -0.584333 0.00600093
0.00945134 0.0126984 -0.573568 0.00309976
0.0100936 0.00102064 -0.573966 0.00316421
-0.0320417 -0.156504 -0.629421 0.000404679
-0.0325919 -0.172407 -0.630072 0.000209748
-0.0325109 -0.146053 -0.62158 0.00195919
-0.0349118 -0.158713 -0.619525 0.0018686
-0.00210215 0.175109 0.425424 0.000737289
-0.0125295 0.181714 0.427115 0.00124193
0.00509782 0.18067 0.432481 0.00125431
-0.0044022 0.185384 0.436486 0.000604436
-0.0542839 0.039664 -0.468644 0.00131511
-0.0591827 0.0288968 -0.4647 0.00118091
-0.0570197 0.0497214 -0.459968 0.000830052
-0.0621351 0.039297 -0.456503 0.000553181
-0.0475261 0.473659 0.447024 0.0077073
-0.0532855 0.478477 0.452568 0.000312826
-0.0453865 0.472459 0.45931 0.00588339
-0.0504612 0.476733 0.463647 0.000186797
0.0701246 -0.660583 -0.659518 0.000138738
0.0616725 -0.668054 -0.653051 0.00191605
0.0793472 -0.671699 -0.657368 0.00262065
0.0710694 -0.679707 -0.650844 0.000640717
-0.188893 0.196863 -0.44077 0.000506007
-0.190778 0.184154 -0.437001 0.00100965
-0.189784 0.197874 -0.427188 0.00093319
-0.19074 0.185271 -0.423169 0.000614709
0.179684 0.118192 -0.493708 0.0021178
0.178306 0.105105 -0.492637 0.00217922
0.1859 0.119261 -0.478473 0.00161152
0.184123 0.107155 -0.476331 0.00103
0.0457196 -0.173438 -0.580102 0.00212601
0.0415576 -0.171304 -0.583366 0.0041052
0.054103 -0.173015 -0.570755 0.00100052
0.0480862 -0.168878 -0.573713 0.00183394
0.0483263 -0.090861 -0.530005 0.000109955
0.0491636 -0.102525 -0.533894 0.000623479
0.0559768 -0.0914203 -0.516497 0.00038522
0.0567868 -0.100805 -0.520671 0.000337547
0.0247282 0.157958 0.394848 0.000872001
0.0101851 0.158646 0.399381 0.00322087
0.0317282 0.166166 0.40282 0.00297149
0.0184421 0.166983 0.40719 0.00182514
-0.0182541 0.404461 0.147275 0.00116361
-0.0271362 0.396314 0.156386 0.00171836
-0.00448586 0.398496 0.155773 0.00160568
-0.0119019 0.39134 0.163764 0.000428349
-0.0744279 -0.175214 -0.552663 0.000953404
-0.0825225 -0.1712 -0.549771 0.00189284
-0.0700954 -0.167599 -0.544758 0.00267413
-0.0789585 -0.16692 -0.541929 0.00164753
-0.110336 0.364832 -0.331877 0.0012232
-0.115943 0.358973 -0.325247 0.0019261
-0.110821 0.372207 -0.319683 0.000620075
-0.117182 0.365548 -0.31351 0.00171593
-0.177722 0.0639426 -0.47536 0.000475256
-0.176228 0.0508535 -0.468656 0.00151572
-0.178689 0.0610828 -0.463216 0.00027942
-0.176893 0.0496265 -0.456946 0.00025494
-0.0590526 0.361443 0.457882 0.00223146
-0.0622314 0.348253 0.455557 0.000240415
-0.05417 0.364419 0.469968 0.00176053
-0.0580369 0.351786 0.467477 0.00045342
-0.0484171 -0.404011 0.0295476 0.00387364
-0.051175 -0.421175 0.0295362 0.000475099
-0.0421013 -0.404739 0.0331098 0.00316856
-0.0450661 -0.421741 0.0332759 0.00132432
-0.0955392 -0.638223 -0.670492 0.00206947
-0.0998688 -0.64738 -0.666077 5.68923e-05
-0.0897118 -0.637425 -0.666159 0.0028683
-0.0941072 -0.646734 -0.661749 0.00527585
0.0525722 -0.422332 -0.711481 0.000913826
0.0505365 -0.436299 -0.708821 0.0010819
0.0601568 -0.433199 -0.701605 0.002324
0.0589216 -0.446976 -0.698954 0.00357096
0.0328079 0.035825 -0.36905 0.00212947
0.0237564 0.0285828 -0.360996 0.00160009
0.0455177 0.0296929 -0.360129 0.00202688
0.035823 0.0232935 -0.35402 0.00142757
-0.0710576 -0.479648 -0.670894 0.00809796
-0.0712609 -0.500673 -0.664677 0.00910291
-0.077058 -0.478758 -0.657386 0.00363041
-0.0771115 -0.500134 -0.651296 0.0036374
-0.0524707 0.371107 0.394326 0.00189471
-0.0554332 0.355538 0.398822 0.00319533
-0.0598709 0.381365 0.407419 0.00188716
-0.0622521 0.364702 0.411279 0.00211187
-0.0236973 0.515076 -0.10632 0.00206245
-0.0304259 0.508996 -0.0990558 0.00547304
-0.00962214 0.5076 -0.100543 0.00312648
-0.0165995 0.501792 -0.0939018 0.000929056
-0.140537 0.307136 -0.032583 0.000847884
-0.145106 0.297373 -0.0276071 0.000504557
-0.137011 0.310227 -0.0248052 0.000483721
-0.141098 0.301112 -0.0183756 0.000375212
-0.0183413 0.402555 0.365895 0.00352456
-0.0210414 0.388597 0.368217 0.00100846
-0.0140499 0.403639 0.372186 0.00362704
-0.0165083 0.389585 0.373718 0.00544838
0.182156 0.159836 0.0878742 0.000818995
0.182186 0.14915 0.0912701 0.000180137
0.179488 0.159712 0.100491 0.000231178
0.178224 0.150091 0.105903 0.000497643
0.18197 0.201899 -0.0300502 0.00115982
0.180044 0.191285 -0.0254147 0.00195461
0.177011 0.204066 -0.0185036 0.000645065
0.174637 0.193942 -0.0134389 0.000402683
0.147485 0.00326176 -0.179773 0.00040584
0.140142 -0.00384809 -0.175388 0.000164547
0.151923 0.00656307 -0.170788 0.00032155
0.145024 -0.000276325 -0.165158 0.000519049
-0.0583581 0.507398 0.423277 0.000627523
-0.0665942 0.513405 0.430558 0.00217349
-0.0583131 0.502824 0.434595 0.000579079
-0.0662404 0.509412 0.442129 0.00122378
0.0761329 0.408977 0.0387373 0.00221238
0.0716191 0.409955 0.0474365 5.75906e-05
0.077905 0.399195 0.0528271 0.0011304
0.0737341 0.400166 0.0614607 0.00228023
0.0519909 0.466454 0.406753 0.00255824
0.0530397 0.453301 0.406814 0.00122421
0.054956 0.470963 0.414249 0.00121662
0.0563942 0.45773 0.415651 0.000309562
0.126853 0.314114 0.061226 0.0013421
0.122503 0.319737 0.070582 0.000448555
0.127462 0.309411 0.0744763 0.00126217
0.122289 0.315903 0.0849735 0.0034085
0.167233 0.0315941 -0.438474 0.00129258
0.1628 0.0224315 -0.433185 0.000322565
0.165747 0.0392538 -0.427169 0.00131728
0.160265 0.0309723 -0.421341 0.00285612
0.01926 0.650521 0.437527 0.00146048
0.0103259 0.651511 0.447451 0.0011654
0.0268981 0.648493 0.452104 0.00107543
0.0179201 0.648802 0.461811 0.00178151
0.125623 -0.740736 0.0667898 0.00406628
0.115392 -0.7435 0.070471 0.00202416
0.137286 -0.741471 0.0733834 0.00127176
0.127108 -0.742243 0.0795292 0.003423
0.155873 0.102363 -0.558218 0.000840063
0.156276 0.0905412 -0.559911 6.05058e-05
0.161795 0.101057 -0.548738 0.000491266
0.162383 0.0892509 -0.550179 0.000684528
-0.202732 0.144833 -0.252407 0.000164284
-0.203551 0.134179 -0.248238 0.00157229
-0.206158 0.141232 -0.237605 0.00116448
-0.207895 0.133474 -0.232354 0.000333198
-0.00855386 0.0434092 -0.572676 0.00185357
-0.00831925 0.0324448 -0.572088 0.0031116
-0.00654215 0.0478977 -0.565428 0.00424993
-0.00580397 0.0361487 -0.564735 0.0061388
-0.00793773 -0.431309 -0.00142735 0.00274282
-0.0137146 -0.442505 -0.000702881 0.00290911
0.00292219 -0.431683 0.00119971 0.00221795
-0.00269905 -0.443822 0.00163546 0.00775369
-0.0561114 -0.542153 0.0299107 0.00356446
-0.0606745 -0.556 0.0346756 0.00109316
-0.0497274 -0.539593 0.0384945 0.00330622
-0.0539731 -0.554619 0.0434629 0.00553035
0.129869 0.095368 -0.386138 0.00122565
0.119215 0.0898053 -0.3754 0.000596272
0.130042 0.104299 -0.373038 0.00183748
0.122182 0.0969436 -0.364173 0.00712916
0.152714 0.304674 -0.401363 0.000352527
0.148257 0.312461 -0.393424 6.96859e-06
0.154238 0.300511 -0.387445 0.00107592
0.150789 0.307272 -0.379619 0.00103994
-0.0613058 -0.392713 -0.0249974 0.00264195
-0.0614678 -0.408271 -0.0221309 0.000229053
-0.0599125 -0.394046 -0.0168595 0.0038726
-0.0596543 -0.409984 -0.0136303 0.00590063
-0.0778513 -0.548384 -0.687355 0.00462815
-0.0837758 -0.560009 -0.683444 0.00370163
-0.0715047 -0.544037 -0.681286 0.00346744
-0.0768165 -0.557062 -0.677453 0.00443081
0.206881 0.112246 -0.127152 0.00141667
0.203848 0.100119 -0.123575 0.00100402
0.208278 0.116973 -0.113794 0.000487807
0.20604 0.105437 -0.108729 0.00150431
0.179172 0.294342 -0.10278 0.000990781
0.170716 0.300016 -0.095999 0.000939349
0.180668 0.287856 -0.0938153 0.00156507
0.172357 0.293617 -0.0870167 0.000104581
0.039515 -0.0364363 0.109602 0.00055875
0.0315541 -0.0282956 0.110068 0.00432592
0.0489775 -0.0380961 0.11859 0.00311546
0.0406062 -0.0307896 0.118277 0.00162493
-0.0632235 -0.0366509 -0.0370274 0.00171843
-0.070237 -0.0353497 -0.0275591 0.0024056
-0.0577505 -0.0371622 -0.0266033 0.00127047
-0.0652724 -0.0364385 -0.0167519 0.0043456
0.0913779 0.386113 -0.0167694 0.00112935
0.0874067 0.388806 -0.0092823 0.000536987
0.0931961 0.380587 -0.00824909 0.00038128
0.0890348 0.383753 -0.000246526 0.00222346
-0.0693008 -0.400112 -0.00446248 0.000619827
-0.0682478 -0.416788 -0.00123684 0.000549471
-0.0683472 -0.402458 0.00304067 0.00157812
-0.0672629 -0.419501 0.00590971 0.000222081
0.158444 0.226197 0.156916 0.0017177
0.151101 0.230724 0.167549 6.58338e-05
0.153768 0.217772 0.1699 0.000299209
0.14618 0.222989 0.180757 0.00159386
-0.0362221 0.501115 0.496091 0.000746273
-0.0444974 0.509474 0.499701 0.00190106
-0.0293222 0.505405 0.504737 0.00267051
-0.0380285 0.513843 0.508493 0.000288992
-0.0386842 0.100385 0.288655 0.000309954
-0.0436905 0.107602 0.292554 0.000789456
-0.035206 0.100962 0.296428 0.000827532
-0.0405323 0.108152 0.300528 0.000265727
-0.0662028 0.260093 0.269643 0.000732621
-0.0707743 0.252911 0.275326 0.000405635
-0.0622478 0.264211 0.280488 0.0012737
-0.0674643 0.258838 0.288308 0.000580206
0.104578 0.0993294 -0.608328 0.000235562
0.101391 0.0907533 -0.60945 0.0012358
0.114986 0.101294 -0.602766 0.00103405
0.111962 0.0929843 -0.604197 0.00012345
0.165666 0.320327 -0.265597 0.00152797
0.162929 0.32874 -0.254511 0.000479705
0.168375 0.317921 -0.250461 0.00127802
0.165549 0.326492 -0.239462 0.00245874
-0.150107 -0.718645 -0.56806 0.00402545
-0.15667 -0.721709 -0.557346 0.00481994
-0.141544 -0.720722 -0.554149 0.00143218
-0.148251 -0.722848 -0.544297 0.00132046
-0.0360917 0.0135246 -0.520209 0.00103892
-0.039824 0.00229784 -0.513977 0.00059792
-0.0396963 0.0219876 -0.508697 0.000511576
-0.0434518 0.0108361 -0.502469 6.3161e-05
0.111032 0.352834 -0.00236341 0.000666209
0.107005 0.35786 0.00620785 0.000440215
0.112269 0.347779 0.00887838 0.000588366
0.108459 0.352754 0.0176 0.00213891
-0.217073 0.199397 -0.186151 0.000115566
-0.218305 0.189104 -0.180876 0.000204368
-0.218085 0.202475 -0.173883 0.00117405
-0.219036 0.191662 -0.169086 0.00114886
-0.005676 -0.0461871 0.0795503 0.00298117
-0.018022 -0.0420911 0.0865527 0.00161407
0.00229192 -0.044967 0.0913637 0.00175311
-0.0100675 -0.040617 0.0985808 5.53683e-05
0.199096 0.270263 -0.145478 0.000245347
0.19277 0.279194 -0.135588 0.000717728
0.198323 0.266671 -0.129271 0.000252149
0.191669 0.276261 -0.119576 0.000874233
-0.107943 -0.13446 -2.78046e-06 0.00218991
-0.107274 -0.14917 0.00256973 0.000321153
-0.107955 -0.129137 0.00270966 0.000637706
-0.107375 -0.144395 0.0053674 0.00241487
-0.0830805 -0.571561 0.00129204 0.0067249
-0.0879798 -0.582566 0.006856 0.00476935
-0.0780712 -0.56638 0.0100687 0.00103655
-0.0826205 -0.577652 0.0158294 0.00210379
-0.00811731 0.0869896 0.293778 0.00130557
-0.0161166 0.0942415 0.299226 0.000584258
-0.00421747 0.0892175 0.302692 0.00275353
-0.0121718 0.0969058 0.308786 0.000181437
-0.0577307 0.407282 0.0920238 0.00147168
-0.0670816 0.397561 0.0979578 0.000907765
-0.0500006 0.407696 0.105009 0.0030636
-0.0600254 0.398432 0.11182 0.000615773
0.119326 0.360866 -0.0660104 0.000214204
0.113675 0.364358 -0.0584544 0.000110925
0.119282 0.354147 -0.0560352 1.92163e-05
0.113863 0.357906 -0.0484616 0.000239274
-0.116931 0.0678135 -0.399389 0.00150876
-0.12632 0.0786893 -0.395751 0.00122236
-0.112586 0.0711811 -0.394741 0.00294588
-0.120675 0.079886 -0.391481 0.00339528
-0.0855149 -0.553762 -0.646572 0.000526426
-0.0927022 -0.563078 -0.642621 0.00422602
-0.075913 -0.556638 -0.643481 0.00385732
-0.0840315 -0.564829 -0.63965 0.000692723
-0.0514664 0.552131 0.632998 0.00386888
-0.0564956 0.554746 0.642359 0.00403432
-0.047099 0.551398 0.642442 0.00448638
-0.0514857 0.553741 0.650822 0.00483837
0.0306955 0.299648 0.320545 0.000557709
0.021721 0.303528 0.322661 0.000243882
0.0376446 0.30577 0.330752 0.00137753
0.0284093 0.309913 0.332789 0.00035155
0.0744977 0.157679 0.293262 0.000664406
0.0684991 0.144452 0.297152 0.000311077
0.0761585 0.164984 0.301146 4.37393e-05
0.0702974 0.151864 0.3051 0.000200131
-0.125217 -0.62807 -0.638302 0.00127618
-0.129106 -0.63717 -0.632938 0.00195079
-0.118448 -0.625543 -0.631601 0.000149764
-0.122008 -0.634194 -0.626924 0.000176062
0.0194076 0.106874 0.319466 0.000268025
0.0099752 0.109015 0.324138 0.00318086
0.0220052 0.113081 0.331774 0.00151853
0.0117963 0.114075 0.336637 0.000989094
0.0205016 0.60901 0.63003 0.000946947
0.0115488 0.608687 0.639273 0.00477783
0.0238017 0.599998 0.640127 0.000467912
0.0144699 0.59999 0.649252 0.00487842
-0.130027 0.312328 0.111631 0.00129541
-0.135124 0.303255 0.116267 0.000360321
-0.123436 0.315908 0.123054 0.000473674
-0.128597 0.306707 0.127809 6.80443e-05
-0.142008 -0.0759054 -0.571995 0.000549859
-0.150689 -0.0694124 -0.561316 0.00193558
-0.147029 -0.0786832 -0.556306 0.00164353
-0.156545 -0.0696275 -0.545132 0.00267909
0.0699279 -0.690716 0.0905319 0.00316234
0.0673929 -0.705511 0.0954851 0.00295583
0.0769785 -0.691416 0.100793 0.00993379
0.0729231 -0.705869 0.105515 0.00175862
0.0904722 -0.728276 0.161112 0.00393145
0.0753721 -0.728483 0.16573 0.00147094
0.10614 -0.728245 0.17189 0.0110517
0.0909801 -0.728491 0.176445 0.00602326
0.109232 -0.691675 -0.65074 0.00745019
0.101863 -0.695834 -0.640511 0.00273983
0.111346 -0.695119 -0.637193 0.00247048
0.104504 -0.699637 -0.627578 0.00885884
-0.154866 0.154058 0.165411 0.00215637
-0.155758 0.138329 0.162831 0.00525225
-0.147623 0.158135 0.179091 0.00139041
-0.148325 0.142521 0.175717 0.000554726
-0.17913 0.185802 -0.363312 0.00286068
-0.176012 0.171976 -0.358571 0.00174375
-0.18028 0.18707 -0.350259 0.00177199
-0.17731 0.172869 -0.345046 0.00516301
-0.00415341 0.623078 0.595025 1.67492e-05
-0.0114174 0.620754 0.601019 0.00069334
0.00166096 0.619271 0.604833 0.00125222
-0.00619851 0.616681 0.611467 0.00110796
-0.116577 -0.691306 -0.587011 0.000575054
-0.120992 -0.700782 -0.581135 0.00158655
-0.107428 -0.692508 -0.580149 0.00205227
-0.113209 -0.701246 -0.574736 0.000292521
-0.0605213 -0.742572 0.0492174 0.00101907
-0.0705255 -0.74608 0.0596953 0.00217001
-0.0551728 -0.740714 0.0578736 0.00245416
-0.0650448 -0.744193 0.0686828 0.000221809
-0.169142 0.287223 -0.0695734 0.000405813
-0.173131 0.276508 -0.061838 0.000652865
-0.160001 0.289704 -0.0546171 0.000483839
-0.164185 0.278909 -0.0482896 0.000320557
-0.0712648 0.375618 -0.40347 5.52142e-05
-0.0791961 0.372129 -0.398493 0.000520322
-0.0653777 0.381378 -0.39481 0.000414945
-0.0735206 0.378026 -0.390062 0.000772698
-0.0626998 -0.0725568 0.0204973 0.0029908
-0.0628313 -0.087829 0.0200154 0.00404571
-0.0582787 -0.0722618 0.0244935 0.00257387
-0.0590002 -0.0864133 0.0265388 0.00480156
0.0286238 -0.627346 0.0304671 0.00312564
0.0273731 -0.640673 0.032955 0.0053316
0.0350851 -0.627254 0.0375108 0.00427013
0.0341237 -0.641047 0.040204 0.00248876
0.0606059 -0.671477 0.0755381 0.00379261
0.05915 -0.685339 0.081664 0.000230286
0.0671217 -0.677999 0.0854444 0.00436267
0.0654104 -0.692245 0.0910094 0.00256698
0.195655 0.140825 -0.268545 0.000768901
0.194004 0.129656 -0.268467 0.000715433
0.200966 0.143578 -0.256392 0.000396769
0.199399 0.132413 -0.256314 5.07889e-05
0.159814 -0.0358658 -0.468644 0.000612034
0.153353 -0.0412624 -0.465649 0.000288955
0.158462 -0.0259916 -0.459289 9.39487e-05
0.15265 -0.0310461 -0.456135 0.000954059
0.0374603 0.383736 0.373868 0.0018411
0.037596 0.373154 0.372721 0.00173469
0.0430876 0.38757 0.380956 0.000353176
0.0435713 0.377239 0.379635 0.000141871
0.0585489 0.401113 0.101702 0.00190332
0.0525521 0.402835 0.111834 0.00150587
0.0641051 0.391266 0.110274 0.000668347
0.0586015 0.392116 0.120221 0.000540758
-0.0805416 -0.640068 0.0627241 0.00113904
-0.0838593 -0.65839 0.0702258 0.0023849
-0.0712395 -0.646659 0.0682269 0.000818476
-0.0747529 -0.664281 0.0756452 0.00127934
-0.0185449 0.516235 0.65189 0.00248483
-0.0262049 0.521296 0.65594 0.00103431
-0.0106209 0.514268 0.658597 0.00179427
-0.0210283 0.519784 0.662846 0.00235586
-0.184558 0.209379 -0.461779 0.00118089
-0.188176 0.196728 -0.458898 0.00214344
-0.18658 0.211919 -0.448098 0.00163527
-0.189334 0.199187 -0.444545 0.00148021
-0.0402216 -0.0627308 -0.629704 0.000307488
-0.0412475 -0.0749655 -0.631246 0.00198789
-0.0345057 -0.0587329 -0.624786 0.000372098
-0.0353886 -0.0708613 -0.626281 0.00231262
0.194481 0.196229 -0.272854 0.000621105
0.194689 0.18503 -0.274071 0.000950419
0.197709 0.199221 -0.264013 0.000892884
0.198165 0.188319 -0.263815 0.000963141
0.117263 0.0471279 -0.603885 0.000230753
0.113939 0.0388673 -0.606429 9.38831e-05
0.125987 0.0461116 -0.598133 0.00142475
0.123321 0.0375485 -0.600425 0.00136012
0.0605926 -0.611871 0.0534585 0.000604419
0.0556352 -0.621248 0.0587359 0.000871765
0.070094 -0.619355 0.0552279 0.000375155
0.0644227 -0.627727 0.061046 0.000672317
0.0577633 0.415441 0.454916 0.000468145
0.0576369 0.401707 0.45787 0.0010571
0.0580525 0.416371 0.465868 0.00361409
0.0581901 0.403066 0.468436 0.00354911
0.106912 0.341037 0.101643 0.000616055
0.101808 0.343662 0.112379 0.000909133
0.110783 0.329209 0.114873 0.00163897
0.105923 0.331046 0.126145 0.00127402
-0.0217284 -0.283858 -0.671609 0.00047701
-0.0231041 -0.300446 -0.670049 0.00331409
-0.0149165 -0.278807 -0.670655 0.00839852
-0.016236 -0.295772 -0.669079 0.00434357
0.0708199 -0.702247 -0.63962 0.00713057
0.0669126 -0.709617 -0.630997 0.00289599
0.0706511 -0.703292 -0.627318 0.00248952
0.0687099 -0.711485 -0.619558 0.00170711
0.136748 0.323591 -0.421178 0.000360882
0.131527 0.330482 -0.412755 4.78132e-05
0.139614 0.321686 -0.409356 0.000343826
0.13424 0.328998 -0.401049 7.31539e-05
-0.172204 0.0534419 -0.511212 0.000767735
-0.174189 0.036748 -0.507091 0.0011856
-0.174096 0.0591131 -0.500052 0.000460371
-0.176199 0.0425686 -0.495758 0.00178621
0.180116 0.126189 -0.0179234 0.0012676
0.180214 0.1153 -0.0148382 0.00373299
0.175635 0.129977 -0.00698742 0.00307651
0.175953 0.119009 -0.00379167 0.00583505
-0.0948031 -0.0940844 -0.629003 0.00163661
-0.108874 -0.0881691 -0.62127 0.00172892
-0.0884516 -0.0812781 -0.631257 0.000212348
-0.101693 -0.0764941 -0.623417 0.000202262
0.0516427 -0.699761 0.0754264 0.00163087
0.0518284 -0.713788 0.0803996 0.00101312
0.0584291 -0.703995 0.0868497 0.000907022
0.0565336 -0.718819 0.0919104 0.00229651
0.171502 0.304547 -0.0993263 0.000997873
0.163284 0.310122 -0.0923567 0.000730593
0.172521 0.297464 -0.0896086 0.00112056
0.164473 0.302662 -0.0829074 0.000245538
0.0830267 -0.702734 -0.657049 0.0109057
0.0759247 -0.706763 -0.646712 0.004115
0.084587 -0.70346 -0.645912 0.00255475
0.078179 -0.708076 -0.635971 0.00290433
0.0582541 -0.206288 -0.691199 0.00942454
0.0557412 -0.218621 -0.68665 0.000285462
0.0599171 -0.194115 -0.678275 0.00219477
0.0568501 -0.206315 -0.675552 0.00510042
-0.0192314 0.527868 0.354828 0.00179497
-0.0261413 0.516953 0.359158 0.00167433
-0.00815778 0.516247 0.356019 0.000304924
-0.0143238 0.504925 0.360117 0.00167499
0.0204971 -0.395044 -0.681997 0.000925662
0.0180125 -0.412676 -0.683623 0.00360196
0.0275635 -0.388393 -0.673795 0.00437182
0.0248911 -0.406893 -0.675571 0.000165654
0.019926 -0.0371079 0.0294813 0.000184977
0.0155101 -0.0359764 0.0366063 0.00190118
0.0245863 -0.0437831 0.0389292 0.00246928
0.0197725 -0.0422657 0.0456366 0.00106525
-0.088245 -0.121175 -0.0019019 0.00038757
-0.0888266 -0.137166 -0.00275589 0.00166013
-0.0807668 -0.117816 -0.00127753 0.000588158
-0.0814214 -0.134166 -0.0037662 0.00160344
0.0734505 -0.0414447 -0.0185353 0.000530159
0.060202 -0.041098 -0.0131798 0.000997151
0.0812159 -0.0449796 -0.0131494 0.00637158
0.0681296 -0.0445209 -0.00780565 0.000441113
0.00657503 0.0428264 -0.574545 0.00394671
0.00702303 0.031476 -0.574625 0.00425531
0.008534 0.0480051 -0.566567 0.00222159
0.00960579 0.0362557 -0.566249 0.00212786
0.0969199 0.458845 -0.294985 0.00211655
0.0922522 0.474859 -0.290077 0.00140274
0.0992878 0.463424 -0.281455 0.000979468
0.0948744 0.478981 -0.27579 0.00136655
-0.203399 0.0942347 -0.184602 0.0014106
-0.209728 0.104327 -0.173586 0.000793087
-0.203152 0.0898866 -0.170431 0.000823723
-0.209219 0.0999804 -0.159058 0.00109588
-0.0412203 0.366977 -0.473767 0.000225276
-0.0501167 0.3655 -0.468015 0.000865508
-0.0324361 0.375265 -0.464908 7.23126e-05
-0.0410759 0.373895 -0.459374 0.00106987
-0.162806 0.015637 -0.114154 0.000212425
-0.168586 0.0261525 -0.103963 0.001169
-0.159621 0.0119161 -0.0994656 0.000816555
-0.165608 0.0231423 -0.0889384 0.000137372
-0.0824476 0.0180289 0.167041 0.00281174
-0.088745 0.0253806 0.173395 0.000910052
-0.0773297 0.0265174 0.180091 0.000492303
-0.0836726 0.033874 0.1867 0.00279934
-0.0536165 -0.325881 0.0334404 0.00278092
-0.0561518 -0.34376 0.0308018 0.00150443
-0.0414397 -0.323821 0.0371326 0.00184292
-0.0442399 -0.341878 0.0347585 7.6479e-05
0.0392446 -0.549641 -0.0106473 0.00409524
0.0372434 -0.565272 -0.00915391 0.00632186
0.0442697 -0.551835 -0.00131942 0.00568316
0.0423172 -0.567372 -3.74434e-05 0.00330117
-0.0424514 -0.147527 0.0667198 0.00141593
-0.0459881 -0.157499 0.0696096 0.00342737
-0.0438515 -0.143959 0.0740386 0.000882792
-0.0486536 -0.152001 0.0771349 0.00238982
0.0975182 -0.638357 -0.608781 0.00450704
0.0932169 -0.646601 -0.600715 0.00257916
0.102416 -0.64776 -0.601419 0.00123852
0.0977936 -0.656525 -0.592132 0.00210413
-0.0569752 -0.378791 -0.715729 0.000522444
-0.0589682 -0.390613 -0.71309 0.000119873
-0.0530158 -0.378295 -0.713074 0.00512084
-0.0551005 -0.389883 -0.710358 0.00450557
-0.0841083 -0.746429 0.12165 0.000146463
-0.0919882 -0.74619 0.131266 0.000415623
-0.0804326 -0.744953 0.131735 0.00174756
-0.0888055 -0.744998 0.141197 0.00122521
-0.000366414 -0.059932 -0.662732 0.00105054
-0.00454882 -0.0787384 -0.662541 0.0122704
0.0103869 -0.0608648 -0.660801 0.00768345
0.00679028 -0.0774283 -0.661183 0.012792
-0.18183 0.187133 -0.4856 0.000667938
-0.185841 0.175481 -0.483453 0.000839785
-0.183641 0.194132 -0.471926 0.000719321
-0.187862 0.181673 -0.46946 0.00153527
-0.137349 0.232823 -0.546194 0.00166263
-0.14342 0.22399 -0.542999 0.000981987
-0.139066 0.241113 -0.538158 0.000742213
-0.145108 0.231928 -0.535288 9.02467e-05
0.081277 -0.207191 -0.65895 0.0019436
0.0779342 -0.21997 -0.657793 0.000968704
0.0854182 -0.196507 -0.651189 0.00225189
0.0814109 -0.209277 -0.652615 0.000219048
0.105126 0.300845 0.183003 0.000359795
0.0993406 0.297458 0.193626 2.06423e-05
0.107533 0.287159 0.19421 0.000406179
0.101674 0.283972 0.204036 0.000329188
-0.157092 0.259123 -0.00964539 0.000901398
-0.15903 0.248604 4.1808e-05 0.00300935
-0.150801 0.260919 0.00294928 0.000943669
-0.152966 0.250679 0.0134218 0.00119588
0.132556 -0.65589 -0.636161 0.00198891
0.130293 -0.667445 -0.633593 0.00407703
0.14089 -0.665444 -0.628188 0.00537195
0.137687 -0.675177 -0.624072 0.00248149
-0.0467876 0.265945 0.464273 9.73509e-05
-0.0482567 0.254773 0.456544 0.00105416
-0.038315 0.2666 0.476458 0.001851
-0.0398927 0.256126 0.469273 0.00133159
0.0512232 0.572818 0.380713 0.000903095
0.0503601 0.561565 0.38109 0.000564765
0.056904 0.572218 0.389953 0.00131026
0.056339 0.561043 0.391119 0.000158885
-0.0721789 -0.189764 -0.670252 0.00235741
-0.072747 -0.203846 -0.667547 0.000139265
-0.0772153 -0.183575 -0.657808 0.00133524
-0.0777365 -0.196711 -0.653741 0.00190449
-0.0744621 0.328083 0.191284 0.00115618
-0.079152 0.321609 0.193562 0.00137249
-0.0667995 0.329352 0.199074 0.00321076
-0.0714754 0.322858 0.201418 0.00322086
0.077275 -0.301582 -0.669889 0.00197654
0.0778708 -0.312902 -0.673058 0.00230344
0.0797639 -0.297199 -0.66172 0.00168709
0.0800932 -0.309394 -0.663933 0.00301422
-0.173958 0.175419 0.0331674 0.00139414
-0.176082 0.167214 0.0432525 0.00145281
-0.177196 0.176253 0.048806 0.000863894
-0.179071 0.168586 0.0586913 0.000615549
0.122927 -0.176377 0.0436073 0.000919066
0.120874 -0.18572 0.0464032 0.000323698
0.12269 -0.169645 0.0524067 0.00216847
0.121091 -0.180184 0.0552102 0.0013093
-0.0410705 0.524319 0.616802 0.00360451
-0.0474109 0.530138 0.624173 0.00248724
-0.0400264 0.523379 0.626615 0.004383
-0.0457631 0.529853 0.631113 0.0015144
-0.125803 0.397304 -0.134924 0.00114242
-0.130272 0.387554 -0.134424 0.000868953
-0.118145 0.405008 -0.12629 0.000181597
-0.122756 0.395121 -0.125207 1.34925e-05
-0.00725531 0.500038 0.638412 0.00421129
-0.0177907 0.504032 0.643274 0.00184138
-9.98857e-05 0.496745 0.645542 0.0023268
-0.0112802 0.501006 0.651026 0.00170417
-0.135632 -0.0176491 -0.588316 0.000318114
-0.139473 -0.0306167 -0.583851 0.000157489
-0.143207 -0.0121299 -0.579446 0.000283731
-0.146367 -0.0258255 -0.574974 0.000649156
0.0428613 0.528701 0.593581 0.00137188
0.036142 0.526301 0.60098 0.00110537
0.0443662 0.525868 0.606521 9.13146e-06
0.0371862 0.524211 0.613743 0.00394133
-0.0717649 0.255231 0.292775 0.0012037
-0.0755795 0.248888 0.301954 0.00122796
-0.0716731 0.258043 0.306556 0.00111187
-0.0757189 0.251465 0.316214 0.00102258
0.137342 -0.0741323 -0.58323 0.0010437
0.13635 -0.084165 -0.580024 0.000680756
0.143805 -0.0744313 -0.569923 0.000136278
0.142582 -0.084778 -0.564392 0.00151962
0.166208 0.186267 -0.343452 0.00762832
0.165036 0.176136 -0.337986 0.00189379
0.167802 0.189682 -0.330026 0.000782107
0.167081 0.179407 -0.325087 0.0042582
-0.138164 -0.694801 -0.619328 0.00634664
-0.139904 -0.703923 -0.61451 0.00383377
-0.13281 -0.694722 -0.611584 0.00162657
-0.13442 -0.703891 -0.60671 0.00407647
0.0616355 -0.720253 -0.639993 0.00378233
0.0598551 -0.73052 -0.632033 0.000114595
0.0619242 -0.721232 -0.627762 0.00032577
0.0608654 -0.730653 -0.620774 0.00356722
0.0795747 0.0242887 0.176097 0.000463793
0.0675677 0.0272762 0.183304 0.000347377
0.0897808 0.0381619 0.180821 0.00186373
0.0777928 0.03654 0.186002 4.43314e-05
-0.0543926 -0.739132 -0.601636 0.0014763
-0.0595887 -0.737721 -0.592375 0.00178112
-0.0532466 -0.743564 -0.592285 0.00640859
-0.0583085 -0.741499 -0.584006 0.00411619
-0.021832 0.102939 0.310559 0.000435267
-0.0295449 0.110979 0.316402 0.00072047
-0.0186192 0.104673 0.319864 0.00143386
-0.0267461 0.112668 0.32462 0.000347878
0.0192065 0.466129 0.499749 0.00151412
0.0191143 0.445488 0.498657 0.000121263
0.0292573 0.476286 0.496442 0.00396007
0.0286089 0.457492 0.495514 0.00281469
0.0407999 -0.218624 -0.695535 0.00849528
0.0381249 -0.230677 -0.690422 0.000293932
0.0413711 -0.210188 -0.685355 0.00271423
0.0387915 -0.222413 -0.680501 0.00501609
-0.107666 -0.64427 -0.60932 0.00287482
-0.112124 -0.652486 -0.606493 0.00249449
-0.101548 -0.64291 -0.600877 0.0010624
-0.105908 -0.652159 -0.597366 0.00154592
-0.143324 0.315363 -0.0518942 0.000575584
-0.149458 0.304251 -0.0481031 0.000867229
-0.136515 0.319351 -0.0419524 0.00019206
-0.142559 0.30816 -0.0383589 0.000128854
0.0747813 -0.0057324 -0.300786 0.000483729
0.0676544 -0.0129745 -0.2936 0.00114842
0.0818395 -0.00915732 -0.288822 0.000760215
0.0746749 -0.0164863 -0.281441 0.00150218
-0.116259 0.101098 -0.601036 0.000585014
-0.122664 0.0931409 -0.596299 4.62821e-05
-0.111504 0.108211 -0.601384 0.00109991
-0.118998 0.102717 -0.596269 0.0020099
0.0722293 0.613402 0.447592 0.00447872
0.0741652 0.601162 0.453817 0.000837387
0.0728535 0.6116 0.45985 0.0038621
0.0754516 0.597946 0.465218 0.000418459
-0.0491156 -0.145551 0.0117272 0.000513861
-0.0497898 -0.158898 0.0082675 0.000463325
-0.0429345 -0.140147 0.0152032 0.00361606
-0.0434535 -0.154972 0.0112665 0.00356298
0.0696398 0.521325 -0.175497 0.000745472
0.0624154 0.525259 -0.168368 0.000680721
0.0743434 0.512154 -0.169458 0.000162736
0.0666958 0.516688 -0.162138 0.000479035
-0.0394903 -0.404862 -0.720569 0.00198423
-0.0431553 -0.413822 -0.717814 0.00109771
-0.0347365 -0.409217 -0.718844 0.00201571
-0.0381787 -0.418415 -0.716207 0.00154808
-0.0938235 0.361835 -0.410727 0.000821265
-0.100686 0.358076 -0.403768 0.000421956
-0.0880803 0.367923 -0.402327 0.00119027
-0.095072 0.364215 -0.395557 0.00087311
-0.062369 0.323429 0.395349 0.00129172
-0.0677802 0.313038 0.400729 0.00118081
-0.0628373 0.32657 0.40869 0.0024345
-0.0670563 0.314695 0.411691 7.64258e-05
-0.0460736 -0.395005 0.0355834 0.000137547
-0.0490384 -0.412006 0.0357496 0.0029697
-0.0359767 -0.396463 0.0360286 0.00225174
-0.0391516 -0.412662 0.0361533 3.99148e-05
0.120761 0.363258 -0.320289 0.00153252
0.114809 0.372612 -0.314692 0.00212118
0.125753 0.362502 -0.308496 0.000273414
0.120458 0.371495 -0.301391 0.00412005
0.180958 0.055569 0.0610878 0.000549699
0.177151 0.0439618 0.0694264 0.00144538
0.180464 0.0602483 0.0753871 0.000603319
0.175567 0.0487565 0.0839169 0.0023181
0.0422084 -0.135297 0.0303575 0.000883794
0.0413035 -0.148961 0.0324622 0.00185854
