-0.631925 -0.203529 0.300155 0.00521564
-0.594805 -0.202064 0.308849 0.00668123
-0.616446 -0.202422 0.324708 0.00632302
0.508391 0.0171364 0.297026 0.00510625
0.501169 -5.99385e-05 0.300011 0.00809101
0.527363 0.0103107 0.296561 0.0046413
0.519789 -0.00764273 0.29927 0.00735006
0.742794 -0.107496 -0.109939 0.00215719
0.733581 -0.0968385 -0.0975482 0.00938876
0.751559 -0.115698 -0.0925867 0.00598952
0.742669 -0.105049 -0.0814679 0.00210456
-0.257307 -0.00133259 0.490937 0.000821643
-0.265174 -0.0216243 0.48927 0.00121744
-0.235084 -0.00479413 0.492484 0.00153518
-0.243241 -0.025864 0.491353 0.00167571
0.126095 -0.0211738 0.418964 0.00455772
0.117235 -0.0454004 0.426772 0.00293262
0.130238 -0.00377642 0.416693 0.00415221
0.119828 -0.0251283 0.425428 0.00263269
0.123974 -0.205081 -0.5073 0.00366413
0.114893 -0.206771 -0.49622 0.00197419
0.136542 -0.208859 -0.492575 0.000114414
0.126447 -0.210091 -0.48298 0.00134573
0.182848 0.234101 -0.232953 0.00802074
0.159525 0.248807 -0.218968 0.00506065
0.204815 0.223899 -0.226893 0.00358369
0.182168 0.239621 -0.213278 0.0083721
0.604774 -0.203632 -0.557509 0.00275012
0.585574 -0.19076 -0.547776 0.0152951
0.622248 -0.209027 -0.542228 0.000281799
0.603731 -0.20253 -0.529187 0.00153328
-0.350583 0.190592 -0.0700309 0.00766013
-0.357238 0.178931 -0.0563631 0.00633431
-0.356916 0.19083 -0.0459187 0.00923416
-0.361649 0.177856 -0.0301429 0.00769285
0.483764 -0.0123766 -0.467712 0.00194459
0.465017 -0.0113462 -0.458163 0.00239926
0.498812 -0.0110269 -0.44942 0.00149937
0.480146 -0.00975425 -0.440297 0.000145174
0.15996 -0.209302 0.351567 0.000558321
0.141203 -0.21532 0.367131 0.006576
0.17692 -0.21505 0.350436 0.00630488
0.157314 -0.219059 0.367654 0.0103155
0.313386 0.12879 0.21984 0.0182271
0.299968 0.130886 0.22895 0.0097218
0.325259 0.125937 0.235507 0.00548671
0.312349 0.126217 0.244086 0.00213983
0.104601 0.052384 0.38799 0.00225111
0.0920163 0.0438473 0.400156 0.00612321
0.118576 0.0440316 0.386992 0.0086897
0.106358 0.0330244 0.399291 0.0127655
-0.772662 -0.190582 -0.260631 0.00229784
-0.78596 -0.188834 -0.246599 0.00946879
-0.765353 -0.192962 -0.245567 0.0100606
-0.777786 -0.19141 -0.232722 0.00325495
-0.505773 0.114315 -0.04405 0.0109446
-0.515422 0.114975 -0.0281797 0.0102846
-0.493116 0.112391 -0.0281605 0.0128693
-0.504017 0.11295 -0.0099169 0.0123097
-0.614977 0.0994553 0.107752 0.00140478
-0.62357 0.0889913 0.117559 0.00147119
-0.608703 0.0947934 0.125719 0.00492293
-0.616389 0.0827366 0.135371 0.00425871
-0.573768 0.0632811 0.180547 0.00952841
-0.579054 0.0416191 0.183596 0.0156108
-0.566985 0.0644721 0.198203 0.0109271
-0.57082 0.0430881 0.200446 0.0152234
-0.173342 -0.0319865 0.500506 0.00118245
-0.187096 -0.0463229 0.501423 0.000576295
-0.154737 -0.0289735 0.501548 0.00158492
-0.167061 -0.0444006 0.502366 0.000205977
0.424801 -0.180572 0.455273 0.00365018
0.40967 -0.192535 0.461799 0.00287582
0.442414 -0.189576 0.463633 0.0047097
0.423523 -0.19646 0.471207 0.012284
0.855645 -0.157135 0.221014 0.000833822
0.847397 -0.152214 0.232878 0.00741355
0.858856 -0.161582 0.235458 0.0040446
0.850376 -0.15669 0.246851 0.00443481
-0.369375 0.121581 0.0805415 0.00701586
-0.381567 0.12158 0.0932301 0.00368038
-0.356295 0.121062 0.0983182 0.00982084
-0.36977 0.118042 0.107127 0.0072859
-0.729305 -0.207636 -0.16511 0.00110908
-0.739184 -0.206233 -0.155741 0.00251205
-0.719342 -0.207267 -0.154714 0.00147848
-0.729509 -0.205662 -0.145039 0.00308276
-0.579982 0.115534 -0.135978 0.00451522
-0.593452 0.115395 -0.122376 0.000634277
-0.575363 0.11763 -0.111804 0.00437468
-0.58812 0.117885 -0.098366 0.00253275
-0.167875 0.136674 0.181936 0.0019615
-0.175107 0.121941 0.182689 0.000555463
-0.152241 0.132083 0.185186 0.000141318
-0.15971 0.119341 0.187278 0.00261861
-0.436487 -0.205669 0.379278 0.00307621
-0.446441 -0.217565 0.381213 0.00881961
-0.421922 -0.206369 0.388013 0.0023759
-0.433285 -0.216869 0.390027 0.00812407
0.823575 -0.141721 0.183225 0.000222677
0.816936 -0.139677 0.194823 0.00226735
0.829339 -0.144085 0.1951 0.00214147
0.82285 -0.14162 0.207006 0.000323632
-0.00104114 0.0799383 -0.0626167 0.000787737
-0.0153748 0.0849883 -0.0492591 0.00426225
0.014785 0.078764 -0.0467008 0.001962
0.000216846 0.082478 -0.0334511 0.00175202
0.128808 -0.030435 -0.4108 0.00606352
0.117392 -0.0449677 -0.418499 0.00542153
0.151983 -0.025952 -0.399648 0.00176469
0.140852 -0.0418268 -0.406827 0.00257237
0.40938 -0.0162549 -0.429916 0.00164066
0.398958 -0.0195229 -0.41474 0.00286456
0.422329 -0.0128747 -0.414087 0.00206609
0.41112 -0.0156196 -0.399087 0.00151833
0.0357273 0.24369 -0.0566224 0.00643266
0.0408318 0.218779 -0.0510513 0.00997509
0.0422599 0.2471 -0.0349663 0.00614381
0.045423 0.224502 -0.0280737 0.00741368
0.468805 0.116423 -0.0848066 0.00883694
0.450975 0.12213 -0.0768695 0.00312986
0.492733 0.107735 -0.068306 0.0165745
0.473903 0.113196 -0.0609317 0.0120643
0.387464 0.069629 0.275346 0.00807163
0.378639 0.0556166 0.288373 0.00354704
0.406941 0.0692988 0.281142 0.00580681
0.398356 0.0546337 0.293951 0.00203142
0.252048 0.121049 -0.279485 0.00139882
0.235805 0.122005 -0.27592 0.00124246
0.268358 0.12758 -0.269733 0.00317545
0.252319 0.129098 -0.266863 0.00411529
0.576726 -0.210491 0.475506 0.00174643
0.556564 -0.204579 0.485273 0.00416602
0.594616 -0.211207 0.495569 0.00246233
0.575005 -0.207497 0.505484 0.00124818
0.628783 0.0528271 -0.12037 0.0216765
0.617964 0.0558678 -0.0995794 0.0194994
0.632512 0.0446685 -0.0953596 0.0192405
0.623863 0.047309 -0.0740104 0.0161767
0.115307 -0.174731 0.601046 0.00244929
0.0991845 -0.17728 0.61321 0.0177208
0.133607 -0.178061 0.609459 0.00755841
0.116948 -0.180619 0.621779 0.0113778
-0.319851 0.239897 0.066272 0.00460496
-0.330363 0.219504 0.0660182 0.0139589
-0.305697 0.238822 0.0873533 0.00126197
-0.315838 0.218067 0.0866851 0.0105215
-0.324174 0.238922 -0.0500246 0.00562087
-0.325873 0.218917 -0.0395634 0.00587742
-0.329755 0.244338 -0.0243776 0.00625141
-0.331447 0.224235 -0.013602 0.00710692
-0.626334 -0.212665 -0.139871 0.00392032
-0.639475 -0.211389 -0.128505 0.00264404
-0.621786 -0.208102 -0.123701 0.000642759
-0.634154 -0.208264 -0.111386 0.000481469
0.7543 -0.208178 -0.0823996 0.000566733
0.740256 -0.205661 -0.0677083 0.00308376
0.765417 -0.208985 -0.0649143 0.000240373
0.751781 -0.205982 -0.0509585 0.00276261
-0.557151 0.0048746 -0.282301 0.00175753
-0.566979 -0.00132283 -0.263171 0.000629143
-0.563959 0.0148287 -0.253455 0.00836672
-0.570917 0.00452237 -0.24232 0.00795864
-0.609143 0.00866184 -0.173678 0.00262222
-0.619779 -0.00051864 -0.159883 0.00272039
-0.616467 0.0128867 -0.153913 0.00225438
-0.626155 0.00301826 -0.139169 0.00267562
0.711278 -0.114197 0.263547 0.0110015
0.691717 -0.103319 0.27697 0.00455181
0.705308 -0.115525 0.276852 0.00590263
0.685819 -0.104768 0.289236 0.000195326
0.0284643 0.127357 -0.243369 0.000649047
0.010383 0.135764 -0.23839 0.00498567
0.0416382 0.138651 -0.235956 0.00393505
0.0242184 0.145021 -0.230986 0.00198313
0.339155 0.0879399 0.0700812 0.00721386
0.325184 0.0910454 0.0816875 0.0103194
0.356523 0.0923839 0.0854905 0.0116579
0.343347 0.0944709 0.0975409 0.0137449
-0.096486 0.0791566 0.119396 0.0150872
-0.113195 0.0822569 0.131246 0.0269063
-0.0768997 0.078055 0.135239 0.00267098
-0.09348 0.0812735 0.14673 0.003188
0.63523 0.0350649 0.0805837 0.0131765
0.628427 0.0424868 0.100572 0.0150472
0.648499 0.020608 0.0945997 0.0122134
0.639393 0.0326458 0.114497 0.0137316
-0.16417 0.00765498 -0.462427 0.00940435
-0.171992 -0.0201646 -0.461769 0.00964915
-0.139107 0.00922995 -0.46667 0.012837
-0.147011 -0.0165823 -0.466931 0.0130789
-0.21013 0.0126718 -0.487353 0.0063034
-0.21903 -0.0106217 -0.483806 0.00867816
-0.182687 0.0150665 -0.491394 0.00547199
-0.192017 -0.0097327 -0.488434 0.0073986
0.216602 0.119702 0.062494 0.00555797
0.201512 0.125237 0.0720782 2.31609e-05
0.227427 0.122339 0.0749457 0.00292077
0.213009 0.127875 0.0857898 0.00261472
0.0805292 -0.138395 0.501981 0.00354665
0.0637537 -0.139801 0.511773 0.0021421
0.0953476 -0.140592 0.512921 0.00135094
0.0797998 -0.141901 0.523009 4.17874e-05
0.258633 -0.00435583 0.335344 0.0011539
0.248528 -0.0257861 0.34023 0.00165873
0.281008 -0.00552868 0.330915 0.00553938
0.271237 -0.027315 0.335514 0.00094017
-0.603306 0.0149153 -0.191303 0.00157882
-0.613345 0.00639303 -0.178255 0.00294207
-0.611176 0.0228577 -0.171546 0.00155921
-0.621506 0.0136684 -0.157879 0.00379413
-0.720869 -0.183886 -0.256955 0.00287741
-0.73528 -0.183845 -0.250562 0.00975004
-0.713296 -0.190244 -0.247074 0.00941755
-0.727068 -0.189955 -0.240182 0.00103317
0.489735 0.117588 0.0809695 0.00696464
0.47269 0.122265 0.0926093 0.00299471
0.514016 0.106308 0.100043 0.0164528
0.495607 0.111977 0.110824 0.0121344
-0.606434 -0.20712 -0.0191779 0.00162516
-0.619394 -0.207446 -0.0057211 0.00129929
-0.603113 -0.20262 0.00307856 0.00343363
-0.616951 -0.202518 0.0166231 0.00622663
0.743291 -0.205903 0.327471 0.00284247
0.731063 -0.208577 0.344142 0.000168425
0.751768 -0.208477 0.346978 0.000268397
0.74026 -0.210968 0.364018 0.00222263
-0.0204982 0.0608867 0.433643 0.00707462
-0.0325579 0.0565372 0.443237 0.00153475
-0.00123286 0.0526144 0.441077 0.00475899
-0.0125372 0.0486031 0.450779 0.010721
-0.529213 -0.205162 -0.235496 0.00255549
-0.548257 -0.205332 -0.228972 0.00341288
-0.514764 -0.202949 -0.219352 0.0232518
-0.533453 -0.203656 -0.214927 0.00955849
0.696679 -0.206688 0.342148 0.00205715
0.68482 -0.207988 0.359497 0.000756648
0.703913 -0.209119 0.363525 0.000373754
0.693192 -0.210951 0.380833 0.00220645
0.454387 0.0889504 0.0210225 0.00822443
0.437265 0.0970286 0.0338291 0.0163026
0.478989 0.0865203 0.0390446 0.00579427
0.462714 0.0934164 0.0516207 0.0126904
0.415971 0.0894481 -0.192199 0.00872206
0.399551 0.0940769 -0.185525 0.0133509
0.432018 0.08795 -0.177676 0.00722397
0.415032 0.0915759 -0.170922 0.0108499
-0.296223 0.0941798 0.360702 0.0134538
-0.306344 0.0938147 0.369024 0.0130887
-0.27525 0.0920095 0.371537 0.0112835
-0.284997 0.0917467 0.378911 0.0110207
-0.804757 -0.143483 0.14676 0.00153945
-0.817174 -0.150981 0.165048 0.0133504
-0.785591 -0.142014 0.165199 7.04737e-05
-0.799725 -0.150165 0.181088 0.000459417
-0.503512 0.111689 -0.186231 0.0135714
-0.517853 0.11213 -0.173961 0.0131301
-0.48098 0.11171 -0.173216 0.01355
-0.494924 0.113583 -0.161156 0.0116765
-0.542894 0.118024 0.187066 0.00556863
-0.552768 0.116407 0.201801 0.00411418
-0.529553 0.119786 0.204461 0.00442054
-0.539571 0.117494 0.219722 0.00383682
0.613051 -0.0582473 0.332038 0.00441581
0.605282 -0.0712526 0.336314 0.000139858
0.628203 -0.068693 0.335484 0.000969942
0.620304 -0.0813725 0.33854 0.00208629
0.631119 -0.0946334 0.333606 0.00284814
0.622504 -0.106901 0.33744 0.000985984
0.647134 -0.10219 0.338119 0.00166524
0.638096 -0.114901 0.341453 0.00499914
0.399291 0.126279 0.229079 0.00101928
0.382864 0.129748 0.237837 0.00448823
0.417566 0.120414 0.235002 0.00484609
0.400257 0.122655 0.244502 0.00260548
0.0271212 -0.0439485 0.459572 0.0130761
0.0137498 -0.0635188 0.465933 0.0111743
0.052395 -0.040164 0.449389 0.0125159
0.0401473 -0.0626242 0.456726 0.0107223
0.431865 0.0249095 -0.338833 0.00727868
0.415825 0.0279387 -0.333908 0.00235432
0.447707 0.0384163 -0.328173 0.00338078
0.431957 0.0407188 -0.324306 0.0072479
0.0546548 -0.141249 0.527182 0.000694939
0.0387912 -0.141944 0.537112 2.89207e-07
0.0628327 -0.143227 0.544503 0.00128295
0.0487945 -0.144241 0.556167 0.00229657
0.727816 -0.171467 0.501375 0.0086598
0.712456 -0.173338 0.509206 0.00190386
0.73939 -0.169178 0.515561 0.00744182
0.724433 -0.168871 0.522257 0.0124837
0.450856 -0.0765529 -0.403074 0.00212787
0.438152 -0.0833358 -0.391332 0.00323956
0.458352 -0.0719927 -0.384775 0.00513643
0.445475 -0.0782347 -0.372689 0.000649235
0.0809898 0.123573 0.393897 0.00178093
0.069274 0.11914 0.404657 0.00171663
0.0961519 0.117496 0.40446 0.00239833
0.0833571 0.111495 0.416245 0.000270407
-0.357601 0.0419607 -0.398226 0.00179964
-0.373904 0.0380969 -0.388525 0.00220559
-0.349455 0.0594523 -0.399516 0.00436894
-0.366351 0.0578649 -0.389539 0.00499779
0.268496 0.174602 0.147611 0.00335068
0.250856 0.18361 0.154172 0.00316757
0.285432 0.178024 0.158804 0.00141775
0.266548 0.187082 0.16357 0.00623407
-0.176742 -0.20573 -0.624035 0.00301462
-0.194571 -0.209601 -0.615442 0.000856328
-0.16139 -0.211193 -0.611376 0.00244825
-0.179843 -0.214962 -0.602553 0.0062172
-0.613859 -0.0516155 0.00519045 0.0142048
-0.607851 -0.0750616 0.0150675 0.00870546
-0.611212 -0.0471745 0.0292835 0.0127812
-0.60549 -0.0708787 0.038259 0.00754537
0.473629 -0.0745505 -0.406118 0.00182951
0.460658 -0.0795692 -0.393547 0.00228587
0.475955 -0.0690249 -0.384312 0.00654236
0.463663 -0.0725305 -0.371255 0.0035012
0.721447 -0.153745 -0.588801 0.00599205
0.705322 -0.152421 -0.583934 0.00976716
0.737267 -0.157391 -0.573108 0.00900246
0.720684 -0.157784 -0.567501 0.00757054
0.240948 -0.209826 -0.429166 0.00108107
0.226986 -0.208182 -0.410972 0.000562606
0.248096 -0.209739 -0.409758 0.000994253
0.234326 -0.207814 -0.392673 0.000930843
-0.672066 -0.198691 0.421056 0.00538227
-0.686861 -0.19632 0.427205 0.00998546
-0.653258 -0.19939 0.43674 0.00935514
-0.669143 -0.197076 0.442544 0.00586951
-0.628409 -0.148517 -0.357012 0.00657297
-0.652995 -0.14332 -0.33848 0.00137553
-0.618298 -0.146199 -0.336928 0.00425485
-0.64173 -0.141947 -0.318523 2.62869e-06
-0.121803 0.214042 0.222253 0.0083394
-0.130561 0.194757 0.227226 0.00404152
-0.0997534 0.215978 0.218651 0.0118712
-0.108799 0.193555 0.225206 0.00610232
-0.584789 -0.105323 0.117725 0.000369724
-0.589619 -0.125233 0.129417 0.00788791
-0.581714 -0.100859 0.144612 0.0048273
-0.585309 -0.120449 0.154137 0.0113377
0.858941 -0.193411 0.118013 0.00412966
0.848456 -0.196858 0.130738 0.00635492
0.863578 -0.19573 0.138217 0.00876732
0.853441 -0.19869 0.147682 0.00136988
0.602789 -0.1815 -0.306408 0.00421265
0.587998 -0.164309 -0.299039 0.0073879
0.615112 -0.184022 -0.297168 0.00813069
0.598963 -0.166996 -0.2896 0.00584207
0.155281 0.076528 -0.34696 0.0100503
0.141487 0.0584734 -0.349495 0.00359572
0.181358 0.0782997 -0.332143 0.0164403
0.168002 0.0573716 -0.336353 0.00412464
-0.466192 0.0890919 0.241426 0.00836593
-0.480031 0.0868329 0.255096 0.00610694
-0.456702 0.0872826 0.261292 0.00655664
-0.470117 0.0844796 0.274903 0.00375359
0.418832 0.0915299 -0.165637 0.0108039
0.401485 0.0955536 -0.159322 0.0148276
0.431941 0.0876816 -0.152869 0.00695558
0.415928 0.0919716 -0.146536 0.0112456
0.291539 -0.118758 -0.441448 0.000392683
0.275289 -0.125879 -0.430352 0.0112705
0.299685 -0.110114 -0.423328 0.00407362
0.286451 -0.118165 -0.415758 0.00446425
-0.05012 0.00150222 0.450522 0.00125341
-0.0585367 -0.0167645 0.454028 0.00336056
-0.0275779 0.00532711 0.446216 0.00248549
-0.0388076 -0.0118701 0.451959 0.00523081
0.740256 -0.103622 0.0651173 0.00436999
0.73334 -0.0959911 0.0821928 0.0094377
0.749924 -0.10808 0.0829525 0.00491172
0.742071 -0.0999811 0.0990318 0.00179912
0.698281 -0.189305 0.00713347 0.00464743
0.690878 -0.184345 0.0285496 0.0120501
0.709446 -0.190953 0.0241871 0.00651795
0.701968 -0.188162 0.0460588 0.000960105
0.00559071 -0.104516 0.475068 0.00520203
-0.0100196 -0.110997 0.481353 0.00372608
0.0218687 -0.110944 0.477859 0.00248139
0.00473388 -0.116983 0.484948 0.00405336
0.856381 -0.16461 0.192276 0.00156988
0.848483 -0.163575 0.201228 0.00632756
0.859179 -0.16922 0.20599 0.00436832
0.85113 -0.165176 0.217049 0.00368057
-0.63957 -0.114689 0.0652202 0.000623176
-0.647233 -0.120283 0.0825404 0.00971383
-0.626207 -0.12212 0.0861601 0.0103822
-0.635779 -0.129277 0.10115 0.00162518
-0.45824 0.111105 0.197173 0.0141548
-0.470901 0.113301 0.208458 0.0119587
-0.439765 0.10812 0.215594 0.0171403
-0.451432 0.109157 0.228095 0.0161035
0.117003 -0.141268 0.526208 0.000675821
0.105987 -0.143223 0.540268 0.00127867
0.128248 -0.144973 0.545488 0.00302616
0.116917 -0.147292 0.559351 0.00534561
0.685192 0.0269897 0.00447048 0.00077092
0.677109 0.0327055 0.0189321 0.00323124
0.692501 0.0219536 0.0226624 0.00153081
0.684183 0.0285661 0.0375151 0.000522221
0.148948 0.0856306 0.0129222 0.00490455
0.134118 0.0910433 0.0254022 0.0103173
0.162219 0.083352 0.0245689 0.00262601
0.147969 0.0877863 0.0341846 0.00706028
0.000924849 -0.142669 -0.598938 0.000724378
-0.0206683 -0.137539 -0.592103 0.00440563
0.0163978 -0.142853 -0.575092 0.000908664
-0.00360141 -0.138392 -0.56786 0.00355243
0.721035 -0.144147 0.318416 0.0022027
0.703996 -0.135863 0.331268 0.000484295
0.717742 -0.147137 0.328389 0.00519269
0.702553 -0.143064 0.340386 0.00111997
-0.463285 -0.140731 -0.390107 0.00121295
-0.477569 -0.143598 -0.382382 0.00165412
-0.456875 -0.130084 -0.378922 0.00687343
-0.471534 -0.132717 -0.370723 0.00384642
-0.581194 0.0410916 0.233011 0.0058364
-0.583201 0.0191134 0.229534 0.00562281
-0.5716 0.049991 0.246929 0.00735718
-0.573081 0.0283203 0.244988 0.00723066
0.210424 0.128188 0.277015 0.00292785
0.200858 0.126707 0.289118 0.00144697
0.224762 0.121937 0.290714 0.000267759
0.214842 0.121183 0.301316 4.41387e-05
-0.401058 -0.150401 0.569756 0.00475283
-0.415748 -0.143493 0.581662 0.00154859
-0.385107 -0.150734 0.586608 0.00226245
-0.40204 -0.142881 0.595425 0.000937021
-0.579646 0.0851556 0.0827051 0.00727462
-0.585219 0.0731724 0.094238 0.00202698
-0.571608 0.0904858 0.0978308 0.0106248
-0.579082 0.0785097 0.106716 0.00310173
0.0728406 0.297764 0.222522 0.00304596
0.062646 0.282108 0.230197 0.00197697
0.09607 0.285066 0.224353 0.00375949
0.0843869 0.269937 0.232922 0.00427601
0.561049 -0.110564 -0.599823 0.00156919
0.541902 -0.0988349 -0.588182 0.000338535
0.572382 -0.118465 -0.583442 0.0050865
0.553057 -0.1066 -0.572463 0.000648151
-0.000969444 0.084034 -0.122111 0.00330795
-0.017442 0.0867657 -0.113197 0.0119022
0.0138386 0.0835243 -0.111241 0.00279826
-0.00226667 0.0868763 -0.100922 0.00615033
0.80781 -0.211751 0.431918 0.00300603
0.793756 -0.210817 0.443357 0.0020719
0.817887 -0.2089 0.448402 0.000154975
0.804111 -0.209444 0.459775 0.000698837
-0.614148 -0.209132 -0.02425 0.000387135
-0.627149 -0.209076 -0.0106046 0.000330585
-0.609807 -0.204505 -0.00272643 0.00423957
-0.623276 -0.204697 0.0111589 0.00404849
0.288635 0.0859714 0.0670281 0.00524543
0.275095 0.0896361 0.079607 0.00891005
0.304708 0.0853251 0.0839985 0.00459909
0.291204 0.0895712 0.0972997 0.00884522
-0.564434 0.125314 0.0213801 5.41314e-05
-0.576423 0.118625 0.0427613 0.00581536
-0.556538 0.121655 0.0460672 0.00360503
-0.568871 0.114254 0.0687553 0.0110058
0.140979 0.18927 -0.233474 0.00690834
0.120907 0.200757 -0.225224 0.000935834
0.168707 0.188176 -0.231281 0.00467864
0.144239 0.209173 -0.218535 0.00732703
-0.174914 -0.208573 0.501636 0.000171569
-0.195341 -0.209761 0.508834 0.00101644
-0.15694 -0.210909 0.513884 0.00216365
-0.178239 -0.211377 0.521253 0.00263202
-0.282792 -0.125725 -0.443636 0.0113621
-0.307956 -0.124708 -0.434386 0.0108553
-0.262165 -0.106563 -0.436843 8.43548e-05
-0.290196 -0.107395 -0.426946 0.00247679
-0.183823 0.124347 0.437789 0.000274059
-0.192925 0.121127 0.448865 0.000860613
-0.170583 0.122512 0.45173 0.000770821
-0.180182 0.118597 0.461569 0.000133618
-0.610647 -0.0146707 0.149602 0.0106737
-0.607824 -0.0361033 0.155514 0.0117839
-0.60295 -0.0132102 0.166123 0.0125461
-0.600165 -0.0345183 0.171574 0.0134742
-0.570679 0.114106 -0.0454188 0.0111538
-0.579619 0.114343 -0.0276415 0.00984711
-0.562111 0.113233 -0.0294009 0.0120273
-0.572228 0.113094 -0.0100479 0.0121664
-0.327515 0.110333 -0.297194 0.0149268
-0.348077 0.116437 -0.288544 0.00882297
-0.30774 0.103897 -0.278412 0.0213625
-0.330485 0.110181 -0.270381 0.0150787
0.681837 -0.139714 -0.289275 0.00271511
0.671362 -0.145564 -0.289076 0.00207976
0.701097 -0.143539 -0.285588 0.00695292
0.688892 -0.140521 -0.281142 0.00305925
-0.0160214 0.0846781 -0.401896 0.00395206
-0.0343907 0.0902573 -0.396108 0.00953129
-0.00427515 0.0867771 -0.388452 0.00605108
-0.022534 0.0915915 -0.382919 0.0108655
-0.214911 -0.042877 0.463192 0.0104095
-0.225562 -0.0587737 0.462761 0.0116172
-0.196696 -0.0479434 0.460505 0.00501433
-0.207829 -0.0611837 0.460988 0.00717367
0.600863 -0.0922553 0.332624 0.00383007
0.592846 -0.102386 0.337952 0.00149805
0.617661 -0.0998138 0.337696 0.00124222
0.609052 -0.111311 0.342118 0.00566444
0.747103 -0.145949 -0.360408 0.00400474
0.731988 -0.14161 -0.349265 0.000334316
0.759718 -0.144392 -0.343208 0.00244812
0.744669 -0.13973 -0.332034 0.00221383
-0.434248 0.120768 -0.258539 0.0044923
-0.441708 0.116971 -0.238685 0.00828947
-0.426809 0.117796 -0.238605 0.00746395
-0.433509 0.113752 -0.219597 0.011508
0.525602 -0.0855713 -0.554673 0.00253831
0.507648 -0.0796752 -0.54415 0.00311814
0.536246 -0.0944976 -0.536805 0.000626431
0.519361 -0.0859736 -0.525871 0.00134737
0.547121 -0.10136 -0.339059 3.41653e-05
0.538192 -0.0911974 -0.331382 0.00351819
0.55502 -0.108295 -0.32578 0.000854122
0.545148 -0.0964421 -0.319889 0.00257467
0.380527 0.123878 0.150724 0.0013819
0.365865 0.129809 0.158584 0.00234335
0.386488 0.124192 0.161938 0.00106795
0.371715 0.130391 0.170199 0.00334011
-0.327809 0.099579 -0.0120853 0.00173058
-0.338299 0.0914649 0.00286984 0.0107389
-0.324353 0.109326 0.00333169 0.00142017
-0.333733 0.0980582 0.0198866 0.00800122
0.859066 -0.15235 -0.291354 0.00425525
0.844311 -0.154312 -0.280169 0.0105002
0.870123 -0.156922 -0.268964 0.0153124
0.854791 -0.158346 -0.257154 2.02528e-05
0.648236 -0.143464 0.535749 0.00151992
0.63104 -0.141467 0.543346 0.000476771
0.668071 -0.143316 0.538074 0.00137246
0.651467 -0.143521 0.545722 0.0015774
-0.379103 -0.142728 0.597296 0.000783225
-0.39713 -0.134437 0.605396 0.00750678
-0.358256 -0.14727 0.609476 0.00532643
-0.377768 -0.140134 0.612953 0.00181001
0.389441 -0.0793378 0.303853 0.0119077
0.376159 -0.0956911 0.307321 0.01095
0.40848 -0.0886553 0.315143 0.0024422
0.392169 -0.101868 0.323055 0.00189343
-0.537443 0.115576 -0.118315 0.0096841
-0.548791 0.116505 -0.106521 0.00875546
-0.526773 0.115513 -0.100096 0.00974688
-0.537708 0.115985 -0.0878537 0.00927455
-0.827182 -0.200725 0.0219107 0.00440035
-0.836339 -0.199861 0.0483384 0.014712
-0.808933 -0.201345 0.0440803 0.00739969
-0.818313 -0.2015 0.0705161 0.00137491
0.332566 0.0782136 0.318865 0.00869348
0.321565 0.0612919 0.327325 0.00843423
0.358729 0.0672602 0.322861 0.00919121
0.348025 0.0503559 0.332666 0.00378784
0.199557 -0.208436 0.46739 0.000308645
0.187545 -0.208717 0.488506 2.7624e-05
0.216001 -0.207648 0.494092 0.00109663
0.204783 -0.20771 0.512621 0.00103487
0.360143 -0.210144 0.493883 0.00139858
0.343174 -0.210642 0.503975 0.0018974
0.374102 -0.209586 0.511255 0.000840562
0.356645 -0.210175 0.52158 0.00143035
-0.382846 -0.199728 0.500637 0.00503056
-0.394648 -0.203434 0.507797 0.00362321
-0.373701 -0.197005 0.512513 0.00840896
-0.385187 -0.200767 0.519952 0.011711
0.580501 0.0738362 0.178046 0.0164737
0.565671 0.0722188 0.198376 0.00856095
0.590826 0.0650445 0.200464 0.0127713
0.576334 0.0643436 0.220415 0.00596386
-0.581454 -0.208706 -0.309047 3.91426e-05
-0.598854 -0.206385 -0.294868 0.00236001
-0.566312 -0.208981 -0.291747 0.00023629
-0.584123 -0.206006 -0.276746 0.00273876
0.529094 -0.0321761 -0.29564 0.0086199
0.515351 -0.0296702 -0.292905 0.00588479
0.549186 -0.021978 -0.289407 0.00238669
0.537337 -0.0233881 -0.287138 0.000118194
-0.174699 0.238851 0.224215 0.00312688
-0.181679 0.218714 0.228471 0.00186869
-0.15284 0.231263 0.224063 0.00527853
-0.159636 0.211252 0.228308 0.0012881
0.814957 -0.212505 -0.382315 0.00376043
0.801822 -0.217368 -0.364852 0.00862292
0.822124 -0.207158 -0.366354 0.00158699
0.808676 -0.213123 -0.351206 0.00437808
-0.258408 0.155121 -0.203492 0.00624105
-0.270858 0.153874 -0.199259 0.00841765
-0.253766 0.168794 -0.190124 0.00746062
-0.268158 0.170346 -0.185181 0.00367986
0.551056 0.100913 0.126332 0.0138845
0.538806 0.10487 0.143275 0.0127413
0.568049 0.091922 0.143283 0.0166457
0.556633 0.0941911 0.162711 0.0187709
-0.295408 -0.121433 0.431257 0.000951633
-0.306583 -0.143993 0.43202 0.0039484
-0.274014 -0.129844 0.44373 0.00420594
-0.288108 -0.150336 0.444538 0.00908554
-0.625512 -0.141283 0.332229 0.000660577
-0.639089 -0.140751 0.345385 0.00119332
-0.609221 -0.143296 0.350818 0.00135199
-0.622522 -0.143094 0.363521 0.00114963
0.338936 -0.0597956 -0.465721 0.00116523
0.329629 -0.0695746 -0.458361 0.00295955
0.345075 -0.0524899 -0.448382 0.000684747
0.335731 -0.0617008 -0.440402 0.000643016
0.236387 0.192754 0.216675 0.0140154
0.22034 0.194355 0.225526 0.00578146
0.25223 0.188512 0.226056 0.0034521
0.235663 0.191426 0.23444 0.00301724
0.532243 -0.0656401 -0.640692 0.00853394
0.510307 -0.0656409 -0.636191 0.00403259
0.555386 -0.0643353 -0.630647 0.00151064
0.533685 -0.0614243 -0.626455 0.00570263
-0.596264 -0.206834 -0.0166783 0.00247874
-0.609609 -0.206685 -0.00326733 0.00205973
-0.589698 -0.201447 0.00725798 0.00975739
-0.602941 -0.20154 0.0207056 0.00413738
0.167178 -0.195933 0.637701 0.0097636
0.147855 -0.19727 0.645948 0.00411829
0.182685 -0.198364 0.651849 0.00629242
0.162565 -0.199473 0.660159 0.011897
-0.35903 0.035688 0.40305 0.00123975
-0.370497 0.0240715 0.400677 0.00233429
-0.342112 0.0294593 0.409577 0.00292036
-0.353571 0.017799 0.407341 0.000177157
0.0504355 0.127584 0.32201 0.00232397
0.0369065 0.127892 0.333217 0.00263215
0.0626603 0.125495 0.337272 0.000234659
0.0496007 0.12511 0.34916 0.000149627
-0.419498 -0.101627 0.374371 0.00702458
-0.428622 -0.116175 0.374432 0.0127305
-0.401063 -0.101041 0.381222 0.00222518
-0.409732 -0.115901 0.380177 0.00598831
-0.697964 -0.148224 -0.28638 0.00627961
-0.714139 -0.148827 -0.275258 0.00688077
-0.693434 -0.145866 -0.268696 0.0016779
-0.709186 -0.14685 -0.259852 0.00156463
-0.436592 0.0481686 -0.351799 0.00369415
-0.453863 0.0506961 -0.339564 0.00608991
-0.434671 0.0703885 -0.35141 0.0057829
-0.451524 0.0736361 -0.339934 0.00989708
0.0212818 0.104189 0.0763974 0.00230956
0.0103363 0.101559 0.0860442 0.0081926
0.0260289 0.108602 0.0950386 0.00967806
0.013694 0.106643 0.106072 0.00570089
0.130063 -0.19348 0.644764 0.00762113
0.110068 -0.194673 0.652995 0.0020789
0.150009 -0.196412 0.655324 0.00545902
0.129887 -0.197492 0.663915 0.0113423
-0.10245 0.111477 0.290972 0.0137828
-0.11641 0.112541 0.302514 0.0127193
-0.0853591 0.106639 0.303602 0.018621
-0.099821 0.107906 0.315124 0.0173535
0.40593 0.121947 0.0869599 0.00331298
0.394667 0.123797 0.0988738 0.00146253
0.417104 0.120745 0.101829 0.00451532
0.405009 0.122441 0.114129 0.00281874
0.462358 -0.108062 0.455418 0.00350504
0.455348 -0.12152 0.458399 0.000523645
0.480277 -0.115654 0.456686 0.00223719
0.472337 -0.128042 0.460697 0.00177385
0.532105 0.0368429 0.300223 0.00830272
0.524535 0.0199643 0.303506 0.0115862
0.556334 0.0339612 0.298026 0.00610597
0.547994 0.0145614 0.301837 0.00991679
-0.238208 -0.208959 -0.537224 0.000213969
-0.254981 -0.209167 -0.527577 0.000422212
-0.224427 -0.20938 -0.5207 0.000634554
-0.242502 -0.209685 -0.511771 0.000939983
-0.688746 -0.209141 -0.317795 0.000396433
-0.70279 -0.209522 -0.300584 0.000776621
-0.674782 -0.209483 -0.298887 0.000738013
-0.689058 -0.210752 -0.281909 0.00200711
-0.177914 0.0889802 -0.337027 0.00825422
-0.192681 0.092117 -0.325687 0.011391
-0.168125 0.0865808 -0.317694 0.00585479
-0.183378 0.0890765 -0.306718 0.00835048
0.3011 -0.0843596 -0.338611 0.00705689
0.293352 -0.101928 -0.335597 0.0040425
0.318117 -0.0846516 -0.334137 0.00378372
0.310615 -0.102053 -0.332043 0.00842362
0.543943 -0.209736 0.552674 0.000991303
0.527088 -0.205424 0.574038 0.00332147
0.553104 -0.204694 0.573964 0.0040513
0.536165 -0.200316 0.59462 0.00416354
-0.135195 0.12969 0.433792 0.0044296
-0.149235 0.126535 0.442794 0.00285251
-0.11907 0.123069 0.443288 0.000609852
-0.135745 0.120133 0.452346 0.00176159
0.0466291 0.222106 -0.114676 0.00586
0.0491594 0.197909 -0.110998 0.00543164
0.0509532 0.229199 -0.0951444 0.00943608
0.0560486 0.204915 -0.0913077 0.00728816
-0.262589 0.0877907 -0.28713 0.00706474
-0.278879 0.0908421 -0.276471 0.0101161
-0.245957 0.0850778 -0.273137 0.00435178
-0.263536 0.0893332 -0.263033 0.00860724
-0.335459 -0.144312 -0.6062 0.00236777
-0.351583 -0.141831 -0.594973 0.000113109
-0.320934 -0.142284 -0.591794 0.00034008
-0.337052 -0.139843 -0.581023 0.00210239
-0.0822235 0.0384765 -0.49446 5.35708e-05
-0.0918687 0.0190367 -0.497334 0.00167002
-0.058924 0.0424467 -0.486584 0.00466612
-0.0691612 0.0206262 -0.491757 0.000993914
-0.0550083 0.112053 -0.381026 0.0132065
-0.0718419 0.116759 -0.371473 0.00850142
-0.0332052 0.113646 -0.361421 0.0116136
-0.0498874 0.117552 -0.354472 0.00770845
0.348012 0.076974 -0.328521 0.00428318
0.321759 0.0799091 -0.327897 0.00328891
0.362062 0.0835422 -0.317862 0.00305151
0.336208 0.0878182 -0.316275 0.00288219
0.658928 -0.00132047 -0.0887275 0.00574202
0.652261 0.00387272 -0.0696803 0.00410191
0.669949 -0.00936197 -0.0754803 0.00880871
0.663937 -0.00449013 -0.05686 0.00745378
0.425162 0.0062592 -0.294952 0.00793171
0.406231 0.00553906 -0.294284 0.00726425
0.442269 0.018537 -0.283621 0.00339872
0.424733 0.0171717 -0.283127 0.00389257
-0.164286 0.125462 0.408469 0.000201772
-0.174285 0.124802 0.418746 0.000458446
-0.150278 0.12299 0.421819 0.00227029
-0.161142 0.120743 0.431723 0.00451735
0.564692 0.0661355 -0.165886 0.00288467
0.548974 0.0714448 -0.148692 0.00174759
0.571503 0.0645687 -0.14967 0.00429922
0.556104 0.0699665 -0.132962 0.0027882
0.387297 0.0505368 -0.296461 0.00944125
0.367312 0.0582202 -0.289076 0.00214666
0.403826 0.0540519 -0.282559 0.00446117
0.382001 0.0614283 -0.273757 0.0110036
-0.0115487 0.0784515 0.412427 0.00175699
-0.0234211 0.0732494 0.423343 0.00561643
0.00967037 0.0722343 0.421711 0.00283261
-0.0040758 0.0683649 0.431089 0.00289983
-0.493164 -0.147917 -0.509743 0.00597333
-0.51284 -0.142576 -0.49208 0.000632098
-0.482508 -0.14306 -0.486348 0.00111591
-0.500278 -0.137664 -0.471109 0.00427967
0.676657 -0.186432 0.279709 0.0121998
0.660998 -0.180755 0.293714 0.00179375
0.674964 -0.192587 0.288246 0.00367376
0.660832 -0.189547 0.303687 0.0117667
0.490617 0.0794589 -0.212347 0.000441478
0.479792 0.0827454 -0.200956 0.00201937
0.502058 0.0770681 -0.197947 0.0019173
0.491102 0.0800995 -0.186994 0.0002356
0.713818 -0.118689 0.0201135 0.0130539
0.708571 -0.112841 0.0428381 0.00840113
0.719323 -0.130985 0.0422078 0.0173841
0.712494 -0.124837 0.0636686 0.011155
0.211575 -0.143264 0.344403 0.00985852
0.191031 -0.145261 0.357809 0.0131221
0.218219 -0.121469 0.345971 0.00476862
0.198797 -0.123442 0.359405 0.00627911
-0.0641946 0.127573 0.434564 0.00366204
-0.0797266 0.125088 0.444522 0.00264001
-0.0507572 0.114636 0.443388 0.00705205
-0.0652698 0.111578 0.453736 0.00745566
0.730181 -0.0808864 0.111031 0.00919553
0.725137 -0.0735755 0.129823 0.0125071
0.733332 -0.0889207 0.134724 0.0078894
0.728344 -0.0831321 0.154389 0.0114815
-0.759112 -0.208764 -0.0412008 1.92998e-05
-0.774502 -0.206837 -0.0252446 0.00190825
-0.744054 -0.210353 -0.0196539 0.00160814
-0.759463 -0.208542 -0.00475209 0.000203309
0.428746 -0.0689938 0.375993 0.00918406
0.414013 -0.0767631 0.388226 0.0111347
0.437695 -0.0700003 0.387533 0.0103544
0.424438 -0.0757698 0.398917 0.00696643
-0.439216 -0.209135 -0.471803 0.000389504
-0.451235 -0.207199 -0.454801 0.00154575
-0.431751 -0.212567 -0.458061 0.00382175
-0.443002 -0.208256 -0.440846 0.000488562
-0.053888 0.204439 -0.226764 0.000734963
-0.0646268 0.183974 -0.227413 0.000669078
-0.028496 0.213827 -0.226847 0.0011452
-0.038403 0.190498 -0.227499 0.000981723
-0.524386 0.0865534 0.299156 0.00901489
-0.529545 0.0684038 0.309124 0.00526098
-0.508874 0.0885838 0.318396 0.00772019
-0.513843 0.0702513 0.326104 0.00615416
-0.133759 -0.207662 -0.62802 0.00108312
-0.151869 -0.211534 -0.621091 0.0027891
-0.120747 -0.213647 -0.619558 0.00490229
-0.137542 -0.216975 -0.610983 0.00823039
0.770831 -0.174899 0.458669 0.000121066
0.755352 -0.171237 0.466748 0.0164802
0.789092 -0.176596 0.476753 0.018587
0.774763 -0.174405 0.484307 0.00603994
-0.193108 0.0808904 -0.246305 0.000164439
-0.213675 0.0864582 -0.233663 0.00573221
-0.179103 0.0783165 -0.235495 0.00240946
-0.199309 0.0834876 -0.222756 0.00276164
-0.457918 -0.139708 0.421002 0.0022357
-0.467005 -0.151166 0.431473 0.00922177
-0.443515 -0.138311 0.434388 0.00363287
-0.452462 -0.150272 0.444461 0.00832762
0.703505 -0.208145 0.235598 0.000577099
0.68924 -0.20379 0.249523 0.00495456
0.708761 -0.20829 0.247914 0.000454781
0.694859 -0.206235 0.261645 0.00250962
0.792719 -0.2077 0.157121 0.00104543
0.778024 -0.208111 0.171628 0.000633759
0.805441 -0.207781 0.175853 0.000964222
0.79138 -0.208748 0.187921 2.72966e-06
0.644097 -0.119725 -0.285537 0.00148329
0.641952 -0.141427 -0.288667 0.00164678
0.660458 -0.117005 -0.283957 0.00306258
0.65751 -0.136324 -0.287111 9.08055e-05
0.135487 0.0376004 -0.402831 0.00889616
0.125752 0.0150672 -0.410729 0.00767776
0.152544 0.0407396 -0.394038 0.0060449
0.143537 0.0172397 -0.402272 0.0049632
0.307204 -0.210111 0.517268 0.00136648
0.286198 -0.209112 0.530721 0.000367152
0.327121 -0.211027 0.536064 0.00228234
0.306226 -0.209594 0.548505 0.00084928
0.252064 0.0395244 -0.328457 0.00439066
0.244387 0.0189558 -0.3291 0.00526137
0.271854 0.0421283 -0.326867 0.00468672
0.26381 0.023952 -0.327404 0.00414989
0.193837 -0.143091 -0.476394 0.00114714
0.176869 -0.142871 -0.462554 0.000926988
0.202535 -0.145131 -0.458711 0.00318707
0.186002 -0.1432 -0.444652 0.00125631
0.204977 -0.210396 0.604654 0.00165077
0.180305 -0.210483 0.614493 0.00173868
0.220068 -0.207905 0.620601 0.000840482
0.197499 -0.207682 0.62991 0.00106239
-0.210396 0.0494296 -0.489985 0.00351539
-0.221802 0.0258385 -0.487993 0.00400532
-0.184825 0.0579038 -0.493898 0.00270502
-0.1961 0.0365273 -0.491099 0.00443884
-0.161516 0.111233 -0.393635 0.0140271
-0.179113 0.117743 -0.382035 0.00751675
-0.144405 0.110914 -0.373598 0.0143459
-0.160794 0.116992 -0.36338 0.00826804
-0.267348 0.226662 -0.14408 0.00952349
-0.277023 0.216666 -0.136005 0.0106624
-0.278589 0.24032 -0.12724 0.00547417
-0.286153 0.226144 -0.118885 0.0050091
-0.233867 0.124477 0.369364 0.000782837
-0.242811 0.124424 0.382237 0.000835542
-0.219795 0.12224 0.383049 0.00302038
-0.228643 0.121966 0.395156 0.00329406
0.36884 -0.0402107 -0.544355 0.00388221
0.35385 -0.0451315 -0.532694 0.000924808
0.380077 -0.0339581 -0.524805 0.00270591
0.366677 -0.0358899 -0.5106 0.000944124
-0.149764 0.0915103 0.44065 0.0118021
-0.159958 0.0849772 0.452436 0.00922241
-0.138505 0.0824863 0.448936 0.00543403
-0.149354 0.074043 0.461316 0.0087393
-0.132878 -0.181079 -0.637499 0.00534115
-0.151312 -0.183872 -0.63243 0.000271719
-0.116648 -0.182187 -0.629777 0.00238146
-0.134262 -0.184254 -0.625744 0.00641378
-0.728483 -0.157495 -0.199626 0.00281694
-0.744413 -0.157563 -0.189274 0.0156185
-0.715997 -0.15947 -0.186016 0.00273309
-0.732387 -0.158797 -0.17402 0.0168528
0.218853 0.0824979 -0.279206 0.00271243
0.204202 0.0815882 -0.276609 0.000862209
0.233071 0.0882059 -0.269434 0.00749006
0.218379 0.0878344 -0.266223 0.00710845
-0.29018 0.161457 0.130109 0.012332
-0.300331 0.140853 0.127738 0.017833
-0.269186 0.160928 0.142689 0.0063823
-0.280591 0.140599 0.138445 0.0114459
-0.189968 0.0807136 0.212556 1.24075e-05
-0.203448 0.0781924 0.217069 0.00253359
-0.174268 0.0775056 0.22027 0.00322042
-0.188233 0.0757839 0.224382 0.00494211
0.542531 0.0914156 0.170752 0.0195939
0.529268 0.0905564 0.19033 0.015583
0.553949 0.0834282 0.190252 0.0146879
0.54098 0.0812809 0.210154 0.00957352
0.786127 -0.20543 0.0370393 0.00331491
0.776643 -0.209458 0.0563163 0.000713172
0.789343 -0.207544 0.0610279 0.00120094
0.77995 -0.211579 0.079841 0.00283382
-0.598038 -0.186036 0.502326 0.00412373
-0.613849 -0.192659 0.505289 0.00889592
-0.582635 -0.187422 0.514273 0.00534402
-0.597997 -0.195387 0.517761 0.00714228
0.128032 0.140913 0.235999 0.000417646
0.112984 0.134534 0.244562 0.0046197
0.143405 0.131149 0.246366 0.00215591
0.12896 0.125357 0.256907 9.73e-05
-0.0265525 0.111121 -0.39566 0.0141394
-0.044116 0.116466 -0.390208 0.0087945
-0.00216559 0.11123 -0.382315 0.0140298
-0.0212162 0.117048 -0.37801 0.00821185
0.761726 -0.207422 -0.258609 0.00132289
0.750874 -0.207257 -0.24283 0.00148847
0.771259 -0.210298 -0.238293 0.00155269
0.759946 -0.211344 -0.222836 0.00259942
-0.0947659 0.0884087 0.174045 0.00472436
-0.107197 0.0869355 0.180582 0.00164027
-0.0790117 0.0838637 0.183872 0.00313773
-0.0936429 0.0861223 0.193392 0.0053963
0.665959 -0.00538949 0.262269 0.00856852
0.651485 -0.00224286 0.275956 0.000268944
0.674589 -0.0213426 0.269147 0.00673258
0.659467 -0.0143004 0.284035 0.00375743
0.814109 -0.199562 0.325796 0.00918302
0.801788 -0.203326 0.342426 0.00541933
0.819296 -0.20557 0.347021 0.00317508
0.807264 -0.208774 0.363065 2.93133e-05
0.144403 0.197126 -0.234533 0.00824098
0.121756 0.2106 -0.224835 0.000981291
0.172571 0.20062 -0.229471 0.00330313
0.148172 0.221612 -0.216914 0.00851296
0.198678 0.0165267 -0.311079 0.00311326
0.189145 -0.00884901 -0.315351 0.00135665
0.21808 0.0144927 -0.300963 0.00550728
0.210139 -0.010389 -0.301657 0.00166428
0.0467443 0.0931066 0.326765 0.0123806
0.0331715 0.0955261 0.338078 0.0148001
0.0619138 0.084253 0.344191 0.00352697
0.0482284 0.0866678 0.353991 0.00594179
-0.308842 -0.20815 -0.5725 0.000594554
-0.323488 -0.206176 -0.560529 0.00256929
-0.295619 -0.211302 -0.557462 0.00255697
-0.309853 -0.209119 -0.54586 0.000374394
0.0760207 0.177477 -0.0549896 0.00192903
0.0779706 0.157034 -0.051784 0.00165105
0.0767083 0.177623 -0.0360023 0.00608839
0.0789479 0.159355 -0.0312059 0.0049463
0.0915395 0.0835836 -0.252947 0.00285761
0.0750546 0.088779 -0.245865 0.00805297
0.104696 0.0900433 -0.241089 0.00931731
0.089445 0.0968774 -0.230698 0.0161514
0.0290536 0.229042 -0.0684066 0.00400679
0.0340604 0.203318 -0.0635864 0.00731848
0.0366949 0.237145 -0.0481128 0.00510828
0.0418432 0.212567 -0.0423875 0.00831486
-0.316948 -0.0759199 0.465982 0.00558156
-0.321192 -0.100528 0.467382 0.00293159
-0.297197 -0.0818257 0.474517 0.00417545
-0.304962 -0.106352 0.474887 0.00125768
-0.366426 0.0816526 0.211463 0.000926552
-0.379324 0.0827676 0.225847 0.00204162
-0.356493 0.0828691 0.225295 0.00214308
-0.370352 0.0841303 0.238367 0.00340435
-0.417284 -0.202068 0.534068 0.00630288
-0.431075 -0.200254 0.542944 0.00849054
-0.400525 -0.200827 0.545833 0.0124556
-0.414181 -0.199038 0.554915 0.00208331
-0.49513 0.116356 0.0277607 0.00890387
-0.50771 0.115999 0.0467116 0.00926076
-0.472972 0.110459 0.046772 0.0148007
-0.485377 0.111317 0.0632901 0.0139431
-0.134427 0.0810601 -0.313144 0.000334097
-0.148585 0.0818822 -0.304463 0.00115616
-0.118658 0.0818778 -0.297441 0.00115178
-0.131697 0.0826696 -0.28997 0.00194357
0.62518 -0.0972326 -0.28566 0.00136012
0.623483 -0.119765 -0.288319 0.0012986
0.645078 -0.0973726 -0.284965 0.0020546
0.643113 -0.118695 -0.287831 0.000811008
-0.371731 0.064886 0.395231 0.000393378
-0.380557 0.0508483 0.394593 0.00256781
-0.354275 0.0545935 0.403612 0.00294714
-0.363697 0.0415181 0.402356 0.000287534
-0.194051 -0.142744 0.531847 0.000799632
-0.208804 -0.143227 0.541082 0.00128277
-0.179556 -0.141803 0.54753 0.000140646
-0.196991 -0.139641 0.560454 0.0023028
0.065619 0.197425 -0.0708158 0.00708128
0.0682407 0.174685 -0.0687753 0.00593709
0.0702845 0.204665 -0.0556597 0.00626875
0.072736 0.182419 -0.0529105 0.0054553
0.645512 -0.132182 -0.400818 0.00719638
0.631675 -0.126939 -0.389178 0.0174751
0.66026 -0.13242 -0.38595 0.00604127
0.646391 -0.127108 -0.374266 0.00423668
-0.396385 -0.204859 -0.508251 0.00021935
-0.406827 -0.206133 -0.492661 0.00261198
-0.38557 -0.208053 -0.486816 0.000692365
-0.396502 -0.208794 -0.471934 4.90276e-05
0.709926 -0.087975 0.00228493 0.0139407
0.705293 -0.0826056 0.0261343 0.0110555
0.715514 -0.0959387 0.0261761 0.0170505
0.71118 -0.0900211 0.0498267 0.0145462
0.800092 -0.205196 0.455125 0.0035486
0.786366 -0.204978 0.464026 0.00376653
0.810077 -0.201496 0.471223 0.00724868
0.796731 -0.20107 0.480291 0.00767478
-0.0669266 0.0733156 -0.195726 0.0074104
-0.0823927 0.079971 -0.192123 0.00075497
-0.0529229 0.0764479 -0.186767 0.00427812
-0.0685424 0.0801038 -0.18247 0.000622208
-0.37438 -0.207659 -0.396959 0.00108556
-0.388919 -0.205486 -0.387006 0.0032591
-0.370675 -0.188726 -0.387052 0.00512342
-0.38579 -0.186656 -0.376782 0.00618154
0.276563 -0.13842 -0.452931 0.00352401
0.258766 -0.145265 -0.440489 0.00332119
0.2898 -0.133964 -0.434995 0.00530297
0.272209 -0.140718 -0.424524 0.00122611
-0.507351 0.0501605 0.285397 0.00489827
-0.508543 0.0277473 0.285735 0.00598961
-0.498811 0.0492802 0.299456 0.00711349
-0.500295 0.0267878 0.298631 0.00761039
-0.732723 -0.201139 -0.215415 0.00136473
-0.744047 -0.200862 -0.205839 0.00788335
-0.725272 -0.203896 -0.205479 0.00307678
-0.735521 -0.203603 -0.194641 0.00514216
0.0942236 -0.201515 -0.529458 0.00722976
0.0845937 -0.202269 -0.517863 0.00647627
0.108345 -0.207172 -0.515648 0.00157296
0.0987709 -0.208105 -0.504043 0.0006396
-0.600807 -0.208312 -0.402207 0.000433219
-0.617104 -0.207991 -0.387732 0.000754205
-0.589289 -0.210648 -0.380669 0.0019026
-0.605301 -0.209879 -0.366389 0.00113403
0.0293554 0.295551 -0.0789892 0.00766462
0.031038 0.276119 -0.0703878 0.00596903
0.0348153 0.295592 -0.0618409 0.00616373
0.0355343 0.2786 -0.0488371 0.00348874
0.337251 -0.196917 -0.614499 1.66344e-05
0.320733 -0.207763 -0.607033 0.000981969
0.350518 -0.196797 -0.601493 0.0131589
0.33503 -0.207465 -0.591801 0.000714325
0.271137 -0.138003 -0.476448 0.00394128
0.253268 -0.14462 -0.461698 0.00267551
0.282197 -0.135926 -0.45962 0.000739219
0.264486 -0.142717 -0.446326 0.000772825
0.703649 -0.0860971 -0.205113 0.00847975
0.696774 -0.078585 -0.182329 0.00406518
0.711726 -0.0901528 -0.189397 0.0150466
0.70274 -0.0796746 -0.166418 0.0094635
0.31684 0.0845542 0.0141815 0.00382819
0.301089 0.0889998 0.027915 0.00827379
0.333609 0.0854161 0.0380842 0.0046901
0.317841 0.0894593 0.0500415 0.00873333
-0.540055 0.0950363 -0.027523 0.0143103
-0.550014 0.0958711 -0.00756454 0.0151451
-0.530566 0.0940076 -0.0108745 0.0132816
-0.541579 0.0938034 0.0110733 0.0130774
0.0220268 -0.140368 0.574393 0.00157555
0.011222 -0.142108 0.594899 0.000163591
0.0297216 -0.142402 0.593434 0.000458157
0.0188422 -0.144664 0.614412 0.00271959
0.215552 -0.141694 0.592466 0.000249961
0.200326 -0.140737 0.605118 0.00120682
0.2327 -0.145193 0.60555 0.00324892
0.216239 -0.144684 0.617384 0.00274045
0.549031 0.0761229 -0.332393 0.00741042
0.528803 0.0804397 -0.328876 0.00368162
0.561342 0.082512 -0.321138 0.00283972
0.541315 0.0879517 -0.316856 0.00115625
0.527805 -0.068562 0.456271 0.0027036
0.513633 -0.0622924 0.464263 0.0015501
0.539131 -0.0723047 0.466198 0.0022524
0.522534 -0.0646997 0.474811 0.00108433
-0.158644 0.0867666 -0.383546 0.00604062
-0.174676 0.0926681 -0.37336 0.0119421
-0.140004 0.084582 -0.358878 0.00385604
-0.155573 0.0879939 -0.350405 0.00726789
0.457898 0.0580114 0.3257 0.010463
0.446976 0.0414225 0.33501 0.00144359
0.478347 0.0502294 0.332384 0.00407019
0.46772 0.0319857 0.339247 0.00279314
0.142944 -0.150308 -0.349785 0.00248166
0.131107 -0.160055 -0.355262 0.00516443
0.165352 -0.155053 -0.340404 0.0053185
0.152993 -0.165769 -0.344003 0.000341629
-0.344342 -0.0697405 0.449131 0.0105968
-0.347978 -0.0924451 0.451651 0.0066576
-0.329074 -0.0757449 0.461601 0.00557749
-0.333147 -0.0995269 0.463099 0.0025302
-0.193799 0.293094 0.215547 0.00552581
-0.201821 0.275279 0.219466 0.000577795
-0.172976 0.289321 0.219121 0.00601534
-0.180506 0.271127 0.223352 0.00170279
0.237688 0.124434 0.106999 0.000826483
0.224905 0.129514 0.119733 0.0042541
0.245655 0.125331 0.116185 7.08058e-05
0.232673 0.130859 0.128522 0.0047935
-0.584195 0.0938979 0.199313 0.00533125
-0.59087 0.0765379 0.203981 0.00591819
-0.573106 0.0929954 0.213784 0.00854675
-0.576627 0.0762633 0.220838 0.0116922
0.853866 -0.194017 0.0126462 0.000945079
0.842283 -0.195108 0.0312997 0.0125283
0.859329 -0.190976 0.0364353 0.00451775
0.848348 -0.193262 0.0543114 0.00646322
-0.310496 0.239576 -0.143821 0.00495994
-0.322416 0.226715 -0.131402 0.00304192
-0.320088 0.252806 -0.133192 0.00341329
-0.32982 0.236999 -0.120766 0.00233565
-0.11822 -0.100748 0.497197 0.00526358
-0.125067 -0.120613 0.500261 0.00242228
-0.100175 -0.107017 0.492965 0.00842629
-0.106161 -0.126059 0.496058 0.00598685
-0.732392 -0.201575 -0.220433 4.52894e-05
-0.743894 -0.201339 -0.211387 0.00740628
-0.725499 -0.205248 -0.209991 0.00349721
-0.736004 -0.205037 -0.199366 0.00370779
-0.0777367 0.226519 0.222908 0.00724834
-0.0856025 0.202129 0.230846 0.000166131
-0.05575 0.222383 0.219947 0.0103511
-0.0633324 0.197829 0.228237 0.00292264
-0.329174 0.080822 0.455507 0.00637375
-0.340233 0.0696469 0.459 0.000983139
-0.304807 0.0844172 0.461381 0.00716308
-0.314881 0.069979 0.464632 0.00537513
0.550394 0.0785417 0.326841 0.00028048
0.535956 0.0680315 0.338416 0.00570483
0.571963 0.0614704 0.328528 0.00336706
0.559354 0.0496457 0.339557 0.00446024
-0.455546 -0.0089252 0.381653 0.009575
-0.458691 -0.0279782 0.377502 0.0107177
-0.436431 -0.0105475 0.393422 0.0121655
-0.441442 -0.0297203 0.388435 0.0131743
0.513693 0.115443 -0.261521 0.00718263
0.49963 0.118665 -0.253961 0.00511395
0.523758 0.120662 -0.245416 0.000761155
0.510127 0.12345 -0.237874 0.000392894
0.269741 -0.209953 -0.43507 0.00120801
0.256256 -0.210009 -0.416504 0.00126402
0.281116 -0.209415 -0.415867 0.000669661
0.267799 -0.209518 -0.399052 0.00077312
0.209795 0.0883382 0.0108199 0.00761224
0.190789 0.096101 0.0177624 0.015375
0.2291 0.0864864 0.028029 0.00576036
0.209461 0.0940401 0.0345572 0.0133141
-0.224804 0.173795 -0.177615 0.0145342
-0.241354 0.183089 -0.168049 0.0144404
-0.214752 0.185175 -0.176105 0.00886219
-0.234566 0.19804 -0.165105 0.00851603
0.553846 -0.152116 0.561498 0.0101718
0.532794 -0.148867 0.573408 0.00692328
0.567461 -0.155559 0.573161 0.0136145
0.547533 -0.152478 0.585728 0.0105344
0.28043 -0.190144 0.621441 0.0110563
0.262149 -0.189355 0.629286 0.00567152
0.301002 -0.188007 0.633324 0.00341798
0.282807 -0.187862 0.640847 0.0084939
-0.0198181 -0.137213 0.491313 0.00327318
-0.0379801 -0.137615 0.499852 0.00432936
-0.00372825 -0.143239 0.50749 0.00129462
-0.0216094 -0.14306 0.517286 0.00111561
-0.224778 0.119141 0.452533 0.00137443
-0.23364 0.114081 0.462239 0.000302253
-0.205407 0.113311 0.464558 0.00204161
-0.214142 0.108227 0.473832 0.000330002
-0.382199 0.0831239 -0.354839 0.00239788
-0.397421 0.0845227 -0.344733 0.00386993
-0.372891 0.0967744 -0.355859 0.0160484
-0.388751 0.095937 -0.345671 0.015211
0.559513 0.100701 -0.205881 0.011659
0.547981 0.104179 -0.194208 0.0114185
0.573845 0.0961089 -0.185828 0.0105898
0.561637 0.0997681 -0.171551 0.0116749
0.287074 0.137766 -0.15963 0.017199
0.276738 0.138524 -0.14647 0.0049627
0.306713 0.133882 -0.142199 0.00197443
0.296658 0.134293 -0.128286 0.00682882
0.46954 -0.00540287 0.28994 0.00198006
0.458647 -0.0177593 0.292624 0.000704056
0.488409 -0.0135352 0.292082 0.000161892
0.477412 -0.0263537 0.294818 0.00289757
0.335401 -0.0104119 -0.334817 0.00326263
0.332588 -0.0295463 -0.337367 0.00581315
0.354501 -0.00904198 -0.330212 0.00134227
0.347987 -0.0235911 -0.331369 0.00018466
0.809694 -0.144671 -0.275348 0.00272672
0.793325 -0.143763 -0.261481 0.00181918
0.821871 -0.144718 -0.25501 0.00277369
0.805529 -0.144746 -0.241331 0.00280248
-0.290792 0.0871576 0.432734 0.0144197
-0.302678 0.0765528 0.436216 0.0126673
-0.274399 0.0808813 0.435706 0.00762377
-0.283274 0.0675183 0.440589 0.00567306
0.695939 -0.171477 -0.019257 0.00698621
0.688756 -0.165285 0.002052 0.0141685
0.712666 -0.178797 -0.000124107 0.00973792
0.70524 -0.172768 0.0210341 0.00231204
-0.174472 -0.187443 -0.641337 0.00917874
-0.192126 -0.191164 -0.633167 0.00100861
-0.157853 -0.19363 -0.629369 0.00278928
-0.17617 -0.198014 -0.620719 0.0107311
-0.653886 -0.21366 -0.0642533 0.00491494
-0.666598 -0.212417 -0.0506521 0.00367171
-0.648601 -0.207181 -0.0411992 0.0015642
-0.661346 -0.206431 -0.0277564 0.00231401
0.220921 -0.144479 -0.617289 0.00253384
0.20883 -0.142536 -0.610752 0.000591193
0.230061 -0.141602 -0.604425 0.000342127
0.217343 -0.139586 -0.598916 0.00235855
-0.355282 -0.19531 -0.60022 0.0134352
-0.368632 -0.197596 -0.583037 0.00398747
-0.34189 -0.206276 -0.581031 0.002469
-0.355797 -0.207344 -0.565838 0.0122162
-0.597686 -0.207637 0.245002 0.00110763
