-0.37584 0.116575 -0.096673 0.000266435
-0.380114 0.108497 -0.0940814 0.00245509
-0.37163 0.118606 -0.0860076 0.006934
-0.375814 0.111069 -0.0809021 0.00375852
0.267734 0.206418 -0.27464 0.00416717
0.270101 0.196158 -0.275629 0.00114752
0.270715 0.207374 -0.266135 0.000709255
0.272832 0.19702 -0.266777 0.00271564
-0.322509 0.12406 -0.198278 0.0028788
-0.327184 0.108608 -0.20721 0.0029296
-0.307099 0.134209 -0.191955 0.00623177
-0.311209 0.117647 -0.200375 0.00381448
0.229144 0.234721 -0.31398 1.15685e-05
0.22558 0.220301 -0.31841 0.00034361
0.238332 0.245386 -0.308819 0.000486982
0.234726 0.230675 -0.313721 0.000818663
0.321926 -0.0360627 0.355314 0.00464898
0.309663 -0.0423757 0.361914 0.00134246
0.335309 -0.0382565 0.360106 0.00103291
0.322282 -0.0442922 0.36491 0.00326214
-0.289279 -0.188555 0.384295 0.00365535
-0.29315 -0.20091 0.388151 0.000967422
-0.291054 -0.181225 0.393208 0.00115647
-0.293913 -0.193828 0.397602 0.00170541
0.323454 -0.297436 -0.23791 0.00352418
0.316713 -0.305042 -0.23235 0.00651491
0.33319 -0.298795 -0.229456 0.00959525
0.327657 -0.307356 -0.2236 8.21797e-05
-0.296206 -0.00260451 -0.222329 0.00112275
-0.29481 -0.0164753 -0.221605 0.000470534
-0.297679 0.0047626 -0.213703 0.00129112
-0.296333 -0.00904 -0.212912 0.000739718
0.473023 -0.432257 0.176575 0.00104746
0.458989 -0.434178 0.1837 0.000950436
0.475964 -0.417956 0.181177 0.000230647
0.463037 -0.419189 0.187474 0.000653801
0.1963 0.681543 -0.164798 0.00111495
0.183917 0.683945 -0.158346 0.00105292
0.206692 0.683037 -0.157041 0.00204061
0.193862 0.685764 -0.150956 0.000554485
-0.376006 -0.114879 -0.284836 0.00387764
-0.377146 -0.134655 -0.280227 0.000839736
-0.378012 -0.106957 -0.273233 0.0014358
-0.376645 -0.128462 -0.270307 0.00302543
-0.0603978 0.00119238 0.251215 0.00210994
-0.070077 0.00292614 0.259901 0.00658764
-0.050662 -0.00296232 0.261669 0.00187602
-0.0590789 -0.00237233 0.271036 0.00588061
0.0071816 -0.134557 0.393613 0.002041
-0.00937203 -0.131453 0.401901 0.00400044
0.0218128 -0.132864 0.397388 0.00250957
0.00537047 -0.130407 0.405397 0.0018781
-0.0175871 0.03433 0.171275 0.00627348
-0.0245494 0.0310979 0.182202 0.00677609
-0.0122251 0.0282352 0.181183 0.00361607
-0.0189282 0.024916 0.191897 0.00407023
-0.317776 -0.489279 -0.470666 0.00505102
-0.317001 -0.506641 -0.471975 0.00282648
-0.315037 -0.488059 -0.453792 0.00230323
-0.313933 -0.505359 -0.455635 0.0022788
0.235604 -0.157781 -0.423547 0.00547189
0.235773 -0.177412 -0.428779 0.00429066
0.240345 -0.146843 -0.410864 0.0015261
0.241417 -0.165781 -0.414594 0.00153199
0.00500145 -0.424035 0.243076 0.00443895
-0.00648277 -0.42338 0.251296 0.00113922
0.0161709 -0.422029 0.245911 0.00110382
0.00334439 -0.421032 0.253805 0.00597037
-0.275843 -0.386562 0.389195 0.000133311
-0.277167 -0.400876 0.384734 0.000403997
-0.264949 -0.387213 0.392745 0.00188899
-0.265981 -0.400442 0.388281 0.00177075
0.0369243 -0.0689238 0.365889 0.00690974
0.0242145 -0.0694866 0.372173 0.00304403
0.0526439 -0.068828 0.367936 0.00194966
0.0403561 -0.0703366 0.373875 0.00164397
-0.16323 0.192963 -0.212433 0.00110061
-0.171524 0.188113 -0.197939 9.82265e-05
-0.152495 0.185096 -0.205387 0.00569304
-0.161265 0.180863 -0.192502 0.0051556
0.058809 0.0659041 0.104712 0.00617437
0.0478318 0.0641451 0.110235 0.00600552
0.0710228 0.0600047 0.110817 0.00991058
0.0599254 0.0592446 0.116518 0.00934016
-0.325536 -0.367139 -0.152409 0.000705987
-0.33188 -0.369914 -0.139852 0.00205121
-0.320561 -0.370667 -0.139579 0.000585299
-0.326949 -0.372873 -0.12754 0.0012173
0.14663 -0.401612 0.203555 0.00762878
0.128351 -0.40009 0.211089 0.00518477
0.165014 -0.402217 0.208215 0.00162611
0.147907 -0.40111 0.214401 0.00312189
-0.0671389 -0.160289 -0.390388 0.00387983
-0.0811844 -0.159937 -0.383452 1.71811e-05
-0.0541428 -0.162933 -0.390963 0.000680379
-0.0676781 -0.162922 -0.384149 0.00270016
-0.31249 0.118537 -0.0180144 0.00261102
-0.318253 0.110232 -0.00855777 0.00698606
-0.302368 0.115338 -0.00674084 0.00163822
-0.306363 0.106804 0.00412314 0.00573594
-0.0081829 0.867195 -0.121862 0.00382235
-0.0179124 0.866961 -0.115413 0.00240427
0.000191869 0.867335 -0.111595 0.00105661
-0.00966367 0.866223 -0.105803 0.00140082
0.275773 -0.0754976 0.352144 4.45617e-05
0.263842 -0.0684719 0.357115 0.000646282
0.284462 -0.0670292 0.35675 0.00403901
0.272656 -0.0604231 0.36189 0.00297558
-0.293027 -0.0630484 -0.235454 0.000703543
-0.292158 -0.0787546 -0.238751 0.000272266
-0.291832 -0.0570691 -0.225808 0.000863554
-0.291194 -0.0718484 -0.227189 0.0015067
-0.288804 -0.511706 0.249578 0.000447304
-0.292028 -0.521982 0.253788 0.00881667
-0.293573 -0.503496 0.260002 0.00430573
-0.296238 -0.513218 0.264256 0.0030246
-0.312363 -0.122547 -0.220399 0.00260522
-0.309837 -0.140961 -0.22594 0.000100977
-0.310489 -0.111374 -0.211777 0.00167169
-0.308163 -0.12952 -0.21696 0.00448672
0.245113 0.511973 -0.167779 0.00481665
0.244542 0.490221 -0.168016 0.00202641
0.249629 0.51747 -0.158733 0.000582678
0.249258 0.495256 -0.158241 0.00381731
0.411423 0.0653893 0.111354 0.00260717
0.406568 0.0651514 0.117777 0.00163194
0.416283 0.0635461 0.123672 0.000591021
0.411515 0.063474 0.130299 0.000812883
-0.295323 -0.776991 0.207926 0.00622339
-0.296555 -0.801001 0.210019 0.00291315
-0.292244 -0.769552 0.213026 0.00110218
-0.293995 -0.79169 0.214474 0.00112524
-0.0791648 -0.0335221 0.36394 0.00874592
-0.0855846 -0.0360239 0.372472 0.00911331
-0.0699095 -0.0407134 0.373179 0.00456863
-0.0771006 -0.0430908 0.381625 0.00520047
-0.0344376 -0.191352 -0.386281 0.00128395
-0.046088 -0.195322 -0.380162 0.00163375
-0.0212507 -0.19447 -0.38617 0.00202957
-0.0333855 -0.198483 -0.379525 0.00323213
-0.0649431 -0.0359106 0.409288 0.0025574
-0.0739463 -0.037055 0.417643 0.00111657
-0.0575866 -0.0378978 0.417613 0.00165765
-0.0664599 -0.0387712 0.425574 9.63573e-05
0.155587 -0.181972 -0.455923 0.000130464
0.138869 -0.176156 -0.452382 0.0145613
0.167492 -0.171255 -0.449417 0.0120096
0.151357 -0.16604 -0.446384 0.0013909
-0.038041 0.202292 -0.250069 0.00304537
-0.0502809 0.202981 -0.24171 0.00113172
-0.0196871 0.196014 -0.243834 0.00874615
-0.0323613 0.196766 -0.236433 0.00588632
-0.181995 -0.421733 0.282745 0.00837612
-0.19258 -0.432208 0.291909 0.000643708
-0.164927 -0.422944 0.285155 0.000805094
-0.175904 -0.432638 0.294788 0.00602471
0.159522 -0.000660999 0.251813 0.00349179
0.147644 -0.00198072 0.260261 0.00512462
0.168622 -0.00337247 0.261315 0.00395822
0.156617 -0.00433984 0.269127 0.00570201
-0.306249 -0.332259 -0.334056 0.00667611
-0.308549 -0.344497 -0.326242 0.00273282
-0.304391 -0.328318 -0.324014 0.00231028
-0.307491 -0.33947 -0.316 0.0032517
0.208546 0.405028 -0.223738 0.000717715
0.204118 0.375605 -0.222979 0.00497724
0.219099 0.416265 -0.216908 0.00835918
0.214638 0.386028 -0.216401 0.00275832
-0.336572 0.246917 -0.168389 0.00325876
-0.338404 0.235298 -0.171309 0.00121654
-0.328949 0.250087 -0.157923 3.93666e-06
-0.330394 0.238635 -0.161185 0.00180144
0.218884 -0.367892 -0.500588 0.000144515
0.213361 -0.374014 -0.49496 0.00235965
0.215364 -0.358733 -0.49206 0.000541449
0.209225 -0.364299 -0.485553 0.00285232
-0.0152201 -0.418598 0.290214 0.00553947
-0.0249999 -0.420625 0.294332 0.00450931
-0.00118687 -0.415245 0.29277 0.000139904
-0.0104894 -0.415265 0.297169 0.00268832
-0.34945 0.00629277 0.0753971 0.00252574
-0.36021 0.00957259 0.0874974 0.003068
-0.339239 -0.000936659 0.0858304 0.00439879
-0.351018 0.00283607 0.0968119 0.00221908
-0.376952 -0.442336 -0.442321 0.000743644
-0.383757 -0.448828 -0.437534 0.00210225
-0.377606 -0.431516 -0.434499 0.000132957
-0.382539 -0.44007 -0.430599 0.000402581
0.318198 -0.117397 0.302725 0.00384674
0.303374 -0.111985 0.310144 0.00122902
0.326882 -0.11657 0.30842 0.000204693
0.312022 -0.1116 0.31574 0.0045478
0.227645 -0.385933 0.208459 0.00406668
0.210978 -0.389165 0.2158 0.00712224
0.240598 -0.383244 0.216046 0.00272046
0.223867 -0.38683 0.223628 0.00345206
0.376979 0.00244896 0.161648 0.00601406
0.368264 0.00466479 0.169339 0.00421209
0.384262 -0.00178841 0.172032 0.00877308
0.375573 0.000417257 0.179764 0.0014429
-0.368456 -0.482508 -0.405572 0.00813487
-0.370972 -0.492591 -0.401215 0.000109443
-0.366753 -0.477303 -0.392561 0.0021661
-0.366758 -0.492446 -0.392651 0.00347096
-0.204665 -0.00926634 0.320024 0.00599067
-0.211825 -0.0102021 0.325786 0.00515532
-0.193129 -0.0112144 0.323794 0.00653771
-0.19916 -0.0112075 0.331285 0.00401371
0.184123 0.0990739 -0.318272 0.00510496
0.178105 0.0848461 -0.311818 0.00245821
0.184855 0.115635 -0.309937 0.00403742
0.181663 0.0979927 -0.303294 0.00164967
0.494702 -0.640552 0.10121 0.00323903
0.491952 -0.655885 0.104935 0.00135104
0.491071 -0.62793 0.110589 0.00100161
0.487671 -0.642902 0.113966 0.00138201
-0.102392 -0.421583 0.309101 0.0034033
-0.124845 -0.420081 0.315659 8.99161e-05
-0.0809603 -0.420659 0.310605 0.000882486
-0.102346 -0.41941 0.317234 0.00411501
0.414667 -0.388316 0.0462007 0.000949741
0.409617 -0.395401 0.0545327 0.00651184
0.423422 -0.390014 0.0599403 0.00304043
0.42092 -0.400185 0.065404 0.00559305
-0.280065 -0.262276 0.349732 0.00191935
-0.28332 -0.281725 0.347174 0.000301894
-0.274999 -0.250732 0.354516 0.000453367
-0.278272 -0.270537 0.351413 0.00291645
0.000672612 0.0117719 0.270674 0.00164479
-0.00800568 0.00833687 0.280906 0.00138445
0.00707326 0.00744694 0.281709 0.00198885
-0.001635 0.00344489 0.291868 0.0023402
-0.442021 0.836117 0.0617975 0.0105612
-0.452325 0.832188 0.0678523 0.0083957
-0.428461 0.830611 0.0723811 0.00525642
-0.439326 0.827676 0.0791675 0.00657919
0.327458 -0.308344 -0.231369 0.00278322
0.321641 -0.316788 -0.225955 0.00408863
0.334642 -0.310385 -0.221314 0.0051685
0.330379 -0.320819 -0.216554 0.000236912
-0.125727 0.00188871 0.266318 0.00759593
-0.133413 0.000589932 0.275211 0.00953519
-0.119601 -0.0027621 0.276789 0.00717723
-0.126752 -0.00405419 0.286201 0.00950588
0.420552 -0.20847 0.178048 0.00554647
0.417341 -0.224585 0.179921 0.000639618
0.420281 -0.198417 0.188133 0.00126502
0.416828 -0.214361 0.190898 0.00336364
0.440983 0.0303311 0.161687 0.000861077
0.438802 0.0234709 0.16399 0.00152546
0.446382 0.0282466 0.17459 0.00273258
0.444741 0.0202435 0.176631 0.00258239
0.294896 0.538266 -0.162791 0.0025505
0.295759 0.517833 -0.162586 0.00251429
0.292523 0.553559 -0.153192 0.000223294
0.294269 0.531518 -0.152088 0.00642453
-0.314107 -0.592105 0.286554 0.00136053
-0.312528 -0.609699 0.284851 0.000524467
-0.310959 -0.58675 0.298455 0.000283637
-0.309552 -0.60454 0.296669 0.00145375
-0.244922 -0.785394 0.226864 0.00228993
-0.245778 -0.809464 0.227651 3.62684e-05
-0.24328 -0.786553 0.240782 0.00300017
-0.244024 -0.811423 0.241757 0.00430403
-0.478188 0.797615 0.047745 0.00514658
-0.47975 0.775503 0.0486611 0.00292883
-0.470143 0.795548 0.0550958 0.00570374
-0.471906 0.775314 0.0561958 0.00195688
-0.249733 0.682854 -0.111375 0.00594308
-0.266209 0.678974 -0.100278 0.000811926
-0.232654 0.681556 -0.105859 0.00398102
-0.248988 0.676003 -0.0955099 0.00765852
0.306473 0.600475 -0.160785 0.00354757
0.306687 0.584786 -0.162512 0.00145815
0.303985 0.605993 -0.15081 0.00247585
0.303921 0.590773 -0.152674 0.000336092
0.0468308 0.91193 -0.13694 0.00690667
0.0294059 0.912795 -0.131138 0.00651419
0.0619476 0.903603 -0.132054 0.00386312
0.0469782 0.904948 -0.124926 0.00333961
-0.248278 -0.471516 0.266096 0.00503836
-0.257895 -0.470146 0.281692 0.00369817
-0.245355 -0.469602 0.280778 0.00109539
-0.255361 -0.469758 0.296944 0.0164955
0.0756113 0.0530576 0.129158 0.00981777
0.0667669 0.052894 0.134728 0.00993181
0.0831698 0.04511 0.138896 0.00557584
0.0758957 0.0439603 0.144922 0.00651347
-0.334179 0.248318 -0.165311 0.00238052
-0.335857 0.236714 -0.168555 0.000683611
-0.326736 0.251857 -0.154933 0.000310592
-0.32818 0.240406 -0.158195 0.00157626
0.0595313 0.050651 0.166682 0.00175869
0.0538903 0.0481639 0.17408 0.00166432
0.0688545 0.0459022 0.173637 0.0039421
0.0627292 0.0435208 0.181004 0.00375822
-0.297738 -0.0914244 0.434433 0.00426708
-0.30035 -0.10654 0.436768 0.0042025
-0.29145 -0.0884489 0.447126 0.00617957
-0.293984 -0.103652 0.448652 0.00460561
0.2713 0.127275 -0.24952 0.000669685
0.266926 0.120392 -0.245433 0.00505794
0.27665 0.125298 -0.237218 0.00171259
0.271871 0.119445 -0.232799 0.0015648
-0.373532 -0.0277501 -0.253703 0.00371484
-0.376523 -0.045243 -0.259321 0.00527603
-0.362182 -0.0203658 -0.249219 0.00527844
-0.365155 -0.0385488 -0.254934 0.00401741
-0.293065 -0.916795 0.225471 0.00688731
-0.292203 -0.931828 0.224546 0.00584114
-0.28095 -0.915874 0.231416 0.0112714
-0.280978 -0.929847 0.230724 0.00264857
-0.31553 -0.46337 -0.389662 0.00345744
-0.322219 -0.471247 -0.385531 0.00157189
-0.313814 -0.455528 -0.381482 0.000827308
-0.322148 -0.4626 -0.376745 0.00110332
-0.226907 0.155322 -0.15684 0.00723358
-0.235657 0.154704 -0.147246 0.0100759
-0.222677 0.151979 -0.144984 0.00838195
-0.229877 0.14945 -0.133166 0.0101496
0.344384 0.10384 -0.139805 0.00113158
0.342841 0.0898436 -0.136669 0.00115655
0.353436 0.102687 -0.128032 0.00147346
0.35111 0.0900589 -0.124724 0.00297517
-0.407639 0.491406 -0.0904627 5.89896e-05
-0.423673 0.496393 -0.0814126 0.00322329
-0.407591 0.502395 -0.0856384 0.00171431
-0.422777 0.506333 -0.0788862 0.00171161
0.137179 0.0236234 0.201328 0.00717609
0.128299 0.0226261 0.207267 0.00829762
0.146143 0.0186582 0.210998 0.00598968
0.136378 0.0164005 0.218851 0.0070511
-0.295511 -0.650926 0.238649 0.000119527
-0.298819 -0.673335 0.235917 0.000245765
-0.287725 -0.637341 0.242124 0.00494674
-0.290605 -0.659764 0.239206 0.0046599
0.144005 -0.10838 0.374163 0.0015553
0.135562 -0.101982 0.38016 0.000582869
0.150744 -0.0940748 0.379237 1.79446e-05
0.142135 -0.0883759 0.384851 0.00151325
-0.0373183 -0.0652626 0.38526 0.00470909
-0.0525204 -0.0624968 0.387781 0.00731546
-0.0257302 -0.0639386 0.390861 0.00286147
-0.0412527 -0.0611273 0.394118 0.00182767
0.407619 0.0805572 0.0691359 0.00297087
0.409516 0.0685689 0.0719546 0.00291932
0.412354 0.0817062 0.0795428 0.00737581
0.41317 0.071183 0.0830177 0.001525
0.0534179 0.0131418 0.252612 0.00682127
0.0467833 0.00987607 0.26543 0.00529751
0.0635177 0.00477791 0.262143 0.0111591
0.0558614 0.00118851 0.275125 0.00999942
-0.285614 0.680985 -0.0960494 0.00432905
-0.301128 0.679146 -0.0842295 0.000251275
-0.270973 0.688417 -0.0895546 0.00022036
-0.287157 0.685569 -0.0783952 0.000806292
-0.344645 -0.496711 -0.411347 0.0182007
-0.344972 -0.512014 -0.409723 0.00947271
-0.344069 -0.493664 -0.395339 0.00558224
-0.344865 -0.507478 -0.395194 0.00112604
0.0547594 0.202948 -0.283181 0.0162548
0.0409979 0.198746 -0.273798 0.00578755
0.0711139 0.194176 -0.273189 0.00548868
0.0572806 0.190133 -0.263795 0.00255766
-0.386899 0.0951878 -0.168307 0.000524252
-0.385932 0.0805416 -0.170528 0.00138201
-0.381237 0.0965122 -0.154523 0.0011252
-0.379204 0.0826881 -0.157444 0.00126651
-0.136169 -0.0358019 0.363449 0.00644814
-0.140717 -0.0397856 0.374776 0.0062728
-0.13 -0.0420304 0.374405 0.00404908
-0.134543 -0.045072 0.384862 0.00449118
-0.316406 0.0418618 -0.00763316 0.00659413
-0.323727 0.0333327 0.00385024 0.00227035
-0.306689 0.0347114 0.00679577 0.0034436
-0.314332 0.0252725 0.0170968 0.000755537
-0.485074 0.800799 0.0109967 0.00211321
-0.490692 0.78251 0.0121355 0.00738129
-0.472806 0.809696 0.0122876 0.00719166
-0.482216 0.798602 0.0151728 0.00266549
-0.299671 0.0713761 0.10844 9.55591e-05
-0.30771 0.0663529 0.117171 0.00155765
-0.285022 0.0674715 0.114001 0.0020564
-0.293412 0.0625746 0.122393 0.00353769
-0.366134 0.123691 -0.0308137 0.000985634
-0.374842 0.117923 -0.0194758 0.00172207
-0.357589 0.120851 -0.0171903 0.000203532
-0.366634 0.11508 -0.00670144 0.00105977
0.0753029 -0.0624851 0.428523 0.00060491
0.0645658 -0.062177 0.435086 0.00302232
0.0816744 -0.063284 0.433713 0.000966802
0.0702453 -0.0646891 0.443814 0.00266277
-0.108893 0.702177 -0.115167 0.00603718
-0.125031 0.691991 -0.105442 0.00399944
-0.0860635 0.694395 -0.110965 0.000795208
-0.103399 0.685538 -0.099757 0.00684834
-0.266554 -0.3521 0.402882 0.000701785
-0.268063 -0.366731 0.398147 7.27211e-05
-0.253854 -0.347719 0.404448 0.000585585
-0.25527 -0.362213 0.399613 0.000990896
-0.283389 -0.366682 -0.0643983 0.00415297
-0.291851 -0.368415 -0.0531433 0.0036197
-0.277048 -0.373112 -0.0526148 0.0084595
-0.28564 -0.375168 -0.0411696 0.000581244
0.307438 -0.0408396 0.360645 0.000787583
0.295336 -0.0438049 0.365361 0.00130019
0.317557 -0.0391934 0.364358 0.00160681
0.304896 -0.0453578 0.370011 0.00294084
0.440157 -0.380824 0.188171 0.0101056
0.426354 -0.376626 0.194165 0.00017967
0.44355 -0.370047 0.195988 0.007622
0.431264 -0.36562 0.20133 8.97956e-05
-0.228735 0.887759 -0.0630782 0.00199105
-0.243669 0.882775 -0.0557396 0.000106433
-0.211571 0.883011 -0.0584993 0.00294215
-0.225761 0.878065 -0.0512727 0.00319027
0.248077 -0.0999292 0.349461 0.00191407
0.238004 -0.093641 0.355594 0.00100043
0.252888 -0.0913565 0.353776 0.000287478
0.242777 -0.0848479 0.359805 0.00138827
-0.249442 -0.68571 0.292275 0.00503484
-0.249258 -0.700942 0.291959 0.00189209
-0.241742 -0.676196 0.295884 0.000806348
-0.241783 -0.692084 0.29546 0.00343524
0.106112 0.0730987 0.072501 0.00942653
0.101283 0.0707072 0.0814757 0.00900876
0.111585 0.0680744 0.0821649 0.00817494
0.106694 0.066 0.0901315 0.00896161
-0.272686 -0.563292 0.332101 0.00339105
-0.275605 -0.587584 0.330334 0.00124728
-0.260994 -0.55994 0.336501 0.000953499
-0.264131 -0.583294 0.334979 0.00495325
0.184253 0.876039 -0.151118 0.002344
0.170603 0.874518 -0.146657 0.00310669
0.194867 0.87019 -0.145914 0.00198014
0.183514 0.865315 -0.141695 0.00105858
-0.116631 -0.456924 0.306531 0.00187789
-0.135431 -0.457579 0.312544 0.00260639
-0.0985649 -0.459083 0.310632 0.00351281
-0.117926 -0.459583 0.316671 0.00341586
0.00157237 -0.168036 -0.364783 0.010062
-0.0128801 -0.168464 -0.358561 0.00824171
0.0192969 -0.164519 -0.360166 0.000773996
0.00447964 -0.165741 -0.35413 0.000733858
0.19345 0.224225 -0.275065 0.00139059
0.191789 0.213202 -0.268949 0.000544941
0.196826 0.221793 -0.261811 0.000178989
0.193453 0.213715 -0.252381 0.00454812
-0.171178 0.170481 -0.15933 0.00307773
-0.182818 0.169197 -0.149266 0.000699148
-0.155769 0.165504 -0.153851 0.00595997
-0.16885 0.165518 -0.144363 0.00236537
-0.0151381 0.896708 -0.116394 0.00955781
-0.0255818 0.897295 -0.107661 0.00765099
-0.00119029 0.898395 -0.105272 0.00238229
-0.0125697 0.89806 -0.0985177 0.00201122
0.234455 -0.037511 0.406119 0.00400163
0.221197 -0.0409285 0.412365 0.00411543
0.245833 -0.0384416 0.411818 0.00148547
0.232661 -0.0414349 0.418114 0.00227845
-0.149877 0.898666 -0.0936895 0.00456168
-0.166759 0.896335 -0.0857827 0.00287786
-0.135711 0.894958 -0.0873609 0.00277033
-0.152684 0.893439 -0.0803861 0.0021956
0.0065171 0.125787 -0.0862809 0.00384812
-0.00180871 0.123731 -0.0782463 0.00484016
0.019109 0.118671 -0.0748159 0.00118834
0.0112799 0.115854 -0.0663145 3.27315e-05
-0.331404 0.866713 -0.0361026 0.00314834
-0.343052 0.865443 -0.0294589 0.00453225
-0.319838 0.862788 -0.030547 0.00418122
-0.3317 0.861619 -0.0244919 0.00279114
0.363798 -0.00338253 0.124588 0.00247253
0.352405 -0.000983118 0.134075 0.00904318
0.372988 -0.00763992 0.133772 0.00315926
0.362379 -0.00609257 0.143436 0.00350232
0.153183 -0.0130113 0.299469 0.00750724
0.145732 -0.013986 0.30879 0.00968002
0.162674 -0.0188932 0.313707 0.00663683
0.156626 -0.0224027 0.325171 0.00688643
-0.0838104 0.901896 -0.0985528 0.000420416
-0.0981239 0.901065 -0.0918876 0.000778978
-0.0696456 0.903439 -0.0966858 0.0011189
-0.0838923 0.903127 -0.0903248 0.00257213
0.122959 -0.047809 0.430416 0.00652725
0.111827 -0.0505212 0.443479 0.00118176
0.1336 -0.0506535 0.439566 0.00143787
0.122856 -0.0535529 0.452593 0.0081381
0.0158291 0.137787 -0.102769 0.00927448
0.00526452 0.137485 -0.0947425 0.0105915
0.0233414 0.129501 -0.0911942 0.00545121
0.0144594 0.127707 -0.083019 0.00675992
-0.334704 -0.079918 -0.284257 0.000166446
-0.337959 -0.0950598 -0.288785 0.00136821
-0.320714 -0.0764296 -0.279504 0.000604817
-0.324241 -0.0908223 -0.285147 0.000741723
-0.263755 -0.462998 0.15259 0.000831556
-0.266885 -0.458854 0.159119 0.0059019
-0.259662 -0.469525 0.163721 0.00265912
-0.262591 -0.46584 0.170639 0.00280631
0.10553 -0.0135969 0.336286 0.00410842
0.0988152 -0.0160944 0.342983 0.00418724
0.118468 -0.0183956 0.343932 0.00642988
0.11108 -0.0211347 0.350192 0.00698243
0.2418 -0.0277569 0.389684 0.0018647
0.230705 -0.0294188 0.396658 0.00109213
0.251573 -0.030676 0.398284 0.000909256
0.239242 -0.0324731 0.404314 0.000223769
0.175272 -0.0225584 0.373335 0.00211509
0.165626 -0.0239534 0.381554 0.000838833
0.186173 -0.0248845 0.378104 0.00294593
0.176949 -0.0264911 0.386359 0.0017862
-0.0854574 -0.011678 0.296255 0.00840708
-0.0934666 -0.0160528 0.308658 0.00804711
-0.0745822 -0.0200025 0.305638 0.00349796
-0.083283 -0.0248134 0.318148 0.00274246
0.401294 0.0611334 0.0210268 0.000453509
0.402254 0.0486471 0.0235147 0.000935595
0.404774 0.0634217 0.0334203 0.000459773
0.406032 0.0506496 0.0357012 5.29104e-05
-0.423371 0.538964 -0.0104283 0.000754298
-0.417262 0.513525 -0.0139871 0.00217087
-0.416271 0.545793 -0.00243093 0.000416489
-0.410179 0.520326 -0.00600958 0.0029999
0.299747 0.0837462 0.00599709 0.000163942
0.296343 0.0839858 0.0160861 0.00236572
0.305128 0.0800397 0.017809 0.000445571
0.30078 0.0797592 0.0281452 0.00206061
0.0363795 -0.0174383 0.35048 0.00266633
0.0232944 -0.0206146 0.358111 0.00325362
0.0475904 -0.0206448 0.355941 0.00385274
0.035929 -0.0234024 0.362822 0.00444747
0.00761786 0.036655 0.187514 0.00813242
-0.000984288 0.0332578 0.19923 0.00752308
0.0176967 0.0312055 0.200615 0.00910606
0.0100951 0.0283952 0.212602 0.00787949
0.113828 0.0878868 0.037401 0.00724901
0.105204 0.0884125 0.0428181 0.00483032
0.121989 0.0846671 0.0452237 0.00758893
0.113494 0.0845027 0.0509454 0.00578463
-0.278062 -0.0766872 0.305132 0.000776192
-0.288477 -0.0800613 0.313519 0.000546899
-0.269944 -0.0802995 0.316599 0.000839613
-0.280086 -0.0837749 0.325247 0.00063823
0.299397 -0.0282873 0.305938 0.00623936
0.29108 -0.0337296 0.317141 0.000742307
0.308482 -0.0363965 0.31607 0.00299025
0.298987 -0.0406805 0.325786 0.0113258
0.275036 0.648395 -0.213059 0.00462029
0.271501 0.634835 -0.213652 0.00234547
0.283079 0.648348 -0.204398 0.00195504
0.279902 0.634764 -0.205191 0.00427923
0.233286 0.58884 -0.182847 0.0031407
0.231288 0.570806 -0.178918 0.000720967
0.232621 0.598293 -0.173649 0.000533392
0.231082 0.581253 -0.169996 0.00308029
-0.032398 -0.0316001 0.40012 0.000446095
-0.0426748 -0.032159 0.406731 0.000515569
-0.0234807 -0.0372439 0.410152 0.00208718
-0.0355324 -0.0377406 0.416979 0.00110221
-0.324963 -0.310975 -0.174928 0.00131063
-0.33609 -0.314226 -0.158657 0.00669242
-0.318156 -0.323309 -0.155901 0.00312882
-0.328255 -0.327482 -0.14094 0.00133456
0.274733 0.121767 -0.0436782 0.00489724
0.269646 0.121672 -0.0327359 0.000916608
0.284177 0.115056 -0.0337385 0.00724503
0.27899 0.11472 -0.0232269 0.0040288
0.0696069 0.722718 -0.154706 0.00420017
0.0488372 0.717981 -0.14847 0.00672798
0.0952561 0.724041 -0.151767 0.00151922
0.0732415 0.719495 -0.146502 0.00243719
0.0567113 0.146178 -0.130372 0.00797648
0.0495001 0.142731 -0.121384 0.00776412
0.0663454 0.140492 -0.122566 0.00506556
0.0599206 0.137003 -0.113205 0.00491942
-0.182641 0.0368 0.168683 0.00762088
-0.193825 0.0321719 0.176453 0.00582756
-0.171643 0.0306637 0.180813 0.00672633
-0.182378 0.0262822 0.188801 0.00534518
-0.287851 -0.0881221 0.368675 0.00814486
-0.295058 -0.0847579 0.38041 0.0012052
-0.283787 -0.0870875 0.378156 0.00994557
-0.290264 -0.0871991 0.389547 0.000976414
-0.219868 -0.408799 0.310046 0.00613088
-0.228631 -0.417169 0.312768 0.0030958
-0.212073 -0.397979 0.317099 0.0158609
-0.21955 -0.410142 0.316651 0.00324526
0.0325361 -0.0654707 0.423405 0.000154253
0.0231311 -0.0654393 0.430831 0.000580637
0.0443041 -0.0662854 0.429785 0.00174256
0.0338241 -0.0658321 0.435831 0.000383562
0.466671 -0.466045 0.166342 0.00329514
0.457633 -0.478297 0.170233 0.00198304
0.470063 -0.450446 0.170671 0.00198569
0.457712 -0.456378 0.177013 0.00159836
0.127151 -0.163656 -0.393067 0.00932221
0.11378 -0.165224 -0.384992 0.00443767
0.142542 -0.170046 -0.385592 0.00375585
0.129063 -0.171265 -0.377519 0.00772915
0.344762 0.0185407 0.0817797 0.00261523
0.33154 0.0229825 0.0908626 0.011512
0.35291 0.0127841 0.0916362 0.0056314
0.339719 0.0176078 0.10073 0.00701265
-0.359642 0.00161226 -0.249881 0.000308929
-0.362603 -0.016933 -0.255862 0.00126282
-0.352202 0.00848554 -0.244374 0.00448672
-0.35502 -0.0097545 -0.251076 0.00383954
0.212166 -0.564938 -0.659191 0.000111308
0.206975 -0.571035 -0.652925 0.00541197
0.215718 -0.560139 -0.645999 0.00149726
0.211064 -0.565636 -0.638576 0.00188565
0.104871 -0.0242581 0.331679 0.00713469
0.098529 -0.0264442 0.338241 0.00735487
0.114403 -0.0281701 0.338324 0.005571
0.107491 -0.0324734 0.343964 0.00335989
0.217458 0.436757 -0.197864 0.00374047
0.212158 0.415186 -0.197931 0.00579445
0.226723 0.439116 -0.190928 0.00458972
0.222327 0.41634 -0.191237 0.00159011
0.258255 -0.00944868 0.337789 0.00157974
0.252791 -0.0114003 0.347884 0.000180119
0.271007 -0.0160225 0.350194 0.00395566
0.263994 -0.0209907 0.360303 0.00542277
0.418251 -0.541061 0.0776271 0.00640507
0.416118 -0.567666 0.0794844 0.00514132
0.429364 -0.537053 0.0850936 0.00619387
0.427134 -0.563914 0.0863715 0.00763985
-0.223011 -0.466231 0.298309 0.00793267
-0.230789 -0.474974 0.307202 0.00388278
-0.221502 -0.460152 0.305659 0.001047
-0.228498 -0.470395 0.312412 0.00346551
-0.00243365 0.0364766 0.189239 0.00772412
-0.0100378 0.0332613 0.200125 0.007192
0.00817091 0.0315342 0.199644 0.00906283
-0.000278641 0.0284399 0.210839 0.0083548
0.20548 -0.0202742 -0.414331 0.00245536
0.200281 -0.0317649 -0.41367 0.00200022
0.207127 -0.00625151 -0.409066 0.00307256
0.201125 -0.0172485 -0.409208 0.000455051
-0.475018 0.86777 0.0309853 0.00193859
-0.485441 0.863799 0.0414226 0.00292708
-0.463439 0.865482 0.0420261 0.00481558
-0.474161 0.863091 0.0526776 0.000674567
0.0774152 0.120289 -0.0345834 0.00377942
0.0665963 0.120569 -0.0299997 0.00190663
0.0895827 0.116971 -0.0286696 0.00452985
0.0799313 0.116797 -0.0231765 0.00272309
0.141801 0.0881798 0.0480293 0.00374306
0.134505 0.0857125 0.056849 0.00312168
0.149996 0.0840252 0.0559742 0.00538189
0.143289 0.0798491 0.0664473 0.00586144
0.236189 0.634978 -0.188739 0.000421235
0.232155 0.622807 -0.183731 0.00135058
0.23584 0.644947 -0.180573 0.000539355
0.232428 0.630095 -0.178759 0.00166135
-0.275454 -0.3333 0.40797 0.000504914
-0.276821 -0.349975 0.403211 0.00119356
-0.265409 -0.327424 0.410677 0.00193269
-0.26676 -0.344041 0.406031 0.000485754
-0.328385 0.220932 -0.11456 0.00756022
-0.328929 0.203227 -0.111082 0.00232059
-0.326526 0.225555 -0.107035 0.0018527
-0.326868 0.207522 -0.103445 0.00434292
-0.11491 0.159794 -0.176571 0.00448838
-0.124543 0.15896 -0.16794 0.00673714
-0.108842 0.157002 -0.167296 0.00522392
-0.118408 0.155837 -0.15838 0.00726478
-0.302758 0.102031 0.00462588 0.0098844
-0.306168 0.0943068 0.0160855 0.0122491
-0.292869 0.101434 0.0133193 0.00694796
-0.29659 0.094099 0.0250391 0.00887129
0.477302 -0.160867 0.215378 0.00307883
0.478486 -0.175771 0.208013 0.00192149
0.484938 -0.153044 0.224761 0.000589106
0.486809 -0.167387 0.217255 0.00158631
0.227182 0.0722356 0.0903386 0.00669404
0.221858 0.0681264 0.10306 0.00688823
0.237223 0.0652968 0.101094 0.0101831
0.232264 0.0612334 0.113057 0.0100208
0.276167 0.185042 -0.249995 0.00379335
0.279076 0.173661 -0.248998 0.00480245
0.277004 0.184882 -0.240881 0.00245653
0.280381 0.173703 -0.238276 0.000323783
0.331217 -0.119344 0.311576 0.00131446
0.316598 -0.114948 0.318794 0.00287995
0.339088 -0.117684 0.31907 0.000720978
0.324472 -0.113493 0.326498 0.00187436
-0.326075 0.319275 -0.101704 0.00198548
-0.323912 0.305483 -0.100833 0.000647601
-0.326272 0.31931 -0.0894847 0.00141701
-0.32453 0.305469 -0.0889013 0.0034586
0.17536 0.163021 -0.174462 0.00834727
0.168753 0.16129 -0.166584 0.00938752
0.185719 0.154525 -0.163093 0.00406592
0.178304 0.153212 -0.155686 0.00534892
-0.214438 0.140231 -0.107048 0.0107887
-0.222253 0.136539 -0.097106 0.0107969
-0.20746 0.132057 -0.0980153 0.00632167
-0.214654 0.128738 -0.0885842 0.00647821
-0.0657209 -0.441638 0.266009 0.00212661
-0.0779803 -0.443392 0.273644 0.00147733
-0.0508765 -0.442425 0.27052 0.00252374
-0.0626196 -0.443672 0.277908 0.00559784
0.131383 0.479535 -0.223141 0.00230264
0.110915 0.478864 -0.218713 0.000233267
0.149536 0.480353 -0.218437 0.000217391
0.130592 0.479785 -0.214847 0.000858728
0.120612 -0.0712499 0.350347 0.00313486
0.11779 -0.088856 0.350482 0.00272587
0.13671 -0.0685768 0.348564 0.00011513
0.134094 -0.0859096 0.349241 0.00468994
-0.295751 -0.132067 0.419551 0.00257485
-0.29603 -0.147207 0.422138 0.000981703
-0.2936 -0.123229 0.434158 0.00339361
-0.293486 -0.139273 0.435151 0.00536659
-0.0237341 -0.0292103 0.350909 0.00938225
-0.0350975 -0.0310729 0.35985 0.0102743
-0.0138718 -0.0339737 0.361096 0.00841571
-0.0246753 -0.0353642 0.368792 0.00935738
0.304797 -0.00892202 0.289038 0.00625381
0.296361 -0.0153382 0.301597 0.00442848
0.318264 -0.0169203 0.298845 0.00167293
0.310556 -0.0231959 0.310477 0.000267221
0.229101 -0.118665 -0.382135 0.00772031
0.231281 -0.136553 -0.381911 0.000552535
0.23241 -0.110028 -0.373663 0.00305642
0.23457 -0.12773 -0.373622 0.00439
-0.0812597 -0.0756009 0.457273 0.0017399
-0.0919008 -0.0758997 0.462082 0.00103319
-0.0679232 -0.0746975 0.460617 6.09871e-05
-0.0786644 -0.0745726 0.464704 4.64979e-05
-0.302168 -0.0645775 0.335168 0.00338602
-0.309959 -0.0607729 0.347552 0.00633716
-0.293722 -0.0742575 0.343868 0.0088585
-0.301815 -0.0684523 0.356129 0.000920436
-0.297881 -0.206739 0.425984 0.000619419
-0.297324 -0.223783 0.429273 0.00223721
-0.294149 -0.197671 0.439451 7.05119e-05
-0.294292 -0.214096 0.441883 0.00354005
0.240895 0.159312 -0.337874 0.00234698
0.239704 0.145078 -0.340858 0.000309271
0.243856 0.168442 -0.327975 0.00254767
0.244635 0.153627 -0.330985 0.00326951
0.115723 0.0277931 0.217553 0.00573972
0.107311 0.0263647 0.224665 0.00446391
0.133844 0.0204807 0.223491 0.00996064
0.124333 0.0174796 0.231976 0.00964579
0.303802 0.849889 -0.100825 6.92145e-05
0.303314 0.831079 -0.102353 0.00102506
0.310707 0.856269 -0.0998087 9.7026e-05
0.310635 0.838845 -0.101326 0.00109698
-0.0155259 0.47086 -0.215749 0.00749956
-0.0337695 0.471185 -0.203924 0.00111527
-0.000578539 0.469176 -0.20796 0.00232912
-0.0195162 0.470471 -0.196202 0.00697006
-0.188181 0.186112 -0.20557 0.00172031
-0.197406 0.182612 -0.191424 0.00241706
-0.180189 0.182182 -0.195676 0.00480116
-0.189099 0.178406 -0.181621 0.00344286
-0.227234 0.869818 -0.0838461 0.00358279
-0.242214 0.865445 -0.0765064 0.00199875
-0.2091 0.862531 -0.0822417 7.82316e-05
-0.223076 0.858209 -0.0746602 0.000969891
-0.0957773 -0.0131346 0.324122 0.00728547
-0.102709 -0.0184508 0.336087 0.00851159
-0.0811835 -0.0212925 0.332649 0.0105306
-0.0890014 -0.0259195 0.343808 0.00960997
-0.277243 -0.318088 0.32822 0.00178252
-0.279261 -0.337533 0.327782 0.00313152
-0.274516 -0.310557 0.335274 0.00312128
-0.2765 -0.330011 0.334748 0.00787956
0.103753 0.907469 -0.134845 0.00107143
0.0903711 0.909712 -0.131379 0.00136196
0.11656 0.906415 -0.130781 0.00221676
0.103274 0.907966 -0.127861 0.000268228
-0.137159 -0.154904 0.418913 0.00737098
-0.153151 -0.15389 0.423518 0.0109287
-0.121563 -0.15061 0.422697 0.00557159
-0.138028 -0.146477 0.429268 0.00526156
0.120465 0.689898 -0.165229 0.00125675
0.109326 0.689784 -0.157462 0.00358103
0.130407 0.687101 -0.157654 0.00204446
0.120296 0.686692 -0.149953 0.000528543
-0.22676 0.0961275 0.0541702 0.00325608
-0.235378 0.0911693 0.0588975 0.000281198
-0.216231 0.0893377 0.0551602 0.00263859
-0.223735 0.0837626 0.059497 0.00635191
0.356814 0.0916964 0.0455551 0.00261224
0.350725 0.0884079 0.0555989 0.00255343
0.361934 0.0891715 0.0557131 0.00155587
0.355708 0.0869685 0.064781 0.000796008
0.11229 0.0808408 0.038646 0.00517911
0.103694 0.0813825 0.0440789 0.00759807
0.121551 0.0767002 0.0466846 0.00402674
0.113267 0.0760122 0.052914 0.00550379
0.160441 0.190698 -0.275817 0.0154596
0.152729 0.190177 -0.259624 7.07948e-05
0.166036 0.187516 -0.262021 0.00152708
0.158862 0.187046 -0.245892 0.00679316
0.120878 -0.148336 -0.391711 0.00294124
0.108441 -0.150784 -0.383369 0.000206009
0.134392 -0.152168 -0.384005 0.0024828
0.121292 -0.153914 -0.375822 0.00619344
-0.253336 -0.888843 0.209649 0.000506247
-0.255075 -0.904879 0.209837 0.00165924
-0.244607 -0.891099 0.218345 0.00123888
-0.24629 -0.906183 0.218504 0.00260779
-0.170788 -0.0979254 0.41161 0.00715551
-0.184551 -0.0936207 0.417058 0.007889
-0.157116 -0.0970726 0.418359 0.000517175
-0.171381 -0.0915959 0.424491 0.000472677
-0.0211905 0.442939 -0.185475 0.00676601
-0.0377924 0.440243 -0.174328 0.00230834
-0.00502419 0.43961 -0.178497 0.000857532
-0.0222837 0.43764 -0.167969 0.00695978
0.417227 0.0112172 0.288922 0.00129223
0.410893 0.00632024 0.302074 0.000995193
0.423879 0.00373098 0.301064 0.00185346
0.417552 -0.00117695 0.314341 0.00209157
0.236794 0.0600047 0.107855 0.00830569
0.231168 0.05612 0.118684 0.00859724
0.245702 0.052627 0.117124 0.00467216
0.238836 0.0491627 0.127032 0.00502353
0.280192 -0.326313 -0.242215 0.00142303
0.271657 -0.33131 -0.234375 0.0107387
0.291542 -0.328237 -0.230981 0.00385493
0.283388 -0.333915 -0.223489 0.00511483
0.211489 0.288401 -0.229724 0.00213207
0.211543 0.266433 -0.22747 0.00203412
0.217973 0.291406 -0.221102 0.00181764
0.218148 0.269273 -0.218832 0.00445716
-0.0790175 0.197147 -0.226557 0.0024207
-0.0913519 0.194048 -0.215533 0.00131362
-0.0649763 0.192054 -0.218099 0.00411315
-0.0778378 0.188727 -0.206727 0.00323308
-0.110844 -0.0473022 0.447705 0.00124134
-0.117408 -0.0496981 0.457068 0.000374824
-0.102491 -0.0483516 0.456085 0.000746487
-0.110572 -0.049893 0.462923 0.00157011
0.125518 0.128573 -0.0805954 0.00607976
0.119995 0.128327 -0.0720556 0.00924901
0.130404 0.122091 -0.0714581 0.00410367
0.123906 0.122251 -0.06344 0.00739017
-0.276169 0.144364 -0.0974194 0.00549306
-0.283762 0.139981 -0.0884665 0.00658074
-0.267809 0.139819 -0.0881701 0.00655444
-0.274099 0.134855 -0.0780842 0.00794991
-0.034126 0.077958 0.0860008 0.000897236
-0.0382623 0.0740468 0.0979694 0.00060997
-0.0243441 0.0717289 0.099656 0.00222685
-0.0307128 0.0690581 0.108823 0.00187821
-0.299562 0.0109785 0.26762 0.00363432
-0.311348 0.00970516 0.277634 0.000826442
-0.291598 0.0100273 0.283057 0.000163329
-0.302548 0.00766397 0.293036 0.00130406
-0.329451 -0.332185 -0.246378 0.0023596
-0.337039 -0.335113 -0.228706 0.000600545
-0.319477 -0.342291 -0.233991 0.00862537
-0.328864 -0.343017 -0.214487 0.000543839
-0.341559 -0.625755 -0.469146 0.00217185
-0.350042 -0.622817 -0.465336 0.00283987
-0.335381 -0.618004 -0.462758 0.00180517
-0.339927 -0.622095 -0.461825 0.00155091
0.375193 0.0342051 0.19403 0.00707503
0.368997 0.0338583 0.202145 0.00462546
0.38743 0.0263041 0.206214 0.010606
0.379276 0.0262783 0.21417 0.0079689
0.02561 0.11131 -0.0520694 0.00039129
0.0177721 0.108732 -0.0433672 0.00123653
0.0375565 0.109874 -0.0425746 0.00275783
0.0293864 0.107981 -0.0338636 0.0041884
-0.101345 -0.0517852 0.460628 0.00092464
-0.109737 -0.0534225 0.467673 0.000122363
-0.092392 -0.0537397 0.467142 4.98074e-05
-0.101972 -0.0542253 0.472846 0.00232957
-0.320158 0.0820568 -0.120856 0.00204097
-0.326377 0.0756202 -0.116546 0.00130961
-0.31275 0.0800324 -0.112803 0.00201596
-0.3195 0.0741522 -0.109196 0.000392909
0.379663 0.0393674 0.177057 0.00806644
0.372723 0.0398546 0.183601 0.00537873
0.389728 0.0297824 0.187031 0.0135845
0.382505 0.0301852 0.193652 0.0109504
0.464925 -0.137033 0.214112 0.00124456
0.466711 -0.150985 0.20714 8.78778e-05
0.472475 -0.130285 0.223166 0.0016033
0.474671 -0.14445 0.216314 0.000259032
-0.380329 0.105139 -0.0721507 0.000430637
-0.386181 0.0978872 -0.0604469 0.00465705
-0.376279 0.101548 -0.0603496 0.00559904
-0.381966 0.0944976 -0.0483126 0.000754591
0.115538 0.172556 -0.196611 0.00987137
0.11034 0.170528 -0.186781 0.0113622
0.124942 0.165296 -0.187989 0.00602839
0.119989 0.162197 -0.17717 0.00685597
0.260548 0.836783 -0.138072 0.000141441
0.262558 0.823226 -0.135733 9.54218e-05
0.265204 0.840199 -0.128808 1.69214e-06
0.267221 0.825132 -0.128038 0.000342368
-0.254335 0.161586 -0.180484 0.00104259
-0.264695 0.162825 -0.172465 0.00188565
-0.244144 0.156351 -0.167034 0.0043513
-0.254449 0.156997 -0.158599 0.00794493
-0.0770236 0.864219 -0.0950681 0.000960389
-0.0917201 0.862741 -0.0882678 0.00154086
-0.0649938 0.865255 -0.0915764 0.000339883
-0.0798228 0.864577 -0.0852357 0.000941399
-0.372769 -0.438547 -0.446614 0.00145316
-0.380091 -0.444909 -0.442473 0.00243864
-0.370559 -0.425699 -0.440338 0.000493984
-0.377503 -0.433322 -0.437048 0.000745984
-0.274249 0.0739369 0.0536574 0.00444612
-0.281044 0.0650492 0.0610764 0.000281571
-0.262956 0.0730051 0.0606989 0.0053328
-0.269877 0.0637428 0.0670176 0.000866897
-0.3628 0.151543 -0.202331 0.00404991
-0.36436 0.137237 -0.203146 0.00130433
-0.361632 0.158791 -0.194604 0.00153664
-0.362943 0.143967 -0.196064 0.00386082
0.445291 -0.734607 0.030816 0.00134294
0.440737 -0.747573 0.0365584 0.000631501
0.438971 -0.723878 0.0400618 2.55613e-05
0.434617 -0.73735 0.0460553 0.000312593
0.493156 -0.592616 0.114047 0.00301301
0.490421 -0.609099 0.11779 0.00033198
0.490671 -0.583187 0.12079 0.00194382
0.488578 -0.600106 0.124199 0.00116766
-0.150837 -0.0449013 0.43384 0.00334043
-0.154953 -0.0478347 0.446411 0.002205
-0.144165 -0.0440549 0.440268 0.000520162
-0.148315 -0.047473 0.453284 0.000293606
-0.370827 0.0835029 -0.121684 0.00112926
-0.374312 0.0759339 -0.118056 0.00307646
-0.363241 0.0797238 -0.113648 0.00336775
-0.369076 0.0744799 -0.109012 0.000517305
0.351604 0.0634436 -0.0742067 0.000884772
0.34385 0.0609999 -0.0652532 0.000263107
0.357509 0.0639223 -0.0645157 0.00252545
0.349761 0.0615054 -0.0560519 0.00229388
-0.369172 0.0157361 -0.238801 0.000372289
-0.37235 -0.00270461 -0.24215 0.000476249
-0.36634 0.0269813 -0.230475 0.00486814
-0.368943 0.00824886 -0.233675 0.0052999
0.286179 0.81574 -0.180059 0.000748367
0.284167 0.801424 -0.180585 0.0019572
0.297885 0.82131 -0.179537 0.000683429
0.295583 0.805098 -0.181231 0.000230296
0.498541 -0.67132 0.0581183 0.00230245
0.499203 -0.68975 0.0568962 0.000483234
0.497405 -0.658847 0.0707081 0.00249301
0.497953 -0.676981 0.069966 0.00435224
-0.243335 -0.174628 -0.298903 0.00311039
-0.251654 -0.194113 -0.299373 0.00992011
-0.229232 -0.168769 -0.294715 0.0119168
-0.241689 -0.179272 -0.291565 0.00572803
0.491809 -0.664541 0.0485535 0.00492339
0.492091 -0.682533 0.0473615 0.00227851
0.489812 -0.651862 0.0614075 0.00267142
0.490426 -0.669208 0.0602246 0.00518585
0.145381 -0.361457 -0.528413 0.000562379
0.147502 -0.381784 -0.528958 0.00036727
0.148108 -0.352206 -0.520653 0.00122694
0.152522 -0.374974 -0.517332 0.00100777
-0.0618863 0.437501 -0.191969 0.00209206
-0.0756738 0.434945 -0.184343 0.000166056
-0.0434344 0.436196 -0.184994 0.000937752
-0.0587718 0.433604 -0.175173 0.000545425
0.243637 -0.0404984 -0.376829 0.00652525
0.245156 -0.0625639 -0.382137 0.00414352
0.25216 -0.0289601 -0.371204 0.000531688
0.252661 -0.0500915 -0.375873 0.00218494
0.374907 -0.405396 -0.0302652 0.00149613
0.369053 -0.410389 -0.0201441 0.00531604
0.385068 -0.410704 -0.0207063 0.0020311
0.379513 -0.416216 -0.0114614 0.00370805
-0.445371 0.77076 0.0559484 0.00722267
-0.445709 0.746467 0.0563429 0.000212113
-0.436852 0.773128 0.0623235 0.000907968
-0.43713 0.749683 0.0626256 0.00423675
-0.375076 0.395866 -0.0451877 0.000613973
-0.385699 0.399135 -0.0394849 0.00605752
-0.368259 0.412396 -0.0445651 0.00264023
-0.377999 0.41401 -0.038681 0.00182054
0.197766 -0.0747007 -0.346983 0.00145915
0.196502 -0.0898478 -0.352106 3.6871e-05
0.206859 -0.0734661 -0.341437 0.00123311
0.206641 -0.0891207 -0.346411 0.00292232
-0.24567 -0.788225 0.225244 0.00255457
-0.246526 -0.812295 0.226031 0.000358845
-0.243831 -0.78963 0.238584 0.00287488
-0.244609 -0.814265 0.239771 0.00437347
0.266185 0.157354 -0.281412 0.00108168
0.265937 0.145782 -0.282721 0.000114439
0.267865 0.159631 -0.272606 0.000969132
0.269258 0.149251 -0.274027 0.00361993
-0.312734 -0.723794 0.256131 0.000811927
-0.31312 -0.741243 0.257506 5.33979e-05
-0.312443 -0.715718 0.26357 0.00128234
-0.312273 -0.733432 0.264759 0.000374161
0.320045 0.760151 -0.169107 0.00104226
0.31918 0.741594 -0.170678 0.00053467
0.323326 0.768734 -0.160315 0.00345861
0.322369 0.750102 -0.16078 0.00340353
-0.312431 -0.337406 -0.395661 0.00216161
-0.312609 -0.355827 -0.399812 0.000998235
-0.30591 -0.332983 -0.381817 0.00106826
-0.305496 -0.350855 -0.386464 0.00216199
0.261521 0.564242 -0.227627 0.0018768
0.258284 0.547771 -0.229653 0.000555328
0.271526 0.565372 -0.220125 0.0042818
0.269724 0.54815 -0.223327 0.00464195
-0.389226 0.101323 -0.171125 0.00132818
-0.387892 0.0868721 -0.17307 0.00161286
-0.384236 0.105001 -0.159838 0.000682383
-0.382171 0.0909078 -0.162064 0.000853544
0.180192 0.127212 -0.313903 0.00141222
0.178564 0.108935 -0.307555 0.00254766
0.179354 0.138157 -0.304349 0.00312478
0.178704 0.119355 -0.29726 0.00540334
0.200999 0.480541 -0.200329 0.00187398
0.195572 0.467875 -0.200073 0.00514398
0.210322 0.480594 -0.194987 0.00532858
0.206873 0.464948 -0.195896 0.00211047
0.423987 -0.605083 0.0664513 0.00428394
0.422856 -0.627002 0.0680272 0.00369533
0.434329 -0.602635 0.0720095 0.00699304
0.433197 -0.624554 0.0735854 0.00782931
-0.262974 -0.0270161 0.232811 0.000502352
-0.269005 -0.0342367 0.239634 0.00667649
-0.258191 -0.0303279 0.243573 0.0036512
-0.264322 -0.0374782 0.251115 0.00398401
0.308385 -0.0137772 0.306005 0.00715402
0.300782 -0.0202024 0.318024 0.00609262
0.321394 -0.0227376 0.316087 0.00486615
0.312311 -0.0290936 0.326569 0.0123018
0.296963 0.0762783 0.0468782 0.0038642
0.293087 0.0740491 0.0607141 0.00437661
0.30555 0.0726444 0.0585039 0.00365738
0.301619 0.0704481 0.0725262 0.00640644
0.288113 -0.0881903 0.341378 0.00300663
0.276608 -0.0820794 0.346434 0.00317726
0.296892 -0.077769 0.348497 0.00284224
0.285625 -0.0720676 0.353042 0.00238948
0.280886 -0.0677732 0.354842 0.00155486
0.268681 -0.0605951 0.360031 0.000393008
0.290414 -0.0595259 0.359376 0.00495163
0.278281 -0.0541069 0.364328 0.004022
-0.197044 0.127471 -0.083329 0.00717307
-0.205507 0.125784 -0.0754225 0.00831051
-0.190219 0.123033 -0.0732041 0.00655071
-0.199253 0.121987 -0.065501 0.00818571
-0.00372769 0.697951 -0.164228 0.00110683
-0.0173256 0.69127 -0.148912 0.00376146
0.00864774 0.692854 -0.148618 0.0064564
-0.00505371 0.685034 -0.133799 0.00091654
-0.270427 -0.0717655 0.296505 0.00208563
-0.28098 -0.0759492 0.304678 0.00139926
-0.260535 -0.074131 0.306515 0.0022753
-0.271042 -0.078181 0.31461 0.00225766
0.405213 -0.197762 0.21345 0.000865603
0.404342 -0.215202 0.219063 0.0012375
0.402051 -0.188711 0.227208 0.000982354
0.402543 -0.207084 0.23317 0.00232959
0.318734 0.935615 -0.124493 0.00123018
0.312494 0.92886 -0.122827 0.00798365
0.325962 0.933931 -0.11717 0.00108362
0.320903 0.926466 -0.115513 0.00594636
-0.200224 0.122897 -0.0713939 0.00700774
-0.208941 0.121363 -0.0637905 0.0081509
-0.194167 0.118794 -0.0613301 0.00664399
-0.203406 0.117571 -0.0545504 0.00779348
-0.0707445 0.717469 -0.164949 0.0139872
-0.0901463 0.711568 -0.151622 0.00420672
-0.0521887 0.708496 -0.157223 0.00039013
-0.0700852 0.703301 -0.143493 0.0100762
0.440725 -0.753861 0.0363531 0.00100218
0.437482 -0.767641 0.0413365 0.00132396
0.435679 -0.742254 0.0448502 0.000798785
0.431891 -0.755925 0.0499044 0.0017475
0.406631 -0.137609 0.271505 0.00224266
0.41193 -0.156625 0.269242 0.000516266
0.413957 -0.137174 0.281874 0.000894604
0.419261 -0.156682 0.279285 0.00040859
0.375216 -0.0551033 0.280503 0.00742667
0.360462 -0.0477412 0.291222 0.003389
0.384639 -0.0522619 0.288188 0.00072837
0.370802 -0.0478536 0.29851 0.00630251
-0.188145 0.453392 -0.142141 0.00602425
-0.202468 0.454711 -0.133558 0.00113606
-0.1702 0.452481 -0.141161 0.00265227
-0.185838 0.453969 -0.133293 0.00156958
0.17646 -0.212682 -0.497007 0.00106941
0.161562 -0.2155 -0.497492 0.00647269
0.19101 -0.205416 -0.493432 0.00436146
0.172836 -0.202777 -0.492119 0.000760044
0.174899 -0.120881 0.355292 0.00560991
0.16522 -0.116178 0.361269 0.000161002
0.17877 -0.112226 0.3647 0.000478064
0.169144 -0.106131 0.371167 0.000638499
-0.187286 0.148014 -0.139056 0.00682084
-0.194291 0.143914 -0.126212 0.00758181
-0.177668 0.143259 -0.129667 0.005795
-0.183911 0.139326 -0.117793 0.00630097
0.280106 0.0963398 -0.0218293 0.000701671
0.275369 0.0969643 -0.010367 0.00438456
0.284962 0.093337 -0.013327 0.00100686
0.281144 0.0932322 -0.00122404 0.0040553
-0.266985 -0.0423824 0.243143 0.00495349
-0.273024 -0.049909 0.250918 0.00728311
-0.261118 -0.0486626 0.254804 0.000424728
-0.267297 -0.05564 0.263731 0.00508289
-0.277221 -0.0841922 0.488496 0.00294162
-0.282779 -0.100871 0.487865 0.000779925
-0.268592 -0.0825189 0.491852 0.00418394
-0.273661 -0.0970357 0.492563 0.00130106
-0.145346 0.680322 -0.119568 0.00467917
-0.159806 0.670873 -0.111449 0.00033647
-0.128345 0.675972 -0.119346 0.00208928
-0.142454 0.665229 -0.110605 0.00713162
-0.104737 0.0438558 0.138596 0.00471825
-0.113488 0.039666 0.147852 0.00365349
-0.0920443 0.0399241 0.145389 0.00290895
-0.099675 0.0371903 0.154332 0.00288003
0.26889 0.0434539 0.137901 0.00336502
0.259027 0.0419237 0.142795 0.00373297
0.281203 0.0402393 0.14448 0.00267311
0.27131 0.0384182 0.150035 0.00300691
0.293122 0.459156 -0.221787 0.00124554
0.291728 0.442091 -0.216512 0.00136845
0.296702 0.462912 -0.21159 0.00128657
0.295257 0.44593 -0.206516 0.000726518
-0.00534462 0.0172186 0.254141 0.0031907
-0.0136034 0.0161912 0.262301 0.000974219
0.00442103 0.0126892 0.263983 0.00329763
-0.0042581 0.00964192 0.273971 0.00249867
-0.295725 -0.129805 0.460537 4.99883e-05
-0.295647 -0.146881 0.459858 0.00202524
-0.289735 -0.122273 0.468705 0.00290006
-0.290517 -0.1389 0.466705 0.000697566
0.0907713 0.0776231 0.0735314 0.00487741
0.0862748 0.0746142 0.0835573 0.00451039
0.0998075 0.0729892 0.0795078 0.00745568
0.0954424 0.0702913 0.0886846 0.00706501
0.18524 -0.024289 -0.408373 0.00219177
0.181523 -0.037675 -0.405316 0.00182529
0.182253 -0.0118676 -0.400474 0.00284975
0.178274 -0.0248244 -0.397872 2.79841e-05
-0.352363 -0.513772 -0.491964 0.00132266
-0.362642 -0.519027 -0.488432 0.00191431
-0.349516 -0.49908 -0.487092 0.00323809
-0.359694 -0.504217 -0.483746 0.000824536
0.317201 -0.331849 -0.219869 0.00142669
0.312299 -0.341977 -0.215222 0.00216267
0.323776 -0.332995 -0.208587 0.0028654
0.319967 -0.344326 -0.204357 0.00104062
0.223614 0.138845 -0.127379 0.00129783
0.217984 0.137574 -0.121496 0.00197259
0.22894 0.133688 -0.118144 0.00051943
0.22374 0.131858 -0.111178 0.000834714
-0.145224 -0.0301432 0.349257 0.00735799
-0.149685 -0.0340512 0.360365 0.00712064
-0.137439 -0.0383852 0.361715 0.00344418
-0.141987 -0.0423688 0.373041 0.00326873
0.412755 -0.11315 0.22906 0.00312969
0.411782 -0.126924 0.23159 0.00152647
0.414308 -0.105317 0.238607 0.00201331
0.413199 -0.119189 0.241129 0.00620155
-0.322517 -0.040696 0.358374 0.000600428
-0.32604 -0.0406729 0.370988 0.000870859
-0.316092 -0.0423028 0.372177 0.00428994
-0.319991 -0.0442888 0.384526 0.00547754
-0.0060624 0.146974 -0.126304 0.0100848
-0.0162608 0.145621 -0.117887 0.0117041
0.00402156 0.138584 -0.114301 0.00616698
-0.00673292 0.138482 -0.10661 0.00883439
0.0597289 0.463511 -0.189756 0.00690722
0.0384239 0.46126 -0.181626 0.00238327
0.0834855 0.462714 -0.185892 0.00132212
0.0616337 0.458155 -0.179516 0.00188996
-0.239571 -0.695515 0.266895 0.00579873
-0.239752 -0.711956 0.268735 0.00505622
-0.235313 -0.690401 0.273757 0.00167549
-0.235494 -0.706841 0.275597 0.000192677
-0.361851 0.4159 -0.12363 0.00468973
-0.362447 0.401445 -0.1239 0.00148562
-0.35658 0.413057 -0.116641 0.00113274
-0.357236 0.398937 -0.116886 0.0041089
0.44864 -0.430405 0.071061 0.00234853
0.448555 -0.443297 0.0692151 0.00509009
0.455593 -0.421976 0.0823396 0.000522534
0.456118 -0.438147 0.0774769 0.004365
0.10943 -0.39431 0.21753 0.00438063
0.0916932 -0.394437 0.2314 0.00189645
0.128798 -0.395749 0.220788 0.00393285
0.110439 -0.394972 0.234622 0.00356132
-0.382404 -0.423857 -0.387768 2.39693e-05
