0.17464 0.3025 -0.204762 0.000275125
-0.0348373 0.621766 0.625711 0.000709475
-0.0501176 0.623315 0.62539 0.00117572
-0.0147801 0.63531 0.630391 0.00183851
-0.0320092 0.639276 0.631292 0.00198765
-0.193564 0.546274 0.560995 0.00958896
-0.195854 0.517438 0.561727 0.00119372
-0.177882 0.547587 0.574729 0.00364466
-0.179976 0.519446 0.574946 0.00832179
0.0969638 -0.178488 -0.864207 0.00228716
0.0842987 -0.196419 -0.85959 0.00114941
0.11585 -0.191248 -0.856067 0.000374957
0.103339 -0.210415 -0.850933 0.00191187
0.155788 -0.378229 -0.45096 5.55572e-05
0.143391 -0.37424 -0.435387 0.00199959
0.167025 -0.380906 -0.428514 0.000636664
0.154815 -0.376822 -0.413669 0.00164628
-0.457349 -0.0193701 0.20846 0.00282624
-0.468446 -0.0289391 0.220697 0.000855321
-0.440636 -0.0176624 0.224127 0.000476023
-0.449971 -0.0278854 0.238428 0.000968896
0.31928 -0.394363 -0.6413 0.00356946
0.308259 -0.399456 -0.630035 0.000238866
0.32962 -0.400694 -0.626826 0.00523032
0.318333 -0.404432 -0.615402 0.00056298
0.0664817 -0.448638 0.0028508 0.00287042
0.051642 -0.453852 0.0189238 0.00171366
0.0798511 -0.459444 0.0206514 0.00209882
0.06635 -0.464379 0.037454 0.0027265
0.272798 -0.148787 0.585866 0.00120175
0.262741 -0.158391 0.597959 0.00180591
0.28037 -0.167077 0.591632 0.000644036
0.271067 -0.176912 0.603183 0.0010344
0.12947 0.686232 0.575806 0.00626898
0.115115 0.694522 0.58676 0.000115826
0.133476 0.682062 0.587298 0.000864205
0.119364 0.690307 0.598222 0.00529353
-0.681174 -0.188778 0.0831683 0.00159001
-0.683535 -0.20605 0.0897716 0.00109164
-0.676362 -0.180751 0.10884 0.00224045
-0.678432 -0.198079 0.116445 0.00134497
0.286858 0.612827 0.257481 0.00143541
0.27193 0.612145 0.276154 0.00121371
0.288164 0.592815 0.272671 0.00174212
0.274527 0.590588 0.291759 0.000207788
0.593358 -0.372037 0.252468 0.00286024
0.585871 -0.385843 0.262492 0.00379831
0.582643 -0.35955 0.271644 0.000750017
0.575749 -0.373548 0.280829 0.000127581
-0.147186 0.164717 0.366615 0.00902451
-0.16317 0.184283 0.370997 0.00577109
-0.134625 0.175282 0.386308 0.000276309
-0.151513 0.195305 0.391232 0.00175286
0.161092 0.10563 -0.274334 0.00107532
0.145683 0.109128 -0.258327 0.000987635
0.177273 0.100879 -0.254892 1.83634e-06
0.161403 0.104208 -0.239187 0.000211889
-0.293324 0.0767985 0.147392 0.00537673
-0.308182 0.0640366 0.161127 0.00123419
-0.285455 0.0807435 0.171253 0.00197818
-0.298825 0.0659244 0.18357 0.00161165
-0.450961 -0.192508 0.487878 0.00131997
-0.457842 -0.210127 0.48887 0.00154332
-0.437639 -0.195021 0.504493 0.000532822
-0.445037 -0.212462 0.505539 0.000232008
0.179169 0.603122 0.380893 0.00126054
0.169197 0.60219 0.398772 0.000665333
0.181166 0.591507 0.399141 0.000516104
0.170874 0.591727 0.418168 0.000293139
0.217165 0.62092 -0.167893 0.00155768
0.218053 0.595023 -0.175292 0.000130003
0.22901 0.633429 -0.147859 0.000181725
0.230027 0.608252 -0.155884 0.000654575
-0.170461 0.15384 -0.81626 0.000207392
-0.195974 0.166336 -0.79956 0.00167581
-0.155551 0.18289 -0.81385 0.000751624
-0.177878 0.189633 -0.799005 0.000729576
0.154293 0.291762 -0.754369 0.00269379
0.135444 0.306234 -0.745667 0.00413932
0.167622 0.289671 -0.737416 0.00117234
0.150465 0.303558 -0.726191 0.00118178
0.311074 -0.27748 -0.744412 0.00129333
0.302897 -0.292165 -0.742733 0.00010054
0.327189 -0.287403 -0.729011 0.00167237
0.3185 -0.30274 -0.727883 0.000633823
0.280304 0.377529 0.407096 0.000182059
0.272292 0.364113 0.41386 0.000264086
0.272779 0.389496 0.425191 0.00111635
0.26466 0.376109 0.432325 0.0011998
0.0292822 0.359098 -0.26688 0.000536079
0.0138788 0.341417 -0.25937 0.000329167
0.0521186 0.351657 -0.265081 0.00153139
0.0351195 0.33555 -0.257538 6.4754e-05
-0.298584 0.229048 0.0657811 0.00227856
-0.316227 0.251033 0.0782209 0.000218969
-0.298102 0.221244 0.0882858 0.00171258
-0.315295 0.242215 0.101596 0.00085879
0.360473 0.0274514 -0.0925946 0.000644741
0.349462 0.0306574 -0.0769588 0.00197876
0.375969 0.0189937 -0.0786151 0.000564493
0.365664 0.0218076 -0.0623541 0.00153602
0.0235498 0.394602 0.696551 0.000634173
0.00674393 0.399164 0.700759 0.000960175
0.0380137 0.403581 0.704921 6.65071e-05
0.0227258 0.404027 0.709328 0.00126266
0.653737 -0.194068 -0.261618 0.000538306
0.654804 -0.215563 -0.254725 0.00259966
0.659101 -0.194747 -0.242742 0.000938429
0.66296 -0.213935 -0.232876 0.000566488
-0.230908 -0.563591 0.574021 0.00406365
-0.246273 -0.54726 0.586194 0.00389585
-0.218025 -0.564685 0.59548 0.0038073
-0.233328 -0.545337 0.608375 0.00364474
-0.0111788 0.0348451 0.521632 0.000861417
-0.0190363 0.0156825 0.543978 0.00186978
0.00482752 0.0204315 0.53784 0.00132713
-0.00260767 0.00113232 0.560249 0.0018325
0.183236 0.0395274 0.442382 0.000809399
0.170098 0.0365984 0.459322 0.000282671
0.194753 0.0202231 0.457497 0.00362758
0.181886 0.0162216 0.476139 0.00260013
0.183334 -0.0414251 0.554187 0.00184482
0.173221 -0.0517431 0.568946 0.00111641
0.190542 -0.0593334 0.563823 0.00153149
0.17963 -0.0695088 0.578398 0.00243833
0.000681073 0.18744 -0.177341 0.0158129
-0.0178891 0.183531 -0.175038 0.0181481
0.0263528 0.191796 -0.156021 0.00853963
0.0081643 0.18765 -0.154337 0.00553802
-0.282777 -0.378883 -0.30287 0.000959864
-0.294434 -0.383482 -0.283994 0.000763239
-0.277516 -0.380053 -0.282669 0.00205683
-0.28924 -0.385497 -0.261771 0.000811838
-0.564753 0.00965518 -0.186201 0.000857359
-0.579233 8.05929e-05 -0.165603 0.00146247
-0.550934 0.0133684 -0.164351 0.00116394
-0.564551 0.00507318 -0.141805 0.000875714
-0.684401 -0.19651 -0.190915 0.0014408
-0.688849 -0.209767 -0.181755 0.00131127
-0.687419 -0.187721 -0.169979 0.00110206
-0.691511 -0.199793 -0.161241 8.73766e-05
0.480623 -0.421197 -0.432805 0.00387957
0.469362 -0.426054 -0.416528 0.00371617
0.492729 -0.423381 -0.410962 0.00378486
0.481004 -0.429645 -0.395857 0.00313762
0.416329 -0.145965 0.444622 0.00276509
0.404715 -0.148106 0.459413 0.0012567
0.420111 -0.170034 0.455871 0.00151669
0.407563 -0.17276 0.472169 0.00263182
0.338796 -0.537245 0.173427 0.000719607
0.325015 -0.537246 0.186978 0.000516735
0.353195 -0.545607 0.191326 0.00185471
0.338057 -0.544911 0.20606 0.000178203
0.23656 0.210224 0.339912 0.000957253
0.22127 0.203145 0.351425 0.0023638
0.235125 0.22681 0.353181 0.000550672
0.219022 0.218923 0.365115 0.00151001
-0.0129673 0.470806 0.598431 0.00217994
-0.0224739 0.45415 0.614059 0.00533928
-0.000231986 0.462121 0.611851 0.00103932
-0.00964695 0.447139 0.626043 0.00567585
-0.247896 -0.0808089 0.570218 0.00137683
-0.266856 -0.0990396 0.576315 0.00106023
-0.222308 -0.0779226 0.584396 0.000319743
-0.239887 -0.09335 0.591971 0.00238323
-0.197565 0.590587 -0.172026 0.00114657
-0.215238 0.578874 -0.160609 0.00065609
-0.193272 0.620868 -0.167946 0.00265841
-0.209308 0.606935 -0.158488 0.0027636
0.147785 0.303593 -0.746106 0.000907547
0.129634 0.316963 -0.735673 0.000337706
0.153618 0.300516 -0.729534 7.72735e-06
0.137451 0.313909 -0.718744 0.00359619
-0.25691 0.326679 0.396805 0.000696414
-0.264676 0.321629 0.381659 0.00208771
-0.239677 0.322337 0.419026 0.00265798
-0.248249 0.318852 0.404755 0.00139063
-0.00525471 0.280923 -0.64186 0.00272419
-0.0157607 0.262684 -0.624197 0.000228393
0.0133879 0.272982 -0.634237 0.000302356
0.00241878 0.256288 -0.617755 0.00226367
0.555588 -0.388323 -0.355359 0.000147942
0.543938 -0.39939 -0.348136 0.00319067
0.565795 -0.391915 -0.336279 0.00440273
0.554554 -0.403359 -0.329171 0.00192717
0.377083 0.0105885 0.105391 0.00172583
0.365711 0.0174532 0.122021 0.00118002
0.388608 0.00240261 0.126151 0.00054437
0.379045 0.0084251 0.143018 0.000376542
-0.214091 0.62335 -0.150006 0.00554188
-0.227476 0.6063 -0.141818 0.00427168
-0.213171 0.641409 -0.137854 0.0025717
-0.225495 0.623262 -0.131076 0.00117981
-0.230828 -0.265133 0.68951 0.00703288
-0.235194 -0.288465 0.691417 0.00413064
-0.21479 -0.273214 0.698327 0.000905079
-0.220401 -0.295017 0.698949 0.000541522
0.159547 -0.21709 -0.838742 0.00064571
0.147035 -0.239535 -0.832654 0.000994312
0.18046 -0.229769 -0.828277 0.000263446
0.167901 -0.25172 -0.82235 0.00131567
-0.44187 0.00955416 0.0303585 0.000659057
-0.455273 0.00291695 0.0448517 0.00221141
-0.429811 0.0106862 0.0470988 0.00191943
-0.442838 0.00447096 0.0619412 0.00192456
-0.208883 -0.356512 0.707935 0.00105105
-0.217187 -0.379299 0.702021 0.000975472
-0.183255 -0.353164 0.718188 0.00152233
-0.19271 -0.375972 0.712133 0.00101771
0.358778 -0.00534921 0.272033 0.00192338
0.347307 -0.00215521 0.291454 0.00217087
0.37034 -0.017269 0.285584 0.000987905
0.358995 -0.0141359 0.304881 0.000555934
-0.130013 0.876368 0.120721 0.00453604
-0.138239 0.860042 0.137841 0.00242402
-0.113025 0.878581 0.134722 0.00128541
-0.120483 0.862824 0.151166 0.00597707
0.165022 0.188044 -0.125034 0.0013783
0.154086 0.168832 -0.1235 0.00448718
0.180114 0.182255 -0.10958 0.00154025
0.168705 0.163149 -0.10605 0.00294341
-0.352013 -0.560094 0.397685 0.000407258
-0.373186 -0.55782 0.408999 0.00352828
-0.338283 -0.565087 0.411961 0.00202737
-0.358576 -0.561556 0.424614 0.00377995
0.123374 -0.39722 -0.223753 0.000658571
0.108458 -0.398528 -0.210984 0.000793913
0.137106 -0.403562 -0.205424 0.00108641
0.122306 -0.404795 -0.192953 0.00043711
0.412281 -0.12801 0.428273 0.00130225
0.401922 -0.130385 0.443654 0.000817538
0.413469 -0.148996 0.441797 0.00221973
0.402102 -0.1517 0.456879 0.0037137
0.061988 -0.376517 -0.710386 0.000199066
0.0501077 -0.377165 -0.698793 0.000354641
0.0757656 -0.3788 -0.693763 3.59517e-05
0.0630881 -0.379935 -0.683118 0.00192928
0.264 -0.157822 -0.813731 0.00102241
0.254492 -0.173746 -0.812903 0.00094898
0.28224 -0.164263 -0.806177 0.00387804
0.272341 -0.179521 -0.805565 0.000880176
0.291947 0.0663694 -0.376774 0.000312166
0.280545 0.0683436 -0.362449 0.000290306
0.303967 0.0624074 -0.358831 0.000293061
0.293248 0.0643502 -0.345999 0.000786573
-0.181782 0.318559 0.467471 0.00292877
-0.195511 0.331666 0.469727 0.0011541
-0.175103 0.326359 0.487614 0.000735177
-0.18942 0.342754 0.493103 0.000974853
0.479706 -0.361948 0.450565 0.000438046
0.473701 -0.381674 0.457873 0.000247787
0.469401 -0.347404 0.466005 0.000149243
0.463608 -0.366002 0.473038 0.000335478
0.206556 -0.265182 -0.805316 6.86488e-05
0.194817 -0.281649 -0.801256 0.000144876
0.223825 -0.276796 -0.793167 0.000862599
0.212549 -0.291295 -0.78934 0.000465524
-0.43977 -0.439338 -0.0694251 0.000515692
-0.450153 -0.445627 -0.0505421 1.19595e-06
-0.421425 -0.446939 -0.0431641 0.00208874
-0.432077 -0.45274 -0.0247449 0.0020014
-0.0150426 -0.109531 0.682407 0.00277095
-0.0219378 -0.121806 0.690564 0.000636104
0.0018712 -0.121934 0.691541 0.000162017
-0.00607626 -0.134174 0.699317 0.00324449
-0.0448905 -0.115515 0.684298 0.00215741
-0.0514312 -0.129147 0.690547 0.000557756
-0.0315739 -0.130649 0.694815 0.0014732
-0.0380953 -0.143866 0.701155 0.00242988
-0.189417 0.113102 -0.0586354 0.0011788
-0.201687 0.109349 -0.0495541 0.00344311
-0.187408 0.124975 -0.0408898 0.00325669
-0.198984 0.121808 -0.0324535 0.000489447
-0.666812 -0.131476 -0.223646 0.00136649
-0.675776 -0.147371 -0.210428 0.000438631
-0.66887 -0.125347 -0.205383 0.000110913
-0.678017 -0.14101 -0.191946 0.00304348
0.397415 -0.230074 -0.700826 0.000759536
0.388774 -0.244852 -0.701088 0.00194543
0.412131 -0.231599 -0.689309 0.000827156
0.404148 -0.24683 -0.689873 0.000185278
-0.0438158 0.116896 -0.20927 0.000479509
-0.0645553 0.114871 -0.19829 0.000355557
-0.0343948 0.115932 -0.192754 0.00109931
-0.0545516 0.114507 -0.182129 0.000452032
0.386536 -0.0883524 -0.734885 5.50152e-05
0.386539 -0.107947 -0.73961 0.00374834
0.404032 -0.0804069 -0.715679 0.00139742
0.40405 -0.100664 -0.720273 0.0018216
0.0979813 0.23111 -0.618487 0.00440432
0.087719 0.222655 -0.605914 0.000316973
0.114425 0.216114 -0.608765 0.00259522
0.103436 0.208113 -0.595494 0.00097427
0.144778 0.622184 0.435367 0.00759005
0.134895 0.624615 0.460001 0.00299326
0.14764 0.609035 0.452718 0.00233581
0.137121 0.615078 0.479238 0.00779131
0.237798 0.625809 0.30906 0.00163254
0.225786 0.61748 0.326476 0.00170597
0.242848 0.606008 0.321524 0.000690471
0.23051 0.597067 0.339369 0.000140957
-0.189782 0.171436 0.337717 0.00693583
-0.204049 0.18944 0.339148 0.00282617
-0.174906 0.177475 0.360064 0.00247706
-0.190397 0.197487 0.363089 0.00105138
0.558621 -0.342559 -0.421421 0.000165439
0.550045 -0.357549 -0.413975 0.00302588
0.569687 -0.346059 -0.401773 0.00237451
0.561709 -0.36066 -0.39495 5.79114e-05
-0.538237 0.0233365 -0.344512 0.0022153
-0.550058 0.0170689 -0.329408 0.000225742
-0.532015 0.0290055 -0.318891 0.00249171
-0.544457 0.0220358 -0.303507 0.00187645
-0.416766 0.0400396 -0.255301 0.000729853
-0.428735 0.0348985 -0.239535 0.00142816
-0.405962 0.0410683 -0.232551 0.00168966
-0.418146 0.0351632 -0.218663 0.00253857
0.676194 -0.32594 -0.0387094 0.000238603
0.669792 -0.342374 -0.0333305 0.000726687
0.680558 -0.31546 -0.0178151 0.00315672
0.674703 -0.332485 -0.0132877 0.00185595
-0.19943 -0.0647405 0.57919 0.00229825
-0.216293 -0.0795513 0.587838 0.000875425
-0.178524 -0.0672855 0.592809 0.00142766
-0.193692 -0.0806367 0.601297 0.000565671
-0.344929 -0.368971 0.616758 0.00188766
-0.346511 -0.392859 0.610221 0.00194832
-0.330156 -0.369665 0.628636 2.0065e-05
-0.331946 -0.392786 0.622745 0.000486003
0.439288 -0.455904 -0.209438 4.90191e-05
0.426319 -0.454948 -0.195401 4.09159e-05
0.453869 -0.464926 -0.193306 0.00159365
0.440703 -0.463575 -0.179718 0.00168677
0.470414 -0.565747 0.205325 0.000168788
0.460683 -0.568424 0.220698 0.000196412
0.476721 -0.566334 0.224333 0.00681193
0.466911 -0.568911 0.238671 0.00537937
0.297262 0.0353948 0.286352 0.00301629
0.286472 0.0419846 0.301303 0.000921265
0.302754 0.0258426 0.298873 0.00481848
0.290551 0.0319758 0.313874 0.00388714
0.55 -0.413402 0.31839 0.00119298
0.540978 -0.424741 0.328483 0.00125121
0.542058 -0.402381 0.337936 0.0012461
0.533542 -0.413624 0.348341 0.000659438
0.616932 -0.351756 -0.270007 0.0003541
0.609945 -0.36686 -0.262393 0.000373621
0.628034 -0.347907 -0.248833 0.00143896
0.621029 -0.362171 -0.243129 0.00159654
-0.350428 -0.233207 0.597671 0.0023735
-0.357763 -0.256898 0.600083 0.00197341
-0.338771 -0.233285 0.605694 0.00192377
-0.34507 -0.258672 0.608718 0.000652955
0.4262 0.0278937 -0.626745 0.00417153
0.417593 0.0499094 -0.613043 0.00175126
0.434741 0.030081 -0.605671 0.000942855
0.426528 0.050121 -0.589927 0.000489554
0.0269111 0.00278189 0.562478 0.00239577
0.0202446 -0.0144442 0.582683 0.00177877
0.0394794 -0.0122667 0.574633 0.000183421
0.0329357 -0.0284074 0.593836 0.0018125
-0.284444 -0.290562 -0.756712 0.000152502
-0.297114 -0.300797 -0.742174 0.000508066
-0.276458 -0.311636 -0.747608 0.00120973
-0.288768 -0.322311 -0.732418 0.000960827
0.00910804 0.327859 -0.681374 0.000906785
-0.000605791 0.314022 -0.665677 0.000193342
0.0278824 0.315463 -0.671255 0.00168344
0.0162117 0.302026 -0.656435 0.000127993
-0.167902 -0.171327 0.687982 0.00130651
-0.178377 -0.185254 0.691574 0.000112907
-0.155116 -0.173324 0.695754 0.00301958
-0.166808 -0.186993 0.698566 0.00280676
-0.0726277 0.64319 0.444526 0.00108472
-0.0936752 0.647655 0.474912 0.0107611
-0.0591125 0.649691 0.465385 0.00306711
-0.0802548 0.654745 0.494841 0.00423592
0.359452 -0.464727 -0.0907331 0.000344174
0.342723 -0.46301 -0.0819146 0.000944638
0.376327 -0.473936 -0.0794072 0.00174941
0.359712 -0.472491 -0.07062 0.00147029
0.255493 -0.0661672 0.529564 0.00145987
0.242177 -0.0731072 0.54547 0.00243733
0.270339 -0.0801103 0.537915 0.00139319
0.257565 -0.0877866 0.552597 0.00083171
0.423309 -0.0797321 0.327545 0.00166044
0.409794 -0.0788748 0.349152 0.00239569
0.428916 -0.0918053 0.347018 0.000269319
0.415091 -0.0914313 0.368911 0.00092569
0.0704846 -0.236122 -0.850783 0.00265059
0.0548964 -0.255644 -0.845347 0.00281229
0.0903019 -0.25109 -0.841598 0.000312974
0.0764557 -0.270051 -0.836455 0.00360051
-0.335084 0.483088 0.00576484 0.0019089
-0.338096 0.458805 0.014935 0.0053563
-0.336354 0.489077 0.0300919 0.00120493
-0.341381 0.471146 0.040725 0.00220034
0.637598 -0.214926 -0.318413 0.0001921
0.635216 -0.236206 -0.320037 0.000537989
0.646131 -0.202819 -0.303914 0.00265952
0.644581 -0.225403 -0.302991 0.0012428
-0.151988 0.213932 -0.591039 0.000410524
-0.166995 0.203373 -0.581078 0.00151252
-0.13026 0.206005 -0.578615 0.0010361
-0.144159 0.195288 -0.567886 0.00252773
-0.204601 0.153896 -0.531634 0.00204958
-0.211194 0.143456 -0.514262 0.000810364
-0.19439 0.146487 -0.514119 0.000851335
-0.200817 0.136091 -0.497157 0.00157196
-0.426591 -0.527922 0.427482 0.000163267
-0.442386 -0.513383 0.433642 0.000936293
-0.413842 -0.52781 0.442074 0.00187141
-0.431109 -0.513243 0.448277 7.46953e-05
0.0306487 0.188097 0.427497 0.00100003
0.015212 0.197113 0.429284 0.00430468
0.0515175 0.188791 0.433095 0.00574724
0.0348085 0.199636 0.435682 0.00119348
0.323958 0.108759 -0.542493 0.000145605
0.30816 0.109549 -0.528846 0.000532499
0.341974 0.0938632 -0.52599 0.00212605
0.326672 0.0947437 -0.513112 0.00176182
-0.00196134 -0.595451 0.614903 0.000335668
-0.0207575 -0.58867 0.621829 0.000390271
0.0101675 -0.577246 0.63302 0.000753638
-0.00840588 -0.569857 0.640509 0.00133285
0.643469 -0.219876 0.145845 0.00103191
0.628184 -0.20802 0.163378 0.00314774
0.63565 -0.228239 0.166857 0.000672446
0.622998 -0.223087 0.182416 0.00396676
0.135487 0.0397363 -0.867961 0.000594796
0.128235 0.0177007 -0.871719 0.00148504
0.155165 0.0268581 -0.863981 0.00122815
0.148003 0.00400286 -0.868006 0.00209322
-0.337941 0.0486919 -0.0152142 0.000297362
-0.353258 0.0412089 -0.000634647 0.00159103
-0.325924 0.0547724 0.00762451 0.00279986
-0.341194 0.0469177 0.0224999 0.00052918
0.220963 0.151297 0.303797 0.00181808
0.208442 0.148352 0.321642 0.00163555
0.21426 0.165236 0.323238 8.76613e-05
0.200973 0.162167 0.340616 0.00242802
0.151887 0.299513 -0.753516 0.00126863
0.133355 0.312722 -0.742649 0.00052901
0.160134 0.299779 -0.737363 0.00376149
0.143669 0.313007 -0.726678 0.00514753
0.459274 -0.391203 -0.498386 0.00191518
0.450843 -0.403609 -0.491396 0.000603366
0.473123 -0.393082 -0.482694 0.000379059
0.464148 -0.406109 -0.476292 0.00135923
0.155664 0.645466 0.364832 0.00410068
0.146679 0.63819 0.382045 8.84144e-05
0.162243 0.626121 0.37787 0.00152834
0.152447 0.623779 0.395451 0.00279026
-0.0580681 -0.37102 -0.675062 0.000219561
-0.0752306 -0.369806 -0.661352 0.000449616
-0.0457409 -0.371956 -0.648865 0.00108017
-0.0625483 -0.370442 -0.634622 0.000775601
0.210985 0.403923 -0.216438 0.000586091
0.204914 0.380733 -0.215636 0.00243993
0.230798 0.405986 -0.205721 0.00191474
0.225337 0.383245 -0.206117 0.00137446
-0.324856 -0.224597 -0.761604 0.00153582
-0.341383 -0.229992 -0.748858 0.00111232
-0.312972 -0.240037 -0.762354 0.00068444
-0.329369 -0.245618 -0.749648 0.00012124
-0.402919 -0.554585 0.376847 0.00046168
-0.421913 -0.55766 0.388083 0.0087292
-0.38516 -0.556761 0.38885 0.00187816
-0.40612 -0.558162 0.399957 0.00564743
0.0192468 0.504062 0.563198 0.00100629
0.000164971 0.503306 0.564883 0.00181841
0.042521 0.510417 0.56769 0.00375204
0.0221659 0.512233 0.568893 0.00427479
-0.630385 -0.18156 -0.355783 0.00201978
-0.632667 -0.205743 -0.350818 0.00129583
-0.640136 -0.173049 -0.334236 0.00188889
-0.644218 -0.195761 -0.328204 0.00141098
-0.351712 -0.0892304 0.494278 0.00185908
-0.36687 -0.102255 0.500753 0.002802
-0.330759 -0.0941473 0.516257 0.0032101
-0.346231 -0.108511 0.522747 0.00100707
0.203969 0.228015 -0.656177 0.00293837
0.191615 0.227143 -0.640606 0.000313692
0.217186 0.213282 -0.642894 0.00265378
0.204372 0.211803 -0.627568 0.00198693
-0.259816 0.103825 0.152499 0.00385476
-0.274106 0.088851 0.164402 0.000762031
-0.25611 0.103518 0.179246 0.00644257
-0.269791 0.0882987 0.191035 0.00212905
0.473949 -0.010521 -0.101106 0.00324639
0.466025 -0.0094822 -0.0802715 0.00484861
0.483518 -0.0189074 -0.077706 0.00334742
0.475615 -0.0179887 -0.0570486 0.0001858
0.272029 -0.194267 -0.802517 0.00089872
0.262701 -0.210707 -0.80153 0.000577991
0.290973 -0.192412 -0.791731 0.000766763
0.282153 -0.209371 -0.790585 0.00148034
-0.0897589 0.451927 0.644302 0.000389614
-0.104517 0.441365 0.649349 0.00519119
-0.0698639 0.444722 0.656132 0.0014367
-0.0881508 0.443392 0.660254 0.00207706
-0.285152 -0.0471898 -0.802539 0.00328565
-0.306187 -0.0521757 -0.787746 0.00189758
-0.282761 -0.0174048 -0.801342 0.00360692
-0.30706 -0.0198907 -0.783638 0.00198717
-0.591087 -0.108363 0.216027 0.00236639
-0.605046 -0.125982 0.222601 0.00193624
-0.5773 -0.106897 0.231715 0.00366557
-0.591262 -0.124105 0.237487 0.00124382
-0.487943 -0.385605 -0.471959 0.00126389
-0.497515 -0.38692 -0.459548 0.002776
-0.48203 -0.395624 -0.454949 0.000945878
-0.491738 -0.396864 -0.442265 0.00142014
0.630279 -0.350331 -0.238303 0.00071872
0.623367 -0.364027 -0.233156 0.00220644
0.640823 -0.341279 -0.219907 0.000211957
0.633933 -0.354649 -0.215045 0.00373118
-0.0398251 0.767928 0.340443 0.00266976
-0.0500594 0.748105 0.350342 0.00044908
-0.0211475 0.761525 0.350984 0.00424675
-0.0323451 0.741033 0.363944 0.00345638
0.570852 -0.476149 0.157546 0.00257676
0.561009 -0.486726 0.164706 0.00254607
0.574773 -0.461927 0.173203 0.00065171
0.564727 -0.47281 0.180875 0.00156494
-0.118113 -0.211164 0.714284 0.000930051
-0.132545 -0.223908 0.71565 0.00342739
-0.098237 -0.214602 0.715422 0.00262406
-0.111828 -0.2273 0.717998 0.00177466
0.535995 -0.410353 -0.358686 0.00172663
0.523475 -0.420984 -0.349915 0.00183238
0.548992 -0.410477 -0.341946 0.00596678
0.537064 -0.421073 -0.334206 0.00228389
-0.255448 0.175498 -0.590196 0.00519959
-0.265458 0.165124 -0.574233 0.00196695
-0.244124 0.17013 -0.570773 0.00187535
-0.252818 0.159068 -0.553913 0.00108356
0.187708 -0.38505 -0.68971 0.00258307
0.177408 -0.392096 -0.67411 0.0048739
0.202973 -0.389266 -0.674932 0.000189
0.193804 -0.397353 -0.658679 0.00803975
0.609317 -0.0932554 -0.299759 0.00126365
0.606087 -0.0905956 -0.287296 0.00519685
0.618787 -0.100329 -0.281947 0.000878146
0.612981 -0.0929187 -0.266827 0.00211953
-0.249836 0.387986 0.439892 0.00073596
-0.250311 0.369969 0.433085 0.00110102
-0.241945 0.395416 0.455664 0.00233344
-0.242848 0.376728 0.450635 0.00221404
0.459577 -0.0393156 0.143849 2.05341e-05
0.450457 -0.0388277 0.162803 0.00203408
0.471095 -0.0483119 0.160337 0.00103518
0.461687 -0.047879 0.178134 0.00186151
-0.599342 -0.320807 -0.377071 3.69561e-06
-0.606772 -0.32524 -0.357158 0.00129709
-0.598775 -0.34395 -0.36159 0.00182427
-0.607105 -0.34904 -0.341659 0.00478456
0.262229 -0.615126 0.470427 0.000747643
0.246884 -0.615843 0.483715 0.000534403
0.272723 -0.606997 0.493353 0.00147204
0.256916 -0.609174 0.503831 0.00137557
-0.0436372 -0.120569 -0.874484 0.000914507
-0.0621056 -0.146322 -0.867984 0.00267744
-0.0174477 -0.124985 -0.880247 0.0039309
-0.0352508 -0.152177 -0.873408 0.00134772
-0.321666 0.523317 0.174618 0.00171372
-0.325529 0.508692 0.185405 9.01349e-06
-0.314634 0.527071 0.198161 0.000395961
-0.318656 0.512707 0.209797 0.00121681
0.605204 -0.0804625 -0.120898 0.00128188
0.599131 -0.0730808 -0.105816 0.000537216
0.609364 -0.0889212 -0.101095 0.0050257
0.603542 -0.0816861 -0.0874301 0.00443661
0.352634 -0.165521 -0.761622 0.0042214
0.345737 -0.186724 -0.759159 0.00148115
0.367554 -0.170675 -0.74686 0.00232541
0.361094 -0.189111 -0.74432 0.000647075
0.123263 0.110294 -0.274223 0.00119154
0.107913 0.114447 -0.258778 0.000401169
0.133181 0.108801 -0.249095 0.00171527
0.118475 0.112479 -0.233429 0.00192863
-0.513258 -0.298312 -0.548095 0.00262808
-0.52689 -0.288953 -0.533819 0.00188582
-0.512414 -0.312439 -0.53372 0.00102842
-0.525112 -0.304723 -0.519612 0.00182028
0.271007 0.755502 0.0447415 0.00122891
0.266453 0.766557 0.0596081 0.000564542
0.274896 0.745952 0.0681134 0.00132053
0.269842 0.755549 0.0831728 0.0024551
0.52477 -0.478183 0.314199 0.00132678
0.513876 -0.488475 0.322432 0.0010454
0.523067 -0.462777 0.334176 0.000647764
0.512207 -0.473331 0.342047 0.000177324
0.368223 -0.349689 0.572198 0.00162507
0.357365 -0.367147 0.579897 0.00206425
0.368672 -0.344037 0.576381 0.00172225
0.357556 -0.361501 0.58391 0.000635126
-0.184387 0.387105 -0.213346 0.00153276
-0.195958 0.378301 -0.200996 0.00167782
-0.176417 0.367976 -0.213786 0.00137142
-0.187459 0.358605 -0.20148 0.000295183
-0.40182 -0.184349 0.528199 0.000672275
-0.413146 -0.200298 0.527505 0.00101018
-0.382321 -0.180528 0.543591 0.000348385
-0.394186 -0.196061 0.543592 0.000737262
0.27014 -0.564416 0.30093 0.0036657
0.25885 -0.569228 0.32091 0.00409618
0.285341 -0.569756 0.32047 0.00140176
0.274404 -0.576304 0.342063 0.00366345
-0.443442 -0.411501 -0.216409 0.00123196
-0.454197 -0.415883 -0.196848 0.00113363
-0.433432 -0.413863 -0.189624 0.000166753
-0.442808 -0.419484 -0.17143 0.00103809
0.370991 0.485543 0.150043 0.0014821
0.365242 0.49067 0.171929 0.000501263
0.370313 0.480891 0.1788 0.00191064
0.368676 0.474155 0.195732 0.000983092
-0.697375 -0.191702 -0.0587117 0.000787159
-0.69875 -0.205893 -0.0497794 0.000359156
-0.696224 -0.184896 -0.0388765 0.000197739
-0.698178 -0.198428 -0.0295884 0.000618184
-0.0329998 0.340329 0.604559 0.000377972
-0.0530571 0.347218 0.60751 0.00153426
-0.0145106 0.342266 0.617028 0.00296992
-0.0352412 0.349498 0.619802 0.000285788
0.287887 0.0608918 -0.118462 0.000424846
0.277277 0.0702883 -0.10228 0.00568607
0.30249 0.0507978 -0.0954251 0.00288713
0.291934 0.0611701 -0.0800472 0.00243392
0.0273247 0.85477 -0.120659 0.0032563
0.00751876 0.858089 -0.118032 0.003549
0.0451756 0.865919 -0.105038 3.46546e-05
0.0254974 0.869596 -0.103347 0.000190537
-0.587022 -0.207551 -0.443445 0.000244572
-0.595267 -0.213197 -0.43109 0.00249683
-0.595995 -0.205258 -0.422511 0.00220567
-0.603779 -0.212742 -0.410949 0.00148113
-0.479634 -0.532746 0.263904 0.00448672
-0.494502 -0.537938 0.280727 0.0127568
-0.461123 -0.534042 0.279821 0.000220193
-0.476279 -0.539219 0.296386 0.00817245
-0.0257394 0.920226 -0.044609 0.00132822
-0.0436275 0.921463 -0.0343131 0.000480783
-0.00994695 0.92865 -0.0307742 0.00138171
-0.0276139 0.929464 -0.0209889 0.00237076
0.547645 -0.0492982 0.0534821 0.00320298
0.536428 -0.0460933 0.0675243 0.00234592
0.556171 -0.0568554 0.0650084 0.00274389
0.544998 -0.0538842 0.0796594 0.00165488
0.347221 0.119243 -0.634599 0.00559304
0.336628 0.128078 -0.621111 0.00161884
0.352836 0.114716 -0.615364 0.00141541
0.343153 0.122113 -0.601034 0.00244735
-0.441186 0.0434523 -0.29723 0.00385199
-0.452683 0.0371382 -0.277667 0.00599835
-0.430763 0.0441605 -0.26927 0.00401091
-0.442145 0.0382758 -0.252507 0.0015612
0.502302 -0.0194253 -0.53703 0.00255458
0.498567 -0.00513949 -0.526248 0.00012103
0.509967 -0.0185243 -0.514046 0.00158125
0.505503 -0.00637532 -0.50287 0.00385894
0.0697263 0.74381 -0.190034 0.00140336
0.0461619 0.756003 -0.191886 0.00473514
0.0916051 0.751063 -0.176639 0.00225729
0.0681345 0.763957 -0.178552 0.000781995
0.296437 0.666526 -0.00344141 0.00252286
0.29605 0.673045 0.0117604 0.0010962
0.301566 0.660159 0.0227419 0.00068581
0.299554 0.669421 0.0391298 0.00201391
0.192895 0.101796 -0.455699 0.000240413
0.177355 0.0997402 -0.439617 0.000927396
0.213542 0.0916804 -0.436372 0.00101937
0.197948 0.090748 -0.421712 8.7309e-05
-0.367521 0.0333868 0.0535751 0.00244091
-0.381635 0.0259339 0.0701442 0.00382635
-0.354529 0.0406251 0.0784084 0.000242389
-0.369647 0.0316365 0.0951657 0.00206829
0.431457 -0.0377428 0.195824 0.000662618
0.422445 -0.0364828 0.211809 0.00150306
0.441506 -0.0517244 0.216269 0.00306792
0.432137 -0.0513992 0.232205 0.00487852
0.231732 0.7411 -0.0774368 0.00124679
0.225449 0.756394 -0.0763355 0.000153077
0.242806 0.745656 -0.0579242 4.18268e-05
0.237995 0.761224 -0.0507703 0.00107761
-0.196072 0.598142 0.351294 0.0077432
-0.207001 0.58502 0.355055 0.00483071
-0.186206 0.592928 0.372178 0.0040237
-0.197067 0.580851 0.375607 0.000684947
0.208474 0.0920113 -0.104114 0.000814752
0.200671 0.0963923 -0.0914356 0.00115386
0.215137 0.0947357 -0.0903828 0.00268602
0.208679 0.100967 -0.0759291 0.00258962
-0.0457803 0.455674 -0.270338 0.000689991
-0.055926 0.431452 -0.265561 0.00195684
-0.0229534 0.439873 -0.273669 0.000841896
-0.0339256 0.415729 -0.268285 0.00290307
-0.0694105 -0.398133 -0.0726754 0.00362027
-0.0794284 -0.406209 -0.0674225 0.000289256
-0.0544011 -0.399344 -0.059051 0.00370458
-0.0642955 -0.407459 -0.0534422 0.00599593
-0.615477 -0.0761254 0.102499 0.000688107
-0.625799 -0.0904644 0.112001 0.0018596
-0.604603 -0.0760587 0.123239 0.00115296
-0.61518 -0.0909229 0.133148 9.66137e-05
-0.301727 0.237515 0.0543229 0.00162026
-0.319368 0.259429 0.0667811 0.000532707
-0.299031 0.225834 0.0763472 0.0019309
-0.316606 0.247562 0.0891355 0.000663031
0.322788 0.0458344 0.0337986 0.0017856
0.311057 0.0575725 0.0489866 0.00229401
0.332903 0.0387475 0.0532785 0.00266798
0.320559 0.0494515 0.0689144 0.000363513
0.350621 0.0794899 -0.496126 0.00237063
0.335543 0.0803628 -0.482762 0.000931737
0.365426 0.0690605 -0.477507 0.00273068
0.347607 0.0708266 -0.465078 0.00124702
0.176909 0.723786 0.306519 0.000365035
0.166976 0.712112 0.325758 0.00247173
0.18176 0.700096 0.316897 0.00384485
0.17189 0.688151 0.336392 0.000610164
-0.266285 0.603611 -0.074117 0.000823874
-0.276067 0.583852 -0.0687651 0.0010296
-0.266091 0.61803 -0.0567118 0.000902493
-0.275371 0.5981 -0.0510446 0.00139754
-0.674998 -0.337411 0.067476 0.000512318
-0.678062 -0.328022 0.0832863 0.000926251
-0.673212 -0.336031 0.0864324 0.000124978
-0.671074 -0.335438 0.10006 0.000598701
0.369551 -0.457096 -0.131169 0.000430704
0.35372 -0.455123 -0.120174 0.000697622
0.386462 -0.466004 -0.119983 0.00211001
0.36993 -0.464099 -0.110019 0.00143955
-0.277637 -0.0143295 0.468806 0.00182839
-0.291376 -0.0302681 0.477594 0.000137921
-0.25046 -0.012446 0.485397 0.000186765
-0.268592 -0.0289241 0.490834 0.00221833
0.128451 -0.379798 -0.354184 0.000368636
0.11708 -0.379581 -0.340857 0.000413389
0.141807 -0.381945 -0.335432 4.16343e-05
0.130255 -0.382625 -0.324026 0.000834313
0.0988845 -0.549875 0.323921 0.000426356
0.0812821 -0.553622 0.338008 7.15924e-07
0.112124 -0.557052 0.342551 0.00267809
0.0949122 -0.560731 0.356536 0.00593255
-0.122366 0.292443 0.483643 0.00455411
-0.138886 0.309155 0.490463 0.00442817
-0.110988 0.298127 0.506545 0.0018147
-0.129471 0.315652 0.513082 0.00147618
-0.0575497 0.652934 0.454664 0.00357869
-0.0791582 0.658018 0.484708 0.0097516
-0.0436267 0.659003 0.474454 0.00429323
-0.0652227 0.663236 0.50323 0.00112563
-0.0792988 0.230062 0.44592 0.00082287
-0.106847 0.246916 0.44811 0.00472734
-0.0560006 0.231519 0.460324 0.00658941
-0.0833064 0.24805 0.462418 0.000488854
0.634894 -0.314529 -0.277015 0.000603681
0.628253 -0.330961 -0.271759 0.000235744
0.642618 -0.311794 -0.259833 0.000977756
0.638131 -0.32718 -0.252 8.20504e-05
-0.139117 0.755917 0.290571 0.000348453
-0.148009 0.73839 0.297871 0.000692489
-0.121003 0.758772 0.299078 0.00425564
-0.129302 0.741786 0.308178 0.000174906
-0.355583 0.104968 -0.498907 0.00240405
-0.366277 0.0966506 -0.484947 0.00513686
-0.346281 0.102571 -0.479662 0.00108514
-0.356917 0.0942163 -0.465986 0.00128414
-0.0235252 0.316052 -0.669043 0.00076327
-0.031005 0.296072 -0.648461 0.00129954
-0.00473497 0.305322 -0.657825 0.000424761
-0.0140026 0.285734 -0.638779 0.00204847
-0.316662 0.532326 0.0308317 0.00113626
-0.324015 0.519368 0.0403927 0.000144477
-0.319011 0.539383 0.0597347 0.00171681
-0.325874 0.526488 0.070183 0.00264942
0.309655 0.0526234 -0.0156341 0.00245487
0.299159 0.0643955 -0.00068736 0.00322616
0.3204 0.044961 0.00616361 0.00387897
0.308556 0.0568078 0.0208154 0.000386386
0.434757 -0.522516 0.0684433 0.000714485
0.414225 -0.523156 0.0796717 0.000180311
0.451135 -0.530452 0.0851131 0.00041586
0.431255 -0.53125 0.0964479 0.000513711
0.485056 -0.484718 -0.128486 0.00019849
0.468688 -0.483712 -0.117396 0.00051815
0.498581 -0.488326 -0.112306 0.00249142
0.482121 -0.487533 -0.101643 0.00155952
-0.197978 0.282714 0.429714 0.000638511
-0.214149 0.29768 0.420405 0.00352126
-0.180691 0.284973 0.446543 0.00135386
-0.196725 0.302058 0.44353 0.000282658
0.350277 0.510975 0.0218696 0.00100014
0.360831 0.488874 0.0303489 0.00240827
0.357494 0.498371 0.0448894 0.00068969
0.363447 0.486392 0.0567971 0.000869301
-0.315158 -0.334038 0.639985 0.000473699
-0.317983 -0.356828 0.636742 0.000534717
-0.295072 -0.342523 0.652188 0.000169117
-0.298603 -0.364419 0.651772 0.00261931
0.293613 0.710016 0.103008 0.00173917
0.287479 0.719506 0.121852 0.000374786
0.295889 0.694851 0.127654 0.000156773
0.289343 0.703321 0.148547 0.000926548
0.412081 0.0758568 -0.506713 0.000916223
0.399894 0.0813153 -0.494396 0.00357492
0.42224 0.0670896 -0.486236 0.00224607
0.409768 0.0731071 -0.473089 0.0026785
0.105338 0.145343 -0.12736 0.00144149
0.0967638 0.125802 -0.133247 0.000305183
0.123906 0.149808 -0.116357 0.00401008
0.116838 0.126715 -0.122699 0.000349006
-0.379396 -0.0752557 -0.733593 0.0014434
-0.394804 -0.0882648 -0.721301 0.00174023
-0.384969 -0.060011 -0.724983 0.000616476
-0.39779 -0.0752409 -0.715138 0.000683068
-0.25753 -0.370653 -0.392135 0.00186507
-0.270224 -0.371189 -0.377607 0.000140135
-0.245279 -0.372079 -0.369138 0.00214297
-0.257098 -0.37376 -0.352033 0.00120543
-0.00151566 -0.368512 -0.358315 0.00146009
-0.0257405 -0.370566 -0.34423 0.000233574
0.0151507 -0.374819 -0.336654 0.000805158
-0.00488094 -0.376672 -0.321097 0.00133967
-0.0359696 0.122033 0.422512 0.000462426
-0.0447729 0.106113 0.426239 0.00389592
-0.0143034 0.113716 0.430058 0.00150767
-0.0239351 0.100119 0.434503 0.00409842
0.409974 -0.428606 -0.415515 0.000252286
0.39718 -0.426226 -0.401029 0.000113815
0.423157 -0.434595 -0.392914 0.00127217
0.40857 -0.430952 -0.379215 0.00107459
0.362659 0.282786 0.0433466 0.000949842
0.359328 0.270635 0.0534003 0.000424334
0.368383 0.284512 0.060064 0.00047372
0.365474 0.271908 0.070924 0.00211201
0.104654 -0.399018 -0.213053 0.000379238
0.0900101 -0.399822 -0.199734 0.00105827
0.120437 -0.403913 -0.197721 0.000754439
0.105198 -0.404785 -0.18489 0.000374828
0.240448 0.657398 0.282644 0.00159273
0.228133 0.652769 0.298255 0.00318798
0.246854 0.634834 0.296772 0.00145685
0.234698 0.628439 0.312841 0.000511762
-0.00601937 0.356761 -0.7487 0.0029019
-0.0226473 0.35504 -0.736862 0.000172447
0.00277996 0.360051 -0.727915 0.000939184
-0.0126674 0.358391 -0.715677 0.00432449
0.388855 0.394923 0.124475 0.0017765
0.386424 0.381866 0.135467 0.00086399
0.388685 0.400372 0.149879 0.00156189
0.386107 0.385848 0.159248 0.000345383
0.25895 0.665839 -0.0842926 0.0038543
0.261914 0.644901 -0.0964316 0.00100507
0.269989 0.667779 -0.062244 0.00230913
0.276106 0.649754 -0.0707899 0.00127929
0.380511 0.458578 0.118667 0.00253242
0.382647 0.44447 0.133884 0.000702772
0.380333 0.453131 0.1476 0.00155747
0.381816 0.437195 0.161649 0.00127395
-0.237178 0.739077 0.00529727 0.000653137
-0.251563 0.717815 0.0124665 0.00314574
-0.232745 0.758845 0.0260957 0.000222406
-0.247327 0.738201 0.034101 0.00333331
-0.438069 0.0608712 -0.372976 0.00555326
-0.453153 0.0540795 -0.358128 0.00827959
-0.419061 0.0583136 -0.345869 0.000330016
-0.433953 0.0519051 -0.329972 0.00307463
0.0580138 0.539749 0.585058 0.000984932
0.0366014 0.543642 0.585255 0.000948888
0.0808931 0.554199 0.589412 0.00423456
0.0600983 0.555243 0.589633 0.00394933
-0.351344 0.069208 -0.220929 0.00459772
-0.368973 0.0576068 -0.212195 0.000730145
-0.331873 0.0726501 -0.207493 0.00281781
-0.350272 0.060911 -0.199203 0.0015914
-0.489227 -0.488157 0.391363 0.001113
-0.500027 -0.469932 0.396872 0.000133437
-0.479526 -0.488739 0.408998 0.0008909
-0.490608 -0.470231 0.41413 0.000164276
-0.0112516 0.148814 -0.864308 7.40473e-05
-0.0113031 0.119994 -0.869305 0.000303815
0.00958399 0.144689 -0.864281 0.00117817
0.0103792 0.115994 -0.870444 0.000679943
0.401223 0.0135349 -0.145412 0.00114603
0.388556 0.0164963 -0.13301 0.000863042
0.419239 0.00229108 -0.133009 0.000115318
0.407671 0.00454103 -0.118965 0.00182824
0.0611269 0.514732 0.567204 0.000267568
0.0412579 0.513151 0.56813 0.00253051
0.0837818 0.525061 0.574083 0.000692609
0.0650881 0.519138 0.573855 0.00327515
-0.0514987 0.239529 0.460636 0.000587105
-0.0782843 0.255614 0.462733 0.00527644
-0.0308291 0.246191 0.474274 0.00397399
-0.0573824 0.261611 0.478198 0.000851858
-0.630264 -0.422683 0.054195 0.00227418
-0.634406 -0.413251 0.0722679 8.39323e-05
-0.624613 -0.429457 0.0763735 0.00290993
-0.628477 -0.418874 0.0952944 0.000805215
-0.0194805 -0.619308 0.577964 0.0056256
-0.0369444 -0.611881 0.586093 0.00310768
-0.00546868 -0.609029 0.595077 0.00242894
-0.0240643 -0.601769 0.602494 0.000102467
-0.0712368 0.360411 -0.255901 0.00315269
-0.0836735 0.348576 -0.245238 0.000274344
-0.052618 0.339208 -0.252255 0.00208405
-0.0657529 0.327606 -0.242064 0.000953141
-0.188652 -0.486462 0.665362 0.00116685
-0.205117 -0.467168 0.668823 0.000303128
-0.170039 -0.4692 0.67998 0.000885148
-0.18599 -0.451651 0.682436 0.000722961
-0.653582 -0.253388 0.206851 0.00121629
-0.65255 -0.272346 0.211353 0.000700656
-0.644914 -0.252585 0.226999 0.0011081
-0.64417 -0.27159 0.231071 0.00130182
-0.582085 -0.0363256 0.0547814 0.00129794
-0.596176 -0.0472445 0.0636712 0.000375262
-0.569411 -0.0349401 0.0774146 0.00359497
-0.583654 -0.0456513 0.0861402 0.00159144
0.160551 0.79862 -0.111122 0.000188462
0.146054 0.817151 -0.105855 0.000520626
0.168192 0.806495 -0.0928435 0.00211824
0.154611 0.825076 -0.0875028 0.000584455
-0.479067 -0.511979 0.180266 2.25666e-05
-0.491939 -0.513569 0.195653 0.00375078
-0.46403 -0.517843 0.198795 0.00274326
-0.478226 -0.520175 0.21363 0.000339684
-0.638487 -0.0620743 -0.0743558 0.00169941
-0.647691 -0.0747582 -0.061855 0.0008163
-0.633485 -0.0534672 -0.0572293 0.00103468
-0.642213 -0.0646199 -0.045047 0.00119279
0.273279 0.145866 0.143447 0.00318248
0.272369 0.128652 0.157975 0.001147
0.274743 0.143303 0.164783 0.000218898
0.272364 0.128042 0.181155 0.00254681
0.474068 -0.0278788 0.0666416 0.00225511
0.463277 -0.0267616 0.0830294 0.00254318
0.490807 -0.0401201 0.0832588 0.00338999
0.480406 -0.0390422 0.10043 0.00215771
-0.172182 0.194391 0.375997 0.00267221
-0.188033 0.213482 0.379008 0.00138496
-0.157851 0.201525 0.394909 7.75241e-06
-0.174975 0.220992 0.397156 0.00087777
0.137456 0.307503 -0.22508 0.000676391
0.12673 0.288914 -0.218975 0.00141065
0.157617 0.307342 -0.21808 0.00167614
0.147885 0.288129 -0.212263 0.0021072
-0.198036 -0.115756 0.640907 0.00319424
-0.213706 -0.126408 0.645515 0.00235737
-0.174379 -0.118568 0.652726 0.000256075
-0.189376 -0.128527 0.657386 0.000842895
-0.435173 -0.502579 0.159669 0.00170409
-0.442729 -0.507347 0.178136 0.000461751
-0.422564 -0.507398 0.182006 0.00145007
-0.429858 -0.512662 0.199633 0.00104347
-0.044187 0.534471 -0.268222 0.00235765
-0.0738996 0.537154 -0.256807 0.000182427
-0.0290069 0.557511 -0.268903 0.00534745
-0.0585938 0.566955 -0.259415 0.00399332
0.284896 0.0565525 -0.80392 0.00214848
0.282142 0.035556 -0.810783 0.00306758
0.303913 0.0720762 -0.782785 0.00057027
0.302645 0.0506318 -0.790406 0.000117026
-0.0396449 0.137097 -0.153342 0.0128925
-0.0590064 0.135836 -0.147498 0.0110105
-0.0130136 0.138268 -0.136487 0.00675471
-0.0336336 0.137335 -0.132233 0.00579661
-0.274061 0.183787 0.0714241 0.000255237
-0.28766 0.197652 0.0834274 0.00186227
-0.27258 0.176376 0.0953092 0.000899155
-0.283778 0.188709 0.108437 0.00103684
0.138043 0.669172 0.622692 0.00883606
0.123819 0.679075 0.634515 0.00306527
0.145906 0.662285 0.631122 0.00252895
0.131726 0.672422 0.642953 0.00791848
-0.574028 -0.462308 0.219274 0.00151637
-0.58127 -0.445291 0.23447 0.000375658
-0.56879 -0.464426 0.240728 0.0025397
-0.576815 -0.444952 0.25371 0.00134273
0.0556052 0.114725 -0.192438 0.000694041
0.0387461 0.118134 -0.178264 0.00038999
0.0675533 0.119144 -0.173512 0.0035502
0.0525206 0.119144 -0.165301 0.000524213
0.183493 0.131914 -0.521042 0.000579821
0.166959 0.125117 -0.499785 0.00119297
0.196355 0.116711 -0.497796 0.00116969
0.180343 0.11107 -0.477204 0.000702892
-0.0937685 -0.392358 -0.134201 0.0141094
-0.104553 -0.399335 -0.123586 0.012956
-0.0828946 -0.396965 -0.122297 0.00142998
-0.0934237 -0.404328 -0.111533 0.00271668
0.205737 -0.21265 0.676558 0.000517365
0.193784 -0.225294 0.686549 0.000918015
0.222237 -0.231265 0.67398 0.00998305
0.21039 -0.241501 0.683337 0.00479714
-0.126758 -0.434721 -0.0284862 0.0013527
-0.14106 -0.438849 -0.0215098 0.00117761
-0.107741 -0.44071 -0.0140395 0.000514548
-0.121792 -0.444498 -0.00712367 0.00272623
-0.210303 0.557005 -0.17606 0.00211423
-0.226246 0.543937 -0.165537 0.00288828
-0.209294 0.585019 -0.16709 0.00162232
-0.226233 0.572793 -0.156283 0.00247159
0.289637 0.0681813 -0.380185 0.00144799
0.278337 0.0698834 -0.365826 0.00060677
0.30004 0.0639404 -0.365827 0.000115969
0.288993 0.0659272 -0.352021 0.000397281
0.0210442 -0.328397 -0.811398 0.000569711
0.00831034 -0.341441 -0.799476 0.00151852
0.0393588 -0.343387 -0.801681 0.00129487
0.0262835 -0.355068 -0.789738 0.0020909
-0.100067 -0.473167 0.69298 0.000741925
-0.120961 -0.454452 0.697008 0.000158249
-0.0760866 -0.464843 0.699305 0.000284065
-0.0988124 -0.444895 0.70386 4.6026e-05
0.0201385 -0.485148 0.121774 0.000982648
0.00783335 -0.491081 0.145185 0.000543614
0.0365974 -0.494478 0.147823 0.00142529
0.0237201 -0.499176 0.170227 4.89794e-05
0.676101 -0.321193 0.0270605 0.0056905
0.670183 -0.335214 0.0371695 0.00169305
0.674083 -0.319723 0.0459996 0.00242912
0.668091 -0.332365 0.0578484 0.000654462
-0.602151 -0.314698 -0.375764 4.64692e-05
-0.609582 -0.31913 -0.355851 0.00134727
-0.60152 -0.338552 -0.360363 0.00207614
-0.609846 -0.343753 -0.340067 0.0049458
-0.400031 -0.527299 0.263003 0.000609319
-0.41682 -0.529965 0.272905 0.00056695
-0.381784 -0.532311 0.275253 0.0030219
-0.399934 -0.534553 0.283716 0.00176508
0.656525 -0.360294 0.0746292 0.00280237
0.648656 -0.375222 0.0842097 0.00242693
0.652253 -0.352729 0.101016 2.50636e-05
0.645029 -0.366178 0.111593 0.000932198
-0.589372 -0.462823 0.106035 0.00050623
-0.596017 -0.455853 0.127042 0.000116552
-0.582378 -0.468324 0.129127 0.000108802
-0.589168 -0.458782 0.149851 0.000767151
0.154661 -0.101518 0.629155 0.0055244
0.143225 -0.112365 0.64233 0.000511158
0.169683 -0.115547 0.63207 0.000835396
0.158436 -0.126169 0.644795 0.00597577
-0.547083 -0.475133 0.275327 0.000630659
-0.555723 -0.455062 0.287276 0.00153302
-0.53952 -0.477297 0.293859 0.000938273
-0.548446 -0.457297 0.30584 7.82144e-05
0.668797 -0.319734 0.0649832 0.000162309
0.662965 -0.332072 0.076848 3.72551e-05
0.665712 -0.315306 0.0879899 0.00293833
0.659616 -0.32834 0.0989437 0.00117753
0.262896 0.073547 -0.0655169 0.00148918
0.25514 0.0841119 -0.048829 0.0032787
0.275217 0.0653752 -0.0439875 0.00253509
0.266863 0.0770643 -0.0279041 0.000797267
0.489834 -0.0270533 -0.563138 0.00432066
0.48527 -0.0110968 -0.551237 0.00126943
0.496519 -0.0240962 -0.539911 0.00227056
0.492784 -0.00981042 -0.52913 0.00497306
-0.56799 -0.42577 -0.227358 0.0018859
-0.579603 -0.423653 -0.211751 0.00335755
-0.558764 -0.435151 -0.206742 0.00155466
-0.570581 -0.433323 -0.191081 0.00220524
-0.142478 0.196354 0.396295 0.00178162
-0.159766 0.21634 0.400124 0.00313572
-0.131179 0.205343 0.413908 0.00201189
-0.149728 0.226457 0.418805 0.00056017
-0.360002 -0.225875 -0.737977 0.00118134
-0.372615 -0.233248 -0.725092 0.000980706
-0.349701 -0.24303 -0.736347 0.000251358
-0.362272 -0.251598 -0.723544 0.000634876
-0.331636 0.401766 -0.0447784 0.00153982
-0.332348 0.3704 -0.038397 0.00247204
-0.336281 0.407324 -0.0262308 0.00128506
-0.335506 0.374715 -0.0208022 0.002191
0.551346 -0.296389 0.336197 0.000686253
0.5459 -0.313561 0.344733 0.00188816
0.538187 -0.288801 0.358068 0.00179148
0.532685 -0.304978 0.366551 0.00176102
0.178917 -0.385433 -0.57103 0.000167198
0.167293 -0.382584 -0.553618 0.000131075
0.187696 -0.385484 -0.551192 0.000215563
0.176105 -0.38268 -0.533537 0.000803706
0.103569 0.737572 0.338531 0.00175189
0.0893764 0.721836 0.355428 0.00244899
0.117633 0.721662 0.344666 0.00163083
0.105963 0.707871 0.361202 0.00173757
-0.628746 -0.0545694 -0.189899 0.00335303
-0.642512 -0.0698071 -0.179104 0.00106649
-0.624982 -0.0448056 -0.170288 0.000917112
-0.639898 -0.0607601 -0.160822 0.000507877
0.283039 0.738714 0.0786674 0.00297003
0.277388 0.747958 0.0945596 0.00112616
0.28344 0.726116 0.102086 0.00218997
0.277517 0.735438 0.11901 0.00352215
0.660125 -0.164776 -0.13851 5.8575e-05
0.667361 -0.180763 -0.129472 0.00111339
0.660798 -0.162791 -0.115874 0.00122987
0.667173 -0.180171 -0.108268 0.000943002
-0.144245 -0.0916143 -0.859664 0.0010749
-0.162703 -0.112205 -0.850251 0.00228899
-0.116559 -0.100621 -0.868292 0.00252607
-0.13476 -0.122196 -0.859841 0.000390116
-0.00384868 0.672169 -0.224383 0.00257076
-0.0292048 0.681818 -0.221696 0.00159281
0.0177116 0.688926 -0.220115 0.000112863
-0.00783001 0.69782 -0.21837 0.00224208
-0.229719 0.0761204 -0.0960519 0.00709901
-0.243053 0.0728079 -0.0825643 0.00629063
-0.219939 0.0906615 -0.0733756 0.00325959
-0.233189 0.0868303 -0.0615392 0.00348064
0.32515 -0.0743769 0.473118 0.000330515
0.311028 -0.0780572 0.489917 0.00267735
0.333118 -0.0905384 0.484436 0.000456502
0.319226 -0.0952133 0.501012 0.00219621
0.37011 0.348211 0.233604 0.000539586
0.368281 0.327119 0.239615 0.00523632
0.365185 0.352514 0.250357 0.000104911
0.36377 0.331293 0.256672 0.0050726
-0.665759 -0.126958 -0.1997 0.0038535
-0.674841 -0.142501 -0.186588 0.000374136
-0.666141 -0.118865 -0.183292 0.000720794
-0.675229 -0.133922 -0.17042 0.00233438
-0.154232 0.639515 0.369719 0.000195327
-0.165621 0.626513 0.371454 0.000837674
-0.135826 0.640375 0.380776 0.000873237
-0.146648 0.627921 0.382589 0.000931062
-0.196802 0.556998 -0.186234 0.000736267
-0.215756 0.549725 -0.17326 0.00203039
-0.190533 0.588481 -0.18325 0.00199257
-0.208968 0.577377 -0.171421 0.00255229
-0.0975488 0.913893 0.0303187 0.0013976
-0.108104 0.910523 0.0459125 0.00226587
-0.085013 0.920686 0.0490025 0.000868801
-0.0956171 0.915848 0.0613905 0.0023389
-0.612846 -0.415913 -0.116102 0.00069491
-0.622712 -0.412391 -0.0992736 0.00270849
-0.597645 -0.430212 -0.0978479 0.001283
-0.607704 -0.427256 -0.0810508 0.00100028
-0.169357 -0.408687 -0.133733 0.0021765
-0.191701 -0.414693 -0.119818 0.000498063
-0.149872 -0.414627 -0.117369 0.000265252
-0.166871 -0.421333 -0.104223 0.00347977
-0.488138 0.0432491 -0.311887 0.00263382
-0.498915 0.0375709 -0.290284 0.00241713
-0.481489 0.0452622 -0.286548 0.000910405
-0.492156 0.0393352 -0.264654 0.000194739
0.632569 -0.414149 0.00895687 0.00014479
0.620139 -0.437744 0.00957846 0.00504143
0.641466 -0.391563 0.0266648 0.00625811
0.628828 -0.416733 0.0260609 0.000239792
-0.212217 0.643987 0.325282 0.00209367
-0.221218 0.629961 0.327403 0.00678512
-0.195633 0.643644 0.334864 0.00600667
-0.205825 0.630049 0.337331 0.00138026
-0.537219 -0.441758 -0.144272 0.000193321
-0.551164 -0.438521 -0.129926 0.00775908
-0.531953 -0.45025 -0.125001 0.00563032
-0.544768 -0.448139 -0.108201 0.00252028
0.451048 0.0277312 -0.327342 0.000419911
0.438859 0.0279096 -0.311109 0.00289824
0.46337 0.0207711 -0.309672 0.00201806
0.451205 0.0216916 -0.29269 0.000533997
-0.680691 -0.281287 -0.195315 0.00340017
-0.688798 -0.271672 -0.180445 0.00492351
-0.682474 -0.288376 -0.173343 0.00012722
-0.691161 -0.277546 -0.157938 0.00263502
0.352418 -0.444246 -0.167268 9.81409e-05
0.340551 -0.443556 -0.151804 0.00108437
0.366341 -0.452086 -0.153997 0.000732007
0.351868 -0.450552 -0.14118 0.000212123
-0.23111 0.402401 0.494788 0.000488959
-0.226381 0.379287 0.49188 0.00549425
-0.223301 0.410988 0.509015 0.00252027
-0.21818 0.386939 0.505576 0.00185658
0.379654 0.0505679 -0.707964 7.91906e-05
0.381032 0.0330522 -0.719635 0.00244818
0.392028 0.0531023 -0.689622 0.00195704
0.391461 0.0437314 -0.698229 0.00241582
0.0413903 0.116798 -0.270152 0.00468196
0.0198948 0.120798 -0.258519 0.000886635
0.0546688 0.114581 -0.249955 0.004444
0.0344991 0.118414 -0.236728 0.00046305
-0.404286 -0.404517 0.561017 0.000843683
-0.408723 -0.426463 0.548295 0.00211218
-0.387794 -0.400615 0.577263 0.000940987
-0.391684 -0.422618 0.565729 0.00175168
0.578298 -0.0855032 -0.426159 0.00257804
0.581744 -0.105233 -0.428038 0.000905413
0.586272 -0.0792247 -0.405722 0.00768392
0.58846 -0.0982756 -0.407046 0.00122046
0.638817 -0.291912 0.182407 0.00143883
0.636642 -0.313704 0.189278 0.00298625
0.627018 -0.288134 0.203272 0.00114201
0.623878 -0.308789 0.210947 5.23107e-07
-0.438535 -0.395978 -0.323876 0.00252061
-0.44851 -0.398124 -0.30489 0.00365538
