0.23051 -0.2062 -0.127853 6.34587e-06
-0.336242 -0.662557 -0.112078 0.00173221
-0.344998 -0.662573 -0.0995958 0.000708458
-0.330335 -0.669474 -0.102433 0.000375413
-0.339335 -0.669192 -0.0901985 0.00153414
-0.0587577 -0.0893009 -0.216934 0.000496827
-0.0713615 -0.0829505 -0.212801 0.00186006
-0.04864 -0.0798538 -0.209645 0.00111644
-0.0614051 -0.0742716 -0.205631 0.000563907
0.00395807 -0.217599 0.154003 0.00120864
-0.00733979 -0.219283 0.160407 0.00294784
0.00680854 -0.204359 0.155979 0.00607477
-0.00513465 -0.204296 0.162862 0.00165458
0.134788 0.706851 0.188242 0.000382887
0.126175 0.711772 0.19749 0.00410112
0.140246 0.708387 0.199805 0.00717261
0.132339 0.713393 0.20842 0.00414898
0.12525 0.690559 0.312781 0.00360711
0.117526 0.69709 0.319391 0.0027155
0.130195 0.69781 0.325425 0.00422088
0.12418 0.694803 0.325726 0.00167934
0.00625688 -0.038996 0.210637 0.000387416
0.00339516 -0.055516 0.209816 0.000440722
0.0263938 -0.0372541 0.204113 0.000631
0.0197195 -0.0510247 0.205202 0.000113043
-0.105463 -0.026581 0.214162 3.21328e-06
-0.112294 -0.0435473 0.215055 0.00383522
-0.0886924 -0.0273928 0.21313 0.00383754
-0.0950521 -0.0442694 0.213547 0.000659605
-0.2945 -0.293971 -0.29374 0.00132601
-0.301754 -0.310577 -0.292655 0.000354126
-0.280047 -0.295193 -0.285307 0.00171609
-0.287996 -0.310015 -0.282772 0.00263119
-0.125471 0.120269 0.187419 0.00377799
-0.135305 0.110054 0.191302 0.000560478
-0.109981 0.121247 0.198329 0.000377407
-0.120558 0.111317 0.201458 0.00144799
-0.508682 -0.0732796 -0.00564311 8.41188e-05
-0.51437 -0.0813477 0.00045479 0.000414406
-0.505782 -0.0709939 0.0103274 0.00116525
-0.511331 -0.0794546 0.0161877 0.000325076
0.0246153 -0.0164883 0.207084 3.92732e-06
0.0162213 -0.0310135 0.208977 0.000621721
0.0461029 -0.0177901 0.199719 0.000891228
0.0358523 -0.0313577 0.202219 0.000369605
0.25161 0.860534 0.144298 0.00395437
0.244659 0.856765 0.157247 0.00174631
0.253231 0.857366 0.159527 0.00376247
0.247087 0.8552 0.172481 0.000904223
0.0203445 0.271894 -0.12465 0.000991726
0.00818689 0.276252 -0.115754 0.000800415
0.0288159 0.27482 -0.111462 5.38684e-05
0.0161933 0.278693 -0.103833 6.17259e-05
-0.198287 -0.37355 -0.169193 0.00117125
-0.202725 -0.382711 -0.161094 0.00160268
-0.185921 -0.378066 -0.162356 0.00013961
-0.191036 -0.387455 -0.154554 9.5058e-05
0.165143 -0.592484 -0.153889 0.000624046
0.156896 -0.598456 -0.148396 0.000192908
0.175064 -0.596205 -0.144816 0.000374946
0.166487 -0.602253 -0.139849 0.000446069
0.331556 -0.124889 0.255575 0.000525934
0.319613 -0.122232 0.263972 0.00576085
0.335987 -0.126557 0.26205 0.00533741
0.322967 -0.124021 0.271169 0.000942033
-0.332474 -0.450611 0.0717679 0.000304257
-0.342063 -0.440766 0.0801204 0.00198489
-0.320924 -0.444073 0.0890844 0.00015718
-0.33161 -0.434808 0.0950692 0.000408252
0.341154 0.547353 0.347179 0.00157007
0.329353 0.558842 0.351515 0.000469906
0.350138 0.548478 0.349698 0.00053634
0.339342 0.55967 0.354535 0.00187211
0.217629 0.0102737 0.229603 0.000813793
0.211169 0.00503366 0.239131 0.000296158
0.224891 -0.00379309 0.233795 0.000377515
0.218448 -0.00966636 0.2435 9.73515e-05
0.111352 0.0114 0.313679 0.000885941
0.103056 0.00684226 0.324135 0.000387912
0.120174 -0.00376206 0.317821 0.00054918
0.111451 -0.00780605 0.32871 0.000247621
-0.0638421 0.269858 -0.0301784 0.0050405
-0.079591 0.264833 -0.0255925 0.00533188
-0.0465064 0.266852 -0.0253794 0.00451047
-0.0626145 0.26157 -0.0208995 0.00654805
0.300212 0.166179 -0.198948 0.00113715
0.291255 0.17309 -0.193039 0.00239439
0.305238 0.171456 -0.183666 0.00105135
0.296499 0.177631 -0.178319 0.000875851
-0.0602841 -0.0788496 0.212265 0.000674288
-0.0634234 -0.0949761 0.210438 0.000691517
-0.0450202 -0.0856291 0.210589 0.00137684
-0.0475706 -0.101448 0.208485 0.000448942
-0.290612 0.0705598 0.193444 0.00013819
-0.299361 0.0655556 0.200014 2.15621e-05
-0.280199 0.0648587 0.197048 0.00198707
-0.288521 0.0581855 0.203648 0.000903783
0.284737 0.379248 0.231564 0.000608432
0.284412 0.361916 0.229248 0.00115488
0.296681 0.375027 0.230377 0.000287802
0.296978 0.357923 0.22768 0.00182505
-0.0152039 -0.259554 0.147501 0.000729287
-0.0255396 -0.266178 0.151957 0.00176205
-0.0143239 -0.248594 0.149912 0.000788702
-0.0246109 -0.254813 0.15485 0.000980521
0.292743 0.0457541 0.0439364 0.00118779
0.288399 0.0368053 0.0484395 0.0010282
0.293693 0.050107 0.0573756 0.00054643
0.289709 0.0406503 0.0619637 0.00139833
-0.553456 -0.54769 -0.306103 0.00377302
-0.570975 -0.548653 -0.297007 0.00207573
-0.541554 -0.537486 -0.298148 0.00352114
-0.559802 -0.536965 -0.288665 0.00191868
-0.346107 -0.333979 0.188104 0.00259594
-0.356641 -0.324719 0.189555 0.00431864
-0.333464 -0.324808 0.203719 0.00260263
-0.343773 -0.315345 0.204592 0.000645875
0.114432 -0.421213 0.0163267 0.00151979
0.103796 -0.411883 0.0224794 0.000117685
0.120367 -0.407652 0.0202212 0.00132574
0.110117 -0.398358 0.0265198 0.00095
0.166951 0.862883 0.319443 0.00137088
0.161634 0.852175 0.327452 0.00108287
0.176449 0.858105 0.323314 0.000848911
0.171443 0.847685 0.331935 0.0005807
-0.54317 -0.495996 -0.268822 9.38783e-06
-0.55821 -0.49255 -0.264695 0.00334686
-0.531991 -0.490577 -0.26301 0.00383531
-0.545751 -0.487488 -0.26011 0.000184518
0.0319425 0.0248263 -0.15205 0.00140869
0.017982 0.0319957 -0.145048 0.00176751
0.0379033 0.034705 -0.140124 0.000618226
0.0247113 0.0442153 -0.13233 0.000551702
0.200563 0.876547 0.162727 0.00371528
0.196569 0.870883 0.171803 9.12428e-06
0.203376 0.867022 0.169787 0.00321548
0.197586 0.864668 0.179888 6.3404e-05
0.174224 0.0478639 0.329874 7.2666e-05
0.164065 0.0429821 0.342207 0.000934142
0.184421 0.0346634 0.329323 0.00127743
0.174491 0.0321836 0.340408 0.00010679
0.104393 0.313191 0.0204634 0.00247281
0.0965538 0.311933 0.0261588 0.00517622
0.108905 0.323221 0.0337225 0.00184883
0.101335 0.321552 0.0391805 0.000550335
0.0216157 0.150882 0.00653039 0.000768885
0.00769443 0.148506 0.0102598 5.66996e-05
0.0300381 0.158621 0.0160912 0.000430778
0.0171349 0.156793 0.0203502 0.000976799
0.226401 0.695904 0.312711 0.00276054
0.223305 0.693388 0.321168 0.000574437
0.225029 0.693414 0.322058 0.000840654
0.222189 0.689938 0.33018 0.00325088
0.14636 0.815447 0.251032 0.00230759
0.137131 0.810028 0.257078 0.00163839
0.145452 0.825486 0.254569 0.000617511
0.136187 0.820843 0.26104 0.00168155
0.00967775 0.208208 0.143636 0.000244544
0.00343756 0.2011 0.149937 0.000809518
0.020065 0.207014 0.153975 0.000588729
0.0147686 0.198838 0.159275 0.000670951
-0.0788995 -0.130333 -0.251246 0.000297648
-0.092212 -0.124577 -0.251662 0.00170207
-0.0645576 -0.128522 -0.24628 0.00131102
-0.0787278 -0.121224 -0.245283 0.000349079
-0.384712 -0.421619 0.0212029 4.96575e-05
-0.392362 -0.410465 0.0316345 0.00062754
-0.381469 -0.425644 0.0384345 0.0010802
-0.388152 -0.415194 0.0489936 0.00140056
0.296283 0.466468 -0.0302843 0.000678745
0.289884 0.453107 -0.028637 0.000997117
0.309544 0.461973 -0.0274539 0.00158184
0.302523 0.449383 -0.0259357 0.00195668
0.20029 0.710327 0.232693 0.00094788
0.193708 0.716586 0.231613 0.00117509
0.205712 0.712514 0.244554 0.000350856
0.203263 0.711145 0.242907 0.00206602
-0.516639 -0.146571 -0.12798 0.00275936
-0.514689 -0.171497 -0.12987 0.000803874
-0.520113 -0.140588 -0.115455 0.00206095
-0.518005 -0.165222 -0.11687 0.00054246
-0.424007 -0.0908693 0.221556 0.0015795
-0.432903 -0.102784 0.21886 0.00107097
-0.414339 -0.0847396 0.229147 0.00048416
-0.422731 -0.0974312 0.22736 0.00131388
0.367753 0.440902 0.210691 0.000314744
0.362392 0.440084 0.210384 0.00137228
0.379154 0.438325 0.223922 0.0128403
0.373621 0.435592 0.222686 0.0123885
0.208064 0.062882 0.200313 0.000237076
0.200073 0.0616889 0.206168 0.00226468
0.213498 0.0525716 0.20662 0.00129682
0.206088 0.0499386 0.213608 0.00044335
-0.207309 -0.350019 -0.188896 0.000106243
-0.211689 -0.359622 -0.179141 0.000455293
-0.194077 -0.356938 -0.18431 0.000524912
-0.19856 -0.366422 -0.174783 0.000331335
0.0413241 -0.456613 -0.108316 0.000346263
0.0412816 -0.469706 -0.0978704 6.00545e-05
0.0404975 -0.458027 -0.0904137 0.000701764
0.0413078 -0.472023 -0.0780095 0.00158204
0.165172 0.0656671 0.323987 0.000194252
0.156148 0.0576793 0.337834 0.000971302
0.179074 0.0506422 0.321451 0.00212826
0.169014 0.0459809 0.333714 0.00101493
0.149682 0.385746 0.0590757 0.00322082
0.138069 0.377125 0.0680586 0.00437184
0.149598 0.396001 0.0759383 0.00192018
0.137587 0.387534 0.0847851 0.00370672
-0.38888 -0.173712 0.240655 0.00200016
-0.391876 -0.187374 0.236917 0.00218764
-0.374261 -0.176893 0.248591 0.000951271
-0.377388 -0.190417 0.244315 0.000697207
-0.100883 -0.42728 0.065838 0.00133079
-0.111988 -0.434726 0.0682302 0.000457639
-0.0919635 -0.420043 0.0764868 0.000261468
-0.102984 -0.427646 0.0789574 0.000680757
0.0696119 -0.0250577 0.372256 0.00143088
0.0621061 -0.0303872 0.383335 0.000716971
0.0736607 -0.0423237 0.380936 0.00195134
0.066394 -0.0471235 0.391997 0.000873079
-0.0571894 0.268521 -0.150398 2.82596e-05
-0.0688561 0.273651 -0.141334 9.35984e-05
-0.0506054 0.273079 -0.141185 0.00117038
-0.0610293 0.277804 -0.131444 0.000950411
0.274388 0.911935 0.168025 0.00117542
0.26717 0.914976 0.180091 0.00358231
0.275588 0.906423 0.18206 0.00040245
0.269396 0.908262 0.193874 0.00187707
0.0941094 0.00741477 0.41812 0.00104755
0.0878529 0.00432558 0.426249 0.000237972
0.0996147 -0.00440363 0.421064 0.00223191
0.0937445 -0.00740542 0.429271 0.00141907
0.272201 0.00960478 0.277428 0.000268986
0.261788 0.00396993 0.290842 0.00122272
0.274613 -0.00769707 0.282005 0.00182595
0.263256 -0.0133633 0.295721 0.00137758
0.193099 -0.158987 -0.323046 0.00123591
0.182426 -0.155325 -0.319816 0.00129774
0.200792 -0.150582 -0.313909 5.09316e-05
0.189803 -0.146898 -0.310921 0.000299476
-0.0163737 0.0473877 0.411766 0.00405415
-0.0221215 0.0384758 0.419442 0.00554662
-0.0140879 0.0412386 0.417739 0.000269768
-0.0196801 0.0327302 0.425619 0.0015955
-0.368675 -0.0953934 0.25093 0.00270718
-0.375502 -0.111115 0.253207 0.000761365
-0.354787 -0.0980843 0.257451 0.00279201
-0.361745 -0.112906 0.25952 0.000710479
0.119962 0.677432 0.256177 0.00116689
0.111953 0.689232 0.267881 0.00211625
0.119573 0.674932 0.272084 0.00135679
0.111103 0.687666 0.284391 0.000998662
0.194647 0.383462 0.0181218 0.00178583
0.180646 0.385368 0.0288763 2.48268e-05
0.198618 0.396993 0.0244945 0.000511099
0.184169 0.398936 0.0354126 0.00130847
-0.104431 -0.159261 -0.268975 0.000457652
-0.108859 -0.174151 -0.274264 0.00148448
-0.0886025 -0.1649 -0.265948 0.000396465
-0.0930576 -0.177 -0.270435 0.00207726
-0.352753 -0.0912543 -0.239339 0.000660333
-0.36655 -0.0921918 -0.233422 0.000443108
-0.34663 -0.0742836 -0.237962 0.00158573
-0.360147 -0.0738663 -0.231223 0.00174253
0.176176 -0.290913 0.032851 9.42171e-05
0.163297 -0.296882 0.0384128 0.00180067
0.176072 -0.272271 0.0414058 0.000338922
0.164629 -0.280837 0.0462333 0.000969505
0.231885 0.831685 0.205835 0.00114776
0.223898 0.828828 0.216013 0.00236248
0.23296 0.826475 0.216161 0.0008374
0.225318 0.823193 0.226557 0.00417655
0.29165 0.0460582 0.121602 0.00282174
0.282305 0.0451307 0.129263 0.00479387
0.295843 0.0381159 0.127255 0.00213228
0.286569 0.0374289 0.13509 0.001309
-0.124655 0.135062 0.10563 0.00102185
-0.130208 0.13295 0.112234 0.000583163
-0.120563 0.142761 0.118162 0.000648316
-0.126746 0.140401 0.124831 8.33413e-05
0.21657 -0.123628 0.335598 4.81806e-06
0.203513 -0.119783 0.346459 0.00265369
0.221095 -0.130753 0.344921 0.00307533
0.207361 -0.126261 0.355782 0.000640322
0.142099 -0.321283 0.0443736 0.000236682
0.128334 -0.320909 0.052435 0.00113482
0.148604 -0.307339 0.0478184 0.000739641
0.134902 -0.309139 0.0553266 9.49694e-05
-0.0932685 0.168367 0.147619 0.00119937
-0.101924 0.165629 0.151639 0.00225458
-0.0821833 0.170707 0.156927 0.0023838
-0.0919564 0.166772 0.161184 0.00110782
0.413522 0.469263 0.276903 0.000744615
0.415767 0.455417 0.276209 0.00423767
0.41405 0.475243 0.288909 0.0011042
0.415392 0.463221 0.289099 0.00148658
-0.308561 -0.0252572 0.248513 0.00101448
-0.314899 -0.0416757 0.25587 0.000185751
-0.298158 -0.0334882 0.25472 0.000166288
-0.304443 -0.0491705 0.262086 0.000478625
0.172732 0.0795039 0.184959 0.00185395
0.160073 0.0858833 0.192193 0.00363803
0.181637 0.0837289 0.188103 0.00510072
0.169412 0.089117 0.195017 0.000608772
0.156265 0.123429 -0.271635 0.00545561
0.141734 0.129074 -0.263546 0.00199957
0.169925 0.123685 -0.265488 0.000961937
0.154498 0.129506 -0.258066 0.00188592
0.127157 -0.262446 -0.228757 0.00291369
0.118161 -0.264549 -0.218652 0.00051243
0.133855 -0.26812 -0.217798 0.000269344
0.125121 -0.270709 -0.207063 0.00465283
-0.125843 -0.428047 0.110099 0.000950829
-0.139289 -0.431804 0.112664 0.000431649
-0.117226 -0.4185 0.121237 0.000535035
-0.129988 -0.422186 0.123892 0.000333557
0.0650335 0.240855 0.0842051 0.00481668
0.0571053 0.233892 0.0878869 0.00638063
0.0716059 0.25101 0.0946494 0.00315005
0.0645957 0.242986 0.0982019 0.000153431
-0.0568332 -0.321079 -0.175321 0.000901835
-0.0660939 -0.328897 -0.168582 0.000151677
-0.0453777 -0.323543 -0.162459 0.000813832
-0.0546244 -0.331751 -0.155269 0.00053939
0.132076 0.105516 0.233698 0.000739868
0.12343 0.103684 0.243633 0.000355334
0.135397 0.0885593 0.241836 0.0013742
0.126902 0.086763 0.25147 0.000394418
0.0192514 0.15824 0.184995 0.000346489
0.0101981 0.145897 0.191178 2.72919e-05
0.0324592 0.145242 0.19031 0.00139272
0.0234203 0.133208 0.196067 0.00272805
-0.314289 7.00187e-05 0.236842 0.000351674
-0.319669 -0.0161178 0.244014 0.00022356
-0.303593 -0.0119552 0.243211 6.4979e-06
-0.309309 -0.0285947 0.250855 0.00039986
0.176138 0.122344 -0.275617 0.0039666
0.160622 0.127738 -0.268341 0.000273795
0.189301 0.120107 -0.268571 0.000707361
0.173409 0.124699 -0.262152 0.00125284
0.224379 0.179927 -0.103986 0.00192702
0.210419 0.187761 -0.0922426 0.00138732
0.232716 0.180711 -0.0906053 0.00229276
0.221474 0.187027 -0.0820207 0.00234234
0.329793 -0.187002 -0.339474 0.000447979
0.316629 -0.182677 -0.334202 0.000452667
0.340955 -0.186966 -0.330421 0.00151065
0.327442 -0.182002 -0.324199 0.00013964
0.399393 0.417234 0.287847 0.0014015
0.386145 0.419599 0.293178 0.0028454
0.403773 0.43047 0.295506 0.00147644
0.393431 0.428047 0.299577 0.0024773
-0.0686805 -0.400101 0.0871282 0.000917454
-0.0780505 -0.405452 0.0931467 0.000129431
-0.0659322 -0.392084 0.101844 0.000580022
-0.0753213 -0.397154 0.107386 0.000193669
0.233493 0.55629 0.0201939 0.00116817
0.238616 0.536654 0.0236767 0.00168359
0.232219 0.556403 0.0301916 5.20431e-05
0.236766 0.537531 0.0332279 0.00392139
-0.0189974 0.165644 0.0574983 0.000526378
-0.0310556 0.163206 0.0628536 0.000353492
-0.0117836 0.174958 0.0698526 0.000445678
-0.0235118 0.172678 0.0760029 0.000187687
0.121241 -0.304126 -0.134939 0.000647064
0.111528 -0.317211 -0.134924 0.00276219
0.137633 -0.302049 -0.127506 2.0302e-06
0.127753 -0.315478 -0.127296 3.24825e-05
0.383836 -0.366995 -0.378947 0.00285695
0.373081 -0.359529 -0.371024 6.68792e-05
0.386866 -0.364211 -0.370029 0.00117845
0.375519 -0.356783 -0.362328 0.0022339
0.397707 0.403168 0.183863 0.00483702
0.388974 0.414157 0.190341 0.00114304
0.401685 0.407245 0.197251 0.00157929
0.396134 0.413645 0.201842 0.00479689
0.361348 -0.215486 -0.281656 0.00434319
0.351107 -0.209431 -0.273202 0.00534871
0.360757 -0.21617 -0.274255 0.000662356
0.350632 -0.210416 -0.266248 0.00212932
-0.662902 -0.508207 -0.307818 0.00317116
-0.670225 -0.518895 -0.308811 0.00169191
-0.652877 -0.505165 -0.2945 0.00274723
-0.660278 -0.518147 -0.297286 0.000107056
-0.53128 -0.125447 0.034159 0.000492577
-0.53441 -0.137698 0.0353676 0.00165458
-0.527382 -0.117644 0.0470011 0.00175377
-0.529976 -0.1305 0.0472687 0.000123698
0.313443 0.507457 0.023476 0.000189796
0.312345 0.501678 0.0282239 0.00112015
0.311202 0.500837 0.0370046 0.000907753
0.307771 0.50008 0.0437483 0.000853321
-0.394957 -0.0966741 0.240027 0.00195678
-0.401236 -0.112273 0.241114 7.2285e-05
-0.380629 -0.101837 0.247528 0.00168428
-0.387134 -0.117538 0.249209 0.00142024
-0.185637 -0.0760217 -0.264027 0.00087647
-0.190369 -0.0876749 -0.268054 0.00170778
-0.17362 -0.0637055 -0.260749 0.00304359
-0.178177 -0.0756872 -0.2649 0.00123411
-0.0852292 0.303282 -0.0469942 0.000153788
-0.0971523 0.300817 -0.0427344 0.00245119
-0.0704055 0.303 -0.0421608 0.00100005
-0.083325 0.300119 -0.0363305 0.000642812
-0.541698 -0.146049 -0.0403252 0.00225292
-0.546191 -0.158077 -0.0310077 0.000344956
-0.539737 -0.142216 -0.0275057 0.00111097
-0.544111 -0.154292 -0.0173445 0.00339962
0.16125 -0.465211 -0.0371299 0.00140269
0.1583 -0.476252 -0.0371422 0.00043773
0.159934 -0.457496 -0.0283942 0.00120968
0.156765 -0.468116 -0.0280483 0.00310286
0.267454 0.491734 0.0969892 0.00137349
0.254673 0.498731 0.106066 0.00241976
0.27321 0.497244 0.104352 0.0024491
0.260998 0.504773 0.11308 0.00186353
-0.0353549 -0.181388 0.180508 0.00124314
-0.0488128 -0.182609 0.188856 0.00120433
-0.030303 -0.162129 0.181134 0.00708355
-0.0447253 -0.161953 0.189214 0.00178469
0.221621 -0.16972 0.0414379 0.00222668
0.212213 -0.181217 0.0470471 0.00248963
0.220093 -0.152971 0.0549952 0.000491622
0.210077 -0.162066 0.0617296 0.000493539
0.0846352 0.104216 -0.0643038 0.00130595
0.0685484 0.110918 -0.0556813 0.000767492
0.0986332 0.113154 -0.0536411 0.00138414
0.0826783 0.119752 -0.0448503 0.000265414
0.0509574 0.102013 0.309295 4.70098e-05
0.0413138 0.104799 0.318997 0.000862653
0.0481688 0.0901688 0.319177 0.00080419
0.0388335 0.0930385 0.32848 0.000864882
-0.0230645 0.0632706 -0.106156 0.00123672
-0.035095 0.065773 -0.10093 0.00246715
-0.0151155 0.0717455 -0.0966053 0.00096234
-0.0274189 0.0713015 -0.0928006 0.00123183
-0.238081 -0.431819 0.131553 0.00062852
-0.255325 -0.423285 0.138121 0.000106486
-0.223384 -0.42779 0.141172 0.00196754
-0.240965 -0.419392 0.147692 0.00174352
0.29893 0.494835 0.21443 0.000291457
0.289849 0.500982 0.221031 0.00385962
0.297066 0.492486 0.221667 0.00204139
0.287905 0.497751 0.227879 0.00163418
0.231034 -0.2633 -0.353433 0.00174667
0.2185 -0.265974 -0.342869 4.44668e-05
0.240079 -0.273273 -0.351413 0.00158499
0.228262 -0.275276 -0.340794 0.000167746
0.190195 -0.0791934 0.120153 0.000354698
0.178996 -0.0822776 0.125914 0.000831053
0.190569 -0.0597379 0.128576 0.000975048
0.179686 -0.0634452 0.134475 0.000548999
0.37767 0.417624 0.285564 0.000373463
0.364405 0.421304 0.289478 0.00764934
0.383588 0.429893 0.292365 0.00295422
0.370746 0.431645 0.297309 0.00452762
-0.187336 -0.0539358 0.237638 0.000632329
-0.19988 -0.056196 0.246703 0.00076488
-0.175643 -0.061244 0.237301 0.00122483
-0.190484 -0.0623791 0.246805 0.000653501
-0.503636 -0.113529 -0.128698 0.00110159
-0.510315 -0.121797 -0.11961 0.000896276
-0.507292 -0.103173 -0.114581 0.000970938
-0.514146 -0.10832 -0.103033 0.00157155
0.249175 0.177682 -0.221669 0.000590615
0.238438 0.186098 -0.21648 0.00135751
0.256458 0.180189 -0.210738 0.0018035
0.246146 0.188798 -0.205018 8.30353e-05
-0.0348674 -0.19807 -0.250622 0.000987831
-0.0419679 -0.212427 -0.248871 0.00186749
-0.0189634 -0.200053 -0.249204 0.00141935
-0.0269058 -0.213327 -0.246419 3.8229e-05
-0.01082 -0.353438 0.0472658 0.00188029
-0.0184034 -0.357493 0.0544192 0.00056136
-0.00829912 -0.345947 0.062599 0.000460025
-0.0159431 -0.350407 0.0692379 0.000275774
-0.36989 -0.451325 -0.0120463 0.000391203
-0.373322 -0.442356 -0.00291665 0.000533439
-0.366655 -0.453001 0.00387906 0.000345707
-0.370054 -0.443829 0.0126062 0.000675438
0.223462 -0.0185394 0.24522 0.000212984
0.21669 -0.0274662 0.257467 0.000164689
0.22901 -0.0342747 0.251101 0.0004658
0.221884 -0.0447916 0.264758 0.00022476
-0.0959298 0.296248 -0.099216 0.00387706
-0.104368 0.294735 -0.0933449 0.00175316
-0.0850946 0.296793 -0.0888655 0.00281935
-0.0933402 0.297244 -0.0818164 0.00150752
0.105183 0.187913 0.010456 0.0025197
0.0962857 0.191748 0.0173247 0.00165964
0.105837 0.190578 0.0165959 0.00187863
0.0971175 0.194208 0.023519 0.00236737
0.204553 0.507863 0.13311 0.000553687
0.192177 0.508622 0.141559 0.00476125
0.204016 0.520099 0.145255 0.00213325
0.194237 0.518771 0.153141 0.00152109
-0.408519 -0.37852 0.0204626 0.000710077
-0.417817 -0.367736 0.0301536 0.000138187
-0.405701 -0.38437 0.0307536 0.00189971
-0.414329 -0.373174 0.0404119 0.00189923
0.000858165 0.077358 0.206981 0.00121612
-0.0174452 0.0668622 0.214877 0.00122142
0.0177623 0.0730875 0.203933 0.00126919
-0.000329288 0.0629517 0.21138 0.000692519
-0.404086 -0.346628 -0.0507712 0.00121463
-0.412194 -0.343014 -0.0387167 4.7672e-05
-0.400177 -0.353816 -0.0406872 0.00027665
-0.408361 -0.349526 -0.0294308 0.000676125
-0.35432 0.0399412 0.21798 0.000415073
-0.363923 0.0268245 0.222187 0.000253126
-0.340642 0.02984 0.224112 0.000632129
-0.350204 0.0155151 0.230364 0.00206106
-0.0947202 0.146845 0.0911333 0.000785819
-0.101231 0.145175 0.0966624 0.000420653
-0.0887156 0.151405 0.0988595 0.000562139
-0.0955436 0.149336 0.103605 0.000910825
-0.221734 0.0834849 -0.0876442 0.00280943
-0.237303 0.0867623 -0.0812359 0.00102056
-0.214005 0.0815893 -0.0731384 0.00204176
-0.22879 0.0851703 -0.0662663 0.00140024
0.164861 -0.4371 -0.112045 0.00340122
0.165659 -0.451788 -0.115997 0.000109873
0.175607 -0.436542 -0.100484 0.000927767
0.176469 -0.450468 -0.103568 0.00210467
-0.306881 -0.272734 0.249969 0.000919686
-0.315191 -0.25952 0.250019 0.000709278
-0.299516 -0.265117 0.264189 0.00103605
-0.307956 -0.250197 0.264837 7.60299e-05
0.203618 0.640187 0.323353 0.0010832
0.193159 0.653043 0.325753 0.0041572
0.214287 0.644712 0.333301 0.00288058
0.203737 0.65673 0.335435 0.000106832
0.470901 -0.351238 -0.403288 0.00124011
0.461733 -0.357058 -0.398391 0.00276393
0.470966 -0.335925 -0.397979 0.000780773
0.461693 -0.343491 -0.392798 0.00102597
0.407007 0.39282 0.184203 0.00708071
0.398645 0.403217 0.190084 0.000393109
0.409795 0.400635 0.198918 6.24559e-05
0.404123 0.406686 0.203357 0.00481854
-0.469591 -0.061006 -0.133903 0.000155848
-0.479693 -0.0622276 -0.117392 0.000771164
-0.474618 -0.0537526 -0.115385 0.0012683
-0.483794 -0.0550706 -0.0979145 0.00255403
-0.0368971 0.0165343 -0.140819 0.000564001
-0.0487598 0.0249141 -0.131987 0.00280946
-0.0324497 0.0291104 -0.129492 0.00201171
-0.0444782 0.0371292 -0.120844 0.00043114
0.344725 0.427272 0.238086 0.00518353
0.340022 0.416227 0.234376 0.00466818
0.359492 0.428139 0.244531 0.00840306
0.353824 0.417771 0.23968 0.00505335
-0.441961 -0.22876 0.201456 1.75579e-05
-0.441512 -0.25025 0.192558 0.00089209
-0.433169 -0.224443 0.212703 0.00232174
-0.433237 -0.245986 0.203364 0.000801111
-0.162536 -0.116802 0.257359 0.000276862
-0.171436 -0.123215 0.266741 0.000206318
-0.155525 -0.130719 0.258587 0.000469337
-0.165311 -0.137524 0.267785 0.000960553
-0.329334 0.0951643 -0.130224 0.000242403
-0.339896 0.0965535 -0.121591 0.000194991
-0.318737 0.101014 -0.118912 0.00195638
-0.329041 0.102327 -0.11021 0.00228036
0.0783102 0.312848 0.0834508 0.00134457
0.069857 0.300933 0.0901592 0.00024131
0.0829089 0.313461 0.0970019 0.00110343
0.0748375 0.302343 0.104323 1.95825e-06
-0.0874473 0.138365 0.0644629 1.78613e-05
-0.0933573 0.137593 0.069611 0.000127692
-0.0843997 0.1422 0.0705889 0.000311434
-0.0904185 0.141716 0.0765526 0.000206031
-0.294462 -0.47719 0.0574641 0.00331499
-0.305342 -0.464871 0.0683864 0.00204168
-0.289263 -0.472814 0.070102 0.000290114
-0.300694 -0.45918 0.0836452 0.00127338
0.380552 0.0656105 0.147914 0.000435883
0.372737 0.0642952 0.155303 0.00223796
0.380072 0.055663 0.15991 0.0010634
0.371581 0.0559899 0.168457 0.00125084
-0.439013 -0.357282 -0.338167 0.000635783
-0.444625 -0.367648 -0.335983 0.00250387
-0.423392 -0.362476 -0.331988 4.26979e-05
-0.429843 -0.373837 -0.330254 0.000508795
0.0429837 -0.381232 -0.0455507 0.00326856
0.0372029 -0.371221 -0.0376382 0.00237567
0.0469441 -0.383429 -0.0345509 0.00472587
0.0421295 -0.3715 -0.0257446 8.48534e-05
-0.475866 -0.282383 -0.0406829 0.00542817
-0.485456 -0.278922 -0.0335593 0.003532
-0.469991 -0.283893 -0.027248 0.000520951
-0.47995 -0.279637 -0.0201371 0.000112446
0.235407 0.951271 0.133438 0.00336934
0.226249 0.950931 0.144292 0.00232637
0.245807 0.944811 0.142405 0.00104785
0.237308 0.945016 0.152822 0.00220563
-0.282394 0.107058 0.0620037 0.000147477
-0.292174 0.108074 0.070433 0.000443134
-0.273354 0.102303 0.0749699 0.00116541
-0.283141 0.103734 0.0830608 0.00110701
-0.340623 -0.344765 0.181918 0.00240841
-0.351021 -0.335695 0.184003 0.0040949
-0.329509 -0.335122 0.197832 0.00262541
-0.339899 -0.326401 0.198879 0.00079554
0.203465 0.651978 0.0608393 0.00407585
0.193974 0.65903 0.069152 0.00586775
0.208023 0.653388 0.0710927 0.0020335
0.19819 0.660789 0.0789573 0.00153207
-0.408501 -0.197516 -0.264163 8.0728e-05
-0.421249 -0.199168 -0.258383 0.000466637
-0.401629 -0.181925 -0.260614 0.000498275
-0.414969 -0.186488 -0.257115 0.00182786
-0.174091 -0.266854 -0.266145 0.00121004
-0.183343 -0.274629 -0.261493 0.000973097
-0.160389 -0.278503 -0.261089 0.000271389
-0.169725 -0.285121 -0.257147 0.000388429
-0.062672 -0.231868 -0.252077 0.000399048
-0.0699265 -0.242828 -0.249405 0.0017245
-0.0498258 -0.235878 -0.248963 0.00185374
-0.0575563 -0.246429 -0.245959 0.000754949
0.200254 0.695847 0.215283 0.00192986
0.190929 0.706869 0.215046 0.00117289
0.20785 0.691049 0.227659 0.000673706
0.199055 0.702359 0.22747 0.00145506
0.192605 0.696534 0.203608 0.000344936
0.182863 0.706973 0.203575 0.00159716
0.198006 0.69464 0.217048 0.00113885
0.18868 0.705661 0.216812 0.00189582
0.237003 -0.0189055 0.102694 0.000367652
0.226705 -0.0247673 0.108798 0.00141569
0.236589 -0.00511284 0.110693 0.000959441
0.226806 -0.0106546 0.116391 0.000748324
0.19505 0.313989 -0.0212625 0.00104796
0.180052 0.311612 -0.0189949 0.00405261
0.206084 0.328212 -0.0164375 0.00160144
0.191144 0.325421 -0.0138301 0.000262304
-0.13481 0.131319 0.178172 9.14054e-05
-0.144721 0.121201 0.18197 0.00287673
-0.121898 0.13322 0.187268 0.00123501
-0.132319 0.123061 0.191051 0.00337429
0.138525 0.324987 0.0155358 0.00260567
0.129824 0.325049 0.0211052 0.00253359
0.140521 0.333953 0.0290793 0.00150861
0.13189 0.333631 0.0343912 0.000671982
0.35025 -0.375743 -0.420028 0.00367111
0.343235 -0.37164 -0.409888 0.0061335
0.35556 -0.383308 -0.412108 0.00313398
0.348079 -0.379559 -0.401818 0.00819872
0.215797 -0.221507 -0.365547 0.00303109
0.203428 -0.215962 -0.357479 0.000477844
0.226435 -0.223608 -0.36718 0.000819512
0.213666 -0.218699 -0.358855 0.00202818
-0.250266 0.0932998 -0.0848204 0.000920181
-0.265949 0.0962588 -0.078483 0.00236953
-0.239531 0.0926027 -0.0716063 0.00208614
-0.254633 0.0958788 -0.0651387 0.00143443
-0.523158 -0.168584 -0.104778 0.00055532
-0.521191 -0.190448 -0.104514 0.000275157
-0.528284 -0.164433 -0.0927273 0.00141245
-0.526663 -0.183263 -0.0899548 0.000402727
-0.398637 -0.356354 -0.0431392 0.00172247
-0.406826 -0.352157 -0.031855 0.000826988
-0.393963 -0.364545 -0.0324485 0.00198568
-0.402399 -0.360204 -0.0220573 0.00193191
-0.157951 -0.251358 0.284304 0.00114479
-0.170227 -0.252053 0.290719 6.30216e-05
-0.150221 -0.235553 0.280012 0.00112588
-0.160855 -0.239849 0.286725 0.000618562
0.1545 -0.0543454 0.323149 0.00273851
0.145368 -0.0584384 0.33536 0.00143039
0.163706 -0.0710463 0.331215 0.000472428
0.154401 -0.0747268 0.343423 0.000779844
0.300339 -0.0442059 0.281001 0.00136854
0.28715 -0.0483168 0.293064 0.00034745
0.298769 -0.0596487 0.289111 0.00101339
0.285431 -0.0637317 0.301008 0.000948172
0.354314 0.422381 0.182777 0.000519316
0.348449 0.431036 0.189039 0.00338263
0.361035 0.419544 0.195321 0.00703509
0.354838 0.428172 0.200812 0.00382642
-0.132834 -0.450392 0.0362629 0.00037113
-0.143912 -0.456893 0.0472932 0.000751858
-0.121799 -0.443548 0.0495247 0.000839281
-0.133445 -0.449913 0.0572204 0.00109401
-0.474337 -0.295349 0.0533259 0.000629989
-0.478477 -0.290044 0.0608745 0.00047161
-0.468982 -0.302494 0.0645252 0.000164397
-0.473047 -0.297052 0.0719295 0.00020438
-0.456406 -0.306843 -0.0069928 0.000714509
-0.465512 -0.301309 0.000479684 0.000697015
-0.454646 -0.309071 0.0061129 0.00266552
-0.463155 -0.303017 0.0138954 0.00157148
0.112824 0.334001 0.0648104 0.000738045
0.105354 0.328857 0.0723588 0.000994916
0.115118 0.342831 0.0769538 0.00132397
0.107551 0.336406 0.0852761 0.00103988
0.165834 -0.484205 -0.121121 0.00207616
0.166364 -0.4977 -0.119501 0.00191965
0.168639 -0.488125 -0.110143 0.000415482
0.169471 -0.500231 -0.105805 0.000841312
-0.475548 -0.438404 -0.230829 0.00341682
-0.488453 -0.434935 -0.224705 0.000770376
-0.467413 -0.426451 -0.222299 0.00103782
-0.480561 -0.420846 -0.215499 0.00349095
-0.528243 -0.251522 0.0411143 0.000209485
-0.537126 -0.240723 0.0449646 0.00266316
-0.517636 -0.251846 0.0564234 0.000961395
-0.52602 -0.241333 0.0599111 0.0032991
0.0938478 -0.608936 -0.141114 0.00137595
0.0841818 -0.613933 -0.130487 0.00302825
0.102158 -0.616528 -0.133328 0.00194483
0.0921565 -0.620679 -0.123264 0.000332706
-0.406961 -0.311578 -0.326155 0.000845479
-0.418987 -0.309164 -0.324592 7.08315e-05
-0.398931 -0.306454 -0.324141 0.00108469
-0.411699 -0.301384 -0.322124 0.00107991
0.368183 -0.0558277 0.15498 0.00243207
0.360609 -0.0614499 0.165278 0.0021812
0.372003 -0.0681828 0.158087 3.76722e-05
0.364368 -0.0735759 0.16811 0.000351294
-0.196179 -0.477229 0.0622471 0.00148948
-0.209282 -0.48068 0.0670625 0.00186075
-0.185823 -0.467372 0.0742417 0.000130715
-0.200303 -0.471181 0.0788977 0.000568337
-0.374708 -0.121923 -0.241187 0.000629261
-0.387826 -0.123808 -0.236402 0.00110706
-0.365144 -0.107966 -0.241147 0.00145547
-0.378772 -0.109685 -0.236419 0.00129113
-0.421182 -0.371489 0.0595359 0.00124602
-0.428522 -0.361837 0.068684 0.00134256
-0.413703 -0.377316 0.0752219 0.000789652
-0.420882 -0.367665 0.0844486 0.000553624
-0.0280879 -0.337873 0.12084 0.00132213
-0.0362856 -0.344853 0.124752 0.000627568
-0.028751 -0.326677 0.13108 0.000825175
-0.0369906 -0.333463 0.135329 0.000513235
-0.164632 -0.287068 -0.255501 0.000131841
-0.173141 -0.293083 -0.251159 0.000469239
-0.151494 -0.297024 -0.249563 0.00203131
-0.161275 -0.302622 -0.245557 0.00197004
0.155411 -0.334043 0.029334 0.000189083
0.142004 -0.333369 0.0374238 0.00121709
0.160416 -0.320433 0.0329632 0.000749421
0.146624 -0.321791 0.0404923 0.000657296
-0.0640005 -0.0477657 -0.182513 0.000679745
-0.0743561 -0.0401987 -0.177713 0.0012163
-0.0594173 -0.0372463 -0.174143 0.000194423
-0.069702 -0.0287613 -0.168537 0.00258875
-0.134763 -0.00573963 -0.174096 0.000332717
-0.143755 0.00454048 -0.169433 0.000226004
-0.128419 -0.00355256 -0.163231 0.000982915
-0.137713 0.00786549 -0.15677 0.000181002
0.353636 0.473914 0.239104 0.0084952
0.34625 0.482313 0.245305 0.0111044
0.365326 0.4657 0.249415 0.0084127
0.357875 0.47377 0.255417 0.00574935
0.072032 0.175342 -0.164846 0.00112018
0.0583474 0.179766 -0.15833 0.000254713
0.0779884 0.178807 -0.151985 3.34886e-05
0.0651703 0.182207 -0.146028 0.0013894
0.183207 -0.103958 0.114778 7.87689e-05
0.171892 -0.10707 0.121654 0.000503423
0.182933 -0.0865357 0.124581 0.00173304
0.171536 -0.0893337 0.130274 0.000453301
-0.543444 -0.305724 -0.0959178 0.00788415
-0.553408 -0.308301 -0.0843434 0.00401306
-0.541002 -0.300717 -0.0801899 0.000533105
-0.550288 -0.303367 -0.0677545 0.00831579
-0.0598362 -0.377124 0.119286 0.000208294
-0.0693777 -0.382429 0.124172 0.00143211
-0.0573422 -0.367348 0.134592 0.00145453
-0.0666159 -0.373031 0.138912 6.93912e-05
-0.257477 -0.343062 -0.182298 0.000314276
-0.272743 -0.345241 -0.173597 0.00106409
-0.246305 -0.353062 -0.174433 0.000439931
-0.262461 -0.354818 -0.165608 0.000753248
0.385886 -0.417124 -0.411665 0.00318523
0.377902 -0.417507 -0.403555 0.00324869
0.397953 -0.413861 -0.400477 0.00186018
0.385687 -0.411836 -0.395518 0.000935212
0.151567 0.129514 -0.243846 0.000239574
0.141199 0.138471 -0.230088 0.00322447
0.166183 0.126015 -0.236144 0.00148027
0.157011 0.136143 -0.221314 0.00189269
0.182373 0.157327 -0.273584 0.00114772
0.169951 0.165129 -0.268209 0.00033124
0.188398 0.164821 -0.263572 0.000951916
0.17665 0.172818 -0.25807 0.000614173
0.290993 0.427204 0.224947 0.00313734
0.285142 0.425691 0.228218 0.00242645
0.297247 0.426621 0.22654 0.00122765
0.292456 0.423862 0.228965 0.000889051
-0.286904 -0.638319 -0.155247 0.00200474
-0.296158 -0.643208 -0.147276 0.00283402
-0.278526 -0.648145 -0.14868 0.00367161
-0.288057 -0.651736 -0.141053 0.00186878
0.223872 0.151857 -0.0224452 0.00169657
0.213289 0.149937 -0.020232 0.000408876
0.237 0.154385 -0.0180425 0.000503585
0.228959 0.150722 -0.018024 0.00191172
0.269608 0.266188 -0.0517018 0.00559611
0.255653 0.278597 -0.0480043 0.00145181
0.284411 0.268718 -0.0499608 0.00430414
0.270198 0.282133 -0.0466764 0.000197004
0.0502448 -0.441198 -0.148299 0.00695289
0.0478934 -0.454289 -0.144654 0.00384274
0.0481393 -0.43963 -0.133278 9.77849e-05
0.04667 -0.452017 -0.126812 0.00152052
0.10602 0.751189 0.27319 0.00206823
0.101555 0.74274 0.280277 0.000622923
0.104869 0.756149 0.289364 0.00401037
0.100737 0.745142 0.292025 3.45142e-05
-0.0504256 -0.0704797 -0.202667 0.000345825
-0.0623982 -0.0640083 -0.198449 0.000706066
-0.0395949 -0.0601667 -0.196052 0.000848381
-0.0516778 -0.0546548 -0.191757 0.00118626
0.109358 0.0115573 0.314752 0.00115331
0.101063 0.00699962 0.325208 0.000655283
0.118299 -0.00343898 0.319063 0.000556431
0.109508 -0.00751308 0.329879 0.000130681
0.389411 -0.0438182 0.127639 0.000588111
0.381573 -0.0497714 0.132719 0.00319089
0.401716 -0.0503376 0.13102 0.00354083
0.394635 -0.0572279 0.13661 0.00116781
0.0385807 0.121961 0.322349 0.000302144
0.029361 0.122646 0.332029 0.00429723
0.0354562 0.109976 0.333625 0.00321633
0.0258746 0.111801 0.3424 0.00161886
-0.647443 -0.525228 -0.417678 0.00291859
-0.664334 -0.526885 -0.405911 0.00493587
-0.639665 -0.52509 -0.413086 0.00061188
-0.656901 -0.526751 -0.401246 0.00374614
0.344314 0.579554 0.305538 0.000286717
0.336574 0.591938 0.313105 0.000217689
0.347874 0.580411 0.314909 5.68358e-05
0.339595 0.592551 0.322819 0.000112547
0.498993 -0.350833 -0.483869 0.000489792
0.489901 -0.350477 -0.479478 0.00813937
0.504482 -0.354963 -0.475675 0.00111676
0.496753 -0.358362 -0.469163 0.00488709
-0.122105 0.106167 0.0378838 0.000143971
-0.129721 0.106888 0.0449017 0.00253931
-0.121437 0.110479 0.0509695 0.00125439
-0.127445 0.111207 0.0586969 7.01337e-05
0.217298 -0.253127 -0.0901911 0.00529933
0.214006 -0.262753 -0.0881153 0.00572102
0.218993 -0.247389 -0.0711399 0.00143133
0.215936 -0.257951 -0.0697452 0.000894347
0.179154 0.443585 0.203897 0.00487315
0.173474 0.428365 0.207271 0.00163641
0.188635 0.440946 0.212592 0.00254909
0.183171 0.42541 0.214785 0.000705467
0.0370919 0.079811 -0.0931717 0.000421547
0.022645 0.085856 -0.0884149 0.000929128
0.0530147 0.0880037 -0.0813349 0.00124401
0.0379391 0.0936052 -0.0763831 0.0003365
-0.0644201 -0.0709955 0.213152 0.00099773
-0.0684017 -0.0875205 0.21209 0.00123669
-0.0498149 -0.0771433 0.211897 0.00132579
-0.0530899 -0.093334 0.210153 0.0004596
-0.31191 -0.112019 0.285299 0.000334129
-0.318855 -0.129481 0.287465 0.00171883
-0.298036 -0.114859 0.290383 0.00239349
-0.305363 -0.132219 0.293161 0.000869168
-0.129668 -0.233434 -0.277669 0.00258589
-0.139998 -0.244815 -0.273735 0.00101025
-0.114591 -0.237607 -0.272886 0.00326919
-0.124685 -0.248869 -0.269309 6.32051e-05
-0.123033 -0.290537 -0.246815 0.000359666
-0.1379 -0.298435 -0.243687 8.95354e-07
-0.109232 -0.294008 -0.241771 0.00209489
-0.124581 -0.302343 -0.238412 0.000904241
0.404963 0.407145 0.281443 0.000850923
0.392033 0.410144 0.28668 0.00170711
0.409187 0.421622 0.289046 0.000767749
0.398617 0.420119 0.293569 0.00176866
0.063538 -0.154136 0.171384 0.00154028
0.0466601 -0.143981 0.180323 0.000567724
0.0731032 -0.136517 0.171783 0.000954148
0.0566201 -0.127845 0.180396 0.000184175
0.235065 -8.46758e-06 0.115473 0.000856385
0.225246 -0.00502854 0.121108 0.000132588
0.238487 0.0114577 0.119311 0.000246322
0.2287 0.00896953 0.124758 0.000717806
-0.343436 -0.49612 -0.113278 0.00175193
-0.348589 -0.504174 -0.107666 0.000541866
-0.346395 -0.484829 -0.104017 0.000929696
-0.350254 -0.49545 -0.0997703 0.000398218
0.168845 0.717892 0.356882 0.000183307
0.163269 0.703219 0.35474 0.00338298
0.185447 0.713623 0.355835 0.0013269
0.181403 0.69954 0.355164 0.000530689
-0.574858 -0.340372 -0.108862 0.00139952
-0.588019 -0.338259 -0.100568 0.00214301
-0.568501 -0.335619 -0.0941295 0.00175099
-0.581404 -0.334695 -0.0840178 0.00240914
0.108602 -0.357512 -0.133232 0.000740258
0.106453 -0.372067 -0.134678 0.000629844
0.121456 -0.366256 -0.132526 0.000930603
0.120277 -0.380282 -0.13468 0.000383631
-0.0425234 0.216526 -0.21995 0.000372335
-0.0555485 0.21886 -0.217042 0.000358553
-0.034587 0.224957 -0.213666 0.00106995
-0.0481957 0.22735 -0.210783 0.000470742
0.163106 -0.26811 -0.142983 0.00226616
0.155707 -0.275931 -0.138501 0.0014735
0.172877 -0.264064 -0.129494 0.00290947
0.165657 -0.272684 -0.125261 0.00329549
-0.00607157 0.00855616 0.413801 3.46307e-05
-0.0114639 0.00154843 0.423906 0.000321636
-0.00321677 -0.00641624 0.420225 0.000200852
-0.00865477 -0.0128677 0.430595 0.000418418
0.216719 -0.273638 -0.0642972 0.00202463
0.212675 -0.287865 -0.0664686 0.00214619
0.218688 -0.26361 -0.0506696 0.00269747
0.214512 -0.278075 -0.0522204 0.00267129
0.160777 0.578326 0.240241 0.000576994
0.153837 0.591148 0.248991 0.00109133
0.166905 0.579253 0.25352 0.00319063
0.159835 0.592678 0.261704 0.002159
-0.176582 -0.107142 -0.277911 0.00348853
-0.181749 -0.123888 -0.282171 0.00202902
-0.159417 -0.104796 -0.270698 0.000501564
-0.164251 -0.120674 -0.276032 0.000228838
-0.233094 -0.0590015 0.264987 0.000179445
-0.244217 -0.0660951 0.274244 0.00166605
-0.225928 -0.0644636 0.266172 0.00091224
-0.237815 -0.0713865 0.27587 0.00145666
-0.322517 -0.0274297 -0.237948 0.00152984
-0.335667 -0.0283978 -0.230034 0.000306426
-0.315688 -0.00662737 -0.236934 0.00305804
-0.328938 -0.00695649 -0.22901 0.00130947
-0.354883 -0.200364 0.246342 0.00191584
-0.357962 -0.212869 0.240703 0.00232795
-0.340798 -0.204059 0.254985 0.00106896
-0.343739 -0.216811 0.249472 0.000296339
0.128097 -0.368031 0.0333854 0.00107312
0.117407 -0.361586 0.0399444 0.000742771
0.13206 -0.35561 0.0375977 0.00184386
0.120448 -0.350162 0.0446449 0.000153664
0.297629 0.219374 -0.0440453 0.00329276
0.289333 0.218887 -0.0419278 0.00453098
0.304997 0.226927 -0.0336873 0.0104541
0.298541 0.221514 -0.0333036 0.00312344
-0.3172 -0.0853164 0.275526 0.00121892
-0.324158 -0.101719 0.278172 0.00138277
-0.303732 -0.0900426 0.281346 5.19899e-05
-0.310494 -0.107073 0.283962 0.000895087
0.0924779 0.253179 -0.148628 0.00117811
0.0797133 0.256433 -0.142925 0.000212215
0.105234 0.255371 -0.135018 0.000252254
0.0920784 0.258427 -0.130324 0.00102818
0.386338 -0.076197 0.194254 0.00406541
0.378703 -0.0774501 0.202418 0.00462073
0.38214 -0.0805641 0.204929 0.000900053
0.374633 -0.0811918 0.212554 0.00225576
-0.086031 -0.417371 0.0056884 0.000424536
-0.0945012 -0.425524 0.0127825 8.82336e-05
-0.0798371 -0.41359 0.0167615 0.00018022
-0.0881111 -0.421309 0.0237748 0.000157032
0.107516 0.293261 -0.0180749 0.0016051
0.0978045 0.297735 -0.00866732 0.00115225
0.112087 0.299382 -0.00596925 0.000334735
0.102828 0.303609 0.00347462 0.0020875
-0.604501 -0.501014 -0.264378 0.000631546
-0.604352 -0.516202 -0.272387 0.00297116
-0.590056 -0.498058 -0.258531 0.00128469
-0.589877 -0.513219 -0.266563 0.000777251
0.291626 0.519822 0.0516868 0.00277448
0.283053 0.525983 0.0595018 0.00177596
0.287496 0.519498 0.0622051 0.00184375
0.277222 0.525102 0.0701315 0.00400157
0.269255 0.51167 0.0551259 0.00801995
0.258316 0.517603 0.0635605 0.00427708
0.267447 0.516689 0.0639506 0.0025917
0.256624 0.522472 0.0719932 0.00921631
0.306125 0.537999 -0.0115328 0.00532197
0.307701 0.525776 -0.00870544 1.14799e-05
0.307376 0.534063 -0.00137041 0.00136859
0.308189 0.523753 0.00207267 0.00159854
-0.230608 -0.132539 0.303938 0.000223104
-0.241307 -0.144775 0.3118 0.00111215
-0.212638 -0.139991 0.302235 0.0014431
-0.222955 -0.154354 0.309212 3.63793e-05
-0.227532 -0.416312 0.149357 0.000682714
-0.245084 -0.408278 0.155441 0.000258148
-0.211855 -0.411721 0.159457 0.00113651
-0.229031 -0.404336 0.164314 0.000382901
0.117775 0.68045 0.271193 0.00195491
0.108995 0.692426 0.284208 0.00148749
0.117923 0.678378 0.288237 0.00060017
0.109447 0.690607 0.300197 0.00468337
-0.211558 0.0631731 -0.147825 0.0025873
-0.21932 0.0674687 -0.138418 0.000451134
-0.201384 0.061296 -0.131121 0.000791051
-0.208878 0.0655507 -0.121681 0.0008578
-0.0402747 -0.117619 -0.23705 0.00195055
-0.0533025 -0.112181 -0.234498 0.00164583
-0.0326327 -0.109936 -0.231349 0.000300065
-0.0454348 -0.105022 -0.227795 0.000425802
-0.658228 -0.500086 -0.303116 0.00375137
-0.66494 -0.514779 -0.305288 0.00108601
-0.648635 -0.492749 -0.287868 7.21784e-05
-0.655137 -0.509294 -0.289764 0.00166241
0.149342 0.771866 0.246792 0.00266876
0.142572 0.758761 0.246179 0.000776917
0.158281 0.779591 0.251962 0.00410039
0.152315 0.766104 0.249843 0.0012573
0.210421 0.859175 0.168383 0.00297004
0.204005 0.857151 0.179088 0.00108739
0.210934 0.84962 0.178427 9.26956e-05
0.204157 0.848047 0.189419 0.000701466
0.390436 0.359916 0.0815749 0.0061299
0.392865 0.347965 0.0838439 0.00634832
0.392765 0.355165 0.0956933 0.00153596
0.394052 0.348394 0.100115 0.00344357
0.31437 0.311171 0.217602 0.00269493
0.308142 0.294748 0.216438 0.00134989
0.329776 0.318441 0.218121 0.000561432
0.321551 0.308551 0.218415 0.000874833
0.0360779 -0.00566143 0.204766 0.000175106
0.0252409 -0.019386 0.207666 0.000949573
0.0570172 -0.00539906 0.197692 0.000306091
0.0457016 -0.0188232 0.200518 0.000166962
0.294573 0.286447 0.215379 0.00251847
0.284566 0.276747 0.217806 0.000758746
0.309364 0.30022 0.216814 0.00204997
0.300212 0.288357 0.218298 0.000729764
0.0915547 0.00113307 -0.172081 0.000425572
0.0767732 0.00653059 -0.170597 0.00232272
0.10149 0.00913508 -0.159202 0.00152286
0.0866808 0.0145525 -0.15803 7.30537e-05
0.345324 0.470437 0.264212 0.00129505
0.33777 0.479378 0.270556 0.00423609
0.355514 0.461049 0.275968 0.00776738
0.347855 0.470154 0.282358 0.00335881
-0.420077 -0.069637 -0.190185 0.000411101
-0.433316 -0.0755799 -0.185117 0.00068738
-0.41627 -0.0566229 -0.185975 0.00162997
-0.42885 -0.0616219 -0.180515 0.00145567
0.333084 0.413441 0.0631277 0.000965263
0.334041 0.410143 0.0704658 0.00025434
0.337988 0.407079 0.0737161 0.00193106
0.336414 0.411497 0.0841104 0.00219813
-0.0267607 0.236287 -0.0693397 0.00148999
-0.0399352 0.243632 -0.0584611 0.00148181
-0.016408 0.239461 -0.0545029 0.000303159
-0.030309 0.246915 -0.0438063 0.000390167
0.241047 -0.195912 -0.0719788 6.73742e-05
0.239129 -0.204067 -0.0644097 8.26805e-05
0.242993 -0.194363 -0.0597372 0.000325952
0.241403 -0.202479 -0.0516633 8.39967e-05
0.0440495 0.0210733 0.202518 0.000321621
0.0313175 0.00817115 0.207046 0.000581097
0.064799 0.0189025 0.195869 0.000429672
0.0526379 0.00566258 0.199871 6.55062e-05
0.144973 -0.327451 -0.123963 0.00377879
0.140258 -0.342202 -0.124604 0.00210842
0.158907 -0.333645 -0.114766 0.000548217
0.15504 -0.349561 -0.115425 0.00137541
-0.468251 -0.288177 0.128685 0.000453428
-0.470939 -0.277121 0.134616 2.17295e-05
-0.461045 -0.289024 0.142902 0.000161647
-0.463445 -0.279857 0.147501 0.000180244
0.0867927 0.17506 0.221645 0.00353471
0.0814922 0.166393 0.232046 0.00432558
0.0933322 0.163177 0.23042 0.000888741
0.0876354 0.155718 0.240674 0.000980265
-0.328067 -0.369422 -0.114878 0.000708524
-0.333146 -0.372437 -0.108875 0.000198365
-0.325185 -0.381161 -0.11047 0.000459893
-0.330208 -0.384413 -0.104703 1.85033e-05
0.348219 -0.0738852 0.244598 0.00196474
0.339735 -0.0701301 0.253443 0.00133712
0.345409 -0.0798339 0.252512 0.000334667
0.336733 -0.076588 0.261063 0.000969462
0.288724 -0.00880813 -0.0251451 0.00238745
0.285153 -0.0228753 -0.0279111 0.00128293
0.291225 -0.00148232 -0.00746269 0.00255831
0.287538 -0.0163854 -0.0109564 0.00166653
0.146503 0.719343 0.172989 0.000303313
0.136064 0.724665 0.18153 0.00311883
0.153483 0.721313 0.187269 0.00235964
0.143191 0.726294 0.195025 0.00255368
-0.353794 -0.623718 -0.149758 0.00171959
-0.360593 -0.63421 -0.137184 0.00576872
-0.344818 -0.64085 -0.142519 0.00245514
-0.35133 -0.64892 -0.129925 0.00219446
0.0437159 0.0218874 0.359189 0.00177344
0.0369443 0.0182744 0.368253 0.00108736
0.0476713 0.00849644 0.363976 0.00261711
0.040899 0.00474196 0.373199 0.00187926
-0.403051 -0.370751 0.12556 0.00258389
-0.410225 -0.361536 0.132729 0.00176357
-0.396538 -0.368655 0.138836 0.000128773
-0.404703 -0.359446 0.14477 0.000352912
-0.392908 -0.127597 -0.237139 0.000149805
-0.405431 -0.129498 -0.232441 0.000257928
-0.383178 -0.11324 -0.236292 0.0013423
-0.396405 -0.115201 -0.231808 0.00163207
0.162331 0.0788112 0.227989 0.000539812
0.154933 0.075745 0.237441 0.000379115
0.163607 0.0624567 0.236635 0.00166369
0.157142 0.0573299 0.246805 0.000711202
-0.116415 -0.254402 0.251915 0.00155222
-0.128671 -0.257381 0.25991 0.000832369
-0.11655 -0.246133 0.253385 0.00209027
-0.129725 -0.246234 0.263121 0.000658212
-0.648479 -0.509281 -0.291589 0.00447314
-0.656005 -0.522548 -0.294149 0.000660599
-0.638083 -0.50222 -0.277397 0.000574065
-0.64405 -0.516944 -0.281268 0.00180491
-0.229339 -0.581309 -0.0793308 0.000855535
-0.229874 -0.593586 -0.0750163 0.000325748
-0.229379 -0.5809 -0.0668801 0.00133738
-0.231008 -0.591141 -0.0617166 0.00376252
-0.0362922 -0.372142 0.0592417 8.11129e-05
-0.0447615 -0.378774 0.0677022 0.000578189
-0.0321047 -0.366457 0.0717465 0.000290204
-0.0404157 -0.373055 0.0797132 0.00039305
0.210536 0.699162 0.243419 0.000905765
0.204284 0.705608 0.242743 0.00357115
0.214083 0.705644 0.254286 0.00130815
0.212264 0.704207 0.253218 0.000371556
-0.281465 -0.519245 0.0190101 0.00159743
-0.290763 -0.514636 0.0189718 0.00223615
-0.273488 -0.516038 0.0297527 0.00120874
-0.282902 -0.511013 0.0296574 4.49746e-05
0.272222 -0.278497 -0.378091 0.00149342
0.261575 -0.274799 -0.368816 0.000852999
0.279603 -0.288249 -0.377217 0.00144485
0.268842 -0.284573 -0.367556 0.000536985
0.248561 -0.112118 -0.186652 0.00168485
0.241968 -0.104014 -0.181715 0.00191662
0.251529 -0.112142 -0.173492 0.000317148
0.246774 -0.105882 -0.167879 0.000776811
-0.232828 -0.339614 -0.195951 0.00179117
-0.237148 -0.348112 -0.186681 0.00297869
-0.22041 -0.348152 -0.189386 0.000961046
-0.224906 -0.357586 -0.179713 0.00217663
-0.553188 -0.486423 -0.257264 3.59318e-05
-0.565446 -0.483357 -0.255505 0.00228784
-0.540422 -0.48208 -0.252218 0.0030739
-0.552764 -0.47928 -0.250461 0.000241237
0.258427 0.838955 0.242366 0.00115543
0.250767 0.834688 0.253759 0.00588898
0.259656 0.837444 0.252718 0.000501729
0.252499 0.832872 0.263979 0.0035455
-0.119986 -0.341179 -0.189583 0.000520998
-0.129006 -0.347413 -0.184809 0.000949519
-0.111188 -0.345751 -0.182265 0.00201499
-0.119989 -0.351933 -0.177746 0.00169025
-0.341585 -0.558179 -0.0534232 0.000786141
-0.342623 -0.57174 -0.0599708 2.11584e-05
-0.33499 -0.557321 -0.0413756 0.00305936
-0.335778 -0.572236 -0.0492325 0.00337138
0.366166 -0.064229 0.220999 0.000786947
0.357182 -0.0600569 0.23024 0.00134825
0.363461 -0.0723519 0.229442 0.000638366
0.354331 -0.0678209 0.238415 0.000296952
0.051417 -0.572409 -0.164479 0.000210897
0.0453714 -0.574925 -0.154452 0.00294686
0.0525153 -0.58282 -0.155928 0.00255912
0.0473161 -0.586078 -0.146265 0.000492419
-0.145816 -0.0128288 -0.201794 0.0024014
-0.155089 -0.00486082 -0.202158 0.00230963
-0.141115 -0.010575 -0.189847 0.000389067
-0.15065 -0.00213949 -0.189386 0.000268785
0.260048 -0.195543 -0.170024 0.00349168
0.252971 -0.20146 -0.161768 0.000784998
0.256208 -0.189967 -0.155589 0.000679511
0.249577 -0.195857 -0.147694 0.000990868
0.127189 -0.491716 -0.15294 0.00241375
0.125032 -0.511527 -0.163406 0.000342115
0.139207 -0.48585 -0.147736 0.000677633
0.137645 -0.504819 -0.157268 0.00325521
-0.049239 0.0725052 -0.0856693 0.00130874
-0.0606652 0.072835 -0.0803614 0.00204939
-0.0411087 0.0822964 -0.0753426 0.00084143
-0.053289 0.0808179 -0.0715697 0.000310325
0.237921 -0.101027 -0.197845 0.00044052
0.230678 -0.0921283 -0.194139 3.39755e-05
0.240798 -0.100026 -0.182519 2.03368e-05
0.233868 -0.0916221 -0.178128 0.000266814
0.0949581 0.315444 0.0477147 0.00429816
0.0874571 0.312789 0.0543015 0.00508521
0.0995312 0.324506 0.0600521 0.00194016
0.0922091 0.32004 0.0672153 0.000852482
-0.305667 -0.589758 -0.0433287 0.000260887
-0.312877 -0.602006 -0.0522113 0.00153471
