0.720538 -0.33873 -0.247778 0.000684013
0.712649 -0.357583 -0.23574 0.00132534
0.725638 -0.329883 -0.223917 0.000924041
0.718353 -0.347497 -0.211811 0.000402846
0.663066 -0.491317 -0.193085 7.40507e-05
0.655657 -0.507753 -0.181065 0.000983431
0.666852 -0.486015 -0.174737 0.00171956
0.659509 -0.502072 -0.162614 0.000587697
0.448864 0.613184 -0.317624 0.00189939
0.433348 0.628473 -0.318895 0.00250094
0.46234 0.613907 -0.297021 0.00179836
0.446507 0.631289 -0.296727 0.00107468
0.308728 -0.444896 0.621465 0.000747591
0.290094 -0.444052 0.639206 0.00175076
0.314532 -0.426527 0.638627 0.00190656
0.296101 -0.426634 0.655135 0.000857641
-0.373821 0.543716 0.46106 0.00127793
-0.378958 0.531089 0.467118 0.000451587
-0.359248 0.53942 0.478144 0.000247911
-0.364395 0.526834 0.484332 0.00047493
0.617291 -0.615469 -0.00129449 0.00160851
0.609992 -0.631037 0.0164935 0.000347424
0.61855 -0.61227 0.0270866 0.0016427
0.611061 -0.627995 0.0431611 0.000259295
-0.12589 0.637112 0.559249 6.78057e-05
-0.140362 0.628041 0.574535 0.0029525
-0.104704 0.632211 0.573507 0.000576508
-0.117063 0.622344 0.590555 0.00255979
-0.764925 -0.219396 0.252691 0.00180194
-0.769346 -0.213336 0.274085 0.000165935
-0.759581 -0.235419 0.282192 0.00107796
-0.764467 -0.229672 0.303118 0.00143682
-0.529419 -0.125287 0.64951 0.00100794
-0.549697 -0.147198 0.636387 0.00401706
-0.498613 -0.117925 0.662013 0.00169322
-0.51929 -0.139409 0.649484 0.00263176
-0.407304 0.550816 0.417665 0.000346272
-0.416822 0.532427 0.429168 0.0011718
-0.399496 0.544261 0.435091 0.00142059
-0.406791 0.528517 0.444386 0.00191006
0.00146629 0.724838 -0.331143 0.00062617
-0.0247974 0.728643 -0.319135 0.000103451
0.0181387 0.726023 -0.318316 0.00284266
-0.00307792 0.732861 -0.299216 0.00327294
0.614933 0.5885 -0.169634 0.00191769
0.601123 0.608946 -0.166844 0.000301126
0.632809 0.581531 -0.155605 0.00399754
0.620277 0.601684 -0.150872 0.000520676
0.847867 0.0016041 0.29552 0.00202749
0.845821 -0.0130237 0.30728 0.000135247
0.847129 0.00271076 0.320738 0.00232219
0.847502 -0.0140424 0.333746 0.00206881
-0.54635 -0.62993 0.193884 0.00359328
-0.561665 -0.612783 0.193842 0.00467499
-0.532393 -0.633368 0.212178 0.000894509
-0.548376 -0.614287 0.213151 0.00033178
-0.229343 -0.666935 -0.482415 0.00133245
-0.244659 -0.668557 -0.466409 0.00187002
-0.209855 -0.680412 -0.461091 0.00549097
-0.225063 -0.682476 -0.446341 0.00215577
0.246608 0.667835 -0.468791 0.00395407
0.230029 0.678984 -0.460914 0.00409355
0.264643 0.668072 -0.450598 0.0039984
0.247726 0.679727 -0.443911 0.0012788
-0.0973603 -0.291816 -0.81318 0.000264585
-0.109705 -0.322538 -0.809658 0.000849685
-0.0622745 -0.290971 -0.826583 0.000264254
-0.073725 -0.320782 -0.823933 0.00134729
-0.304774 0.817408 0.0820215 0.00178681
-0.311932 0.810671 0.0990802 0.0019946
-0.290333 0.812937 0.099005 9.57693e-05
-0.297177 0.8059 0.11525 0.000682882
0.277674 0.458585 0.640855 0.000421208
0.263324 0.440923 0.666193 0.00343219
0.288597 0.432866 0.656044 0.000648693
0.273479 0.414762 0.68321 0.00284874
0.103292 -0.527287 0.74698 0.000677847
0.0829133 -0.53174 0.757558 0.00240927
0.111158 -0.506735 0.76184 0.00193233
0.090726 -0.509928 0.772967 0.00159581
-0.57444 0.112522 -0.636277 0.00470744
-0.595015 0.115665 -0.623922 0.000505627
-0.561064 0.130655 -0.63952 0.00296479
-0.581373 0.135791 -0.626814 0.00165962
-0.0006661 -0.667826 -0.483373 0.00168659
-0.0108923 -0.675869 -0.461851 0.00151895
0.0237107 -0.677401 -0.46004 0.00230332
0.0134382 -0.686234 -0.439854 0.00335174
0.193114 -0.143009 0.776451 0.000410176
0.177372 -0.170187 0.783963 0.000991689
0.223671 -0.143116 0.76399 0.00115012
0.211068 -0.170945 0.769727 0.000286342
-0.599235 -0.589042 0.180571 0.00435432
-0.610899 -0.572874 0.185362 0.0041885
-0.585804 -0.593412 0.204241 0.00407882
-0.598856 -0.575953 0.207441 0.00338398
-0.609891 -0.483563 0.280844 0.00120574
-0.629343 -0.463692 0.279548 0.00219514
-0.58616 -0.484812 0.303831 0.000912186
-0.605553 -0.465215 0.302109 0.00202618
-0.519441 0.665288 -0.193032 0.000793211
-0.540288 0.652978 -0.185631 0.0014484
-0.521295 0.678285 -0.17609 0.000414323
-0.537218 0.673628 -0.163105 0.00140647
-0.14504 -0.753297 -0.255324 0.000156699
-0.160456 -0.759906 -0.240732 0.00112178
-0.12615 -0.758826 -0.239276 0.000407073
-0.141107 -0.765989 -0.223521 0.000663456
0.00677055 0.763683 0.222316 0.00191989
-0.0108576 0.757311 0.239136 0.00187216
0.0265985 0.756648 0.242263 0.00137494
0.00883825 0.750353 0.258446 0.00147902
-0.501696 0.493773 0.382652 0.00100308
-0.515683 0.473149 0.388771 0.000704645
-0.485156 0.493559 0.398253 0.000337429
-0.497929 0.472963 0.406059 0.000327332
0.740555 -0.284335 -0.285084 0.00139547
0.733061 -0.302665 -0.275271 0.00185483
0.747167 -0.273901 -0.260722 0.00105869
0.740192 -0.291562 -0.250721 0.000843573
0.223155 -0.727992 -0.324241 0.00110999
0.204082 -0.731805 -0.311564 0.000148303
0.239742 -0.734017 -0.305764 0.000144992
0.223211 -0.739213 -0.292267 0.000180551
-0.161648 -0.0735144 0.788315 0.000552716
-0.166675 -0.106329 0.788107 0.00104686
-0.135981 -0.0890222 0.796135 0.00240892
-0.141823 -0.12261 0.795746 0.000687209
0.0217249 -0.184689 -0.839801 0.00238394
0.00943198 -0.207746 -0.841717 0.00498049
0.0504302 -0.187813 -0.833064 0.0015629
0.0381097 -0.209277 -0.836003 8.69788e-05
0.123219 0.731095 -0.319655 0.00237281
0.111821 0.736105 -0.299209 0.000244632
0.138661 0.737955 -0.299872 0.00172053
0.126128 0.742435 -0.280407 0.00104037
-0.590793 -0.659445 -0.0891749 0.00745185
-0.603617 -0.646561 -0.0724213 6.8202e-05
-0.59221 -0.666321 -0.0634578 0.00367424
-0.603704 -0.651524 -0.0466817 0.00178365
-0.162366 -0.407515 0.785933 0.00252135
-0.164416 -0.437412 0.772877 0.000968948
-0.137912 -0.408434 0.804646 0.00622978
-0.141894 -0.430844 0.792965 0.00325964
0.844122 0.0488885 0.428221 0.0113438
0.839732 0.0279884 0.439446 0.000214315
0.840776 0.0468574 0.456919 0.0074928
0.835517 0.0321412 0.46941 0.00267064
-0.389375 -0.381092 -0.605486 0.000249807
-0.411168 -0.380497 -0.5856 0.000508221
-0.37688 -0.405294 -0.593156 0.00060944
-0.397087 -0.407112 -0.572756 0.000328264
0.788144 0.164715 0.260281 0.000381678
0.782415 0.176913 0.278004 0.000617782
0.789675 0.15553 0.287862 0.00146592
0.783534 0.168583 0.305749 0.00254509
-0.38866 -0.828947 -0.0823037 0.00909378
-0.408551 -0.827678 -0.0679096 0.00276994
-0.37694 -0.833053 -0.0611436 0.00537624
-0.401365 -0.833288 -0.0487353 0.00116752
-0.442944 -0.545289 -0.391591 0.00198506
-0.459097 -0.548047 -0.373242 0.00230822
-0.43948 -0.563747 -0.374633 0.000850658
-0.455524 -0.567608 -0.35618 0.00168926
-0.784519 0.172869 -0.0447269 9.56223e-05
-0.792162 0.154772 -0.0345967 0.000587207
-0.780104 0.182896 -0.0242106 0.000642609
-0.78813 0.16364 -0.0195755 1.50695e-05
0.136482 0.449301 -0.787846 0.00159145
0.123347 0.445833 -0.795483 0.00676866
0.155926 0.45558 -0.767412 0.00146312
0.137298 0.47095 -0.770974 0.00163822
0.101577 0.541381 0.728675 0.00274226
0.0885839 0.541497 0.743055 0.00187488
0.114995 0.522164 0.738832 0.000226212
0.101952 0.521808 0.753058 0.000249776
0.0991025 0.664448 0.481833 0.00201872
0.0870396 0.658052 0.501785 0.000874937
0.109082 0.654916 0.506009 0.00229808
0.0972912 0.648983 0.526211 0.000629253
-0.633114 -0.267815 -0.476132 0.00039097
-0.646717 -0.285834 -0.451236 0.00427391
-0.622744 -0.293892 -0.459197 0.000318408
-0.636888 -0.310692 -0.434713 0.00341166
0.313194 -0.851523 -0.0181909 0.00730501
0.29528 -0.850951 -0.00369454 0.00159907
0.329457 -0.851411 0.002201 0.00149563
0.310694 -0.850967 0.0144313 0.00544438
0.372631 -0.0329622 -0.707404 0.00085431
0.365366 -0.0581771 -0.708797 0.00214568
0.394396 -0.0382869 -0.70318 0.00296497
0.387049 -0.0629518 -0.704347 0.0014344
0.362961 -0.0107021 -0.710856 0.00108023
0.356512 -0.034604 -0.713085 0.00130024
0.383721 -0.0111766 -0.70599 0.00178165
0.376708 -0.0357571 -0.707454 0.000647628
-0.213237 0.727741 -0.320847 0.000335583
-0.231991 0.732786 -0.3065 0.000742865
-0.195494 0.739282 -0.293783 0.000786083
-0.215663 0.744196 -0.279894 0.000422161
0.782944 0.045704 -0.540232 0.00433263
0.767015 0.0657391 -0.543469 9.24567e-05
0.801491 0.0507642 -0.517549 0.00379932
0.785252 0.0765854 -0.517937 0.00195815
0.370798 -0.81307 0.0977527 0.000227045
0.352383 -0.807704 0.113017 0.000205031
0.385492 -0.804826 0.119312 0.000237843
0.366791 -0.798775 0.134837 0.000351493
0.451039 0.0193483 0.678783 0.000381341
0.445944 -0.00944065 0.682584 0.00211506
0.475023 0.0144043 0.666659 0.00238364
0.471464 -0.016454 0.670397 0.000162309
0.327613 0.257165 -0.723051 0.00230206
0.321415 0.230546 -0.725906 0.00184721
0.353858 0.257835 -0.717815 0.00217046
0.346255 0.233426 -0.720666 0.00212031
-0.610447 -0.132212 0.609989 0.00700533
-0.622822 -0.132646 0.604523 0.00769405
-0.588918 -0.131251 0.623242 0.00230467
-0.604324 -0.136593 0.616344 0.00325261
-0.679155 0.437864 -0.261279 0.00110318
-0.692017 0.414725 -0.246716 0.000210673
-0.675787 0.452325 -0.241572 0.0019576
-0.689006 0.430406 -0.22792 0.00257064
-0.189021 -0.29081 0.782223 0.00352216
-0.199123 -0.314717 0.774348 0.000230801
-0.151912 -0.292038 0.792594 3.01588e-05
-0.16188 -0.314633 0.786615 0.00205774
-0.828332 -0.0582606 0.198627 6.31441e-05
-0.837163 -0.0419503 0.221761 0.00236714
-0.827725 -0.0637907 0.230452 0.00134432
-0.834572 -0.0498743 0.253892 0.00277354
-0.43957 -0.187021 0.684589 0.00171373
-0.438468 -0.216031 0.677392 0.00540231
-0.419923 -0.193245 0.692383 0.00198613
-0.419682 -0.216721 0.687624 0.00254616
0.203719 0.431134 0.755068 0.00781431
0.183537 0.418957 0.770231 0.00211232
0.220637 0.408067 0.751802 0.00237805
0.200963 0.395556 0.765641 0.00770864
0.804115 0.113252 -0.331455 0.00306373
0.803485 0.116436 -0.306943 0.00251627
0.807178 0.106692 -0.299233 0.00254201
0.810893 0.101921 -0.277388 0.000773472
0.355719 0.537074 0.485888 0.00132649
0.343372 0.532439 0.501312 0.000426203
0.362182 0.51177 0.500785 0.000951807
0.349959 0.50592 0.516845 0.00211448
0.764895 -0.199779 -0.422404 0.00617367
0.754405 -0.216802 -0.419141 0.00805986
0.769751 -0.191557 -0.403128 0.00689829
0.76052 -0.208156 -0.400045 0.00442584
-0.0255553 0.736046 0.304294 0.00151459
-0.0484316 0.731873 0.314987 0.00143322
-0.00803532 0.72611 0.3201 0.00212507
-0.0291129 0.721719 0.331353 0.00221248
-0.174841 0.747002 -0.275366 0.00142799
-0.197256 0.751634 -0.263071 0.00136747
-0.153216 0.752747 -0.254527 0.000641547
-0.177009 0.757408 -0.243712 0.000148517
0.0620761 -0.0797571 0.828075 0.0010591
0.0499931 -0.108425 0.832409 0.000794986
0.0929507 -0.0853562 0.813299 0.00172669
0.0789176 -0.114741 0.819443 0.00099281
-0.356394 0.57081 0.451285 0.00121383
-0.363095 0.559143 0.455334 0.000684974
-0.342571 0.56805 0.466291 0.00030461
-0.349385 0.556641 0.470572 0.000123786
-0.219895 0.147573 0.766393 0.000252866
-0.23095 0.130318 0.762969 0.000492579
-0.198882 0.145008 0.775829 0.00106596
-0.209808 0.12696 0.772169 0.00154455
0.491711 -0.819462 0.0699628 0.00274385
0.473307 -0.820936 0.0743889 0.00121525
0.500337 -0.807578 0.086818 0.010594
0.481621 -0.808694 0.0904576 0.00253409
0.486721 -0.438592 -0.447145 0.00226748
0.477054 -0.456552 -0.442414 0.000210566
0.506891 -0.438794 -0.429576 0.000649157
0.497783 -0.456422 -0.424805 0.00151552
0.21516 -0.166266 0.769671 0.00112104
0.203314 -0.195379 0.775458 0.00230123
0.247585 -0.166705 0.754204 0.00175882
0.239091 -0.19954 0.758746 0.000548076
0.681347 -0.390575 0.299994 0.00258006
0.664378 -0.400164 0.31067 0.000677969
0.683514 -0.369646 0.321471 0.00101128
0.665957 -0.377788 0.332452 0.00010825
0.851351 0.0187467 0.378738 0.00734318
0.849679 -0.00692332 0.389407 0.00156271
0.853529 0.0287869 0.407501 0.0129595
0.85033 0.00343304 0.417458 0.000925829
0.734216 -0.295083 -0.357276 0.00588256
0.726876 -0.314437 -0.346369 0.00652287
0.73892 -0.29201 -0.334517 0.000184929
0.731813 -0.310841 -0.323575 0.000102424
0.335812 0.22611 -0.720556 0.00170831
0.327774 0.202502 -0.723667 0.0016699
0.360572 0.226048 -0.714812 0.00176226
0.351971 0.203499 -0.717635 0.00132912
0.0579121 0.0978211 0.823623 0.00458607
0.0482402 0.0654081 0.831714 0.000479037
0.0918395 0.0932463 0.810784 0.00447219
0.0825117 0.0595342 0.819709 0.000537971
0.836239 -0.0412301 0.266348 0.00124639
0.832048 -0.0536848 0.278762 0.00177553
0.83704 -0.0388547 0.290925 0.00114797
0.832896 -0.0517946 0.304357 0.00189304
-0.12454 0.438565 0.794998 0.00755423
-0.140487 0.41137 0.79936 0.00221108
-0.0859198 0.446309 0.807451 0.00969775
-0.102593 0.418932 0.811414 4.71365e-05
0.674079 -0.462604 0.00341626 0.0001155
0.666671 -0.480788 0.0295746 0.000315016
0.67972 -0.455573 0.0286278 0.00287507
0.672714 -0.473536 0.0511022 0.00274207
-0.590751 -0.69445 0.0647249 0.00500316
-0.60176 -0.679645 0.0715712 0.0100028
-0.575734 -0.704975 0.0877011 0.00460488
-0.587962 -0.689709 0.0912843 0.000706077
-0.318468 -0.442635 0.616863 0.000913567
-0.333068 -0.428879 0.617121 0.00154947
-0.311219 -0.417772 0.644121 0.00188915
-0.317664 -0.427756 0.6384 0.00429251
-0.358757 -0.724023 -0.300073 0.00373388
-0.371348 -0.726677 -0.284949 0.00380311
-0.349114 -0.744245 -0.281198 0.000933106
-0.361884 -0.747652 -0.265418 0.000827126
-0.180544 -0.508478 0.683295 0.00235027
-0.197734 -0.48126 0.694085 0.00190974
-0.167877 -0.498001 0.710569 3.58146e-05
-0.186291 -0.468688 0.722226 0.000472751
-0.10179 -0.742278 0.280366 0.00120179
-0.129942 -0.74145 0.286476 0.000204956
-0.0855189 -0.732764 0.304985 0.00130436
-0.113203 -0.731896 0.311346 0.000155713
0.762728 -0.239053 0.294359 0.00315862
0.750122 -0.258525 0.300992 0.00166722
0.766648 -0.223428 0.319888 0.00124638
0.753992 -0.24269 0.325668 0.00370414
0.53124 0.618547 -0.226599 1.36643e-06
0.515179 0.639127 -0.224327 0.00129607
0.540597 0.629312 -0.204299 0.00125878
0.524584 0.649834 -0.202566 0.000345741
-0.427126 -0.681678 0.261966 0.00324273
-0.43967 -0.663384 0.266886 0.00372086
-0.418101 -0.674389 0.285405 0.000872784
-0.430946 -0.656294 0.290862 0.000991717
-0.452742 -0.726819 -0.19931 0.00143348
-0.464068 -0.731892 -0.181745 0.000761399
-0.445065 -0.74941 -0.181039 0.000502933
-0.457026 -0.7535 -0.162775 0.00178032
-0.327345 -0.264538 -0.73127 0.00527988
-0.331094 -0.298626 -0.721214 0.00277697
-0.294336 -0.279158 -0.740958 0.00254931
-0.301048 -0.311164 -0.730303 0.00500824
0.237213 -0.631411 -0.506294 0.000846851
0.22863 -0.646441 -0.494506 0.00393118
0.253321 -0.632948 -0.48889 0.000708723
0.244562 -0.648625 -0.477882 0.00306945
0.607179 -0.468107 0.296845 0.00245674
0.587985 -0.473814 0.30923 0.00309233
0.608803 -0.451308 0.316832 0.000322891
0.589568 -0.456682 0.32828 0.00107133
0.0153712 0.169648 0.846451 0.00156095
0.00642136 0.139799 0.847356 0.000786278
0.0439737 0.153454 0.841956 0.00756661
0.0347522 0.123917 0.843055 0.0053029
-0.777348 -0.188495 0.261563 0.00121973
-0.782248 -0.181414 0.283678 0.00083111
-0.774384 -0.199082 0.296479 0.000212184
-0.780249 -0.193226 0.317356 0.00317817
-0.0521514 -0.69777 0.400277 9.54888e-06
-0.0714763 -0.695786 0.406582 0.000405689
-0.0375881 -0.69036 0.420741 0.000387672
-0.0585912 -0.689245 0.426749 0.00148979
0.568497 -0.743465 -0.00832601 0.00170463
0.560021 -0.757403 0.00686531 0.00124047
0.571422 -0.736548 0.0160449 0.00196826
0.56244 -0.749779 0.0305599 0.0017007
0.088026 -0.297394 -0.817271 0.000227462
0.0787269 -0.317722 -0.819413 0.00108919
0.112222 -0.308101 -0.809784 0.00186485
0.102886 -0.328111 -0.812272 0.000859081
0.276926 0.725963 0.339477 0.0046506
0.256749 0.722904 0.355152 0.00738694
0.292026 0.707982 0.355196 0.00653701
0.271875 0.705649 0.370797 0.00314748
0.531414 0.379014 -0.46974 0.00218368
0.515116 0.39989 -0.467157 0.00333607
0.546729 0.385813 -0.443164 0.000392513
0.530814 0.403358 -0.443103 0.000514029
0.613773 0.603637 -0.119074 0.0059
0.604775 0.622128 -0.110222 0.00770683
0.621818 0.601971 -0.100005 0.00102109
0.615171 0.617876 -0.0868062 0.000486767
0.78312 0.190822 -0.202106 0.00500222
0.771285 0.209597 -0.176171 0.000643956
0.787812 0.177867 -0.171802 0.0047641
0.775747 0.196315 -0.145729 7.44308e-05
-0.577671 0.419154 0.384224 0.00269299
-0.592615 0.403036 0.388878 0.00470069
-0.559793 0.416271 0.400645 0.000187946
-0.572988 0.398346 0.40578 0.000420481
-0.472305 -0.480369 0.423044 0.00038515
-0.486819 -0.466452 0.420755 0.00136176
-0.459392 -0.47533 0.444041 0.00137335
-0.474191 -0.461715 0.440947 0.000269711
-0.752168 0.254932 0.0959952 0.00103795
-0.758457 0.241113 0.114683 9.58876e-05
-0.751539 0.256272 0.124999 0.00114762
-0.757856 0.242514 0.143548 0.000156902
0.284253 -0.509617 0.579982 0.00146043
0.265925 -0.500109 0.605793 0.00263132
0.284519 -0.493813 0.602466 0.00254817
0.266414 -0.484831 0.627928 0.00161037
-0.266419 0.708123 0.384935 0.00420777
-0.277955 0.698853 0.397131 0.000101942
-0.250851 0.701667 0.400772 0.00382676
-0.260915 0.692665 0.413911 0.000104408
0.313683 -0.393886 -0.665329 0.00201289
0.30466 -0.411636 -0.658442 0.000950459
0.332913 -0.394834 -0.648048 0.00033982
0.323257 -0.412176 -0.64229 0.000773002
-0.223408 -0.21569 -0.76479 0.000496163
-0.237047 -0.237322 -0.759411 0.000655322
-0.191794 -0.213453 -0.777574 0.00016817
-0.206202 -0.236572 -0.77185 3.94527e-05
-0.792613 0.155899 0.0586826 0.00141047
-0.7989 0.138718 0.0643725 0.0011507
-0.786659 0.169987 0.0721757 0.000875603
-0.793158 0.153744 0.0806751 0.00115095
0.755057 -0.247771 -0.0222565 0.000895465
0.748472 -0.265465 -0.00654114 0.000731713
0.760261 -0.237788 0.000293425 0.000402991
0.753951 -0.255634 0.0179978 0.000877977
0.619139 0.311501 -0.445201 0.000313688
0.606159 0.332169 -0.443944 0.00339951
0.63201 0.319099 -0.416838 0.00487111
0.618185 0.339 -0.416655 0.00146881
0.0554665 -0.587806 -0.687532 0.000216619
0.0407942 -0.594463 -0.673161 0.000872143
0.0698302 -0.59578 -0.667556 0.000101707
0.0571794 -0.602984 -0.651192 0.000992305
-0.348804 -0.737261 0.287332 0.00172643
-0.364199 -0.725881 0.293404 0.00409739
-0.335956 -0.731993 0.307702 0.000424497
-0.350848 -0.720456 0.313061 0.00460727
0.177146 0.267509 -0.781739 0.00116644
0.168443 0.238647 -0.784008 0.00215169
0.203726 0.269493 -0.774443 0.00150013
0.197268 0.238111 -0.776156 0.000796509
-0.378772 -0.769021 0.214075 0.000126529
-0.395477 -0.755238 0.225329 0.000198706
-0.364571 -0.767174 0.235302 0.00597387
-0.380466 -0.756878 0.243083 0.00233133
0.449445 -0.3444 0.584522 0.00114438
0.427654 -0.348556 0.598013 0.00124858
0.450882 -0.326845 0.603267 0.00266098
0.428692 -0.330225 0.617025 0.000256438
-0.083672 -0.193301 -0.817711 0.000914998
-0.0959308 -0.223005 -0.812507 0.00140319
-0.0483678 -0.194417 -0.831124 0.000984703
-0.0601437 -0.224854 -0.826938 0.000693258
-0.67761 -0.457521 0.145416 0.00159902
-0.685779 -0.43796 0.161591 0.0022518
-0.673531 -0.460085 0.173565 0.0012959
-0.682753 -0.438415 0.189822 0.000412788
-0.352378 0.474655 0.542882 0.00373615
-0.366206 0.459335 0.545975 0.0028127
-0.336755 0.479683 0.557209 0.0015806
-0.350809 0.464556 0.561876 0.000493519
-0.325974 -0.326031 0.721997 0.00137598
-0.327453 -0.362239 0.707173 0.0118237
-0.298581 -0.313929 0.747538 0.0102113
-0.299553 -0.3554 0.732733 0.00652378
-0.0825283 -0.331331 -0.821364 0.00208941
-0.0951448 -0.356821 -0.815862 0.00145115
-0.0597504 -0.343905 -0.826228 0.0014966
-0.0693877 -0.367239 -0.821693 0.00229317
0.352628 0.340123 0.688794 0.00298027
0.332133 0.330717 0.703262 0.00593183
0.372669 0.324858 0.688501 0.00556859
0.352841 0.313761 0.70193 0.00453281
0.481813 0.465878 -0.431374 0.00154715
0.463728 0.482858 -0.433626 0.00220926
0.503478 0.46955 -0.400141 0.00185625
0.48595 0.482254 -0.406909 0.000733293
0.0338311 0.662932 0.483839 0.00271908
0.0234421 0.657801 0.504183 0.000253973
0.0418067 0.655258 0.506753 0.00171238
0.0319561 0.650153 0.527493 0.000920857
0.348997 0.142348 -0.718037 0.000642941
0.343132 0.118722 -0.718357 0.00115097
0.370339 0.129663 -0.715043 0.0054637
0.364485 0.106665 -0.715017 0.00335044
-0.0803673 -0.846624 -0.023408 0.00459005
-0.0960511 -0.846411 -0.00709961 0.00142676
-0.0626465 -0.84869 0.000161968 0.00177359
-0.0799916 -0.847037 0.0149642 0.00196341
-0.183375 -0.593977 -0.603386 0.00251064
-0.195207 -0.598718 -0.587354 0.00282191
-0.170674 -0.614177 -0.591273 0.000152545
-0.183042 -0.616887 -0.576384 4.36624e-05
0.661372 0.271718 0.440827 0.00142461
0.648328 0.26668 0.457838 0.00204286
0.672178 0.248247 0.452956 0.00173489
0.658872 0.24308 0.470166 0.00246456
-0.644924 -0.0616973 0.604976 0.000617068
-0.648221 -0.0855391 0.60302 3.4109e-05
-0.619505 -0.0682937 0.614834 0.000753366
-0.625293 -0.0898911 0.610992 0.000769607
0.0950834 -0.546105 0.732759 0.00140645
0.0751055 -0.54947 0.744529 0.00420238
0.107014 -0.523507 0.747256 0.000803802
0.0866348 -0.52796 0.757834 0.00228355
-0.715419 -0.348257 -0.114452 0.00206661
-0.722524 -0.335211 -0.0928996 8.42836e-05
-0.71251 -0.358238 -0.0858982 0.00122172
-0.720036 -0.344087 -0.0645435 0.000758661
-0.16097 0.812551 -0.101512 0.000629442
-0.181766 0.811771 -0.0970353 0.00169651
-0.149182 0.819644 -0.0815457 0.000132246
-0.170518 0.818622 -0.0776125 0.00222568
0.32757 0.796117 0.147337 0.00162706
0.307884 0.794083 0.156445 0.00297896
0.349515 0.784383 0.164771 0.00311139
0.33023 0.783243 0.171925 0.00162407
-0.638054 0.361783 -0.380754 0.00242929
-0.664453 0.355474 -0.360068 0.0020863
-0.630277 0.377968 -0.360401 0.00446829
-0.656729 0.372157 -0.339201 0.0047898
0.167663 0.557503 -0.66031 0.00524666
0.147036 0.575239 -0.652792 0.000764018
0.180308 0.563015 -0.638791 0.00330447
0.160436 0.580198 -0.632029 0.00215203
0.526115 0.247725 0.600195 0.00135604
0.512564 0.242858 0.613369 0.00438286
0.539617 0.226177 0.607752 0.00163986
0.526195 0.221349 0.620829 0.00462557
-0.658952 -0.296954 -0.417182 0.00190349
-0.673404 -0.30716 -0.396191 0.000214022
-0.653354 -0.323761 -0.402295 0.00174716
-0.667381 -0.331932 -0.38195 0.00281695
-0.681796 -0.398063 0.289342 0.00414774
-0.691643 -0.379101 0.298136 0.00433214
-0.66443 -0.401141 0.31323 0.00139403
-0.675989 -0.382652 0.318624 0.000509007
-0.647329 0.161646 -0.56173 0.00328324
-0.666645 0.159695 -0.547319 0.00157407
-0.643567 0.188974 -0.548315 0.0025797
-0.663634 0.186088 -0.533563 0.00398218
0.414169 0.662124 0.299467 0.000360512
0.400637 0.658639 0.317308 0.000114837
0.418952 0.642531 0.311109 0.00218959
0.405263 0.639037 0.3284 0.00212657
0.646157 -0.460653 -0.273445 0.00223449
0.633207 -0.481205 -0.267003 0.00290353
0.656873 -0.467545 -0.250411 0.000898885
0.646615 -0.488196 -0.242478 0.0005211
0.554035 -0.600857 0.219551 0.00112223
0.537734 -0.608986 0.224851 0.00278105
0.560761 -0.582535 0.233166 4.30434e-05
0.543966 -0.590293 0.240052 0.00119805
0.485506 -0.697159 -0.193482 0.000138503
0.472531 -0.714298 -0.183442 0.00353046
0.501883 -0.707238 -0.173398 0.00354121
0.488955 -0.72358 -0.16354 0.000178918
0.812198 0.101791 -0.029601 0.00039861
0.804995 0.115563 -0.0105248 0.00141726
0.815425 0.0938301 -0.00328805 0.000573164
0.807827 0.10832 0.0163802 0.00135486
-0.240044 0.379263 0.752894 0.00241744
-0.25083 0.35768 0.761315 0.00604236
-0.220323 0.379304 0.76811 0.00150445
-0.231982 0.356111 0.776196 0.0132179
0.378447 -0.598624 0.40519 0.00339151
0.354839 -0.609933 0.411389 0.000130512
0.384903 -0.57599 0.423107 0.00439694
0.36132 -0.587665 0.429711 0.00133458
0.506593 0.132603 -0.655077 0.00193895
0.509448 0.0964468 -0.662661 0.00616437
0.527222 0.121302 -0.641286 0.00745848
0.529012 0.0881404 -0.649448 0.000804728
-0.798047 0.124113 0.44641 0.00451294
-0.81181 0.104334 0.452579 0.000944009
-0.782562 0.130137 0.464756 0.000616863
-0.796789 0.112559 0.471315 0.00246995
0.457653 0.249759 -0.676693 0.00445558
0.452136 0.22988 -0.678909 0.000890981
0.478522 0.233903 -0.66579 0.00105665
0.471927 0.216874 -0.668327 0.00193032
0.388968 0.81243 0.09605 0.00143278
0.371158 0.808388 0.112394 0.000622356
0.402852 0.801292 0.116757 0.00445101
0.388032 0.798883 0.131692 0.00137357
0.608331 -0.169659 0.598543 8.24428e-05
0.584909 -0.180088 0.611495 5.95902e-05
0.621174 -0.141924 0.6038 0.00548002
0.597909 -0.152568 0.616462 0.00543126
0.418272 0.421823 0.533555 0.00157895
0.400693 0.412882 0.558066 0.00273926
0.424695 0.402359 0.550824 0.000861209
0.407679 0.391862 0.5767 8.35639e-05
-0.309993 0.654016 0.411621 0.00043727
-0.315692 0.640862 0.420577 0.00042971
-0.298294 0.649135 0.422709 0.00360822
-0.304382 0.636092 0.431773 0.00239029
-0.832987 -0.0403035 -0.330077 0.00212187
-0.837539 -0.0339725 -0.310067 0.000128394
-0.835441 -0.0399401 -0.303955 4.13051e-05
-0.835211 -0.0420306 -0.28579 0.000571747
0.839139 -0.0135198 -0.477612 0.00593049
0.838187 -0.0381107 -0.467836 0.00195404
0.844058 -0.0120864 -0.456562 0.00184653
0.843176 -0.0368557 -0.442348 0.00616675
0.2494 0.683727 -0.431997 0.00179311
0.232483 0.694415 -0.424167 0.00539847
0.265781 0.682562 -0.415738 0.00710447
0.248268 0.694233 -0.408119 0.000496923
0.112853 -0.791821 -0.149073 0.00176589
0.0980918 -0.796967 -0.134899 0.00201879
0.127996 -0.801314 -0.133482 0.00153672
0.113464 -0.806228 -0.118655 0.000838165
-0.379847 -0.134433 0.706483 0.000859931
-0.384367 -0.155659 0.704446 0.000569692
-0.35669 -0.142025 0.713117 0.00120682
-0.362794 -0.161662 0.711913 0.000153045
0.7477 -0.273701 -0.159943 0.00148615
0.740592 -0.293015 -0.137967 0.00173577
0.750726 -0.264215 -0.133509 0.000927768
0.743457 -0.283342 -0.111283 0.000961703
-0.57212 -0.710384 -0.0610971 0.00671827
-0.5863 -0.70483 -0.0377541 0.00454818
-0.569323 -0.727446 -0.0336783 0.0032412
-0.582443 -0.718528 -0.0127516 0.00583121
0.15251 -0.559984 0.659146 0.00274178
0.131777 -0.565003 0.66882 0.00622714
0.168103 -0.535771 0.676961 0.00256804
0.146495 -0.546986 0.682082 0.000474733
0.566275 0.735168 -0.064356 0.00333256
0.554646 0.758697 -0.0501138 0.00579954
0.568899 0.734271 -0.0371442 0.00120207
0.5565 0.755305 -0.0205914 0.00527779
0.424642 -0.469504 -0.477471 0.00275302
0.418057 -0.490439 -0.468469 0.000335801
0.441469 -0.474576 -0.459112 0.000708277
0.432385 -0.495924 -0.452409 0.00250189
0.183454 0.337047 0.779442 0.00106237
0.168133 0.312256 0.787894 0.00136756
0.210793 0.326349 0.76724 0.00270816
0.197017 0.300744 0.77517 0.000214244
0.496798 0.781608 0.094235 0.00216113
0.486668 0.774689 0.114338 0.000398339
0.500908 0.751874 0.116696 0.00398717
0.490783 0.744115 0.136844 0.00267964
-0.515563 0.335277 0.524969 0.000332899
-0.524711 0.304746 0.548625 0.00097929
-0.49421 0.334921 0.54769 0.000252293
-0.503775 0.303454 0.572555 0.00196293
-0.514153 -0.445442 -0.418244 0.000839143
-0.529602 -0.444834 -0.403069 0.000646582
-0.501182 -0.46822 -0.408958 0.00114082
-0.517594 -0.467725 -0.391868 0.000464599
0.199583 -0.735503 -0.301121 0.00012491
0.183407 -0.741026 -0.286869 5.16466e-05
0.215766 -0.740723 -0.286047 0.000627398
0.202307 -0.747437 -0.270739 0.000183047
-0.579542 -0.36638 0.42818 0.0013189
-0.597759 -0.347463 0.426681 0.00258712
-0.565098 -0.366942 0.447289 0.0016984
-0.581215 -0.347877 0.447448 8.97855e-05
-0.172487 0.668291 0.46966 0.00277297
-0.181628 0.660208 0.48771 0.00388254
-0.151338 0.664082 0.485561 0.00103048
-0.161884 0.656401 0.50258 0.00213427
-0.180988 0.549359 0.642691 0.00193531
-0.190757 0.534085 0.649887 0.000957898
-0.161665 0.545644 0.664489 0.00264921
-0.17105 0.53029 0.671644 0.00196512
-0.726769 -0.270133 -0.391601 0.0069955
-0.73613 -0.268578 -0.373189 0.000871604
-0.726728 -0.286326 -0.372099 0.00506038
-0.736446 -0.28202 -0.353448 0.0025829
0.377543 0.262759 -0.705387 0.000986309
0.36991 0.239809 -0.707888 0.00137327
0.402392 0.262103 -0.698966 0.00188127
0.39529 0.240501 -0.700383 0.000671089
-0.623829 0.592646 0.0935427 0.00042577
-0.630131 0.577798 0.107758 0.000164013
-0.618125 0.59931 0.113705 0.00337812
-0.62502 0.584674 0.124854 0.00215748
0.496243 0.000301996 0.661695 0.000550944
0.492606 -0.0342218 0.665776 0.00306538
0.523225 -0.000767563 0.648415 0.00222585
0.519396 -0.0354125 0.652564 0.000283336
0.139244 0.287475 0.798745 0.00119339
0.121085 0.263494 0.806794 0.00223356
0.168151 0.2796 0.784854 0.00146561
0.151038 0.255316 0.793054 8.77373e-05
-0.590558 0.221839 -0.558277 0.00329846
-0.611953 0.214367 -0.547279 0.00161051
-0.585552 0.247553 -0.541637 0.000950149
-0.606096 0.237095 -0.532186 0.000582086
0.512768 -0.352295 -0.510831 0.000284334
0.502071 -0.369492 -0.506267 0.000834263
0.531309 -0.353645 -0.492261 0.000477822
0.52044 -0.37027 -0.488116 0.00140872
-0.121529 0.589874 -0.665616 0.000364677
-0.140956 0.582067 -0.657341 0.00229493
-0.11193 0.604252 -0.649456 0.00155766
-0.132261 0.597334 -0.642121 0.00269763
-0.796826 0.139655 -0.0782838 0.000452484
-0.802899 0.122802 -0.0606229 0.000793108
-0.79337 0.149061 -0.0530537 0.000323346
-0.800126 0.131428 -0.0377369 0.000306148
0.178222 -0.647658 -0.522746 0.003104
0.170696 -0.65824 -0.506132 0.000850989
0.189669 -0.655753 -0.504425 0.00208123
0.18302 -0.666281 -0.488615 0.00211282
0.119184 -0.328646 0.80673 0.00149581
0.0921126 -0.327518 0.818659 0.00298221
0.142793 -0.321238 0.79485 0.0011786
0.119372 -0.326741 0.804859 0.000184997
0.0772065 -0.515721 -0.785535 0.00120063
0.0606427 -0.527708 -0.781641 0.00369039
0.0993555 -0.522579 -0.770584 0.00931435
0.0826771 -0.534482 -0.765319 0.00351854
0.107479 -0.74976 0.258443 0.00203429
0.0839735 -0.747557 0.269032 0.00031408
0.125551 -0.744187 0.278693 1.5423e-05
0.100405 -0.74262 0.288155 0.00189711
0.347913 -0.222943 -0.722482 0.00440886
0.340236 -0.248628 -0.721197 0.000469304
0.370575 -0.224247 -0.711941 0.00265059
0.361814 -0.24977 -0.709272 0.00297009
0.438284 -0.213375 -0.688473 0.00488341
0.427616 -0.235174 -0.688695 0.0012854
0.464927 -0.230449 -0.672665 0.00037684
0.454364 -0.251262 -0.672309 0.000893359
-0.22072 -0.732939 -0.304606 0.00127591
-0.231072 -0.738541 -0.288446 0.00180983
-0.208018 -0.741859 -0.283747 0.000387218
-0.22022 -0.747775 -0.269136 7.26792e-05
0.652305 0.386656 0.334123 0.00190549
0.634696 0.384045 0.353272 0.00252441
0.6592 0.366837 0.348694 0.000953089
0.643024 0.364209 0.368608 0.000312892
-0.17961 -0.820144 0.0784596 0.000501851
-0.203028 -0.817224 0.0855552 0.000698379
-0.158524 -0.814251 0.102103 0.00242847
-0.183213 -0.811653 0.107973 0.00209605
0.0444587 0.75812 -0.24482 0.000912566
0.0278652 0.766634 -0.222494 0.000899639
0.0572908 0.765241 -0.220787 0.00100993
0.0401586 0.773283 -0.200514 0.000729813
0.33174 -0.351996 0.69297 0.000184467
0.309943 -0.352477 0.707425 0.00377568
0.339721 -0.328491 0.705218 0.00170661
0.317398 -0.329107 0.719443 0.00602601
0.73651 -0.317913 0.286712 0.00680992
0.72251 -0.332088 0.299101 0.0012115
0.737961 -0.305498 0.307497 0.00373364
0.724314 -0.319423 0.317959 0.00404487
-0.707474 -0.361926 -0.175816 0.0046092
-0.718461 -0.347531 -0.153614 0.000516509
-0.707312 -0.370829 -0.146401 0.00158346
-0.717403 -0.357368 -0.124296 0.00303917
-0.189746 -0.0782175 -0.776462 0.00160143
-0.200993 -0.104696 -0.77339 0.000458766
-0.160337 -0.0833814 -0.78844 0.000903264
-0.172625 -0.109129 -0.784813 9.23893e-05
-0.42319 -0.495923 -0.461353 0.00235628
-0.436443 -0.49735 -0.445775 0.00183787
-0.414741 -0.511087 -0.451637 0.00062349
-0.428599 -0.510331 -0.43625 0.000695459
-0.332713 0.310613 -0.72228 0.00120326
-0.358342 0.312772 -0.708646 0.0019496
-0.329268 0.334241 -0.705319 0.00436395
-0.354136 0.335077 -0.691551 0.0025294
-0.82304 -0.0631932 -0.351874 0.00324576
-0.829977 -0.0509306 -0.330676 0.0011421
-0.822151 -0.067616 -0.327085 0.00249771
-0.828566 -0.0563615 -0.30625 0.000522121
-0.373463 0.0665594 -0.7087 0.000653728
-0.388553 0.0396817 -0.702719 0.000449712
-0.34069 0.0736046 -0.722188 0.00155678
-0.354669 0.0460938 -0.715819 0.00059583
-0.342421 -0.559532 -0.477527 0.00178783
-0.360902 -0.557709 -0.460324 0.00147289
-0.336105 -0.575591 -0.464665 1.35536e-05
-0.35052 -0.579531 -0.448317 0.00114426
0.0649184 0.752056 -0.261442 0.0011808
0.0482048 0.760901 -0.23862 0.00129745
0.0788398 0.759049 -0.238003 0.000652526
0.0622209 0.767644 -0.216257 0.000381368
0.279765 0.772523 0.204586 1.23935e-05
0.264 0.767616 0.217712 0.00011103
0.302253 0.76405 0.220571 0.00219969
0.287 0.759853 0.233177 0.00162352
0.133632 -0.470055 -0.770394 0.0013294
0.123072 -0.491905 -0.759378 0.00117252
0.155066 -0.470507 -0.75193 0.000646119
0.144385 -0.496421 -0.736952 0.000793711
-0.438772 0.501991 -0.436967 0.000776147
-0.46298 0.494551 -0.425186 0.00365555
-0.428607 0.526966 -0.41443 0.0036846
-0.453991 0.51782 -0.404154 0.000242731
0.644812 -0.544932 -0.12653 0.00215361
0.637965 -0.558092 -0.117355 0.000452009
0.646444 -0.537432 -0.108127 0.00100269
0.640008 -0.550997 -0.0987793 0.000170312
-0.524785 0.133714 -0.652841 0.00246545
-0.546655 0.140805 -0.639906 0.00181473
-0.504878 0.15174 -0.661911 0.00383297
-0.528284 0.161383 -0.648069 0.0007435
-0.716912 0.224805 -0.43802 0.00193389
-0.736952 0.211985 -0.425609 0.00106345
-0.71471 0.240122 -0.419338 0.00127946
-0.734873 0.226353 -0.407996 0.00413738
-0.713355 0.362366 0.11518 0.00104097
-0.71858 0.347509 0.13211 0.000620044
-0.708975 0.365827 0.138093 0.00181491
-0.713823 0.351515 0.155619 0.00239447
-0.745408 -0.0976664 0.535658 0.00135556
-0.760927 -0.0777113 0.536178 0.00090464
-0.734266 -0.0893035 0.554209 0.000804704
-0.750085 -0.0691263 0.554333 0.00163855
0.265473 0.67492 -0.440532 0.00261995
0.248451 0.686378 -0.433333 0.00116008
0.27988 0.678856 -0.421675 0.00232355
0.262634 0.690406 -0.414135 0.00192596
-0.277534 -0.701759 -0.385237 0.0016304
-0.28639 -0.706864 -0.366586 0.00351595
-0.265919 -0.713463 -0.361039 0.000668365
-0.275016 -0.718631 -0.342827 0.00100335
-0.182031 -0.832007 0.0432117 0.00199989
-0.202611 -0.828149 0.0541838 0.00168866
-0.163684 -0.828221 0.0680581 0.00333073
-0.186465 -0.825082 0.075743 0.00314165
0.426229 0.128228 0.68857 0.000673386
0.420295 0.0998022 0.692988 0.00268326
0.450515 0.11495 0.67679 0.0016668
0.44526 0.0880576 0.68012 0.000431408
-0.315325 -0.76597 -0.206068 0.00558032
-0.330242 -0.773497 -0.187044 0.00533522
-0.301694 -0.783451 -0.188438 0.00446088
-0.316758 -0.791565 -0.168617 0.00497005
0.356835 -0.82291 -0.0805753 0.00283678
0.340346 -0.827089 -0.0661103 0.00157807
0.372576 -0.827956 -0.0611522 0.000618357
0.354794 -0.829912 -0.0486935 0.0020013
-0.78535 0.170713 0.222052 8.87744e-05
-0.793346 0.153914 0.229734 0.00138634
-0.782011 0.180576 0.247959 0.000310946
-0.789806 0.163348 0.254939 0.00144652
-0.190623 -0.364146 0.775383 0.00229689
-0.193334 -0.397292 0.763455 0.0124726
-0.160989 -0.371373 0.794802 0.00527271
-0.163552 -0.403467 0.781643 0.00610648
0.143001 0.681269 -0.44808 0.00164813
0.123218 0.689007 -0.430426 0.00257949
0.15746 0.687183 -0.424978 0.00106844
0.138023 0.694803 -0.408516 0.000176712
-0.432934 -0.44458 0.497998 0.000503966
-0.44903 -0.426263 0.498614 0.00143089
-0.423384 -0.431885 0.525513 0.00253831
-0.439705 -0.411537 0.527545 0.00138598
-0.857662 0.0214393 -0.524524 0.0161609
-0.87205 0.00648298 -0.507316 0.0223605
-0.84797 -0.00272107 -0.520401 0.00153297
-0.862063 -0.017402 -0.502979 0.01687
-0.723413 0.332573 0.2823 0.000195013
-0.731234 0.312562 0.288135 2.86262e-05
-0.715207 0.35023 0.303712 0.00155999
-0.722881 0.330297 0.309224 0.00150375
0.301542 -0.684949 0.386831 0.00176791
0.279475 -0.688941 0.397388 0.00610878
0.305843 -0.667304 0.410295 0.00407311
0.285252 -0.670907 0.41986 0.000212158
-0.0624913 -0.806484 -0.126218 0.00377505
-0.074792 -0.810567 -0.105844 0.000321142
-0.0541752 -0.812899 -0.103937 0.00181988
-0.0668169 -0.816732 -0.0844737 0.00154388
-0.352422 0.572896 0.453018 0.00112605
-0.359123 0.561229 0.457068 0.000597229
-0.339079 0.5704 0.467944 0.000600189
-0.346036 0.558631 0.472147 0.000248824
0.123277 0.822791 0.0598226 0.00468174
0.112599 0.81928 0.0804183 0.000609724
0.137247 0.81717 0.0837671 0.00138608
0.127902 0.810592 0.108653 0.00134655
0.494808 -0.473482 -0.404041 0.00233954
0.481894 -0.492013 -0.40039 0.00120488
0.515264 -0.474852 -0.387927 0.000958543
0.502746 -0.492355 -0.384151 0.00165537
0.0567012 0.635477 -0.564525 0.000422816
0.0364135 0.641139 -0.552669 0.00148221
0.0664511 0.642516 -0.538091 0.00243187
0.0466638 0.648632 -0.524942 0.00141052
-0.0616151 -0.458608 0.8223 0.00449986
-0.0716758 -0.465914 0.820236 0.00283768
-0.0467668 -0.441096 0.831435 0.00126589
-0.057807 -0.458475 0.831417 0.00265681
0.363251 0.769454 0.222886 0.00367386
0.349555 0.764268 0.237942 0.0042009
0.376651 0.755112 0.234887 0.00544227
0.363316 0.749047 0.252105 0.00496315
0.072759 -0.344205 -0.822504 0.000331988
0.0632908 -0.365575 -0.82393 0.00237949
0.0971322 -0.358366 -0.81558 0.0018968
0.0882934 -0.378065 -0.817757 0.000776478
-0.0913689 -0.047783 -0.817538 0.00166948
-0.108526 -0.0724967 -0.810161 0.000898892
-0.0607795 -0.0561094 -0.827906 0.000438112
-0.0779767 -0.0816504 -0.820464 0.000375006
-0.821151 0.0761766 0.21189 0.000375972
-0.827559 0.0606342 0.226351 6.17701e-05
-0.819341 0.0818064 0.23607 5.73865e-05
-0.825771 0.0662772 0.249471 0.000405975
0.409194 0.417058 -0.552904 0.00160055
0.39143 0.439832 -0.549609 0.00259002
0.429825 0.421183 -0.517534 0.00452882
0.411102 0.444007 -0.514533 0.00389325
-0.549491 0.582989 0.244532 0.00036026
-0.567107 0.558774 0.24802 0.00143656
-0.520343 0.589073 0.265996 0.000562344
-0.537946 0.563868 0.268228 0.00366203
-0.838515 0.0302027 -0.384463 0.000560738
-0.84093 0.0114691 -0.368162 0.0049881
-0.839476 0.0301248 -0.358341 0.000308607
-0.840365 0.011242 -0.342151 0.00559705
-0.449156 0.233897 -0.680026 0.000871567
-0.474853 0.235263 -0.665249 0.000589312
-0.429685 0.257819 -0.688191 0.00155206
-0.455352 0.258644 -0.673571 0.00645458
0.158692 0.543929 0.675284 0.000876669
0.147474 0.54005 0.68914 0.000160016
0.165976 0.523534 0.683614 0.00188431
0.154612 0.518792 0.697402 0.00322104
0.149581 0.159848 0.794479 0.000898256
0.14164 0.126026 0.80024 0.00344539
0.184192 0.15544 0.778629 0.00155834
0.177595 0.121208 0.78225 0.000529258
0.751831 0.236604 -0.394926 0.00402581
0.739952 0.258481 -0.388838 0.00628497
0.761667 0.237005 -0.367517 0.00143636
0.751099 0.260241 -0.35974 0.000142129
0.415249 -0.791007 0.162427 0.00224039
0.396643 -0.786601 0.175038 0.00262347
0.426127 -0.778167 0.179078 0.0040351
0.407875 -0.772996 0.191517 0.00230802
0.790216 0.170804 -0.196911 0.00448966
0.778381 0.189579 -0.170976 0.000131985
0.794522 0.158093 -0.167864 0.00397711
0.782899 0.177036 -0.141688 0.000122067
0.71187 -0.00732591 -0.585008 0.00585209
0.699501 -0.0297983 -0.583356 0.000102788
0.734917 -0.0068955 -0.570413 0.000443379
0.726015 -0.0281466 -0.571311 0.00189569
-0.805024 0.121737 0.330441 0.000812565
-0.808564 0.107362 0.340483 0.0010087
-0.801118 0.132555 0.35254 0.00102262
-0.805905 0.117537 0.360322 0.000137606
0.106454 -0.309527 -0.809187 0.000750211
0.0970819 -0.329848 -0.811579 0.00185921
0.130564 -0.320823 -0.803799 0.00281683
0.121062 -0.34032 -0.805854 0.00134749
-0.815589 0.0881091 0.111286 0.00131386
-0.82046 0.0733248 0.129909 0.00203921
-0.813682 0.0937416 0.139413 0.00108672
-0.818153 0.0790743 0.158449 0.00214259
-0.669022 0.479258 0.122227 0.00133558
-0.675626 0.464074 0.139103 0.00208528
-0.663604 0.486008 0.141369 0.00131798
-0.670531 0.471223 0.158589 0.000123103
-0.385811 -0.600783 -0.392108 0.00133728
-0.396599 -0.614033 -0.3687 0.00170162
-0.378616 -0.624442 -0.374287 0.000554869
-0.388074 -0.639067 -0.350249 0.000581376
-0.57884 0.580814 -0.219089 0.00135958
-0.603244 0.566281 -0.20826 0.00080703
-0.568899 0.602822 -0.202809 0.00107371
-0.591105 0.590445 -0.189898 0.00285414
0.352955 0.543369 -0.482421 0.00136273
0.335925 0.565672 -0.478177 0.00195724
0.360318 0.552214 -0.462205 0.000950968
0.343493 0.57417 -0.458693 1.72747e-05
0.775159 -0.0811536 0.529319 0.00533908
0.761247 -0.0919327 0.538461 0.00880855
0.776113 -0.045948 0.538639 0.00905436
0.763917 -0.064885 0.544993 0.00149369
-0.298159 0.633189 0.44428 0.000436912
-0.304811 0.619924 0.453279 0.00094131
-0.280632 0.629572 0.462015 0.0024049
-0.288153 0.614549 0.471039 0.00152758
-0.214168 0.461722 -0.703583 0.00178168
-0.234562 0.460226 -0.68727 0.00327525
-0.208362 0.477803 -0.68858 0.000948096
-0.226604 0.475257 -0.673552 0.000561401
-0.0991089 0.368101 -0.815031 0.00208849
-0.111255 0.343147 -0.810388 0.0020845
-0.0766175 0.376986 -0.821711 0.000304434
-0.0858054 0.347734 -0.818626 0.000701204
-0.0543545 -0.595288 0.683293 0.00525958
-0.0759579 -0.583086 0.693591 0.002464
-0.0480266 -0.586602 0.71177 0.00730563
-0.0664483 -0.573672 0.721196 0.00140964
0.0462332 -0.712553 0.363099 0.000553943
0.0303864 -0.703144 0.383431 0.00098029
0.0583539 -0.702008 0.387586 0.000559877
0.0429944 -0.693029 0.408604 0.00144914
0.604232 0.150562 -0.615844 0.0033216
0.5853 0.16854 -0.616358 0.00357392
0.62264 0.160049 -0.597571 0.00223418
0.599184 0.188796 -0.595926 0.00433921
0.221238 0.114256 -0.763448 0.00252472
0.209803 0.0940021 -0.767044 0.00324511
0.246883 0.119546 -0.757184 0.000774457
0.236929 0.0973919 -0.759596 0.000525119
-0.777259 -0.190702 -0.233664 0.000515909
-0.785207 -0.176761 -0.215589 0.00193531
-0.772799 -0.20473 -0.208992 0.000321829
-0.779488 -0.192552 -0.190924 0.00222688
-0.150495 0.590247 0.629421 0.00359491
-0.158913 0.577582 0.64429 0.00253737
-0.134345 0.583616 0.650436 0.00461457
-0.142033 0.571079 0.66627 0.00172867
0.670798 -0.470861 0.170572 2.7888e-06
0.663816 -0.486291 0.193447 0.00101878
0.670724 -0.470501 0.198633 0.000200143
0.664338 -0.486198 0.221498 0.000564057
0.667624 0.31515 -0.392614 0.000575512
0.653687 0.33461 -0.392007 0.00226393
0.680511 0.319583 -0.370386 0.00340919
0.666305 0.339426 -0.367983 0.00154016
0.122228 0.623375 -0.586473 0.00305259
0.103826 0.635216 -0.57604 0.00428697
0.141615 0.627186 -0.565895 0.00683393
0.123179 0.639326 -0.555631 0.000845341
0.135511 -0.661379 -0.481412 0.00503642
0.127276 -0.674967 -0.460083 4.55466e-05
0.151217 -0.671829 -0.462316 0.00208912
0.143126 -0.685249 -0.440969 0.00282936
0.0323978 0.194199 -0.837986 0.000272229
0.0235357 0.171972 -0.840149 0.00141291
0.057723 0.191758 -0.830791 0.00204262
0.0478946 0.170246 -0.833528 0.00109197
-0.357857 0.721455 -0.297567 0.000284907
-0.377188 0.717017 -0.286786 0.00265837
-0.351717 0.733256 -0.283322 0.0046722
-0.369704 0.731156 -0.270935 0.00265092
-0.178037 -0.59373 -0.607758 0.00181043
-0.189979 -0.598735 -0.591894 0.00243497
-0.165469 -0.613426 -0.595077 0.00139525
-0.177837 -0.616136 -0.580188 0.00128583
-0.324525 -0.814595 -0.104296 0.00353193
-0.334813 -0.821514 -0.0811191 0.00172739
-0.307717 -0.819676 -0.0799655 0.000401878
-0.318018 -0.826024 -0.0573797 0.0025332
0.0420832 -0.347413 -0.832615 0.00183437
0.0324928 -0.370767 -0.832457 0.00540342
0.0699271 -0.356532 -0.830528 0.00615271
0.0602085 -0.378481 -0.830821 0.00295748
0.660827 0.0675081 -0.604661 0.00599661
0.649544 0.0418004 -0.621109 0.0173368
0.685498 0.0665765 -0.580955 0.00734282
0.67364 0.0461488 -0.598775 0.00507129
0.833048 -0.0490845 0.240297 0.00106769
0.829089 -0.0616744 0.253754 0.00186288
0.833591 -0.0470627 0.265155 0.000853597
0.82926 -0.0591684 0.278416 0.00112781
-0.118944 -0.432835 -0.810852 0.00526123
-0.131625 -0.448627 -0.798695 0.00147819
-0.103645 -0.45991 -0.807555 0.00304486
-0.115003 -0.4753 -0.794226 0.00470178
0.154759 0.0934974 0.789397 0.00200042
0.14533 0.0585114 0.795616 0.000443396
0.190864 0.0883833 0.775479 0.00212107
0.179938 0.0541965 0.779962 0.00183093
0.126535 -0.684417 -0.428748 0.0023075
0.117685 -0.697484 -0.40688 0.00209791
0.14534 -0.694847 -0.40909 0.000423247
0.134615 -0.706227 -0.388624 0.00375206
-0.000248316 -0.216642 0.84447 0.00568435
-0.00129332 -0.250295 0.843806 0.00593244
0.0254079 -0.237199 0.84466 0.00346851
0.0231997 -0.269305 0.844797 0.00280938
-0.735456 0.298855 0.0909113 0.000977724
-0.742725 0.283644 0.107893 0.000384953
-0.733957 0.304059 0.116957 0.000520021
-0.740839 0.289374 0.134611 0.000667394
-0.344154 0.375676 0.663451 0.00398317
-0.353588 0.350912 0.672028 8.5089e-05
-0.322929 0.375523 0.681237 0.00190767
-0.331106 0.349838 0.689124 0.00364773
0.33049 0.407922 -0.638146 0.000100687
0.312207 0.433552 -0.630554 4.13395e-05
0.341296 0.418745 -0.616685 0.000197142
0.322887 0.444105 -0.608266 0.000650487
0.255001 0.59432 0.522765 0.00248045
0.242652 0.589725 0.541591 0.00139586
0.262836 0.574325 0.535541 0.00212525
0.251072 0.568219 0.557146 2.83689e-05
0.0803646 0.644775 0.533534 0.00194682
0.0700963 0.637856 0.554141 0.0010603
0.0912649 0.638387 0.554115 0.000573344
0.0807226 0.631568 0.574235 0.00023547
-0.436266 0.4423 0.494511 0.00191
-0.455585 0.424937 0.499579 0.00214503
-0.416106 0.451868 0.504317 0.0023634
-0.434578 0.434167 0.508032 0.000225681
0.301562 0.685025 -0.397189 0.00426711
0.285477 0.69954 -0.38915 0.00127997
0.307326 0.690127 -0.380341 0.000813524
0.292117 0.706534 -0.372083 0.00186215
-0.312001 0.619919 0.445884 0.000819678
-0.318495 0.606765 0.452864 0.00100472
-0.297293 0.616735 0.458645 0.00214345
-0.304165 0.602564 0.467298 0.00136215
-0.425273 0.370487 -0.582532 0.00110118
-0.444275 0.366247 -0.569702 0.00221638
-0.419306 0.389303 -0.565195 0.00149039
-0.437513 0.383925 -0.554008 0.000543299
-0.823773 -0.0675692 0.191028 0.000999222
-0.832639 -0.0503381 0.21466 0.00113352
-0.823466 -0.0726114 0.225844 0.000514096
-0.831755 -0.0555845 0.249695 0.00217974
0.236909 -0.585701 0.553957 0.000103997
0.218036 -0.58086 0.567164 0.00596208
0.242437 -0.565107 0.573619 0.00275644
0.224636 -0.560152 0.588029 0.00206157
-0.420466 0.737953 -0.216425 0.000891412
-0.439775 0.73189 -0.208456 0.00215575
-0.409273 0.753737 -0.207108 0.00361921
-0.428094 0.749335 -0.197611 0.000777394
0.590787 0.346267 -0.44015 0.000473579
0.579287 0.365656 -0.436703 0.00303717
0.600831 0.355735 -0.41642 0.00196259
0.58914 0.373886 -0.413316 2.59572e-05
-0.110212 -0.60534 0.642491 8.89779e-05
-0.125524 -0.588031 0.664564 0.000999512
-0.0999558 -0.599987 0.670545 0.00509876
-0.117241 -0.582539 0.688157 0.00667045
-0.234772 0.512199 0.628464 0.000549257
-0.245398 0.498242 0.63507 0.00134195
-0.21982 0.502917 0.648939 0.00271905
-0.230212 0.488027 0.655315 0.00163509
-0.25854 -0.842489 -0.0519336 0.0109041
-0.274167 -0.841747 -0.0324514 0.00326057
-0.238826 -0.844469 -0.0287964 0.00449948
-0.256421 -0.841335 -0.0110999 0.00474162
-0.547814 -0.356773 -0.471177 0.000359698
-0.559534 -0.366092 -0.452938 0.00125723
-0.539032 -0.379926 -0.458684 0.000725347
-0.550412 -0.384958 -0.443446 0.00140303
0.637475 -0.570154 0.0776363 0.00429717
0.62873 -0.586614 0.0880957 0.00200055
0.639025 -0.558147 0.100512 0.00146141
0.630032 -0.574532 0.111984 0.0010934
0.594212 -0.520612 -0.263406 0.00106705
0.582813 -0.544932 -0.256117 0.00431696
0.615763 -0.517623 -0.241623 0.000793152
0.604901 -0.541098 -0.233526 0.00181266
-0.79004 -0.0891087 0.494601 0.00152103
-0.804272 -0.0667641 0.498915 0.00371352
-0.777577 -0.0865289 0.515048 0.0015998
-0.792041 -0.0666023 0.516453 0.000743191
0.576528 0.115982 -0.637918 0.00698567
0.571029 0.0957084 -0.646079 0.0126472
0.603527 0.113965 -0.622261 0.00199024
0.588248 0.12181 -0.624724 0.00115914
-0.556282 -0.0482116 0.638122 4.80113e-05
-0.57044 -0.070977 0.632233 0.00049784
-0.527734 -0.0515635 0.6485 0.000537353
-0.543362 -0.073388 0.642442 0.000620425
0.248639 0.57841 -0.553434 0.00236468
0.232836 0.593472 -0.548595 0.000856564
0.258569 0.587738 -0.535921 0.00337491
0.242833 0.602629 -0.531016 5.41785e-05
-0.823094 -0.0902994 0.445534 0.00647868
-0.831731 -0.0718176 0.45801 0.00795126
-0.812187 -0.0967441 0.471498 0.00233575
-0.823511 -0.075133 0.480192 0.00153829
-0.448758 -0.0371089 0.678854 0.000365931
-0.45948 -0.0560626 0.676048 0.000839465
-0.42371 -0.0428744 0.686614 0.00205257
-0.433405 -0.0621463 0.683426 0.00157174
-0.223425 -0.179804 0.766265 0.000887604
-0.23418 -0.205457 0.761569 0.000337341
-0.197484 -0.181233 0.77574 0.000484013
-0.208028 -0.208035 0.771087 0.000101355
-0.0365023 0.695806 -0.417426 0.0042925
-0.0700323 0.693521 -0.412452 0.000383846
-0.00846827 0.701401 -0.395795 0.00180192
-0.0427423 0.698891 -0.391592 0.002042
-0.551731 -0.708323 0.107997 0.00481072
-0.564909 -0.691713 0.110444 0.00537969
-0.537955 -0.712575 0.129086 0.00186631
-0.552464 -0.694891 0.132646 0.00208728
0.175723 -0.404103 -0.784478 0.000883991
0.167283 -0.419994 -0.785686 0.000998257
0.195898 -0.408078 -0.777342 0.00284805
0.186957 -0.424067 -0.777454 0.00698256
0.268276 -0.774666 -0.199944 0.00035856
0.259646 -0.783091 -0.183181 0.00224906
