-0.310298 -0.0312072 0.052627 0.000371179
-0.310791 -0.0453493 0.0660203 5.57232e-05
-0.308425 -0.0306766 0.0719103 0.00135521
-0.308582 -0.0447875 0.0840439 0.000844853
0.287526 -0.191281 0.265529 5.32552e-05
0.289402 -0.206956 0.270596 0.00214585
0.279797 -0.191616 0.282401 0.00257016
0.281022 -0.207096 0.287638 0.000864222
0.325094 -0.335264 0.222924 0.000937051
0.325731 -0.352212 0.228398 0.00156515
0.317295 -0.339299 0.242327 0.0015462
0.317632 -0.356214 0.249868 0.0023935
-0.213734 0.146893 -0.303173 0.00132994
-0.22437 0.123234 -0.301062 0.00248063
-0.186105 0.141936 -0.306749 0.00227022
-0.197836 0.117972 -0.304977 0.00166168
0.315457 0.0409703 -0.277933 0.00440407
0.309045 0.0257885 -0.280567 0.00528953
0.323553 0.0395112 -0.265994 0.00124694
0.318568 0.0241679 -0.268959 0.000697038
0.354511 -0.549855 -0.07582 0.0015144
0.352249 -0.561794 -0.0703601 0.00209561
0.353834 -0.54546 -0.0561106 0.00411697
0.351449 -0.556931 -0.0499519 5.34183e-05
-0.212761 0.579885 0.14303 0.00304581
-0.21215 0.565181 0.148571 0.00291902
-0.208676 0.58222 0.161449 0.000707242
-0.208204 0.566887 0.166383 0.00094944
0.245236 -0.304651 0.358315 0.00243267
0.24127 -0.325574 0.364123 0.00133176
0.240446 -0.303449 0.366043 0.000142215
0.235414 -0.323398 0.372125 0.00102275
-0.361063 -0.194013 -0.0700772 0.00412323
-0.359198 -0.208427 -0.0657536 0.0019615
-0.356981 -0.188635 -0.0546134 0.00251301
-0.35536 -0.204155 -0.0524079 5.58269e-05
0.040769 -0.687686 -0.0974674 0.000821472
0.031995 -0.687049 -0.0813511 0.00082321
0.0504332 -0.687323 -0.0782577 4.33458e-05
0.0417504 -0.686527 -0.0621914 8.26866e-06
0.0593495 0.949556 -0.263362 0.00361849
0.0415686 0.950895 -0.259094 0.00244179
0.0661358 0.953867 -0.250048 0.00194547
0.0495946 0.955242 -0.244903 0.00236707
0.329678 -0.211204 -0.238577 0.00228777
0.323906 -0.226001 -0.241388 0.00069845
0.343377 -0.204234 -0.231209 0.00111741
0.338524 -0.219571 -0.233971 0.000330545
0.360054 -0.336613 -0.181662 0.000364004
0.359012 -0.355458 -0.183623 0.000951799
0.369876 -0.329335 -0.167472 0.00565745
0.369071 -0.348167 -0.16928 0.00403716
0.0346841 -0.362272 -0.285288 0.00128648
0.0300247 -0.380913 -0.288451 0.00330372
0.0526286 -0.359652 -0.283877 0.00196781
0.0478424 -0.378188 -0.287118 0.00235183
-0.176308 0.915776 0.0252984 0.000364656
-0.184066 0.904572 0.0290278 0.0010259
-0.162554 0.92027 0.0389494 0.00142538
-0.170682 0.909041 0.0425294 0.000872139
0.217888 0.863865 0.00423834 0.0048689
0.212307 0.859766 0.0159413 0.000135022
0.214286 0.850849 0.0199624 0.00106747
0.208412 0.847019 0.0318477 0.00241392
0.104606 -0.434652 0.431978 0.00069842
0.0923425 -0.452407 0.432905 0.000249999
0.127714 -0.427517 0.424663 0.011542
0.117702 -0.446695 0.425381 0.00182619
0.30783 -0.359664 -0.216954 0.001703
0.304626 -0.37469 -0.218503 0.00273267
0.32041 -0.365479 -0.205268 0.0052956
0.31725 -0.380817 -0.206987 0.000374122
-0.0590521 -0.428482 0.427587 0.00077737
-0.0633183 -0.445396 0.427714 0.0014084
-0.041874 -0.433479 0.431684 0.00143198
-0.0463694 -0.450734 0.431578 0.000141048
-0.211816 0.552951 0.115995 0.000649792
-0.212691 0.536748 0.12013 0.001373
-0.210108 0.557315 0.131494 5.34034e-05
-0.210542 0.541373 0.135336 0.000274049
-0.315034 -0.165708 0.04541 0.0018032
-0.315388 -0.179948 0.0479438 0.00237403
-0.311948 -0.165888 0.0630719 0.00208695
-0.312545 -0.17962 0.0660311 0.00084541
-0.215783 -0.0445069 0.285523 0.00117863
-0.22498 -0.0647334 0.282055 0.000788826
-0.19763 -0.0362486 0.295525 0.00177744
-0.20739 -0.0570261 0.292428 0.00118726
-0.186426 0.442034 -0.256632 0.00402475
-0.197989 0.447187 -0.246856 0.00654823
-0.183039 0.451166 -0.252351 0.00264656
-0.194382 0.456042 -0.242865 0.000251329
-0.0186348 0.547006 0.38781 0.000826432
-0.0287731 0.560634 0.393907 0.000676269
-0.0118347 0.557861 0.395861 0.000347325
-0.0220449 0.574189 0.403192 0.000158825
0.208691 0.292013 -0.130758 0.000552395
0.206048 0.289327 -0.119295 0.00373434
0.211265 0.287965 -0.115177 0.00113521
0.208183 0.285296 -0.102727 0.0019715
0.308601 -0.690892 -0.170415 0.00153414
0.295685 -0.691858 -0.161526 0.000825594
0.31977 -0.692023 -0.156853 0.000163202
0.307598 -0.69259 -0.147879 0.00124399
-0.343827 -0.587574 -0.253269 0.00208623
-0.348136 -0.599518 -0.248359 0.00106271
-0.346875 -0.581168 -0.238625 0.00140013
-0.350867 -0.5949 -0.232963 0.00140074
0.288652 -0.156048 -0.267385 0.000233165
0.280811 -0.171897 -0.268062 0.000289207
0.306177 -0.156687 -0.260084 0.000863469
0.298602 -0.172182 -0.261524 0.000142169
0.0243124 -0.200416 0.410448 0.00230827
0.0105762 -0.215308 0.417017 0.000905255
0.0407834 -0.200864 0.408894 0.00290301
0.0267008 -0.215171 0.415862 0.00159428
0.182561 -0.697418 -0.225589 0.00206262
0.170209 -0.695925 -0.214295 0.000196105
0.188063 -0.695764 -0.207417 0.000165402
0.176412 -0.693306 -0.197101 0.00269625
0.31764 -0.0662779 -0.0211355 0.00546023
0.32098 -0.0857346 -0.0169788 0.00311889
0.308436 -0.0669417 -0.00342411 0.000584501
0.311971 -0.0864574 0.00134324 0.00285012
-0.278137 -0.189646 0.240022 0.00125555
-0.279758 -0.205544 0.239478 0.000149334
-0.269905 -0.184503 0.254667 0.000468219
-0.271956 -0.20064 0.253217 0.000741423
-0.313269 -0.238366 0.0445775 0.0023204
-0.313759 -0.252538 0.0435032 0.00112137
-0.310606 -0.236532 0.0562023 0.00109484
-0.31113 -0.25073 0.055443 0.00182291
-0.306319 -0.244609 -0.279892 0.002026
-0.312237 -0.261501 -0.274592 0.000828837
-0.30193 -0.248921 -0.278771 0.000281239
-0.308022 -0.266498 -0.273632 0.000793425
0.22162 0.399167 0.153247 0.000204882
0.220765 0.386785 0.159767 8.43703e-05
0.222298 0.396571 0.170952 0.00144994
0.221004 0.385172 0.178173 0.00145513
-0.251246 0.632499 -0.273691 0.00278955
-0.253476 0.618909 -0.272356 0.00381929
-0.247266 0.638029 -0.269357 0.00248858
-0.249876 0.624342 -0.26801 0.00214977
0.210288 0.275389 0.0375465 0.00219
0.211519 0.264495 0.0501399 0.000640655
0.21424 0.271678 0.052876 0.00171092
0.215211 0.260865 0.0649064 0.00400072
-0.0253884 -0.564471 0.429121 0.00182091
-0.0340541 -0.578788 0.425398 0.00117671
-0.0102286 -0.566713 0.434094 0.00108118
-0.0173869 -0.582941 0.430523 0.000954534
0.221518 0.403528 0.0988833 6.4926e-05
0.220775 0.388939 0.103032 0.000444386
0.22101 0.406082 0.114574 0.000863881
0.220276 0.391371 0.118842 0.000158179
0.100778 0.62287 0.230419 0.00155073
0.0834622 0.62653 0.246874 0.0109772
0.113029 0.610188 0.238251 0.000141634
0.0950426 0.614431 0.255557 0.00117623
0.199646 0.535158 -0.276464 0.000615601
0.188006 0.519041 -0.273746 0.00200647
0.218789 0.535201 -0.271704 0.000803607
0.206802 0.518991 -0.269336 0.00104941
0.356324 -0.229113 -0.171253 0.000761915
0.35693 -0.250127 -0.170765 0.000312019
0.358118 -0.228758 -0.154109 0.00207566
0.359352 -0.24949 -0.152058 0.000864735
0.0433891 -0.610602 0.429017 0.000540821
0.0338025 -0.622877 0.429837 0.00200097
0.0591718 -0.591814 0.430078 0.000967663
0.0506867 -0.607651 0.429323 9.07644e-05
-0.156978 0.238401 -0.300232 0.0015568
-0.16186 0.215535 -0.300817 0.00147741
-0.13865 0.226745 -0.303545 0.000647852
-0.146254 0.208558 -0.303273 0.000266743
0.241201 -0.122767 -0.281594 0.000611887
0.235261 -0.139952 -0.280483 0.000755809
0.258969 -0.129062 -0.275243 0.000957574
0.252538 -0.145321 -0.274576 0.00164768
0.377076 -0.421885 -0.038666 0.000447739
0.375891 -0.435344 -0.0317219 0.000128384
0.377476 -0.423548 -0.0164451 0.00116758
0.376303 -0.436516 -0.00910357 0.00070278
-0.137881 0.763423 0.0840788 0.00406035
-0.139347 0.746783 0.083458 0.000729405
-0.119934 0.76109 0.0872302 0.00281579
-0.125072 0.746424 0.0869178 0.00184863
-0.0697866 0.441208 -0.295516 0.00261178
-0.079617 0.423081 -0.291848 0.00163977
-0.0472652 0.435717 -0.294794 0.00107802
-0.0568209 0.414599 -0.291362 0.00295122
0.213541 -0.45699 0.380799 0.00360237
0.197858 -0.457935 0.389926 0.00769289
0.219409 -0.439964 0.379031 0.00257886
0.204446 -0.442065 0.387742 0.000494483
-0.337596 -0.481756 -0.200105 0.000806448
-0.344005 -0.49894 -0.193456 0.00155421
-0.338754 -0.47159 -0.185523 0.00827918
-0.344806 -0.487826 -0.179681 0.00437487
-0.231957 0.64845 -0.276255 0.00211284
-0.234792 0.633989 -0.274957 0.0013375
-0.225118 0.6519 -0.274954 0.000288272
-0.227941 0.636451 -0.274329 0.000309773
-0.378814 -0.420341 -0.0953351 0.000420899
-0.379301 -0.434749 -0.0902233 0.000242614
-0.379504 -0.422319 -0.0766857 0.000201332
-0.380508 -0.436052 -0.0714525 0.000979309
0.0195356 -0.689919 -0.339825 0.00184757
0.0108591 -0.695865 -0.331159 0.00129899
0.0274723 -0.697074 -0.32913 0.00172166
0.0189068 -0.702437 -0.319337 0.00573001
0.121731 -0.699485 -0.136228 0.00586842
0.111466 -0.69759 -0.128393 0.000637028
0.129257 -0.697173 -0.122386 0.00831311
0.11945 -0.694848 -0.114963 0.000648182
0.312843 -0.126154 0.0169122 0.00504474
0.309262 -0.140111 0.0262355 0.00248964
0.309744 -0.127893 0.0401925 0.000601842
0.306199 -0.142115 0.0500484 0.00291615
0.204447 0.369619 -0.218991 0.000522379
0.202002 0.358436 -0.21627 0.000866142
0.210477 0.369379 -0.209994 0.00506533
0.209985 0.358311 -0.205954 0.00556401
-0.347833 0.0255121 -0.177988 0.00073639
-0.347758 0.00811025 -0.173505 0.00075071
-0.345815 0.0256009 -0.159872 0.000255561
-0.345706 0.00977738 -0.155505 8.45328e-05
0.31439 0.199728 -0.0422017 0.00488876
0.29921 0.203397 -0.0272509 0.0106864
0.316835 0.197125 -0.0257448 0.00578259
0.303041 0.199593 -0.0098954 0.00888434
0.352378 -0.661521 -0.230395 0.000489669
0.350364 -0.673043 -0.226039 0.00252961
0.357958 -0.656082 -0.216964 0.0025765
0.355138 -0.666896 -0.2108 0.00268452
0.0674179 0.811834 0.132485 0.00123117
0.0524404 0.816535 0.140476 0.0032723
0.0793704 0.825519 0.132142 0.00375554
0.0640477 0.830594 0.139987 0.00268233
0.143933 0.616865 0.222404 0.000609649
0.12787 0.617129 0.237143 0.00682446
0.155393 0.603444 0.230022 0.00247857
0.13764 0.606428 0.246076 0.00588694
0.045931 0.353508 -0.294447 0.00157004
0.0369323 0.333923 -0.293182 0.00128513
0.0657029 0.346658 -0.293563 0.00210182
0.0566143 0.328389 -0.292662 1.23262e-05
0.089222 0.621073 0.33626 0.00348524
0.0809158 0.618664 0.350226 0.00394134
0.0929875 0.60796 0.348837 0.00146838
0.0843073 0.605534 0.362299 0.00543767
-0.346533 -0.550331 -0.225116 3.39447e-05
-0.351695 -0.563709 -0.21869 0.00439923
-0.348734 -0.54381 -0.20396 0.000286276
-0.35339 -0.558088 -0.196602 0.00152024
0.153785 -0.684323 -0.124492 0.00247937
0.141308 -0.680965 -0.117728 0.000867571
0.166554 -0.680964 -0.10866 0.00139963
0.153824 -0.677811 -0.101944 0.00224191
-0.359736 -0.227647 -0.0571322 0.00158463
-0.358248 -0.243008 -0.0514792 0.000378127
-0.354967 -0.225538 -0.042869 0.00171441
-0.353162 -0.241366 -0.03866 0.00314407
0.342075 -0.384063 0.177285 5.73934e-05
0.339141 -0.397697 0.190612 0.00177913
0.333699 -0.38789 0.200916 0.000837449
0.330693 -0.401844 0.214451 0.00240647
-0.210707 0.172936 0.200883 0.00245648
-0.220366 0.158957 0.208883 0.00253218
-0.199136 0.167148 0.217892 0.00199833
-0.207657 0.153865 0.225281 0.00353847
-0.346532 0.0181963 -0.222725 2.89289e-05
-0.348303 7.78714e-05 -0.217552 0.00042524
-0.346468 0.0239426 -0.205714 0.000357558
-0.347435 0.00538772 -0.20044 0.000139278
0.199077 0.281386 0.288064 0.000549501
0.192336 0.267883 0.297 0.00149241
0.199848 0.286876 0.301626 0.000153847
0.192769 0.273646 0.311617 8.22208e-05
0.199725 0.916893 -0.0179503 0.00307558
0.191996 0.924215 -0.00444419 0.0042512
0.203185 0.906875 -0.00278781 0.000737676
0.196088 0.911441 0.0108368 4.91184e-05
0.196476 -0.307953 0.392336 0.00182203
0.185834 -0.321443 0.401822 0.0012776
0.205372 -0.314177 0.389919 0.000231042
0.195552 -0.329172 0.398629 0.000298206
-0.208211 0.774553 0.00323643 0.00156356
-0.209069 0.757567 0.00922357 0.000664625
-0.20461 0.78049 0.0213367 0.00307911
-0.205172 0.763397 0.0273127 0.00177156
0.201495 -0.658335 -0.338455 0.00201343
0.191878 -0.669114 -0.337078 0.00169957
0.216209 -0.659755 -0.333419 0.00153188
0.206926 -0.667572 -0.328123 0.00703524
0.0868422 -0.653817 0.416163 0.000347209
0.072159 -0.645462 0.424216 0.00297795
0.101559 -0.631754 0.416832 0.000115645
0.0875142 -0.629616 0.423046 0.000971908
0.209842 0.285213 0.0262423 0.00297156
0.210705 0.275762 0.039026 0.00186506
0.213748 0.280809 0.0425851 0.000984882
0.21507 0.269868 0.0550938 0.00258726
0.146751 0.817304 -0.276981 0.00064798
0.138315 0.803064 -0.275066 0.00364483
0.161884 0.803897 -0.280718 0.00357077
0.151674 0.791071 -0.277557 0.000469436
0.0348421 0.0260128 -0.300393 0.000241908
0.0266967 0.00786359 -0.299962 0.00123235
0.0533703 0.0212112 -0.300753 0.00111369
0.0442201 0.00343745 -0.300119 0.000408006
0.21487 0.487167 -0.249832 0.00123847
0.207727 0.47587 -0.24737 0.00150244
0.225578 0.490425 -0.24062 0.000653902
0.218767 0.480053 -0.237662 0.00344626
-0.208779 -0.545268 -0.321711 0.00137755
-0.227012 -0.540343 -0.313903 0.00170799
-0.192538 -0.525986 -0.324645 0.00263706
-0.210865 -0.520844 -0.316539 0.00138665
0.335427 0.185226 -0.124519 0.00137224
0.339945 0.164283 -0.116809 0.000156413
0.33494 0.17751 -0.105747 0.00172741
0.338544 0.157741 -0.0982391 1.63513e-05
-0.202455 0.684551 -0.276013 0.000707772
-0.204448 0.66505 -0.276225 0.000334861
-0.187252 0.678498 -0.277527 0.000138281
-0.190155 0.659868 -0.277985 0.000518149
0.14595 -0.593814 -0.337095 0.00211841
0.141452 -0.612722 -0.339596 0.000804388
0.163802 -0.589591 -0.334237 0.0019318
0.159385 -0.608425 -0.337603 0.00087439
-0.185407 0.312465 -0.254877 0.00144402
-0.192563 0.302307 -0.248682 0.000282737
-0.180156 0.321125 -0.24965 0.00785274
-0.187085 0.30991 -0.243553 0.0045482
0.0687102 0.255148 0.412332 0.00111732
0.0552896 0.263684 0.423073 0.00190679
0.0798188 0.269258 0.417915 0.00209098
0.0686001 0.27136 0.425907 0.000795234
0.344992 -0.63981 -0.275245 0.00252555
0.343272 -0.65322 -0.27485 0.00142368
0.349531 -0.637076 -0.260721 0.00103184
0.350359 -0.651688 -0.260569 0.00250351
0.146462 0.962965 -0.0941121 0.000633203
0.135385 0.964861 -0.0819965 0.00233816
0.154464 0.957235 -0.0797064 0.00405613
0.144294 0.961123 -0.0664243 0.000298987
0.137388 0.880066 0.116152 0.0017267
0.126166 0.873201 0.125854 0.0012212
0.149365 0.872546 0.11258 0.00253828
0.138311 0.865036 0.122188 0.000797452
0.31676 -0.16508 -0.00841551 0.0104002
0.314658 -0.180178 -0.00108339 0.00820367
0.312201 -0.163492 0.0144732 0.00246862
0.307755 -0.177819 0.0237338 7.90707e-05
0.29094 -0.247406 0.261285 0.000490533
0.291286 -0.261164 0.265416 0.00173879
0.285573 -0.247687 0.278231 0.000767952
0.286174 -0.261581 0.283901 0.000662392
-0.211971 -0.237176 -0.28623 0.000198697
-0.223932 -0.25083 -0.282642 0.000723954
-0.195393 -0.246704 -0.286924 0.00112899
-0.207228 -0.260774 -0.283093 0.00167176
-0.257501 -0.571879 0.298418 0.00276461
-0.257165 -0.585819 0.289709 0.000897302
-0.246284 -0.568486 0.314292 0.00408542
-0.246119 -0.582944 0.306099 0.00178077
-0.0344372 0.780717 0.12302 0.000461936
-0.0428532 0.765988 0.121239 0.00013289
-0.0219947 0.781585 0.130697 0.00288617
-0.0295584 0.766464 0.128681 0.00618861
-0.152636 0.241119 -0.301339 0.000589014
-0.157768 0.219194 -0.301967 0.000443614
-0.13403 0.231115 -0.303183 0.000595088
-0.142121 0.213123 -0.302868 0.000558668
-0.0745912 -0.689053 0.0489748 0.00478203
-0.0839147 -0.687229 0.0618903 0.000112964
-0.0660032 -0.687186 0.062223 0.000203986
-0.0754679 -0.685221 0.0753409 0.00242805
0.337808 -0.456813 0.179865 0.000587211
0.332279 -0.468025 0.190275 0.000361491
0.330922 -0.450024 0.199237 0.00131997
0.325442 -0.461729 0.209895 0.00103825
-0.06404 -0.687499 -0.280757 0.00272295
-0.0753789 -0.68893 -0.271263 0.000133526
-0.0466933 -0.688897 -0.266923 0.00192915
-0.0603592 -0.690366 -0.25783 0.00368781
0.33962 0.0248076 -0.0677191 0.00111318
0.340945 0.0103057 -0.0662496 0.00262977
0.333498 0.0290145 -0.0497817 0.000474056
0.334923 0.0140587 -0.0480691 0.000250271
0.241158 -0.687253 0.149283 0.000672088
0.229953 -0.688125 0.15653 0.00260074
0.244186 -0.684842 0.165081 0.00220348
0.233652 -0.686653 0.172365 0.000590644
-0.0278854 -0.335854 0.436195 0.00279142
-0.0362729 -0.352312 0.438148 0.00147655
-0.0110293 -0.346529 0.435924 0.00104625
-0.0188515 -0.362285 0.437585 0.00506006
-0.211982 -0.449356 -0.285046 0.00217194
-0.232167 -0.441595 -0.274677 0.00414396
-0.194144 -0.431575 -0.290169 0.00481883
-0.21408 -0.424627 -0.281136 0.00318901
-0.177705 0.273278 0.273848 0.000330368
-0.180431 0.283515 0.286209 0.000232718
-0.172301 0.271798 0.293468 0.000531614
-0.175262 0.281992 0.304667 0.000155916
0.139212 0.101638 0.30901 0.00268985
0.127815 0.0822399 0.31696 0.000783476
0.152071 0.0867961 0.306262 0.000486936
0.140839 0.069382 0.314624 0.00156216
-0.0702845 0.0358713 0.341718 0.000284595
-0.0818796 0.0233831 0.344373 0.00200028
-0.0534246 0.030035 0.344795 0.00176067
-0.0651797 0.0174707 0.347927 0.000367473
0.248714 0.639403 -0.139871 0.00696385
0.250244 0.625075 -0.137976 0.00669219
0.244426 0.640037 -0.123965 0.00514094
0.245515 0.627127 -0.121675 0.00571829
0.319239 -0.254569 0.0696772 0.00132763
0.314962 -0.25268 0.0801043 0.000918692
0.321277 -0.266459 0.0851839 0.00206938
0.312237 -0.254398 0.0974022 0.00122206
0.0253491 -0.426333 -0.304575 5.3098e-05
0.0220889 -0.448789 -0.309937 0.000247718
0.0463909 -0.414865 -0.302951 0.00323872
0.0436441 -0.438808 -0.308778 0.000707413
0.193613 -0.350891 0.399284 0.00248927
0.191244 -0.376361 0.406025 0.00225769
0.207888 -0.34142 0.39339 0.000861927
0.20478 -0.364936 0.399535 0.00345095
0.282682 -0.69284 -0.148973 8.22636e-05
0.269979 -0.693229 -0.138982 0.000887732
0.290448 -0.69234 -0.135526 0.000758699
0.278303 -0.692695 -0.125286 0.00104248
-0.245736 0.793446 -0.257133 0.00109685
-0.249154 0.779481 -0.252595 0.00173351
-0.248302 0.798661 -0.242426 0.000905346
-0.251303 0.785836 -0.23705 0.00128359
0.165172 -0.595812 0.371924 0.000535206
0.151573 -0.594549 0.379044 0.00311106
0.171463 -0.580922 0.372814 0.00667791
0.157335 -0.578434 0.380259 0.0015241
0.352236 -0.193364 -0.0436454 0.000568922
0.355584 -0.211936 -0.0394282 0.00174462
0.347675 -0.201565 -0.0234432 0.00276318
0.351066 -0.219193 -0.0193697 0.000610345
-0.363054 -0.203465 -0.208329 0.000851774
-0.364856 -0.218687 -0.202888 0.000405083
-0.363839 -0.196138 -0.194943 8.75789e-05
-0.365029 -0.211632 -0.189771 0.000312258
0.138061 0.299623 -0.289956 0.000333582
0.127373 0.284023 -0.290213 0.000203635
0.158898 0.293824 -0.289129 0.00165478
0.148992 0.27771 -0.289231 0.00053346
-0.114915 -0.586123 0.383247 0.00820624
-0.113251 -0.61236 0.378057 0.00375668
-0.0981777 -0.584402 0.39358 0.000651971
-0.0979833 -0.607754 0.388112 0.00178271
-0.374806 -0.451445 0.00365179 0.000143657
-0.377015 -0.468821 0.0041101 5.71595e-05
-0.372561 -0.444255 0.021234 0.000398237
-0.374659 -0.461754 0.0214158 7.23048e-05
0.345052 -0.446114 0.164436 0.00144496
0.339861 -0.457016 0.175612 0.000605047
0.338462 -0.441492 0.184706 0.000983199
0.333354 -0.453045 0.196176 0.000980111
0.012503 0.956432 -0.240714 0.00245783
-0.00855269 0.958037 -0.238208 8.08226e-06
0.0282894 0.958928 -0.230241 0.000611427
0.00763111 0.960439 -0.227356 0.00104344
0.258375 -0.55646 -0.302361 0.000869495
0.258055 -0.574642 -0.310367 0.00184046
0.275055 -0.55507 -0.293036 0.00118081
0.274579 -0.573253 -0.30131 0.000234707
-0.215293 0.572518 0.00320476 0.00010971
-0.21633 0.551834 0.0053681 0.000799484
-0.215222 0.578705 0.0209938 0.000718479
-0.216443 0.558239 0.0232373 0.00112646
0.0458008 0.118416 0.319894 0.00143523
0.0343127 0.1127 0.321878 0.00346299
0.0596659 0.119156 0.319512 0.000527341
0.0474647 0.115951 0.322518 0.000377155
0.208736 0.855837 -0.168553 0.00115535
0.212952 0.836617 -0.160767 0.00163521
0.210994 0.853347 -0.149838 0.000194936
0.214244 0.835272 -0.141399 0.00137876
-0.300347 -0.696288 -0.164085 0.00175279
-0.313931 -0.694157 -0.153032 0.0038455
-0.288425 -0.698522 -0.148518 0.00223455
-0.302219 -0.696737 -0.13852 0.00117085
-0.354251 -0.320997 0.0740311 0.000514177
-0.355798 -0.33714 0.0884338 0.000786464
-0.35216 -0.326762 0.0946278 0.000795661
-0.352214 -0.34289 0.112361 0.000939123
0.220098 0.824137 -0.0413668 0.00175894
0.220334 0.809551 -0.0381251 0.000204007
0.219926 0.827273 -0.0219623 0.00160668
0.220212 0.812535 -0.0187125 0.00056937
0.22094 0.814966 -0.0390318 0.00139708
0.221175 0.80038 -0.0357901 0.000164283
0.220762 0.819719 -0.0194871 0.00139478
0.221305 0.80467 -0.0159422 0.000542941
0.0182016 0.284197 -0.298431 0.00167556
0.00670808 0.268227 -0.297341 0.000514681
0.039367 0.276392 -0.297591 0.00130332
0.0284042 0.260617 -0.296653 0.000393281
-0.159033 0.0137565 0.313449 0.000354534
-0.168997 -0.00280093 0.313556 0.00201551
-0.143523 0.0135491 0.319424 0.00183453
-0.153617 -0.00314793 0.320205 0.000167659
0.240889 0.709558 -0.275467 0.00288852
0.235256 0.695102 -0.277898 0.00151206
0.252027 0.709387 -0.265202 0.00381868
0.247111 0.694791 -0.267918 7.07639e-05
-0.0833981 0.920452 0.110326 0.00150828
-0.0929639 0.909073 0.118303 0.00132873
-0.0666675 0.915142 0.120853 0.00355502
-0.0771952 0.903627 0.129193 0.00100234
0.268011 -0.275896 -0.256894 0.00129477
0.25992 -0.291628 -0.256333 9.82137e-05
0.284013 -0.286722 -0.251403 0.00133028
0.277908 -0.301558 -0.251662 0.0019333
0.224852 0.463348 0.024131 0.000589167
0.224584 0.449736 0.0255753 0.000949882
0.224652 0.470229 0.043756 0.000542051
0.224138 0.45645 0.0448067 0.000458638
0.229168 0.538286 0.0785436 0.000182342
0.22829 0.526608 0.0869631 0.000607251
0.230614 0.537633 0.096041 0.0013725
0.229793 0.526081 0.105013 0.000789212
0.210658 0.282064 0.0774502 0.00192553
0.211307 0.269166 0.0857543 0.000387748
0.213548 0.281549 0.0954498 0.00174981
0.212814 0.268838 0.100802 0.00274145
0.0910077 -0.0180405 0.355153 0.000146606
0.0789278 -0.0370862 0.363289 0.00216837
0.104594 -0.0276816 0.352666 0.00280679
0.0924663 -0.0469622 0.361234 0.000314563
-0.260475 -0.552091 -0.304965 0.00153678
-0.277229 -0.548387 -0.296113 0.00154027
-0.252348 -0.532883 -0.304137 0.000592591
-0.269714 -0.52906 -0.29571 0.000404548
-0.122185 0.234634 0.341088 0.000313863
-0.13158 0.245705 0.344262 0.000494549
-0.114625 0.234818 0.352849 0.00345513
-0.124325 0.245415 0.354847 0.000391516
-0.214703 0.667937 -0.020613 0.0010024
-0.215313 0.650044 -0.0187774 0.000869452
-0.214082 0.678315 -0.0040288 0.000692975
-0.214279 0.657953 -0.00318898 0.000562301
0.217477 0.372856 0.218436 0.000464485
0.216431 0.361685 0.226753 0.000596574
0.218843 0.376615 0.235582 0.00134613
0.217695 0.365704 0.242957 0.000576065
0.0876099 -0.262495 0.425823 0.000398615
0.0756157 -0.276035 0.432164 0.00172397
0.101471 -0.270465 0.423889 0.00143581
0.089839 -0.283338 0.430633 0.000809112
-0.239928 0.492069 -0.241939 0.00261993
-0.247639 0.49742 -0.227939 0.00203889
-0.235012 0.478956 -0.23349 0.00284397
-0.241824 0.484736 -0.219345 0.00277417
0.0660352 -0.687881 0.141505 0.00391179
0.0579835 -0.6883 0.151663 0.00209081
0.0741382 -0.687012 0.155239 0.00423422
0.0653474 -0.687053 0.165218 0.00287411
0.180327 -0.694254 -0.274293 5.99042e-05
0.165485 -0.693803 -0.265038 0.000346018
0.188182 -0.695323 -0.261089 0.00109825
0.174112 -0.694706 -0.250579 0.00070093
0.346955 -0.0604663 -0.0582295 0.00323562
0.349069 -0.0805894 -0.0542758 0.00369395
0.340145 -0.0598363 -0.0422162 0.000632483
0.342765 -0.0799867 -0.0386591 0.000811336
0.248478 0.812375 -0.204775 0.00453569
0.252735 0.791754 -0.205145 0.00368155
0.245762 0.804636 -0.187936 0.00757597
0.249754 0.787469 -0.183853 0.00205916
0.200071 0.346021 -0.215585 0.00168705
0.196771 0.342023 -0.206395 0.00705906
0.206565 0.343482 -0.197582 0.00175598
0.204943 0.337681 -0.188384 0.000876252
-0.100631 0.596066 0.251543 0.000839364
-0.109353 0.584517 0.260092 0.00137708
-0.0908962 0.600249 0.257048 0.00221362
-0.0996434 0.588758 0.265638 0.00174025
0.342482 -0.161996 -0.231414 0.00134326
0.340063 -0.18039 -0.231039 0.0011174
0.35342 -0.16626 -0.219065 0.00838527
0.351275 -0.184253 -0.218918 0.00536756
0.195634 0.646673 0.169035 0.000241911
0.189334 0.638527 0.180982 0.000539591
0.1995 0.635442 0.179523 0.00111191
0.193383 0.628921 0.191369 0.00338053
0.132876 -0.671444 -0.0936664 0.00756174
0.12232 -0.670043 -0.0846191 0.000752582
0.140062 -0.669805 -0.0789759 0.000675127
0.128857 -0.668868 -0.0697279 0.00103095
0.225734 0.507662 -0.000136842 1.68568e-05
0.224619 0.494019 0.000420001 0.000426152
0.227439 0.515374 0.0181309 0.00123308
0.226112 0.501309 0.0182229 8.64117e-05
0.162265 -0.231282 0.394298 0.000671909
0.146538 -0.238283 0.403177 0.000232673
0.173817 -0.239666 0.392187 0.00125517
0.158343 -0.247435 0.402528 0.000967228
-0.157298 0.20404 0.247704 0.00199398
-0.167458 0.215975 0.248335 0.00565423
-0.146907 0.201792 0.26014 1.36162e-06
-0.157471 0.215048 0.261112 0.00186397
-0.286899 -0.233728 0.230263 0.000605292
-0.28885 -0.251272 0.229077 0.000662319
-0.280036 -0.228288 0.241064 0.00034191
-0.282303 -0.246106 0.239506 0.000776826
0.367036 -0.32123 -0.0776757 0.00117809
0.367828 -0.335077 -0.0709894 0.000110999
0.366692 -0.323951 -0.0588505 0.000978966
0.367121 -0.337665 -0.0518773 0.00140807
0.284777 -0.281038 0.2816 0.000753692
0.285366 -0.296292 0.286681 0.00381354
0.277333 -0.276871 0.294577 0.00375062
0.278274 -0.294465 0.29893 8.30004e-05
0.313196 -0.692348 -0.136048 0.000971229
0.301327 -0.69276 -0.126402 0.0017922
0.320079 -0.691397 -0.122195 0.000250687
0.30885 -0.691582 -0.112673 0.000152967
0.0727414 -0.523906 -0.327401 0.00119312
0.0713757 -0.545744 -0.332515 0.00186624
0.0915376 -0.522375 -0.327262 0.00137292
0.088177 -0.543852 -0.332221 0.00371434
0.148774 -0.246963 -0.279348 0.00104869
0.135521 -0.25849 -0.278882 0.000397259
0.16751 -0.251668 -0.277473 0.000373657
0.153879 -0.262107 -0.27778 0.00146431
-0.00142651 -0.0617869 0.37044 0.0027162
-0.0133532 -0.0778045 0.376606 0.00376133
0.0188061 -0.0762778 0.371594 0.0055587
0.00621024 -0.0913614 0.378054 0.0034518
-0.322248 0.246777 -0.228976 0.00145348
-0.330042 0.236987 -0.217669 0.00174269
-0.317683 0.25051 -0.214558 0.00256508
-0.32556 0.241088 -0.202685 0.00018639
0.0943552 -0.651057 -0.35582 0.00854723
0.0855176 -0.659452 -0.350285 0.00211421
0.108696 -0.659411 -0.348927 0.00191428
0.0985695 -0.666665 -0.3446 0.00269008
0.20381 -0.1105 0.340518 0.000307135
0.195112 -0.119254 0.347284 0.0012576
0.214794 -0.12639 0.339366 0.00216898
0.205476 -0.134087 0.34667 0.00157773
-0.179439 0.351555 0.360834 0.00161829
-0.181295 0.332793 0.356878 0.0030789
-0.168734 0.356341 0.372777 0.00177508
-0.171763 0.338265 0.36908 0.000340318
0.0406535 0.960698 -0.0301629 0.00139183
0.0342089 0.957955 -0.0176984 0.00117045
0.0463507 0.960977 -0.0162894 0.00100736
0.0400475 0.958047 -0.00375681 0.0015647
0.326311 -0.594943 0.0594232 0.00252671
0.322418 -0.60946 0.0704471 0.00377648
0.325561 -0.588511 0.0731389 0.000184586
0.321225 -0.601093 0.082375 0.00226632
0.0771591 0.539287 -0.287353 0.00030544
0.0657044 0.524069 -0.286204 0.00155333
0.0921965 0.534557 -0.286797 5.75433e-05
0.0805754 0.519299 -0.285457 0.00199893
-0.198993 0.275371 -0.11888 0.000794658
-0.204677 0.26564 -0.105071 0.00304245
-0.196903 0.272879 -0.10394 0.00183662
-0.201743 0.262243 -0.0907437 0.00106965
0.312218 -0.0843361 0.114132 0.000409115
0.314108 -0.101247 0.116038 0.00129315
0.3096 -0.0755824 0.1315 0.0026023
0.312045 -0.0931045 0.133158 0.00102031
-0.184387 0.27943 0.253049 0.00115011
-0.186989 0.289448 0.265977 0.000447049
-0.180218 0.276793 0.273768 0.00044492
-0.1822 0.28634 0.286698 0.000624296
-0.214952 -0.687377 0.0401452 0.00146144
-0.225627 -0.687765 0.0522561 0.00462806
-0.205363 -0.68399 0.0519242 0.000922012
-0.215953 -0.684715 0.0633924 0.00460517
0.2128 0.292926 0.106379 0.000342667
0.211678 0.280278 0.11111 0.000966592
0.212586 0.292608 0.125492 0.0013546
0.210825 0.279921 0.130034 0.000523934
-0.0702807 0.606919 0.36053 0.00290801
-0.0801284 0.596838 0.36264 0.00327262
-0.0564461 0.610004 0.371455 0.00481993
-0.0665795 0.599616 0.372465 0.00340345
0.372193 -0.447319 -0.0926716 0.00082982
0.370643 -0.46303 -0.0887613 0.00158326
0.376753 -0.445493 -0.0747465 0.00315158
0.374853 -0.461627 -0.070541 0.00212048
0.0190784 -0.206776 -0.291882 0.000239421
0.00899103 -0.220216 -0.289466 0.000612349
0.0355547 -0.218462 -0.291194 0.00221727
0.0250141 -0.231601 -0.289084 0.00081624
-0.083723 -0.670514 0.36528 0.00384421
-0.0967012 -0.654815 0.371603 0.0050593
-0.0743192 -0.658698 0.379361 0.00102484
-0.0841737 -0.652605 0.383276 0.00217611
0.134754 0.662555 0.178907 1.01614e-05
0.126715 0.652606 0.19184 0.00166268
0.145248 0.650725 0.187764 0.00090061
0.137081 0.640002 0.199927 0.00123715
0.259259 0.224856 -0.285617 0.000147774
0.253154 0.206368 -0.287179 0.000318586
0.278452 0.216369 -0.285284 0.00218101
0.273532 0.19713 -0.287665 0.000124673
0.137772 -0.343359 0.425881 0.000977174
0.131701 -0.369132 0.430252 0.00127681
0.154563 -0.334886 0.41871 0.00181845
0.14916 -0.361394 0.42342 0.00221545
0.227878 0.474167 0.108968 0.00135775
0.226547 0.457668 0.114254 0.00107158
0.228264 0.474454 0.125332 0.000729399
0.227045 0.45885 0.131358 0.000565144
0.306849 0.067007 -0.282404 0.00254428
0.298896 0.052544 -0.284821 0.00507024
0.31805 0.0671612 -0.274736 8.51041e-05
0.311119 0.0522312 -0.277382 0.000246156
-0.325415 0.108849 -0.296022 0.00299559
-0.32999 0.0957036 -0.292153 0.00422885
-0.328845 0.111848 -0.284246 0.00272897
-0.332738 0.0996925 -0.279918 0.00262387
0.0677114 0.414375 -0.289352 0.000442247
0.0545628 0.399448 -0.289872 0.000975131
0.0900577 0.410568 -0.289005 0.000796787
0.0764712 0.39648 -0.289202 0.000361118
-0.337417 -0.69227 -0.247036 0.00204373
-0.343727 -0.688397 -0.234922 0.000452322
-0.332912 -0.699103 -0.23981 0.0042038
-0.339731 -0.694579 -0.226955 0.00220913
0.0119906 -0.057735 -0.30053 0.00127147
0.0018729 -0.0766765 -0.298693 0.00213342
0.0312009 -0.0782223 -0.303259 0.00388501
0.0218889 -0.0963593 -0.301714 0.00234643
-0.0812742 0.549212 0.372452 0.00330438
-0.0823049 0.528113 0.366329 0.00261859
-0.0667982 0.555298 0.380603 0.00228594
-0.067881 0.534467 0.373462 0.000699546
-0.0279141 -0.676612 0.0141447 0.00112014
-0.0461489 -0.678277 0.0213181 0.00397188
-0.0129505 -0.677004 0.0271369 0.000767165
-0.0315296 -0.678035 0.0344017 0.00132758
0.214445 0.364348 -0.0955644 0.000758125
0.21431 0.347438 -0.0925926 0.000809615
0.214482 0.366783 -0.075885 3.82523e-05
0.214193 0.349673 -0.0726708 0.000782431
-0.00252801 0.474452 0.369364 0.00421903
-0.00882515 0.466435 0.37248 0.00151687
0.0108171 0.468961 0.372278 0.000332804
0.00472719 0.460868 0.375361 0.00655734
0.207759 0.32756 -0.147442 0.00150643
0.210857 0.313713 -0.142397 0.00247861
0.207922 0.326749 -0.129914 0.0024249
0.210325 0.313653 -0.123897 0.000195061
0.219839 0.380737 0.101124 0.000585402
0.219059 0.367057 0.105359 0.000610215
0.218443 0.383299 0.116525 0.000862367
0.217468 0.369598 0.120979 0.00076801
0.110087 -0.671032 0.0855217 0.0031274
0.103006 -0.673622 0.0954822 0.00416818
0.113959 -0.672252 0.100717 0.00168362
0.106757 -0.673329 0.110412 0.000173736
-0.191917 0.282928 0.212966 0.00165859
-0.195218 0.291482 0.224717 0.000931982
-0.18887 0.279469 0.233774 0.000142428
-0.192184 0.290894 0.24653 0.000715602
-0.0694516 -0.689855 -0.0459776 0.00471755
-0.0830811 -0.690241 -0.0379415 0.00381053
-0.0588267 -0.688361 -0.0257429 0.000585424
-0.0730761 -0.689395 -0.0187127 0.000167446
0.293236 -0.661784 0.136952 0.00203473
0.284845 -0.669132 0.145768 0.00225051
0.293815 -0.649436 0.15537 0.00360089
0.286527 -0.657061 0.163387 0.00165674
-0.0307766 0.142305 0.31469 0.00201739
-0.0382626 0.127703 0.31749 0.000800098
-0.0168057 0.140566 0.316106 0.00137353
-0.0244276 0.125058 0.319078 0.00143504
-0.359423 -0.548139 -0.097179 0.00199129
-0.357427 -0.563556 -0.0937546 0.00144292
-0.362834 -0.540352 -0.080767 0.00280163
-0.3598 -0.555835 -0.0774704 0.00106387
0.0314658 0.832054 0.151473 0.00171001
0.0170349 0.838114 0.158869 0.00305428
0.0425497 0.844809 0.151757 0.00365434
0.0268465 0.853089 0.160301 0.00229653
-0.00519944 0.959143 -0.173294 0.00122549
-0.0160505 0.959106 -0.156563 0.00187294
0.00858548 0.95822 -0.154134 0.000845964
-0.00233686 0.958028 -0.136986 0.00155333
-0.145077 0.427829 -0.288378 0.00258185
-0.16297 0.431529 -0.275127 2.077e-05
-0.135076 0.43833 -0.289888 0.00371665
-0.152756 0.442743 -0.276954 0.00309378
-0.0332436 -0.441833 -0.311128 0.000136083
-0.0372181 -0.46011 -0.315339 0.000593557
-0.0138039 -0.439529 -0.310651 0.000222575
-0.0179533 -0.458269 -0.315078 0.000622912
0.295006 -0.44197 0.290214 0.000654782
0.285486 -0.457001 0.299897 0.00153371
0.287362 -0.4318 0.305563 0.000305674
0.278605 -0.446781 0.314101 0.00095914
0.22433 0.816032 -0.272897 0.00277556
0.222995 0.798864 -0.278398 0.00616032
0.235227 0.811981 -0.260735 0.00421109
0.234416 0.794306 -0.266758 0.00112789
-0.152576 0.893712 0.0827102 0.000612735
-0.158056 0.87975 0.0868705 0.000590123
-0.142133 0.896069 0.0944231 0.00317206
-0.1474 0.880915 0.0984597 7.95905e-05
-0.0549667 -0.201328 -0.296377 0.00105575
-0.0639837 -0.218695 -0.293951 0.000588954
-0.0406295 -0.216992 -0.294591 0.000453237
-0.0490234 -0.234378 -0.291771 0.0011206
0.261663 0.52783 -0.162685 0.00315301
0.259424 0.516713 -0.153705 0.000777167
0.262034 0.531403 -0.145394 0.00233469
0.260324 0.519773 -0.135953 0.00137212
0.254321 0.717215 -0.208909 0.000376484
0.255045 0.702446 -0.208408 0.00256876
0.25509 0.717916 -0.195089 0.00116926
0.255971 0.702934 -0.19475 0.00114483
0.168717 0.324334 0.398269 0.00358525
0.161009 0.312175 0.403872 0.00285787
0.168965 0.343159 0.403572 0.00310094
0.162617 0.327789 0.408802 0.0032764
0.064219 0.134012 -0.299269 0.00235049
0.0589142 0.116725 -0.298929 0.000704764
0.0816174 0.122324 -0.297494 1.06149e-06
0.0753905 0.104257 -0.296272 0.00122182
0.0754818 -0.526801 0.433477 0.000816374
0.0690116 -0.548251 0.433832 0.00147837
0.0997907 -0.531441 0.42674 0.00246649
0.0928739 -0.551623 0.427527 0.00130178
0.0408812 -0.703608 0.379989 0.0183894
0.0281522 -0.693308 0.392023 0.00390942
0.0504313 -0.68801 0.39301 0.0021807
0.036786 -0.67667 0.404296 0.00249262
-0.376086 -0.521526 -0.0161975 0.00122137
-0.371017 -0.540728 -0.0121856 0.00431995
-0.37713 -0.513153 0.00384493 0.00298851
-0.371492 -0.53163 0.00762302 0.000748748
0.328487 0.230864 -0.158254 0.000724924
0.323736 0.231325 -0.144715 0.00130064
0.332579 0.222523 -0.141664 0.000704034
0.328174 0.222464 -0.129148 0.00152991
-0.163646 -0.233874 0.374867 7.43574e-05
-0.168423 -0.253926 0.376942 0.000169417
-0.148963 -0.249283 0.385966 0.000372108
-0.154009 -0.269383 0.388038 0.000609996
0.198889 -0.015749 0.314612 0.00135298
0.189989 -0.0242815 0.323318 0.00147842
0.208765 -0.0333013 0.315425 0.000909714
0.199526 -0.0408205 0.324328 0.00097773
0.253302 0.630745 -0.248464 0.00138983
0.252878 0.615939 -0.250655 0.0027669
0.259912 0.632315 -0.233211 0.00509034
0.259758 0.617199 -0.235201 0.00337969
-0.028025 0.908242 -0.274915 0.00110197
-0.0326094 0.884697 -0.277675 0.000458488
-0.0100179 0.914162 -0.274579 0.000552719
-0.0151294 0.892904 -0.276981 0.000120218
0.0936525 -0.102249 -0.294668 0.00121744
0.0846185 -0.120314 -0.29261 0.00250353
0.110256 -0.110213 -0.296812 0.00169348
0.101178 -0.128047 -0.294242 0.00047596
0.144553 -0.69405 -0.249105 0.000476073
0.130391 -0.693102 -0.238527 0.000236946
0.158725 -0.695257 -0.238052 0.0017045
0.145069 -0.693992 -0.227398 0.00147008
-0.0667282 0.907555 -0.2739 0.000168196
-0.0739615 0.88935 -0.275889 0.000325654
-0.0498931 0.918532 -0.273474 9.30421e-05
-0.0561024 0.897949 -0.275973 0.000565668
0.291434 -0.328864 0.26771 0.00242057
0.291353 -0.344502 0.273207 0.0126412
0.282919 -0.32612 0.282915 0.00027748
0.281896 -0.341646 0.288624 0.00746152
0.265479 -0.271004 0.332962 0.00292868
0.266675 -0.296508 0.336261 0.00249365
0.256784 -0.272389 0.344128 0.000182159
0.257816 -0.298502 0.347747 0.000805605
-0.168853 0.585171 0.221182 0.0024847
-0.172638 0.571641 0.224526 0.00714199
-0.158666 0.585856 0.234044 0.00126191
-0.163948 0.573707 0.237479 0.0017769
0.355372 -0.357662 -0.18141 0.00258528
0.354012 -0.376709 -0.183023 0.00192302
0.365264 -0.35386 -0.167889 0.000149134
0.364366 -0.373211 -0.16963 0.00154072
0.131176 0.863174 -0.275667 0.00224476
0.128574 0.846425 -0.279077 0.00113411
0.144555 0.855817 -0.275814 0.00169806
0.142233 0.838877 -0.278731 0.000773231
0.205161 0.337558 0.358859 0.00115647
0.201229 0.319316 0.364884 0.00206234
0.200265 0.350379 0.371139 0.00253656
0.196616 0.331181 0.37677 0.000405624
-0.21414 0.479516 0.0821263 0.000850245
-0.214403 0.464807 0.0873461 0.00138436
-0.214608 0.47906 0.0987346 0.00141684
-0.214097 0.464546 0.103235 0.00129569
0.0508967 0.277065 -0.294649 0.000150461
0.0400708 0.261512 -0.294018 0.00198062
0.0712831 0.267366 -0.294966 0.00157795
0.0604555 0.252599 -0.294528 0.000303561
0.321897 -0.285262 0.138311 0.00125328
0.31169 -0.270372 0.149346 0.00140689
0.319271 -0.292717 0.154449 0.000569308
0.310114 -0.278861 0.165185 0.00075451
0.334959 -0.000639992 -0.220246 0.00102517
0.33435 -0.0165879 -0.223844 0.00242463
0.338687 0.00374572 -0.201669 0.000665607
0.338348 -0.0128263 -0.204754 0.000203953
0.014279 0.351016 0.437198 0.00477891
0.0100784 0.335246 0.437272 0.000654157
0.0297194 0.346588 0.435179 0.000423764
0.0255464 0.329379 0.435219 0.00322875
0.199314 0.87103 -0.220913 0.00401255
0.196363 0.877982 -0.211404 0.00482096
0.204184 0.87209 -0.208066 0.000637405
0.204719 0.871296 -0.199416 0.00124012
0.0818328 0.711644 -0.285497 0.00127019
0.0677904 0.692761 -0.2841 0.000939045
0.102855 0.71456 -0.285475 0.00204527
0.0884219 0.695916 -0.283972 0.000195963
0.0966223 -0.696045 -0.110806 0.00611413
0.0885451 -0.693819 -0.101473 0.00141979
0.104013 -0.69334 -0.0967468 0.00108881
0.0960258 -0.691193 -0.0868918 0.00404017
-0.0932136 0.669758 0.168231 0.0030204
-0.101884 0.659313 0.173715 0.0043782
-0.0770289 0.66668 0.180814 0.000993879
-0.0870631 0.657383 0.18523 0.000627232
-0.148479 -0.576628 -0.342409 0.000772266
-0.156217 -0.59266 -0.342926 0.0015086
-0.126239 -0.571073 -0.343524 0.00239671
-0.131513 -0.591033 -0.346614 0.00132781
0.247693 0.767811 -0.26164 0.00128281
0.241565 0.752941 -0.265568 0.00334317
0.260012 0.766097 -0.248991 0.0099547
0.254375 0.751268 -0.252723 0.00469471
-0.157968 0.482177 0.323712 0.000890509
-0.163827 0.468382 0.327915 0.00130849
-0.143409 0.48334 0.334137 0.00266178
-0.149398 0.467218 0.340116 0.000363491
0.199685 0.57692 0.232813 0.000169018
0.195119 0.570945 0.244223 0.000918792
0.198744 0.562256 0.246723 0.000775472
0.194386 0.556289 0.258087 0.000984289
0.0380264 0.199217 -0.29842 0.000737383
0.0295986 0.181927 -0.297743 0.000948998
0.0550585 0.196994 -0.29769 0.00103988
0.0474049 0.179809 -0.29719 0.000284114
-0.210019 0.432513 -0.103568 8.98364e-06
-0.208435 0.416705 -0.0902509 0.000506847
-0.210345 0.429684 -0.0856209 0.000161152
-0.208685 0.41286 -0.071274 0.00118722
-0.173286 -0.403079 0.397426 0.000107756
-0.178171 -0.418523 0.394504 0.00365379
-0.152345 -0.404526 0.406383 0.00416406
-0.157805 -0.420552 0.40372 0.000510972
0.117948 -0.243838 0.413531 0.000219645
0.104327 -0.254376 0.422151 0.00142126
0.132308 -0.254277 0.410844 0.00163192
0.119322 -0.264467 0.419503 0.000619387
-0.314908 -0.573885 0.179394 0.00208412
-0.310281 -0.589429 0.181931 0.00128793
-0.309649 -0.57315 0.194757 0.000508082
-0.306002 -0.58994 0.195164 0.00144055
-0.344069 0.0118728 -0.123201 0.000447044
-0.342616 -0.00398624 -0.117366 0.00278783
-0.342572 0.0154438 -0.105803 0.000987063
-0.33959 -0.00214633 -0.100357 0.00385952
0.203243 -0.128459 0.343664 0.00102065
0.194495 -0.137038 0.350815 0.000969665
0.215255 -0.144268 0.341591 0.000440185
0.206416 -0.152387 0.349184 0.000486632
-0.146757 0.201689 0.260236 8.62589e-06
-0.157321 0.214944 0.261208 0.00180113
-0.137635 0.196954 0.275313 0.00178157
-0.147394 0.209697 0.276329 0.00251964
0.198144 0.114766 0.273792 0.000833817
0.177734 0.111933 0.288016 0.000403411
0.20807 0.101479 0.27321 0.00091945
0.187705 0.0988328 0.287434 0.000177212
0.204661 -0.498887 -0.302687 0.00225163
0.201369 -0.516944 -0.309491 0.000766372
0.223877 -0.499068 -0.294275 0.00124216
0.221841 -0.517651 -0.30184 0.000989662
-0.0689684 0.434126 0.387098 0.00537338
-0.074832 0.413413 0.394138 0.000646801
-0.0518568 0.419845 0.398342 0.000417409
-0.0583677 0.399224 0.404067 0.00639407
-0.200446 0.246972 -0.0718713 0.0044011
-0.206811 0.237467 -0.0620721 0.00632008
-0.199304 0.248283 -0.0510878 0.00183971
-0.203762 0.237853 -0.042975 0.00397884
0.225075 0.498154 -0.00625615 3.64087e-05
0.223635 0.484204 -0.00575035 0.00100034
0.226581 0.505625 0.0127332 0.000789593
0.225442 0.49177 0.012226 0.000247635
0.0362444 -0.460061 -0.314061 0.00167064
0.0337866 -0.482465 -0.319313 0.000575395
0.0579448 -0.450363 -0.310203 0.00236828
0.0558841 -0.475659 -0.316378 5.87257e-05
0.241343 0.838011 -0.232033 0.00277437
0.244435 0.816667 -0.237659 0.00294445
0.248653 0.832625 -0.220592 0.00294302
0.252086 0.810877 -0.224538 0.00017817
-0.175222 -0.684021 0.234801 0.000319013
-0.189101 -0.683293 0.244094 0.00220164
-0.163508 -0.683987 0.252033 0.000321425
-0.178854 -0.683374 0.259806 0.000211556
-0.158219 -0.682499 0.134269 0.00023255
-0.171015 -0.686226 0.144451 0.00192884
-0.148977 -0.681693 0.148589 0.00338208
-0.161969 -0.685231 0.158824 0.0030285
-0.0892847 0.0732596 0.326297 5.1328e-05
-0.101646 0.0652714 0.325451 0.0016325
-0.0711979 0.0665795 0.331754 0.00189432
-0.0836018 0.0583456 0.331088 0.001456
0.206194 0.199431 0.191359 0.00473084
0.199424 0.199018 0.20514 0.0031127
0.201863 0.191342 0.207666 0.00146229
0.194567 0.190667 0.221453 0.00246841
-0.212897 0.703263 -0.0806263 3.65145e-05
-0.213232 0.689646 -0.077683 0.000411853
-0.21198 0.70677 -0.064047 0.000220721
-0.212375 0.693184 -0.0611023 0.000296681
0.227874 0.544453 0.214285 0.000649248
0.225013 0.538107 0.223965 0.00137322
0.224363 0.53353 0.231469 0.00136675
0.221198 0.527377 0.241431 0.0023772
-0.212436 0.487132 0.216283 0.00181882
-0.211539 0.473356 0.226235 0.000811855
-0.209492 0.487908 0.231196 0.000544738
-0.207939 0.473071 0.241859 0.00205532
0.260741 -0.432589 -0.245457 0.00124691
0.257126 -0.447541 -0.252315 0.000988193
0.275281 -0.428101 -0.231336 0.00150116
0.272119 -0.443238 -0.238981 0.000672093
0.169188 -0.0774489 -0.291277 0.0015479
0.155731 -0.0912791 -0.290703 0.00231011
0.190841 -0.0851123 -0.290709 0.00166998
0.177252 -0.0992345 -0.289947 0.000148534
-0.252766 -0.640871 0.272723 0.00343005
-0.260835 -0.627119 0.276501 0.00381978
-0.243198 -0.634878 0.291244 0.000619875
-0.250123 -0.626859 0.290146 0.00433713
-0.327806 -0.570233 0.142648 0.000814305
-0.322006 -0.586396 0.146303 0.00077473
-0.322829 -0.566513 0.160206 0.0028618
-0.317392 -0.582938 0.163704 0.000215991
0.251787 -0.456576 0.346464 0.000787553
0.241864 -0.46664 0.354569 0.00108738
0.247509 -0.440889 0.353833 0.00141947
0.236891 -0.448321 0.360728 0.00233577
-0.0547724 -0.682369 0.0587642 0.00255622
-0.0647397 -0.680446 0.0710123 0.00344523
-0.0488771 -0.68117 0.0774164 0.000968086
-0.0587107 -0.679141 0.0900085 0.00255285
0.245559 0.141694 0.223989 0.00119577
0.234722 0.140396 0.234925 0.00118319
0.247682 0.126602 0.231631 0.00146722
0.236384 0.125017 0.242355 0.00129147
-0.380727 -0.470081 -0.088892 4.08047e-05
-0.381148 -0.485438 -0.081574 0.000132279
-0.38142 -0.473844 -0.069716 0.000216729
-0.382049 -0.488848 -0.0613359 0.00141687
0.209682 0.288672 0.0455275 0.0032123
0.211873 0.275871 0.0569402 0.000712136
0.213241 0.287345 0.0635672 0.000474998
0.214898 0.274869 0.0738291 0.00270563
-0.165363 0.23826 0.261307 0.00080883
-0.171729 0.251799 0.268873 0.00249904
-0.160387 0.236561 0.2785 0.0012099
-0.167141 0.250182 0.285103 0.00250926
0.362287 -0.271833 -0.143996 0.00043701
0.363547 -0.287352 -0.136631 0.00123493
0.36342 -0.275571 -0.123239 0.000243763
0.364477 -0.291114 -0.115503 0.00145033
0.311404 -0.0934474 0.0535423 0.00130076
0.312321 -0.109513 0.0581922 0.00144199
0.31156 -0.090267 0.0709721 0.000152964
0.31241 -0.106068 0.0753046 0.0002595
0.316386 0.18362 0.0226909 0.000541752
0.310506 0.184573 0.0345382 0.00460948
0.313582 0.18253 0.0394175 0.00149809
0.310037 0.180864 0.0499771 0.00441707
0.235901 -0.318468 -0.250415 0.0030301
0.22828 -0.333373 -0.250568 0.000178988
0.252405 -0.322813 -0.246889 0.00220533
0.245058 -0.337744 -0.247667 0.000616382
-0.210346 0.517549 0.191699 0.00137749
-0.210622 0.502321 0.194497 0.000559881
-0.208725 0.519251 0.207335 0.00047897
-0.208301 0.504562 0.211805 0.00156934
0.17761 0.762438 0.0757926 0.0040101
0.164665 0.755249 0.0869812 0.00404092
0.188919 0.74739 0.0805416 0.00215361
0.176442 0.74175 0.0926944 0.00322583
-0.0509803 0.771487 0.109037 0.00353804
-0.0622629 0.758723 0.109256 0.00574759
-0.0352303 0.768363 0.118341 0.00606271
-0.0453393 0.754696 0.117628 0.0028875
-0.201456 0.293644 -0.245109 0.00152746
-0.208831 0.284759 -0.238844 0.00349219
-0.197768 0.302669 -0.236023 0.000675781
-0.204593 0.292386 -0.229903 0.000790653
-0.173441 0.639458 -0.279598 0.00027584
-0.176818 0.619985 -0.279763 0.000438022
-0.153692 0.63595 -0.281506 0.000724674
-0.157925 0.615759 -0.281997 0.000682747
-0.352153 -0.32177 -0.239883 0.00404257
-0.357696 -0.334218 -0.231298 0.00327391
-0.354247 -0.333223 -0.228804 0.00103871
-0.360103 -0.346161 -0.220203 0.000814493
0.0445443 0.747158 0.185118 0.00193041
0.0314378 0.743391 0.1913 0.00234153
0.0585364 0.738061 0.195832 0.00564773
0.0459082 0.734184 0.203086 0.0010076
0.245568 0.204763 0.0740994 0.0033735
0.235801 0.207914 0.0914595 0.00140664
0.246633 0.197072 0.0875271 0.00746672
0.23664 0.200945 0.104635 0.00201341
-0.0578356 -0.68946 0.211838 0.00552457
-0.0703115 -0.689408 0.221513 0.00190455
-0.0499532 -0.690715 0.223831 0.0013322
-0.0632412 -0.690195 0.232642 0.0004123
-0.121498 0.952097 -0.0813586 0.0012463
-0.129774 0.949576 -0.063638 0.00184705
-0.112992 0.9522 -0.0638891 5.87999e-05
-0.122218 0.949325 -0.0455585 0.00180908
0.155004 0.668812 -0.281067 0.00107487
0.140488 0.654196 -0.279894 0.00202409
0.174693 0.659522 -0.279189 0.000571485
0.161979 0.644728 -0.278507 0.0020167
0.229914 0.655282 0.00275513 0.000754726
0.230687 0.639043 0.00784698 0.000522443
0.231033 0.654078 0.0200469 6.10526e-05
0.231761 0.63794 0.026299 0.00059917
-0.210967 0.743565 -0.0590542 9.84495e-05
-0.21152 0.730539 -0.0542933 0.00050848
-0.209732 0.747142 -0.0401012 0.00131984
-0.210075 0.732891 -0.0350718 0.0023134
-0.133432 0.801839 0.0972777 0.00495426
-0.134171 0.783887 0.0962428 0.00457369
-0.116704 0.799235 0.100807 0.00338583
-0.118826 0.782705 0.0995473 0.00483544
0.310275 -0.00614417 0.0214293 0.000497899
0.310309 -0.0238645 0.0270066 0.000362865
0.31008 0.00105251 0.0386754 0.00144219
0.310297 -0.0173381 0.0429328 0.00112958
0.105402 -0.685036 0.271784 0.00164243
0.0965362 -0.685686 0.288957 0.00104867
0.111816 -0.683426 0.288586 0.000226132
0.102749 -0.683174 0.30492 0.00178233
0.00149752 0.505515 0.366197 0.000911208
-0.00811057 0.514498 0.370773 0.00111001
0.0100417 0.511243 0.372525 0.00103035
0.000301652 0.523911 0.377644 0.00149365
0.27068 0.0568844 0.21987 0.000123358
0.260418 0.0562421 0.233256 0.00214943
0.265898 0.0433997 0.23333 3.67328e-05
0.255288 0.0440065 0.245609 0.000285498
-0.346079 -0.651085 -0.271337 0.00320158
-0.350887 -0.655435 -0.262678 2.09823e-05
-0.349837 -0.645755 -0.254422 0.0015277
-0.352982 -0.652273 -0.247201 6.54405e-05
-0.0487202 -0.013336 0.359594 0.0037026
-0.0608567 -0.031093 0.363839 0.00035346
-0.0291336 -0.0197586 0.360435 0.000780587
-0.0411881 -0.037562 0.365706 0.000683411
0.357915 -0.655336 -0.185713 0.000611561
0.353496 -0.665069 -0.179082 0.00126658
0.361633 -0.653486 -0.171963 0.0034338
0.356504 -0.662395 -0.165117 0.00136054
0.117829 0.612019 0.234057 5.1636e-05
0.0998422 0.616263 0.251362 0.0036469
0.127896 0.596989 0.241558 0.00568187
0.10978 0.600663 0.258559 0.00292936
0.140834 -0.682934 0.279334 0.00133031
0.130054 -0.682644 0.289095 0.000739553
0.14865 -0.681614 0.293607 0.000794306
0.13719 -0.681141 0.301926 0.00106795
-0.197011 0.769702 -0.271892 0.000650403
-0.201307 0.752029 -0.27108 0.000611957
-0.182387 0.768179 -0.273782 0.00077219
-0.18817 0.752377 -0.272182 0.000490905
-0.0653905 0.593777 -0.286452 0.000690683
-0.0749587 0.57688 -0.285805 0.00222126
-0.0465314 0.585838 -0.288113 0.000306194
-0.0553167 0.568534 -0.287979 9.13089e-05
-0.179482 0.0925356 -0.305923 0.00121211
