0.341588 -0.232559 -0.877165 0.0189878
0.858943 0.0257624 -0.501215 0.0011275
0.861417 -0.000599239 -0.495119 0.000541026
0.874017 0.0199848 -0.475648 0.00117986
0.877434 -0.00620423 -0.466963 0.000795491
-0.646722 -0.199802 -0.374068 0.00197949
-0.657192 -0.211846 -0.352797 0.000783118
-0.620835 -0.210884 -0.353613 0.000166013
-0.634937 -0.222297 -0.336711 0.000388372
-0.120557 0.690735 0.112854 0.00289473
-0.112156 0.667586 0.127847 0.00207328
-0.117073 0.685675 0.15152 0.000370026
-0.108544 0.657069 0.163938 0.00463265
-0.461053 -0.341894 -0.210136 0.00166945
-0.479367 -0.35768 -0.203033 0.000515416
-0.442658 -0.343271 -0.20017 0.0150979
-0.460017 -0.359076 -0.192405 0.00439594
0.135657 0.555763 -0.792852 0.000760329
0.108838 0.579461 -0.785249 0.00428753
0.149963 0.575776 -0.774564 0.0019963
0.123112 0.595057 -0.769424 0.00264665
0.574779 -0.171322 -0.423988 0.00235816
0.562702 -0.18654 -0.394806 5.53826e-06
0.588036 -0.186549 -0.395583 0.00042491
0.577698 -0.204542 -0.363342 0.000434898
-0.503636 -0.228593 0.248772 0.000735037
-0.494962 -0.253874 0.23646 0.00224887
-0.489887 -0.233373 0.274768 0.00234286
-0.485679 -0.251213 0.262746 0.000270766
0.0916547 0.968687 0.0113215 0.00084201
0.0730213 0.969608 0.0295684 0.00057083
0.114081 0.964008 0.032817 0.00124754
0.095446 0.964914 0.0515366 0.00127201
-0.876238 -0.261369 -0.300713 0.00965049
-0.890054 -0.261065 -0.280197 0.00413832
-0.869373 -0.282082 -0.278517 0.0100486
-0.886296 -0.278352 -0.259669 0.00550008
-0.708221 -0.000100421 0.657546 0.00502245
-0.710781 -0.019345 0.656233 0.00388886
-0.688443 0.00307504 0.680162 0.00376187
-0.691903 -0.0159553 0.677603 0.00333085
-0.441785 -0.862084 0.195902 0.00295159
-0.461119 -0.845274 0.21263 0.00121466
-0.428695 -0.858078 0.228636 0.000474821
-0.447654 -0.841386 0.244103 0.00108089
0.489295 0.448755 -0.727671 0.000508799
0.468678 0.465681 -0.730304 0.000439585
0.513189 0.458782 -0.706105 0.00150106
0.485982 0.486547 -0.706244 0.00177828
-0.0349978 0.216344 0.952083 0.000388584
-0.0537856 0.197172 0.960333 0.0042339
-0.00589631 0.197008 0.952799 0.00518316
-0.0247804 0.177278 0.960365 0.00170988
0.327362 0.883239 -0.266827 0.00228519
0.300518 0.892015 -0.260803 0.000796693
0.348005 0.880903 -0.245708 0.00166865
0.319374 0.891288 -0.237936 0.000160848
0.275085 -0.758654 0.269113 0.00109223
0.264056 -0.789375 0.279517 0.00267688
0.263081 -0.728351 0.282591 0.00129162
0.252332 -0.76263 0.294049 0.0019785
-0.370154 -0.482636 0.766006 0.0035358
-0.389682 -0.45854 0.76637 0.00634548
-0.353068 -0.459175 0.792966 0.000680294
-0.36495 -0.454738 0.788469 0.000510926
-0.22043 0.0829188 0.556954 0.000429853
-0.231126 0.0543438 0.558312 0.00159892
-0.190206 0.0724709 0.569897 0.00135546
-0.201279 0.0431521 0.571397 0.000832728
-0.618547 0.11255 0.0264698 0.00034284
-0.629449 0.12045 0.0437456 0.00727017
-0.613139 0.0994463 0.0499488 0.0133307
-0.623401 0.106621 0.0693777 0.00626568
-0.119289 0.51523 0.467978 0.00175313
-0.125609 0.484665 0.48527 0.000617099
-0.115757 0.519205 0.506383 0.00110655
-0.121783 0.488018 0.524146 0.00273659
-0.799203 -0.315287 0.456999 0.00116619
-0.795953 -0.342392 0.443063 0.000968493
-0.785785 -0.300314 0.493279 0.0012675
-0.785718 -0.329493 0.477374 0.00225977
0.466094 0.407471 -0.769794 0.00311621
0.464271 0.390281 -0.77952 0.00287712
0.485365 0.407139 -0.753774 0.000184828
0.48578 0.386207 -0.764441 0.000758666
0.155797 0.701718 -0.659052 0.00169037
0.128169 0.719155 -0.650614 0.00195476
0.166253 0.719632 -0.634431 0.00326943
0.141896 0.737373 -0.62404 0.000354789
0.304654 0.312275 -0.877731 0.00390729
0.289035 0.302811 -0.889116 0.000616755
0.329152 0.339812 -0.860884 0.00100365
0.320121 0.318312 -0.874932 0.000696443
0.222192 -0.217289 0.881025 0.00521472
0.218422 -0.25319 0.88668 0.00144648
0.219843 -0.194638 0.892599 0.00306822
0.215492 -0.23252 0.898479 0.0104668
-0.53302 0.113566 -0.729349 0.00354264
-0.557901 0.110461 -0.714976 0.00358853
-0.521088 0.122405 -0.701494 0.00339302
-0.546213 0.118026 -0.686065 0.00302507
0.0098641 0.311394 -0.524156 0.00178265
-0.0169501 0.326555 -0.505336 0.00551245
0.0311987 0.341859 -0.50949 0.00558168
0.00276637 0.359271 -0.491248 0.00137371
-0.843395 -0.179532 0.444153 0.00195032
-0.840437 -0.207296 0.438211 0.00233848
-0.835124 -0.164418 0.473306 0.00180522
-0.831821 -0.191566 0.46723 0.00101304
-0.161016 -0.977475 0.0291293 0.000338512
-0.182938 -0.974298 0.04851 0.00228922
-0.142243 -0.981481 0.0599302 0.00244772
-0.163353 -0.977606 0.0782871 0.0037742
-0.657124 -0.160788 0.699387 0.000645802
-0.654229 -0.190967 0.695023 0.00135186
-0.641489 -0.159127 0.712747 0.0020235
-0.638727 -0.189738 0.708462 0.001825
0.124532 -0.102441 0.592304 0.00247438
0.125883 -0.136768 0.586605 0.00209822
0.137858 -0.0895239 0.608766 0.00117747
0.139474 -0.124805 0.603834 0.00256063
0.693836 0.206446 -0.677418 0.00160129
0.69155 0.182146 -0.686456 0.000979108
0.710532 0.215406 -0.65484 1.93884e-05
0.709089 0.190212 -0.664298 5.50351e-05
0.506748 -0.771837 -0.151789 0.00431264
0.500556 -0.79721 -0.154852 0.00143466
0.536616 -0.771336 -0.150968 0.00276924
0.529569 -0.795556 -0.153319 0.00251468
0.460639 -0.104483 -0.877331 0.00620859
0.438814 -0.122617 -0.873455 0.00519238
0.486638 -0.109053 -0.860854 0.00428274
0.464338 -0.126872 -0.857516 0.00740839
-0.65696 -0.71858 -0.113109 0.00105633
-0.668446 -0.71311 -0.0928005 0.000751989
-0.643184 -0.738423 -0.0953424 0.00225535
-0.654463 -0.734022 -0.0735221 0.0048469
-0.0176341 0.219478 0.951301 0.00107294
-0.0363396 0.200255 0.959408 0.0029347
0.00915011 0.194763 0.952465 0.00641544
-0.00985299 0.17518 0.960045 0.00257477
-0.120381 0.674554 -0.392366 0.00509804
-0.107883 0.63899 -0.387039 0.00353493
-0.115986 0.65974 -0.365611 0.00283932
-0.109658 0.638368 -0.353472 0.00226658
0.528836 -0.149641 -0.770547 0.00941735
0.514127 -0.16151 -0.759699 0.00547584
0.549712 -0.150923 -0.754042 0.0032724
0.536302 -0.164893 -0.742718 0.0133282
-0.714123 0.122608 -0.571993 0.0025076
-0.737537 0.127122 -0.548016 0.00450973
-0.705495 0.131016 -0.549464 0.00751146
-0.729538 0.134779 -0.524879 0.00504253
0.24509 -0.1613 -0.945794 0.00222161
0.227901 -0.1875 -0.941189 0.00240343
0.279063 -0.170834 -0.93192 0.00135413
0.257334 -0.193567 -0.929113 0.00529195
-0.531873 0.117741 -0.531099 0.000672926
-0.548898 0.11719 -0.502318 0.00157965
-0.526879 0.12164 -0.504128 0.00367327
-0.541951 0.117953 -0.47382 0.00123301
-0.38789 0.156256 0.451433 0.00393308
-0.418908 0.1562 0.452692 0.0079453
-0.35875 0.168425 0.466863 0.00689657
-0.391168 0.16104 0.464426 0.00184406
-0.221169 0.901497 0.0210783 0.0079629
-0.229472 0.897575 0.0382729 0.0168836
-0.20582 0.90537 0.0392944 0.00631916
-0.214842 0.902606 0.0565291 0.00233864
-0.277563 0.150708 -0.521003 0.00411746
-0.301173 0.14706 -0.507817 0.00362151
-0.271152 0.165565 -0.506296 0.00700359
-0.292702 0.16149 -0.49701 0.00600599
-0.911651 0.10752 0.325271 0.00594595
-0.908427 0.0856592 0.337423 0.0044282
-0.897436 0.102543 0.348573 0.000158122
-0.894412 0.0835537 0.360344 0.000517873
0.840702 -0.539257 0.0409919 0.000607546
0.825422 -0.559359 0.0565492 0.000676271
0.850938 -0.521119 0.062052 0.000522799
0.835838 -0.542225 0.0769265 0.000285614
-0.882908 0.201073 0.10153 0.000267366
-0.903627 0.206883 0.11969 0.00799865
-0.857631 0.187686 0.121429 0.00237619
-0.878221 0.193685 0.138663 0.00367702
0.0435684 -0.621664 -0.134317 0.00974031
0.009144 -0.62258 -0.132031 0.00751064
0.0734095 -0.605436 -0.115871 0.00539306
0.0384168 -0.608139 -0.114439 0.00492163
-0.714148 -0.540971 0.393889 0.000405444
-0.723896 -0.508554 0.408491 0.00259846
-0.711465 -0.52767 0.425829 0.00536541
-0.721261 -0.496213 0.439716 0.0021517
-0.511498 0.0867713 -0.830925 0.0045712
-0.53627 0.087303 -0.816916 0.00638091
-0.501886 0.108619 -0.82163 0.00615405
-0.528658 0.110166 -0.806996 0.00344531
-0.848084 -0.153847 0.448938 0.000313455
-0.845351 -0.180994 0.443178 0.000449805
-0.837172 -0.144554 0.477208 0.00258236
-0.833999 -0.170528 0.472254 0.00145096
0.346189 -0.699091 0.206832 0.00327005
0.325624 -0.711271 0.22105 0.00390335
0.337117 -0.665646 0.218119 0.000183034
0.318077 -0.677725 0.234001 0.000753061
-0.557903 0.113799 0.778552 9.16402e-06
-0.567079 0.0943313 0.798653 0.0116947
-0.538304 0.114268 0.796509 0.0022241
-0.547384 0.0940887 0.811789 0.011008
-0.0842818 0.0956206 -0.978552 0.0058843
-0.0996828 0.0571919 -0.974614 0.000484287
-0.0432549 0.0938979 -0.979923 0.00409269
-0.0587215 0.0531308 -0.976561 0.002048
-0.0393468 -0.993009 -0.0366694 0.00202715
-0.0642189 -0.99175 -0.0172939 0.001491
-0.0204816 -0.994705 0.00074302 0.00222245
-0.0453254 -0.992591 0.0199732 0.00134976
0.512694 -0.362185 -0.0537257 0.000280116
0.500204 -0.379521 -0.0343993 0.000958056
0.520327 -0.360742 -0.0335617 0.00334596
0.509357 -0.376354 -0.0107736 0.0036487
0.30288 -0.948681 0.159886 0.0124091
0.281384 -0.950997 0.175226 0.0111705
0.306133 -0.924965 0.182912 0.00490636
0.284133 -0.927414 0.197315 0.00618995
0.913311 0.0894739 -0.385903 0.00191414
0.915172 0.0636571 -0.387586 0.00189197
0.921706 0.0974053 -0.362435 0.00167553
0.923327 0.0710102 -0.364514 0.000952163
-0.344675 -0.687694 0.609872 0.00260284
-0.369418 -0.665098 0.621669 0.000987328
-0.323413 -0.679199 0.640116 0.00332352
-0.347629 -0.655083 0.646475 0.000233702
-0.598381 -0.064686 -0.0190945 0.00100937
-0.592208 -0.0890577 0.00673376 0.00261386
-0.598046 -0.0760017 0.013304 0.00191208
-0.591353 -0.100975 0.0384568 0.000434943
-0.660587 -0.601318 0.402331 0.000177805
-0.671453 -0.578532 0.417363 0.000917962
-0.64493 -0.600099 0.431398 0.00153073
-0.655731 -0.578805 0.44214 0.001308
0.157764 -0.519144 0.477518 0.0017354
0.153172 -0.544167 0.484315 0.00139989
0.152248 -0.511789 0.506249 0.00307237
0.147652 -0.536366 0.51329 0.00021376
0.715825 -0.685254 -0.102622 0.00322512
0.7073 -0.697794 -0.0926495 0.00166599
0.725583 -0.683326 -0.0835733 0.00079655
0.717717 -0.69501 -0.0707379 0.00206829
0.404171 0.460057 0.162459 0.0119623
0.38435 0.471302 0.178507 0.00731782
0.422396 0.461246 0.179322 0.0114968
0.402443 0.472514 0.195656 0.0163745
0.320361 -0.944928 -0.0536953 0.00216235
0.288034 -0.950306 -0.0345203 0.0032564
0.339705 -0.942493 -0.0235994 0.00500154
0.307003 -0.947942 -0.00386493 0.000158326
-0.1428 0.41832 -0.792949 0.00282809
-0.153563 0.401533 -0.777528 0.00025583
-0.142155 0.428127 -0.770039 3.25647e-05
-0.151478 0.411501 -0.756021 0.00256076
-0.197054 0.318834 -0.871789 0.00293412
-0.208569 0.307435 -0.85603 0.000417348
-0.193614 0.328992 -0.852873 1.2362e-05
-0.204131 0.316105 -0.835399 0.00147666
0.370937 -0.911575 -0.149309 0.00184985
0.346547 -0.917409 -0.146069 0.00572875
0.394444 -0.906861 -0.132058 0.000146986
0.370005 -0.917905 -0.129655 0.000832532
0.49449 -0.642348 0.1389 0.0016458
0.478723 -0.666005 0.145856 0.000989635
0.523917 -0.644011 0.130727 0.0026176
0.50878 -0.667114 0.137637 0.000495502
-0.617791 -0.434327 0.617715 0.00187383
-0.637495 -0.412775 0.611227 0.00194274
-0.59715 -0.426815 0.650128 0.00279551
-0.61513 -0.411372 0.641473 0.00166663
0.748446 0.530276 0.137624 0.000458333
0.735347 0.514474 0.145742 0.010997
0.774862 0.512189 0.138491 0.00577715
0.761016 0.494674 0.146192 0.00563114
-0.105274 0.595039 -0.275156 0.00494323
-0.115338 0.616508 -0.243837 0.00513297
-0.0975945 0.59061 -0.245938 0.012283
-0.107792 0.610731 -0.21673 0.00213056
-0.193797 -0.139674 -0.95339 0.000763664
-0.215887 -0.153831 -0.94655 0.000979744
-0.16662 -0.135835 -0.951291 0.00742376
-0.18705 -0.153304 -0.944835 0.00689645
0.471238 0.0260847 -0.403921 0.00207607
0.470162 -0.00034573 -0.408666 0.000799914
0.488934 0.0227629 -0.385291 0.000824046
0.487557 -0.00293376 -0.389706 1.88434e-05
-0.556373 -0.154063 -0.48493 0.00144434
-0.576927 -0.157279 -0.468518 0.000208405
-0.53178 -0.159992 -0.462476 0.0014068
-0.552676 -0.163933 -0.446302 0.00050644
0.762364 0.328889 -0.535531 0.00111945
0.76501 0.303034 -0.548955 0.000396758
0.777466 0.333962 -0.512163 0.000760152
0.781482 0.308938 -0.526163 0.00191429
0.740012 0.0218566 -0.660678 0.000311038
0.733939 -0.00328595 -0.667462 0.000586142
0.765567 0.0188698 -0.637166 0.00318805
0.759257 -0.00836123 -0.642205 0.00145727
0.308409 0.818345 -0.446923 0.00461335
0.289751 0.83041 -0.435003 0.00394249
0.323805 0.820642 -0.421803 0.000111442
0.30621 0.832192 -0.41 0.000638506
0.731107 0.0650329 0.13377 0.00069721
0.720465 0.0378676 0.131148 0.00010575
0.76418 0.0494722 0.141519 0.000589452
0.751832 0.0224973 0.138695 0.000303464
-0.478324 0.114523 0.309911 0.0180663
-0.50141 0.116128 0.326799 0.0063646
-0.460325 0.11736 0.337214 0.017643
-0.484597 0.12152 0.354086 0.00448795
-0.522678 -0.242291 0.193496 0.00252902
-0.511887 -0.268005 0.183639 0.000279627
-0.511319 -0.246286 0.222632 0.00363463
-0.503273 -0.26763 0.212796 0.00231648
-0.513021 -0.798646 0.259223 0.000342285
-0.528036 -0.784198 0.270251 9.8052e-05
-0.494665 -0.802273 0.286801 0.0010548
-0.511416 -0.786932 0.29703 0.000990777
-0.0874206 -0.55127 0.266956 0.00107878
-0.111444 -0.538127 0.2823 0.0015273
-0.0748088 -0.543918 0.291649 0.00183838
-0.0988314 -0.530962 0.306003 0.00168674
0.512509 -0.703757 0.135352 0.000761203
0.497241 -0.728399 0.141109 0.00109672
0.544151 -0.710589 0.127944 0.00126847
0.528131 -0.734971 0.13429 0.00220591
0.580569 -0.104543 -0.208762 0.00211209
0.577081 -0.133587 -0.206483 0.000876344
0.590639 -0.0958265 -0.184225 0.00167458
0.587137 -0.125042 -0.182146 0.000473915
0.203784 0.952007 -0.00428874 0.000644588
0.183565 0.957087 0.0113057 0.00126339
0.225043 0.944517 0.0160652 0.00301559
0.205492 0.948998 0.0322122 0.00224471
-0.0243173 0.183886 0.958505 0.00219921
-0.0436545 0.162839 0.965824 0.00223938
0.0070798 0.163786 0.959399 0.00552631
-0.0134288 0.142147 0.966187 0.00197525
-0.347966 0.123273 0.900488 0.00176675
-0.365555 0.100009 0.902452 0.00395103
-0.318303 0.111934 0.912921 0.001997
-0.335042 0.0890948 0.913947 0.00235278
-0.647892 -0.143966 -0.50514 0.00293076
-0.67056 -0.148664 -0.487565 0.00211585
-0.632885 -0.150905 -0.483454 0.00113049
-0.65333 -0.157036 -0.464469 0.00125421
0.308588 0.371388 -0.371996 0.00454761
0.288069 0.397017 -0.367013 0.000289127
0.321284 0.390957 -0.343852 0.00194648
0.30391 0.412264 -0.334926 0.00116859
0.136648 0.421183 0.593557 0.000777074
0.13681 0.393653 0.604097 0.000411165
0.142178 0.416336 0.616628 0.00530714
0.14223 0.390352 0.627018 0.00570158
-0.130539 0.467071 -0.7583 0.0014179
-0.138855 0.451633 -0.747343 0.00481966
-0.127913 0.481136 -0.740162 0.00232949
-0.135358 0.464979 -0.730391 0.00555394
-0.495829 -0.134356 -0.660896 0.00194759
-0.519056 -0.136948 -0.645679 0.00177422
-0.483251 -0.134682 -0.633196 0.000272449
-0.50742 -0.137654 -0.617495 0.0034608
-0.225807 -0.445084 0.846597 0.000170773
-0.248989 -0.420413 0.849834 0.00207975
-0.195299 -0.431163 0.861065 0.000448985
-0.220312 -0.403699 0.865586 0.00220689
-0.0743651 -0.176225 -0.828534 0.00636509
-0.0899275 -0.173657 -0.798348 0.00385792
-0.0515176 -0.16648 -0.802907 0.00445716
-0.067944 -0.163918 -0.772239 0.00347957
0.128684 -0.564559 0.79791 0.00331385
0.100501 -0.558734 0.808673 0.000732758
0.142052 -0.548577 0.812221 0.00150644
0.113823 -0.541367 0.823566 0.00365414
0.727266 0.471848 0.132329 0.000166192
0.711493 0.441596 0.136221 0.00644441
0.75847 0.457912 0.13562 0.00448105
0.744653 0.426133 0.140461 0.00401819
0.0797945 0.431004 -0.875953 0.000474936
0.0555039 0.449626 -0.868101 0.000778025
0.0966485 0.46204 -0.858844 0.000841158
0.0718936 0.482602 -0.849343 0.000642403
0.905489 -0.355165 0.200939 0.00486369
0.896897 -0.379784 0.206206 0.00320793
0.909928 -0.333201 0.221261 0.00822723
0.901659 -0.358925 0.226051 0.0176202
-0.0892718 -0.906875 0.380222 0.00265787
-0.11976 -0.90156 0.389149 0.000663062
-0.0663256 -0.901847 0.408175 0.00187355
-0.0972899 -0.896137 0.418129 0.00360357
-0.424828 -0.293349 0.82822 0.00259834
-0.42314 -0.331623 0.815538 0.0014611
-0.389425 -0.294553 0.846434 0.00109345
-0.388483 -0.331046 0.833775 0.00177975
0.50525 -0.237294 -0.288474 0.000400981
0.499648 -0.260902 -0.283019 0.00173947
0.519123 -0.237007 -0.271029 0.00254277
0.513534 -0.260566 -0.265766 0.00506422
0.215931 0.500061 0.355896 0.00573904
0.204242 0.492363 0.369207 0.00194031
0.215195 0.505005 0.372104 0.0129157
0.203897 0.495492 0.384992 0.00924616
0.366569 0.77487 -0.482954 0.00504219
0.34927 0.789375 -0.470084 0.0044683
0.385434 0.779063 -0.45384 0.00175494
0.369934 0.792253 -0.438614 0.000151215
-0.845635 0.0533738 -0.474573 0.000864256
-0.85428 0.0292796 -0.46191 0.00129889
-0.861022 0.0668722 -0.445695 0.00148623
-0.868874 0.0442937 -0.430831 0.000652003
-0.136221 0.946395 0.147776 0.00172227
-0.145524 0.941586 0.16413 0.00241385
-0.126764 0.94666 0.167542 3.09199e-05
-0.136397 0.94032 0.18502 0.00139183
0.107411 -0.075201 0.972747 0.00154072
0.103963 -0.112527 0.973434 0.00193337
0.136155 -0.0904102 0.96668 0.00342183
0.132234 -0.129907 0.970618 0.0041577
-0.229104 -0.915281 0.294222 0.000656954
-0.251786 -0.906036 0.304918 0.000135671
-0.21026 -0.911993 0.326696 0.00272596
-0.233882 -0.903088 0.335499 0.00305777
-0.484048 -0.201051 -0.313909 0.00409818
-0.49739 -0.214374 -0.304911 0.0149729
-0.462829 -0.201468 -0.299842 0.0197838
-0.476402 -0.216023 -0.289985 0.00873163
-0.54196 -0.663279 0.476193 0.00124413
-0.562962 -0.644915 0.478662 4.082e-06
-0.521388 -0.663545 0.50029 0.000822475
-0.542629 -0.644902 0.502417 7.02444e-05
-0.117571 -0.972921 0.158691 0.00167492
-0.141934 -0.965162 0.175906 0.000714706
-0.10309 -0.965655 0.189538 0.00118272
-0.127125 -0.957627 0.204497 0.0030705
0.417488 0.787443 -0.408704 0.00137244
0.402001 0.80502 -0.388073 0.00115806
0.429729 0.792239 -0.375017 0.00358084
0.412951 0.811619 -0.353032 0.00205704
-0.240426 -0.708244 -0.134272 0.00269965
-0.24574 -0.727162 -0.136061 0.000799025
-0.216085 -0.708212 -0.131531 0.000543649
-0.224166 -0.720829 -0.131874 0.00253845
0.114841 0.538428 -0.259823 0.00235915
0.0768516 0.547777 -0.254074 0.0033001
0.142389 0.544856 -0.223491 0.00107481
0.105372 0.553235 -0.217146 0.00211679
0.602585 -0.135185 -0.681467 0.00344075
0.580054 -0.14586 -0.678421 0.00709895
0.634402 -0.133471 -0.668056 0.00375673
0.612862 -0.145041 -0.664511 0.00793152
0.323778 0.00340791 -0.531456 0.00150055
0.32062 -0.0315807 -0.534156 0.00193692
0.345526 0.000609376 -0.517444 0.000775953
0.341441 -0.0309533 -0.519213 0.000211547
-0.470224 -0.388807 -0.181306 0.0037261
-0.484566 -0.405411 -0.169838 0.00596527
-0.44905 -0.402677 -0.167161 0.00952885
-0.463868 -0.419471 -0.157403 0.0110659
-0.356195 -0.192004 -0.921545 0.0261104
-0.382853 -0.186855 -0.906202 0.0213466
-0.333568 -0.194501 -0.905155 0.00331473
-0.360852 -0.187929 -0.890908 0.00087918
0.289528 0.49212 0.253356 0.0025376
0.271004 0.491152 0.270451 0.00342201
0.297858 0.488339 0.270919 0.0159221
0.279959 0.486525 0.287256 0.0145191
-0.601155 0.0031354 -0.0441884 0.00278693
-0.59698 -0.0165232 -0.0199487 0.00255702
-0.601505 -0.00781088 -0.0141506 0.00163266
-0.598194 -0.0260447 0.011299 0.00129218
-0.164148 0.869319 -0.399129 6.68025e-05
-0.175105 0.862215 -0.378913 0.00761915
-0.157815 0.879348 -0.381608 0.00105906
-0.171566 0.878689 -0.359313 0.00542984
-0.864695 -0.427322 -0.117539 0.00345377
-0.880949 -0.410815 -0.100035 0.00256259
-0.861512 -0.439846 -0.0944205 0.00343927
-0.878653 -0.418887 -0.076788 0.00162333
-0.156992 0.808291 0.0414807 0.00237499
-0.170696 0.827209 0.0707825 0.00558808
-0.153514 0.810764 0.0711838 0.00221484
-0.167297 0.82965 0.100193 0.001606
-0.147686 0.407197 0.659958 0.00341837
-0.162347 0.385422 0.674015 0.00172031
-0.142028 0.420227 0.688476 0.00289482
-0.154562 0.399683 0.704346 0.0004945
0.143652 0.61275 0.690866 0.00106041
0.138806 0.585611 0.704891 0.00650301
0.149921 0.606285 0.722118 0.00053988
0.143977 0.580631 0.735535 0.00774703
0.209969 0.939433 -0.158531 0.0015645
0.180626 0.944024 -0.14694 0.00160905
0.226756 0.939345 -0.132051 0.000944835
0.197306 0.943468 -0.120651 0.00225937
-0.0887872 0.23114 -0.944415 0.00270844
-0.122485 0.24419 -0.93867 0.00118639
-0.0612003 0.253586 -0.945005 0.00064706
-0.0960419 0.271094 -0.939135 0.00364477
-0.203487 0.942744 -0.0568825 0.0023975
-0.215978 0.936005 -0.0380098 0.00700868
-0.190467 0.945066 -0.0416706 0.00397103
-0.202773 0.938133 -0.0213397 0.00863037
0.135251 -0.0350402 0.629213 0.00183373
0.127985 -0.0629313 0.62241 0.00898029
0.154393 -0.0328461 0.636605 0.0171302
0.147515 -0.0616775 0.629899 0.0103931
-0.0580186 -0.619722 -0.0983652 0.00731374
-0.0820226 -0.61498 -0.0877371 0.00408574
-0.037015 -0.618275 -0.0777818 0.000824645
-0.0618971 -0.61406 -0.0668578 0.00208523
0.136907 -0.127761 0.694985 0.00615258
0.138124 -0.161902 0.688324 0.00397953
0.14806 -0.12065 0.718237 0.000451176
0.14877 -0.153551 0.712599 0.00150709
0.508845 0.556085 0.13396 0.00338171
0.49495 0.526602 0.138167 0.00259331
0.549714 0.555605 0.125362 0.00289331
0.533189 0.526276 0.13041 0.00089922
0.470596 -0.150479 -0.761078 0.00613435
0.451283 -0.162251 -0.751875 0.00822667
0.493268 -0.149964 -0.738923 3.87571e-05
0.476096 -0.159273 -0.728137 0.0117194
0.15985 0.419149 -0.414877 0.00167421
0.129017 0.43735 -0.4084 0.00365537
0.186465 0.431933 -0.391248 0.00135222
0.157163 0.449239 -0.38511 0.00322136
-0.748071 0.135972 0.256812 0.00132284
-0.768521 0.14174 0.278169 0.000205032
-0.737181 0.131364 0.28608 0.000253324
-0.755352 0.135886 0.304952 0.00152207
0.0542071 0.95586 -0.156696 0.0019723
0.0366635 0.959228 -0.138253 0.00231396
0.0758475 0.960067 -0.127347 0.000988045
0.0557573 0.96167 -0.112727 0.00231657
0.0406522 0.0875199 -0.606244 0.000482602
0.0302312 0.0494121 -0.610046 0.00123331
0.0807259 0.0762391 -0.60984 0.00473636
0.0698497 0.0413654 -0.615113 0.00564523
0.908203 -0.394039 0.134805 0.000510171
0.898481 -0.419832 0.137771 0.00270407
0.913106 -0.373305 0.157736 0.000786
0.903101 -0.398833 0.164394 0.00247723
-0.180124 0.953566 0.017831 0.00166159
-0.192347 0.944864 0.042326 0.00356079
-0.167403 0.953136 0.0363862 0.000558947
-0.179798 0.94579 0.0587128 0.00421539
-0.578118 -0.214031 -0.348022 3.72081e-05
-0.593668 -0.224748 -0.331903 3.5064e-05
-0.554473 -0.224344 -0.333627 0.001213
-0.570374 -0.233684 -0.318982 0.000614907
-0.434432 -0.842206 0.268309 0.000327531
-0.453267 -0.825033 0.281668 0.00212435
-0.424289 -0.839121 0.297558 0.000896959
-0.441511 -0.820255 0.313982 0.00173481
-0.555879 -0.750006 0.308694 0.000947387
-0.569216 -0.732056 0.319347 0.0012336
-0.538629 -0.754136 0.333848 0.00246366
-0.553781 -0.73625 0.345329 0.0012272
0.521297 -0.335565 0.0871324 0.00461939
0.513019 -0.349387 0.0975438 0.00186938
0.535043 -0.323198 0.103375 0.00363537
0.528097 -0.337514 0.11022 0.00647737
-0.0918132 -0.614177 -0.0818404 0.0040746
-0.114823 -0.6097 -0.0698465 0.00285054
-0.0773279 -0.616422 -0.0563606 0.00123992
-0.100019 -0.61209 -0.0443998 9.56187e-05
0.300241 -0.95119 -0.0054452 0.000906302
0.270136 -0.955199 0.0154969 0.00366025
0.319767 -0.946512 0.0295507 0.00292763
0.29137 -0.949925 0.0504989 0.00132724
0.21794 0.491744 -0.818987 0.000433694
0.189881 0.514991 -0.814561 0.00253569
0.235583 0.511026 -0.799576 0.00233577
0.208444 0.531493 -0.795912 0.000330819
0.485772 -0.100294 -0.861578 0.00362597
0.463973 -0.118352 -0.858049 0.00797124
0.509382 -0.114455 -0.844597 0.0016061
0.487561 -0.131443 -0.840755 0.0104775
0.236349 -0.582475 0.0272401 0.000329307
0.215368 -0.587447 0.0423321 0.000665251
0.249506 -0.577354 0.0448685 0.00194167
0.230586 -0.580908 0.0639107 0.000589193
0.113337 0.353642 -0.484148 0.000383764
0.0828419 0.377017 -0.471802 0.000524491
0.13227 0.37445 -0.462649 7.71591e-05
0.101722 0.397654 -0.450989 0.00143073
0.405352 0.712681 0.17326 0.0020412
0.390694 0.678653 0.184034 0.00118497
0.435168 0.710741 0.16012 0.000769383
0.425076 0.671698 0.167103 0.000923227
-0.393471 -0.904768 -0.0785186 0.00271779
-0.413584 -0.898091 -0.0515326 0.00377126
-0.385174 -0.908841 -0.0441485 0.00115748
-0.402821 -0.902423 -0.0147316 0.00171921
-0.63618 0.11433 0.38338 0.00054011
-0.65481 0.115591 0.401188 0.000168325
-0.622145 0.11415 0.408469 0.00168323
-0.642171 0.114593 0.425477 0.000265081
-0.220353 0.291276 -0.831288 0.00109493
-0.229933 0.279325 -0.812341 0.00147086
-0.213776 0.304843 -0.812315 0.00233213
-0.222743 0.291141 -0.793307 0.00100521
-0.171256 -0.969349 -0.117661 0.000413267
-0.193757 -0.966952 -0.099893 0.00115816
-0.152716 -0.976705 -0.0874589 0.00151871
-0.173979 -0.9737 -0.0683812 0.000964368
0.0186354 0.904971 0.350545 0.000644324
0.0026948 0.895428 0.377234 0.000101247
0.0426181 0.889018 0.381712 0.00371862
0.0243362 0.879762 0.40721 0.00213952
0.422096 -0.585775 -0.125481 0.000586081
0.405498 -0.619532 -0.123165 0.00182956
0.457691 -0.59006 -0.126324 0.000166085
0.440624 -0.623767 -0.125018 0.000189308
0.374026 0.882226 -0.211829 0.00392153
0.343066 0.893673 -0.199554 0.00113028
0.399407 0.875148 -0.190362 0.0030511
0.368263 0.887666 -0.177299 0.000377411
0.566672 0.603083 0.121913 0.00383118
0.550109 0.57245 0.128178 0.000434285
0.604084 0.595396 0.119899 0.003069
0.584458 0.568705 0.126059 0.00174672
-0.00182157 -0.383835 0.48716 0.00158911
-0.0263583 -0.372319 0.492423 4.74291e-05
0.0102298 -0.356885 0.505643 0.000119261
-0.0140364 -0.345184 0.511126 0.000879649
-0.133236 0.740969 -0.393485 0.00354231
-0.11846 0.703726 -0.388893 0.00176262
-0.130931 0.733199 -0.367175 0.00338169
-0.116545 0.698138 -0.362633 0.00287646
-0.103517 0.638488 -0.700252 0.00787265
-0.107353 0.616281 -0.682584 0.00289122
-0.11278 0.640092 -0.670652 0.00170483
-0.115272 0.618691 -0.654232 0.00488984
0.114744 0.270851 -0.536802 0.000779351
0.0806453 0.297272 -0.52654 0.000426176
0.139237 0.292739 -0.520338 0.00146688
0.105522 0.317803 -0.509277 0.000486202
-0.485116 -0.0634327 -0.849463 0.00321747
-0.500636 -0.097246 -0.833859 0.000480315
-0.460564 -0.064472 -0.859273 0.000242727
-0.476279 -0.0975902 -0.842964 0.00425045
0.158443 -0.566007 0.481441 0.00306137
0.153902 -0.591336 0.486996 0.000167712
0.151543 -0.562295 0.507606 0.0022637
0.147556 -0.585854 0.514977 0.000141218
0.741581 0.601736 -0.245417 0.000433815
0.731904 0.61657 -0.235775 0.000462411
0.750907 0.59921 -0.224484 0.000777771
0.740916 0.613518 -0.214519 0.00013
0.455029 0.168612 -0.855322 0.00386603
0.447876 0.142977 -0.86565 0.00233467
0.481645 0.1807 -0.840538 0.00210728
0.474558 0.154074 -0.852058 0.000562381
-0.114803 0.0204258 0.597816 0.000171063
-0.13129 -0.0121682 0.598116 0.00318654
-0.077207 0.0137861 0.59961 0.00525151
-0.0966136 -0.016545 0.600231 0.00192144
-0.040365 0.0391764 -0.609216 0.000815522
-0.0512506 0.00715485 -0.609263 0.00136969
-0.00565179 0.0376699 -0.613271 0.000937044
-0.0170036 0.00294595 -0.614581 0.00096808
-0.114059 0.665707 0.226827 0.00022704
-0.110652 0.636812 0.239392 0.000630234
-0.113447 0.665501 0.259337 0.000949367
-0.110286 0.636412 0.27292 0.000451959
0.539556 0.292356 0.0345404 0.00531418
0.541198 0.267886 0.0233984 0.0156797
0.553175 0.30194 0.0553736 0.0133039
0.556404 0.273052 0.0419659 0.0012935
0.650564 -0.0776728 0.118445 0.00444233
0.643715 -0.11093 0.120543 0.00212803
0.67789 -0.0840349 0.130382 0.00556312
0.66737 -0.113276 0.130191 0.00665424
-0.544906 -0.483075 -0.142641 0.00264259
-0.563281 -0.510873 -0.133219 0.0056502
-0.520092 -0.494841 -0.141143 0.00143548
-0.536551 -0.52194 -0.135003 0.0009756
-0.203583 -0.965792 -0.0762653 0.000102773
-0.221535 -0.962479 -0.0546282 0.000795108
-0.18482 -0.975191 -0.0466772 0.00340199
-0.204138 -0.972463 -0.0265291 0.00408942
0.970097 0.105895 -0.184638 0.000776184
0.972182 0.0866307 -0.179524 0.00204662
0.974687 0.114415 -0.157331 0.000246953
0.977416 0.0942656 -0.150098 0.00114335
-0.252781 0.206179 0.474846 0.0263844
-0.269093 0.199186 0.496229 0.00397586
-0.243027 0.217996 0.495819 0.00908254
-0.259286 0.211435 0.518033 0.0131436
-0.404271 -0.121039 0.885479 0.00450782
-0.414476 -0.152098 0.877317 0.00532571
-0.368687 -0.114248 0.897013 0.000560943
-0.379801 -0.143189 0.888262 0.000697828
0.305938 0.156667 -0.92315 0.000326658
0.290644 0.123862 -0.928452 0.00494196
0.348967 0.158053 -0.915968 0.00693888
0.33541 0.126546 -0.921165 0.00231133
0.623342 -0.014793 0.00715273 0.00362871
0.62619 -0.0422393 0.0144528 0.000563331
0.628009 -0.0100595 0.0356103 0.00237339
0.632124 -0.0408952 0.0426651 0.00787328
-0.42256 -0.674761 0.57514 0.000727951
-0.444539 -0.645232 0.587839 0.00309783
-0.415532 -0.654646 0.60483 0.000572411
-0.439108 -0.624916 0.616833 0.000407505
-0.242531 0.266744 -0.579765 0.000858528
-0.253947 0.252641 -0.568955 0.00221631
-0.235816 0.280947 -0.559778 0.00369308
-0.244352 0.261216 -0.54833 0.00345231
-0.109082 0.654133 -0.229674 0.00332309
-0.118088 0.672682 -0.209798 0.00306508
-0.110779 0.664625 -0.198141 0.00275672
-0.114256 0.670201 -0.182839 3.93919e-05
0.784923 -0.617262 -0.0172953 0.000660445
0.774982 -0.630292 0.00101834 0.000574729
0.791754 -0.609521 0.00977508 1.55952e-05
0.781588 -0.622958 0.0276498 0.000193458
0.040346 -0.188475 -0.845972 0.00299936
0.0119537 -0.186788 -0.837274 0.000769804
0.0702046 -0.183134 -0.82637 0.00100048
0.0410557 -0.181378 -0.818392 0.0031914
-0.376238 -0.57787 -0.126546 1.57816e-05
-0.391698 -0.606838 -0.125834 0.000407799
-0.342137 -0.576212 -0.125802 0.00135005
-0.356542 -0.605001 -0.126322 0.00145414
-0.18631 0.00119893 0.962127 0.00186597
-0.198251 -0.0252853 0.959585 0.00152877
-0.154179 -0.000473674 0.963222 0.00302993
-0.166974 -0.0305511 0.962401 0.00168076
0.253844 0.119381 -0.549542 0.000632492
0.247291 0.0881857 -0.560989 0.0018134
0.280149 0.127398 -0.537166 0.0014283
0.274869 0.0973364 -0.547192 0.00197795
-0.69713 -0.133611 -0.642461 0.00174108
-0.713718 -0.132988 -0.61534 0.00116565
-0.681166 -0.134283 -0.615001 0.000128348
-0.700244 -0.136705 -0.592511 0.00189378
-0.455612 -0.117196 0.382264 0.00212318
-0.456158 -0.149276 0.366027 0.00144018
-0.435987 -0.100876 0.410279 0.00255196
-0.436836 -0.134695 0.393471 0.00163075
0.142446 0.678652 0.67455 0.00185869
0.13608 0.659189 0.687615 0.00649977
0.147212 0.668063 0.696142 0.00351772
0.14032 0.648064 0.7089 0.00533372
0.262441 -0.570502 -0.0773747 0.00387839
0.242018 -0.576564 -0.0643128 0.000165407
0.279342 -0.560408 -0.0590815 0.00024876
0.258546 -0.566411 -0.0462703 0.00447389
0.151397 -0.94459 -0.246877 0.00336973
0.117435 -0.9518 -0.237295 0.00646614
0.189451 -0.947355 -0.231658 0.0019092
0.156236 -0.953883 -0.222138 0.00320934
0.782258 -0.381428 0.152672 0.00456363
0.782646 -0.424116 0.146405 0.00134608
0.806841 -0.379279 0.163283 0.00648891
0.804122 -0.415453 0.157107 0.00236408
0.58733 0.0470999 -0.21317 0.00147349
0.585746 0.0230008 -0.208014 0.00381764
0.598788 0.0425831 -0.188264 0.00341856
0.596263 0.0174602 -0.181477 0.00235837
0.140015 -0.58032 0.669113 0.000254772
0.13766 -0.604671 0.672101 0.00248147
0.146273 -0.571683 0.69322 0.0026139
0.141528 -0.593659 0.696492 0.00237343
0.503708 -0.399164 -0.198954 0.0165222
0.489127 -0.41697 -0.1858 0.0133158
0.51836 -0.385225 -0.179028 0.00772295
0.503619 -0.403824 -0.166825 0.00970662
-0.149632 0.32942 -0.92238 0.0134004
-0.171704 0.322821 -0.913595 0.00683498
-0.139393 0.351434 -0.909174 0.00732187
-0.158267 0.343127 -0.900906 0.000111063
-0.326561 0.197739 0.734778 0.00141211
-0.344817 0.185776 0.752367 0.00154041
-0.31098 0.207514 0.765518 0.000564899
-0.329842 0.194073 0.780337 0.000498302
-0.45535 0.117571 -0.832696 0.0158133
-0.482622 0.118992 -0.817829 0.00776941
-0.444607 0.133569 -0.820218 0.00400881
-0.471538 0.134138 -0.806824 0.00425822
-0.907403 0.214327 0.232795 0.00413082
-0.913916 0.206484 0.258866 0.00517233
-0.888054 0.210258 0.256311 0.00385942
-0.896658 0.202163 0.281974 0.00558105
-0.16978 0.373018 0.49541 0.00167476
-0.181328 0.347775 0.508882 0.000385874
-0.160771 0.384118 0.515304 0.000737081
-0.170357 0.356539 0.530436 0.00559522
-0.84514 0.180517 -0.14483 0.0025652
-0.856297 0.181868 -0.121277 0.00191065
-0.849566 0.180444 -0.110475 0.000531867
-0.860325 0.181577 -0.0866509 0.00432115
0.114935 0.965218 0.0134465 0.000296182
0.0962078 0.96592 0.0315928 0.00141525
0.137728 0.960717 0.0356491 0.00176058
0.119049 0.962009 0.0549236 0.00154482
0.759266 -0.638863 -0.105149 0.0016289
0.750037 -0.652404 -0.0950051 0.000865611
0.766385 -0.634978 -0.0808762 0.000856348
0.757608 -0.647007 -0.0679926 0.0010045
0.335548 -0.537597 -0.0636042 0.00710698
0.316142 -0.543044 -0.0486631 0.000431215
0.348937 -0.526885 -0.0404327 0.00346473
0.330371 -0.534881 -0.0254034 0.000842751
0.632823 0.365674 -0.663569 4.01583e-05
0.635286 0.337289 -0.674212 0.00207667
0.650715 0.371796 -0.646792 0.00261246
0.652879 0.345563 -0.658452 0.0019393
-0.470959 0.129067 0.590421 0.0013515
-0.49067 0.124706 0.607732 0.000657109
-0.462359 0.133486 0.613641 0.00126997
-0.481735 0.126527 0.635132 0.000141713
-0.189531 0.339835 -0.649167 0.00147317
-0.19982 0.324105 -0.633931 0.000567766
-0.184283 0.351537 -0.629291 0.00296698
-0.194217 0.334239 -0.616286 0.00210454
0.331621 0.88294 -0.264246 0.00270605
0.304777 0.891716 -0.258223 0.00102941
0.352983 0.879659 -0.243532 0.00168694
0.324352 0.890044 -0.23576 3.52744e-05
0.63257 -0.624248 -0.130879 0.00650115
0.621034 -0.646224 -0.128135 0.00293126
0.658226 -0.623103 -0.126031 0.00148903
0.647189 -0.644293 -0.123306 0.00165878
0.193121 0.533613 -0.228481 0.00400322
0.16742 0.546695 -0.217667 0.00454727
0.20554 0.534138 -0.198074 0.00307964
0.180863 0.548138 -0.185198 0.00108776
0.788778 0.593482 0.0507189 0.00255944
0.778037 0.597674 0.0735625 0.00201237
0.800314 0.570114 0.0779227 0.000541153
0.789101 0.572611 0.0987117 0.0062361
0.136307 -0.383918 0.612252 0.000214573
0.13771 -0.407135 0.625675 0.00121063
0.138242 -0.383763 0.650904 4.05958e-05
0.139715 -0.40839 0.667867 0.000311776
0.69599 0.32518 0.124199 0.00230215
0.68311 0.293419 0.128519 0.00319885
0.725743 0.32787 0.130496 0.00206335
0.712975 0.294488 0.134526 0.00492601
-0.684925 0.109438 -0.632585 0.00962885
-0.707306 0.116792 -0.608842 0.00736041
-0.6714 0.113615 -0.608411 0.0035833
-0.693514 0.120003 -0.584386 0.00108425
-0.71619 -0.622773 0.231691 0.00205852
-0.730516 -0.598976 0.268669 0.00373518
-0.700431 -0.632313 0.26735 0.00173884
-0.713466 -0.608683 0.301637 0.00656186
-0.0608299 0.940338 -0.235058 0.00023456
-0.0869438 0.938946 -0.223728 0.00132029
-0.034995 0.944834 -0.213697 0.00177314
-0.0611719 0.943577 -0.202551 0.00411124
0.515784 -0.0432358 -0.843511 0.00064967
0.504047 -0.0644002 -0.849377 0.00082369
0.542475 -0.049899 -0.82692 0.000855886
0.530805 -0.0707693 -0.831937 0.00169337
0.545079 -0.720763 0.127818 0.00130573
0.529318 -0.744582 0.133348 0.00162837
0.576388 -0.725836 0.122439 0.00233164
0.560114 -0.747684 0.127479 0.000399312
-0.429013 -0.185728 -0.875064 0.0128196
-0.453346 -0.185193 -0.855471 0.00667056
-0.411393 -0.189639 -0.860536 0.00722291
-0.435711 -0.185298 -0.842349 0.00399123
-0.493498 -0.504221 0.682165 0.00123755
-0.513848 -0.477379 0.684609 0.000718287
-0.475464 -0.490199 0.706017 0.00202615
-0.494337 -0.46995 0.70534 0.00160678
-0.558804 0.113913 0.555643 0.00046086
-0.580806 0.112577 0.57067 0.000121168
-0.537405 0.113979 0.583507 0.00245259
-0.559955 0.112542 0.597369 0.00144174
-0.351835 -0.428235 0.262578 0.000968755
-0.373504 -0.399418 0.274678 0.000330074
-0.329969 -0.415693 0.304376 0.000216868
-0.352932 -0.387997 0.313114 0.000207191
0.764797 0.612361 -0.121635 0.0016398
0.752201 0.628006 -0.100926 0.000311327
0.779011 0.600816 -0.0987926 0.00292755
0.763752 0.616097 -0.0731569 0.00169091
0.354723 -0.521098 0.00743981 0.000127872
0.340898 -0.528889 0.0302624 0.00038271
0.363524 -0.512336 0.0290552 0.000684711
0.35044 -0.519378 0.0530476 0.00147939
0.444396 0.371864 -0.799613 0.00221064
0.445982 0.34397 -0.809762 0.00122592
0.466708 0.364157 -0.78613 0.00114665
0.468548 0.336972 -0.79623 0.00235324
-0.474095 -0.852345 -0.063095 0.00779203
-0.504333 -0.839996 -0.0438561 0.00410043
-0.453695 -0.872616 -0.0447168 0.00115235
-0.482192 -0.8609 -0.024998 0.00214016
-0.566926 -0.135921 -0.617708 0.00162352
-0.590467 -0.136443 -0.605881 0.00194455
-0.548213 -0.134171 -0.589383 0.000864779
-0.573564 -0.136244 -0.576584 0.000820063
0.499984 -0.653288 0.137326 0.0018848
0.484709 -0.677028 0.144351 0.00112569
0.528881 -0.656753 0.130438 0.00161236
0.514139 -0.679061 0.136769 0.000905305
-0.838723 -0.392452 0.296907 0.00202015
-0.845545 -0.36764 0.313957 0.000135496
-0.828472 -0.387596 0.336242 0.000158512
-0.83443 -0.368652 0.348047 0.00211787
-0.783268 0.0809503 0.56795 0.00130386
-0.787432 0.0531183 0.568448 0.00252344
-0.766846 0.0787431 0.584233 0.00282146
-0.770459 0.0542155 0.58649 0.000206802
-0.577748 -0.00173601 0.170855 0.00246976
-0.574668 -0.0353129 0.174694 0.000896589
-0.57068 0.0118276 0.201305 0.00492419
-0.567202 -0.0228003 0.202989 0.00235735
-0.0980396 0.876156 -0.421634 0.00582285
-0.113226 0.872366 -0.404336 0.00283144
-0.0881412 0.879717 -0.405523 0.00107089
-0.106051 0.883633 -0.386617 0.000701343
0.253094 0.116086 0.935724 0.00345533
0.251225 0.0846945 0.937314 0.00599415
0.261073 0.107473 0.954654 0.0120644
0.259099 0.0760241 0.956685 0.0106542
0.741191 0.16971 -0.634274 0.000703282
0.739041 0.145429 -0.643221 0.00052573
0.754955 0.17395 -0.618486 0.000527117
0.7529 0.14951 -0.628842 0.00105225
-0.656881 -0.555546 0.467777 0.000669457
-0.668286 -0.535087 0.473083 5.13455e-06
-0.643996 -0.549586 0.493918 0.00140007
-0.656409 -0.532302 0.494126 0.000808109
0.295512 0.777713 -0.51674 0.00142346
0.27486 0.793804 -0.504627 0.00227343
0.314735 0.778988 -0.492663 0.0039552
0.29385 0.795504 -0.480605 0.00271956
-0.754025 0.0328875 -0.609423 0.00161467
-0.772302 0.0305041 -0.591412 0.00168669
-0.764137 0.0536171 -0.591113 0.00387321
-0.782171 0.0515326 -0.572713 0.000684499
0.14625 -0.0312587 0.971999 4.2726e-05
0.141983 -0.071636 0.975906 0.00520318
0.175635 -0.0488353 0.965363 0.00116583
0.171943 -0.0885897 0.969326 0.00436102
-0.0687225 -0.486787 0.376936 0.000492507
-0.0944128 -0.469704 0.385527 0.00346085
-0.0532074 -0.474332 0.399517 0.00304783
-0.0778147 -0.458183 0.408068 0.000197671
-0.696238 -0.230588 -0.328545 0.0027351
-0.704835 -0.243504 -0.304475 0.00168725
-0.66916 -0.238507 -0.308951 0.00254832
-0.681579 -0.251091 -0.290758 0.00419277
0.122725 0.149534 0.582068 0.00156471
0.114304 0.119977 0.580305 0.00879261
0.142457 0.136795 0.594279 0.00543659
0.135463 0.105788 0.591452 0.00134943
0.396447 -0.123286 -0.465672 0.00114751
0.379693 -0.137598 -0.472334 0.00313398
0.420633 -0.128175 -0.447933 0.00263229
0.405618 -0.145427 -0.455199 0.00140454
0.865591 0.483051 -0.0264056 0.00333596
0.854681 0.489795 0.00438245 0.00312374
0.871266 0.46787 0.011342 0.000571
0.860214 0.473908 0.0420336 0.00536347
0.61423 0.315899 0.113078 0.008995
0.610807 0.282061 0.106035 0.016507
0.638041 0.311871 0.130704 0.00861577
0.631728 0.279747 0.125696 0.00307235
0.28997 0.525292 -0.11847 0.00208473
0.27124 0.538605 -0.0994918 0.00123158
0.303299 0.521839 -0.0919477 0.000657472
0.28527 0.534471 -0.0706061 0.000611381
-0.358311 0.122129 -0.48042 0.00720653
-0.378282 0.116418 -0.468823 0.00986529
-0.343491 0.126011 -0.465864 0.0119608
-0.364774 0.120109 -0.45462 0.00867605
0.148539 0.280227 0.729171 0.00162681
0.152609 0.245371 0.737421 0.000292272
0.155604 0.28713 0.759397 0.0034195
0.159986 0.253416 0.766596 0.00220588
0.613816 -0.788023 -0.0438659 0.000752619
0.598982 -0.801382 -0.0367697 0.00201156
0.630962 -0.775091 -0.0240576 0.000714472
0.615019 -0.788547 -0.0176633 0.00137706
-0.176809 -0.970929 -0.0967065 0.00125441
-0.198156 -0.968009 -0.0783382 0.00106913
-0.156035 -0.979597 -0.0637382 0.00291359
-0.176874 -0.976597 -0.0445713 0.00317627
0.790464 -0.270619 0.152521 0.00180323
0.781338 -0.299805 0.148436 0.00104835
0.818948 -0.268684 0.160966 0.000712857
0.812562 -0.301322 0.157521 0.00194639
0.274642 0.173128 -0.93203 0.00206913
0.258826 0.136228 -0.937537 0.00309769
0.316169 0.169205 -0.92481 0.00660572
0.301841 0.13664 -0.931167 0.00254727
0.00368015 0.407571 0.887747 0.000762313
-0.00907707 0.384283 0.899735 0.00191553
0.0241469 0.396575 0.892887 0.000658874
0.0109509 0.373629 0.90475 0.00176298
-0.781734 0.144698 0.554361 0.000141673
-0.793358 0.133448 0.561847 0.0121761
-0.759991 0.138303 0.572589 0.000565127
-0.769753 0.123173 0.579879 0.00207208
0.659287 0.726667 -0.041021 0.000905537
0.644518 0.741545 -0.0181668 6.37172e-05
0.673141 0.711713 -0.0160135 0.00329389
0.658412 0.723666 0.00682985 0.00435949
0.658074 0.672809 -0.288095 0.000664417
0.650084 0.687227 -0.27282 0.0011452
0.665145 0.67156 -0.26266 0.00289618
0.657557 0.684897 -0.24785 0.00267886
0.20534 -0.643263 0.36421 0.000129982
0.199048 -0.668339 0.374396 0.000849211
0.190831 -0.636694 0.387659 0.00072222
0.185759 -0.661873 0.396668 0.00115173
-0.752119 -0.53228 0.324531 0.000410313
-0.763996 -0.500374 0.340974 0.00167085
-0.738791 -0.535163 0.360226 0.0033252
-0.749601 -0.50324 0.375428 0.0010401
-0.378678 0.160992 -0.779302 0.00383695
-0.398426 0.152592 -0.760624 0.00310982
-0.36245 0.175515 -0.755528 0.00140372
-0.38115 0.164655 -0.733706 0.0005718
0.154818 0.653342 -0.710184 5.66562e-05
0.125415 0.666661 -0.705985 0.00221429
0.16957 0.669207 -0.689028 0.00220257
0.141421 0.6845 -0.683662 0.00031773
0.154893 0.195834 -0.950996 0.000389577
0.142449 0.152584 -0.957587 0.00356261
0.200411 0.189097 -0.952106 0.00739522
0.185539 0.147826 -0.958378 0.00354007
-0.393004 -0.166239 -0.788016 0.000100788
-0.420109 -0.155278 -0.764368 0.00205411
-0.370344 -0.165468 -0.76308 0.0082336
-0.398373 -0.152624 -0.738761 0.00227701
0.618836 0.719823 -0.258518 0.00118321
0.610564 0.732658 -0.239544 0.000676616
0.626489 0.718302 -0.232329 0.00161477
0.618684 0.73031 -0.214167 0.00147129
-0.556364 -0.703742 0.396431 0.00115731
-0.571784 -0.68241 0.410492 0.000967908
-0.539571 -0.700042 0.42825 0.000208988
-0.557584 -0.680966 0.436842 0.00131561
0.0194756 -0.172047 -0.976792 0.00670832
0.00375275 -0.192951 -0.967207 0.00102048
0.0457481 -0.182891 -0.967707 0.000169076
0.0265366 -0.200887 -0.959605 0.00506081
-0.594487 -0.380541 -0.189071 0.00137239
-0.610666 -0.409778 -0.174086 0.000216031
-0.572969 -0.403208 -0.178551 0.000951258
-0.588609 -0.432361 -0.162913 0.00210166
-0.31277 0.143225 0.484296 0.00843816
-0.33954 0.125773 0.479779 0.00116806
-0.290967 0.158098 0.500769 0.00262198
-0.314925 0.14004 0.497153 0.00224533
0.594809 -0.136353 -0.666927 0.000477152
0.570228 -0.139214 -0.662634 0.00284762
0.619728 -0.134 -0.647228 0.00200108
0.594175 -0.136937 -0.642762 0.00176766
-0.577108 -0.742102 0.290547 0.00192815
-0.589945 -0.724448 0.302015 0.000267138
-0.561591 -0.743979 0.320635 0.00362067
-0.574948 -0.72602 0.33132 0.00179604
-0.109556 0.839307 -0.498947 0.0102926
-0.121734 0.831336 -0.481541 0.0032435
-0.104357 0.848961 -0.474455 0.00648752
-0.117566 0.843043 -0.457814 0.00494744
-0.0974812 0.528702 0.272639 0.00207376
-0.110521 0.522115 0.295043 0.00609067
-0.0886185 0.507697 0.298797 0.0053476
-0.103845 0.501565 0.321682 0.00387518
0.096984 -0.144907 0.965558 0.00244379
0.101243 -0.188328 0.959788 0.000981628
0.125612 -0.145094 0.962795 0.00247587
0.129159 -0.18739 0.957553 0.000418968
-0.115754 -0.18606 -0.965502 0.00652523
-0.129868 -0.207536 -0.954239 0.00130032
-0.08649 -0.196108 -0.962033 0.00126565
-0.100424 -0.216998 -0.949475 0.0049893
-0.346833 -0.81924 0.414523 0.00425597
-0.366123 -0.797368 0.436599 0.00493834
-0.333098 -0.813172 0.44612 0.00047675
-0.354031 -0.791855 0.464754 0.000996977
-0.351742 0.180539 -0.611376 0.000254676
-0.372442 0.167561 -0.600373 0.00124363
-0.332084 0.190409 -0.589182 0.00239411
-0.353018 0.177877 -0.579238 0.00247908
0.107068 -0.617638 -0.0352828 0.00166768
0.0823402 -0.6186 -0.0223846 0.00207068
0.116577 -0.61564 -0.0101766 0.000293553
0.092565 -0.616957 0.00329611 0.00223176
-0.0972573 0.224307 -0.945464 0.00232822
-0.130795 0.237614 -0.940078 0.000418224
-0.0694192 0.248234 -0.945928 0.000596017
-0.10411 0.26294 -0.94017 0.00325514
0.280327 -0.730147 -0.139102 0.00257468
0.253774 -0.722159 -0.133526 0.000529008
0.30609 -0.695891 -0.132159 0.00248654
0.285927 -0.700415 -0.129557 0.000587907
-0.75732 0.0508815 0.606391 0.00112034
-0.759814 0.0253615 0.609675 0.00366997
-0.738738 0.0437546 0.625326 0.00180534
-0.742355 0.0188274 0.629323 0.00251056
-0.693026 -0.543281 0.426802 0.00054557
-0.703081 -0.512559 0.439968 0.00241299
-0.686998 -0.533929 0.45665 0.00466894
-0.697559 -0.505034 0.468203 0.00291175
-0.811688 -0.0615916 -0.52709 0.00230481
-0.8275 -0.0694066 -0.507658 0.00136735
-0.817959 -0.0610312 -0.504905 0.00876621
-0.832214 -0.0743331 -0.487758 0.00442846
-0.108246 0.636178 -0.209147 0.00306856
-0.113405 0.64525 -0.19045 0.00159611
-0.109854 0.644652 -0.178108 0.00205339
-0.111148 0.641531 -0.163983 0.000664176
-0.906995 -0.178639 0.296859 0.000243112
-0.902959 -0.206945 0.297944 0.00147318
-0.899371 -0.17275 0.326126 0.000542676
-0.895628 -0.200849 0.32712 0.00284705
-0.714154 -0.13564 -0.592184 0.000656065
-0.731678 -0.138365 -0.57098 0.00194573
-0.694571 -0.136483 -0.56629 0.000326904
-0.715245 -0.139824 -0.546074 0.000483946
-0.325431 -0.057885 0.509755 0.00205483
-0.329442 -0.0900063 0.502389 0.00150733
-0.297887 -0.0592317 0.524687 0.000540198
-0.302176 -0.0885128 0.518737 0.000922932
-0.961882 0.105354 -0.00978838 5.93183e-05
-0.963524 0.086978 0.0105251 0.000360717
-0.961027 0.105219 0.0167397 0.000746203
-0.962175 0.0875218 0.0379617 0.00109345
-0.77165 -0.167148 0.565573 0.00126339
-0.775811 -0.198389 0.551066 0.000720753
-0.756305 -0.151134 0.593334 0.000607196
-0.761603 -0.179277 0.57928 0.000388827
0.343446 0.00781778 -0.51692 0.000637674
0.339361 -0.0237449 -0.518689 0.00160713
0.36613 0.00408105 -0.503182 0.000201177
0.362111 -0.0272652 -0.504974 0.000133619
0.639634 0.469988 -0.579076 0.00342274
0.620829 0.501007 -0.578657 0.000214769
0.65928 0.486202 -0.541038 0.00453582
0.640792 0.514871 -0.541552 0.00107384
-0.0565128 -0.156994 -0.774213 0.00367555
-0.0711002 -0.154213 -0.743102 0.00290357
-0.0342689 -0.148757 -0.746383 0.00324943
-0.0490102 -0.145623 -0.71712 0.000535104
-0.223984 -0.147669 -0.585064 0.0120687
-0.241224 -0.140023 -0.571243 0.00375146
-0.215326 -0.131904 -0.571874 0.00449766
-0.232398 -0.123773 -0.558181 0.00567811
0.496842 0.816967 -0.229575 0.00312736
0.473765 0.831038 -0.208821 6.79357e-05
0.51822 0.806953 -0.195921 0.00139927
0.49677 0.819255 -0.175293 0.00558175
0.29782 -0.159821 -0.934142 0.00458096
0.274921 -0.184451 -0.931548 0.000413252
0.326562 -0.160406 -0.918225 0.00164094
0.301434 -0.183491 -0.914825 0.00867286
-0.0102983 -0.978017 0.174225 0.00133909
-0.0383038 -0.969729 0.205733 0.00042286
0.00705664 -0.975499 0.199461 0.00291803
-0.0203556 -0.967641 0.229931 0.0030531
0.117543 0.173153 0.580225 0.00543819
0.110389 0.14483 0.578855 0.00479853
0.135929 0.158803 0.591745 0.00141316
0.130499 0.129097 0.58937 0.00477782
-0.241269 -0.95837 0.0763317 0.00198713
-0.262606 -0.95213 0.0938109 0.00324822
-0.220702 -0.961343 0.105031 0.00241811
-0.242411 -0.954891 0.122768 0.00347117
-0.938918 0.231916 -0.0336455 0.00125264
-0.951935 0.228194 -0.00760826 0.0123035
-0.922066 0.226706 -0.0108708 0.00427162
-0.93717 0.229561 0.0122008 0.00159979
0.123556 -0.614004 0.0187893 0.000125703
0.100285 -0.61603 0.0315945 0.00153249
0.143211 -0.610381 0.0398879 0.00153037
0.119562 -0.612441 0.0518113 0.000357603
0.817118 0.108546 0.157507 0.00308709
0.799039 0.0827601 0.152656 0.00069922
0.846963 0.0943859 0.17449 0.000596922
0.827287 0.0678056 0.16988 0.00457774
0.41133 -0.788449 0.159548 0.0114545
0.392485 -0.807805 0.175874 0.00579033
0.409471 -0.762242 0.173614 0.000160869
0.388597 -0.771364 0.189437 0.00432443
-0.0280906 -0.493605 0.852143 0.000910262
-0.0539606 -0.48127 0.857832 0.000574119
-0.0052216 -0.467961 0.867699 0.000140555
-0.033948 -0.457553 0.870581 0.00152036
0.964499 0.110882 -0.204586 0.00156956
0.966658 0.0919693 -0.200477 0.002521
0.971062 0.11829 -0.179705 0.000809752
0.973054 0.0988567 -0.173729 0.000949098
-0.761152 -0.413365 0.450839 0.000891994
-0.765422 -0.415194 0.446854 0.00306611
-0.746489 -0.395821 0.485677 0.000865385
-0.750761 -0.411156 0.472143 0.00205179
0.400528 0.613805 -0.64838 0.00323672
0.381734 0.633051 -0.644755 7.82261e-05
0.416585 0.629692 -0.623627 0.0018328
