-3.168398514389991760e-02 8.454998582601547241e-02 -4.613556861877441406e-01
4.685100913047790527e-01 -7.929051667451858521e-02 4.449446797370910645e-01
4.720270037651062012e-01 -6.694489717483520508e-02 4.380065500736236572e-01
4.853060543537139893e-01 -7.943272590637207031e-02 4.459840953350067139e-01
4.889618754386901855e-01 -6.799817085266113281e-02 4.398011863231658936e-01
-7.948455810546875000e-01 -2.056557536125183105e-01 1.815236955881118774e-01
-8.035175800323486328e-01 -2.002923935651779175e-01 2.001140117645263672e-01
-7.828136682510375977e-01 -2.047493010759353638e-01 1.995460391044616699e-01
-7.943119406700134277e-01 -1.979241371154785156e-01 2.224973142147064209e-01
5.283710360527038574e-01 8.091499656438827515e-02 -6.225075945258140564e-02
5.165470838546752930e-01 8.621098101139068604e-02 -4.916011169552803040e-02
5.431933999061584473e-01 7.899457216262817383e-02 -4.298914596438407898e-02
5.307857394218444824e-01 8.513996750116348267e-02 -3.000176697969436646e-02
-7.293530702590942383e-01 -1.909483075141906738e-01 3.435004055500030518e-01
-7.307230830192565918e-01 -1.757123768329620361e-01 3.424235284328460693e-01
-7.144148945808410645e-01 -1.926211118698120117e-01 3.605678081512451172e-01
-7.232312560081481934e-01 -1.789555698633193970e-01 3.671426475048065186e-01
-4.717601239681243896e-01 8.756785094738006592e-02 3.625082597136497498e-02
-4.861359596252441406e-01 8.879615366458892822e-02 5.688323825597763062e-02
-4.620874226093292236e-01 8.404781669378280640e-02 6.556705385446548462e-02
-4.620607793331146240e-01 8.596742898225784302e-02 7.651034742593765259e-02
-2.694272100925445557e-01 -1.585840433835983276e-01 -6.494596004486083984e-01
-2.721563577651977539e-01 -1.555503010749816895e-01 -6.359460353851318359e-01
-2.410297691822052002e-01 -1.572271883487701416e-01 -6.391884684562683105e-01
-2.559998035430908203e-01 -1.547402292490005493e-01 -6.214324235916137695e-01
-4.386633634567260742e-01 1.056946069002151489e-01 3.178884387016296387e-01
-4.228493869304656982e-01 1.145971715450286865e-01 3.183501064777374268e-01
-4.218000173568725586e-01 1.083204597234725952e-01 3.361992835998535156e-01
-4.051641821861267090e-01 1.177494227886199951e-01 3.371255993843078613e-01
-4.166494011878967285e-01 -2.087050378322601318e-01 3.704904913902282715e-01
-4.098412692546844482e-01 -1.948287487030029297e-01 3.669085800647735596e-01
-4.089069962501525879e-01 -2.045124471187591553e-01 3.812342286109924316e-01
-4.026003479957580566e-01 -1.904765814542770386e-01 3.779048323631286621e-01
9.219422936439514160e-02 -1.477089226245880127e-01 -5.182442665100097656e-01
8.050424605607986450e-02 -1.447099447250366211e-01 -5.029575824737548828e-01
1.040861457586288452e-01 -1.511266976594924927e-01 -5.049016475677490234e-01
9.483250975608825684e-02 -1.427119821310043335e-01 -4.925178885459899902e-01
-2.122539281845092773e-01 1.582035794854164124e-02 -4.544092416763305664e-01
-2.112967520952224731e-01 3.771497309207916260e-02 -4.528962075710296631e-01
-1.870060861110687256e-01 2.953545562922954559e-02 -4.643917381763458252e-01
-1.875359416007995605e-01 5.265640467405319214e-02 -4.623387753963470459e-01
1.653466224670410156e-01 8.990260958671569824e-02 -2.018078416585922241e-02
1.527342200279235840e-01 8.975239098072052002e-02 6.596790626645088196e-04
1.792442500591278076e-01 8.723019063472747803e-02 1.257378607988357544e-04
1.649387031793594360e-01 8.868081867694854736e-02 1.740783452987670898e-02
2.093856632709503174e-01 -1.136389151215553284e-01 3.156962096691131592e-01
1.936976015567779541e-01 -9.364997595548629761e-02 3.265211582183837891e-01
2.281446754932403564e-01 -1.109868288040161133e-01 3.086687922477722168e-01
2.192960977554321289e-01 -8.692409843206405640e-02 3.132479190826416016e-01
-1.024428606033325195e-01 1.843645274639129639e-01 2.296932339668273926e-01
-1.011303365230560303e-01 2.060137987136840820e-01 2.253681421279907227e-01
-8.242034167051315308e-02 1.892990320920944214e-01 2.240183502435684204e-01
-8.254404366016387939e-02 2.125773429870605469e-01 2.200549691915512085e-01
-6.438156366348266602e-01 -2.056430876255035400e-01 -1.708972752094268799e-01
-6.529870629310607910e-01 -2.057906687259674072e-01 -1.507148146629333496e-01
-6.344078183174133301e-01 -2.009609937667846680e-01 -1.587311923503875732e-01
-6.431080698966979980e-01 -2.013207823038101196e-01 -1.377979516983032227e-01
-1.867629885673522949e-01 6.325496733188629150e-02 5.039493441581726074e-01
-1.808123439550399780e-01 7.272911071777343750e-02 4.967347383499145508e-01
-1.666369587182998657e-01 5.745074152946472168e-02 5.076834559440612793e-01
-1.613650321960449219e-01 6.705660372972488403e-02 5.006041526794433594e-01
2.544739544391632080e-01 -1.460519134998321533e-01 4.518084228038787842e-01
2.394286692142486572e-01 -1.477926075458526611e-01 4.747967720031738281e-01
2.680544257164001465e-01 -1.426318734884262085e-01 4.722320139408111572e-01
2.535415291786193848e-01 -1.444946825504302979e-01 4.948932528495788574e-01
-2.384207546710968018e-01 8.671609312295913696e-02 -2.423560470342636108e-01
-2.525574862957000732e-01 8.752968907356262207e-02 -2.216483205556869507e-01
-2.208376228809356689e-01 8.471057564020156860e-02 -2.287541776895523071e-01
-2.366122305393218994e-01 8.437744528055191040e-02 -2.081831097602844238e-01
-1.710801152512431145e-03 5.216354876756668091e-02 -4.450182616710662842e-01
-2.575812395662069321e-03 6.873656809329986572e-02 -4.334197044372558594e-01
1.772972568869590759e-02 5.500310659408569336e-02 -4.319851994514465332e-01
1.676889695227146149e-02 7.019212096929550171e-02 -4.197994768619537354e-01
5.655577182769775391e-01 -3.290423005819320679e-02 -3.736098110675811768e-01
5.568701624870300293e-01 -2.532516047358512878e-02 -3.592841029167175293e-01
5.861600041389465332e-01 -3.609293326735496521e-02 -3.585117459297180176e-01
5.790942907333374023e-01 -2.658931910991668701e-02 -3.465781211853027344e-01
-2.873149514198303223e-01 2.568734288215637207e-01 -1.211548373103141785e-01
-2.850936353206634521e-01 2.756216824054718018e-01 -1.240197047591209412e-01
-2.974587380886077881e-01 2.642850279808044434e-01 -1.000161692500114441e-01
-2.979004085063934326e-01 2.834154665470123291e-01 -1.030075252056121826e-01
-6.072077155113220215e-01 7.670631259679794312e-02 -4.024430736899375916e-02
-5.834652185440063477e-01 8.725339919328689575e-02 -4.158955067396163940e-02
-5.962383151054382324e-01 8.347634226083755493e-02 -1.660976186394691467e-02
-5.719112753868103027e-01 9.183695912361145020e-02 -1.861024647951126099e-02
6.830671429634094238e-01 2.598213031888008118e-02 -8.427604287862777710e-02
6.650250554084777832e-01 4.260300844907760620e-02 -8.002049475908279419e-02
6.844146251678466797e-01 1.720421575009822845e-02 -5.918422341346740723e-02
6.691474914550781250e-01 3.258126601576805115e-02 -5.541666969656944275e-02
-8.208317160606384277e-01 -1.887705326080322266e-01 4.761663451790809631e-02
-8.302348852157592773e-01 -1.831329613924026489e-01 7.081253081560134888e-02
-8.211660385131835938e-01 -1.825600713491439819e-01 8.238515257835388184e-02
-8.186054825782775879e-01 -1.753443181514739990e-01 9.809780865907669067e-02
-5.717605352401733398e-01 -1.548983007669448853e-01 -2.994495034217834473e-01
-5.537875294685363770e-01 -1.427913755178451538e-01 -3.006908893585205078e-01
-5.666648745536804199e-01 -1.438827663660049438e-01 -2.789754867553710938e-01
-5.486395955085754395e-01 -1.302069574594497681e-01 -2.787835597991943359e-01
-1.924836188554763794e-01 1.960896849632263184e-01 -2.105726897716522217e-01
-2.083148062229156494e-01 2.120631337165832520e-01 -1.981259733438491821e-01
-1.726727485656738281e-01 2.080061733722686768e-01 -2.143376022577285767e-01
-1.899948865175247192e-01 2.254841774702072144e-01 -2.020982950925827026e-01
-5.253114700317382812e-01 9.994579851627349854e-02 -2.645166814327239990e-01
-5.026775002479553223e-01 1.096461713314056396e-01 -2.666119635105133057e-01
-5.076280236244201660e-01 1.097151413559913635e-01 -2.465163171291351318e-01
-4.863158464431762695e-01 1.169120073318481445e-01 -2.500123083591461182e-01
-4.173398911952972412e-01 -1.182890757918357849e-01 -3.729034066200256348e-01
-4.260955154895782471e-01 -1.029986664652824402e-01 -3.666301369667053223e-01
-4.073020517826080322e-01 -1.073975339531898499e-01 -3.815454542636871338e-01
-4.149585664272308350e-01 -9.011367708444595337e-02 -3.763308823108673096e-01
6.394315361976623535e-01 6.420247256755828857e-02 1.625715941190719604e-01
6.211687922477722168e-01 7.761068642139434814e-02 1.667866110801696777e-01
6.490760445594787598e-01 5.644296854734420776e-02 1.802694052457809448e-01
6.320716142654418945e-01 7.045736908912658691e-02 1.851022988557815552e-01
-3.093010187149047852e-01 7.570669054985046387e-02 -1.027824953198432922e-01
-2.980174720287322998e-01 9.027289599180221558e-02 -1.058360636234283447e-01
-3.085221946239471436e-01 8.190068602561950684e-02 -8.315663784742355347e-02
-2.977033853530883789e-01 9.699542820453643799e-02 -8.573205769062042236e-02
-4.287987351417541504e-01 -2.007466107606887817e-01 3.629836142063140869e-01
-4.224463701248168945e-01 -1.868317276239395142e-01 3.586222827434539795e-01
-4.206614494323730469e-01 -1.974050998687744141e-01 3.734636306762695312e-01
-4.148415327072143555e-01 -1.832444220781326294e-01 3.697022795677185059e-01
4.037380516529083252e-01 1.228666976094245911e-01 1.473804861307144165e-01
3.882943093776702881e-01 1.260764151811599731e-01 1.619749665260314941e-01
4.252406954765319824e-01 1.157078295946121216e-01 1.608169078826904297e-01
4.055415391921997070e-01 1.194872930645942688e-01 1.734261363744735718e-01
2.910881070420145988e-03 -7.430920749902725220e-02 -4.664079844951629639e-01
5.398181267082691193e-03 -5.443000048398971558e-02 -4.671957790851593018e-01
2.527225390076637268e-02 -7.196769118309020996e-02 -4.631390869617462158e-01
2.694746851921081543e-02 -5.144890770316123962e-02 -4.641295373439788818e-01
-3.179775476455688477e-01 2.726224064826965332e-01 1.445326060056686401e-01
-3.128720223903656006e-01 2.950031161308288574e-01 1.404475867748260498e-01
-3.036592602729797363e-01 2.811276018619537354e-01 1.595655232667922974e-01
-2.976900339126586914e-01 3.028258085250854492e-01 1.563093513250350952e-01
-4.009940028190612793e-01 7.597194612026214600e-02 3.118235170841217041e-01
-3.790626823902130127e-01 8.610700070858001709e-02 3.133609592914581299e-01
-3.874902129173278809e-01 8.203057944774627686e-02 3.279046714305877686e-01
-3.632274270057678223e-01 9.233010560274124146e-02 3.295417726039886475e-01
2.242598980665206909e-01 1.250053644180297852e-01 -2.590456306934356689e-01
2.170144766569137573e-01 1.331498622894287109e-01 -2.444434016942977905e-01
2.449120283126831055e-01 1.275285184383392334e-01 -2.489521354436874390e-01
2.371037304401397705e-01 1.350204348564147949e-01 -2.359240055084228516e-01
2.800582349300384521e-01 -2.761175110936164856e-02 -3.292937576770782471e-01
2.787427902221679688e-01 -9.039368480443954468e-03 -3.298898935317993164e-01
2.961362004280090332e-01 -2.496137656271457672e-02 -3.286283612251281738e-01
2.924867272377014160e-01 -5.672297440469264984e-03 -3.273148536682128906e-01
2.145900726318359375e-01 -1.486526727676391602e-01 -4.093623459339141846e-01
2.459663748741149902e-01 -1.420100927352905273e-01 -4.175346791744232178e-01
2.291027456521987915e-01 -1.421561837196350098e-01 -3.961704969406127930e-01
2.624542713165283203e-01 -1.349627077579498291e-01 -4.055827856063842773e-01
-1.238696500658988953e-01 2.926577031612396240e-01 -1.861062198877334595e-01
-1.149916276335716248e-01 3.206039369106292725e-01 -1.823056042194366455e-01
-1.026004776358604431e-01 3.016271591186523438e-01 -1.792331933975219727e-01
-9.195431321859359741e-02 3.308662474155426025e-01 -1.761313825845718384e-01
6.713581085205078125e-02 -1.421312689781188965e-01 5.104483962059020996e-01
8.859093487262725830e-02 -1.377290934324264526e-01 4.996839165687561035e-01
8.101794123649597168e-02 -1.422363817691802979e-01 5.196275115013122559e-01
1.002411767840385437e-01 -1.395934969186782837e-01 5.103084444999694824e-01
3.421821072697639465e-02 1.560837924480438232e-01 3.928158804774284363e-02
3.493970632553100586e-02 1.726575195789337158e-01 4.338413476943969727e-02
2.742026932537555695e-02 1.606038957834243774e-01 5.989225581288337708e-02
2.801765874028205872e-02 1.773143261671066284e-01 6.363217532634735107e-02
-8.780528604984283447e-02 -1.554798334836959839e-01 -5.960417389869689941e-01
-9.629607200622558594e-02 -1.483464390039443970e-01 -5.841102600097656250e-01
-7.225145399570465088e-02 -1.517711132764816284e-01 -5.887517929077148438e-01
-8.561027795076370239e-02 -1.481598913669586182e-01 -5.726267695426940918e-01
2.536919116973876953e-01 -2.098195552825927734e-01 -4.908811151981353760e-01
2.779184281826019287e-01 -2.064621001482009888e-01 -4.951804876327514648e-01
2.661616206169128418e-01 -2.061322778463363647e-01 -4.698739051818847656e-01
2.898277640342712402e-01 -2.023914605379104614e-01 -4.737643301486968994e-01
-1.848938763141632080e-01 1.174226477742195129e-01 -4.298753142356872559e-01
-1.953938901424407959e-01 1.225404292345046997e-01 -4.167012870311737061e-01
-1.712817102670669556e-01 1.201799437403678894e-01 -4.157916009426116943e-01
-1.828138083219528198e-01 1.248319074511528015e-01 -4.018412232398986816e-01
-1.206534132361412048e-01 1.292271912097930908e-01 1.909160763025283813e-01
-1.211159601807594299e-01 1.481266468763351440e-01 1.884695738554000854e-01
-1.062067002058029175e-01 1.299915015697479248e-01 1.959793269634246826e-01
-1.068212613463401794e-01 1.498879939317703247e-01 1.927892416715621948e-01
-2.091057300567626953e-01 8.033556491136550903e-02 -2.372222244739532471e-01
-2.249292880296707153e-01 8.041962981224060059e-02 -2.165351212024688721e-01
-1.960799396038055420e-01 8.153146505355834961e-02 -2.266182452440261841e-01
-2.113065719604492188e-01 8.194317668676376343e-02 -2.066220939159393311e-01
8.586784452199935913e-02 1.257366091012954712e-01 3.347643017768859863e-01
7.236845046281814575e-02 1.222199723124504089e-01 3.500758707523345947e-01
1.009770929813385010e-01 1.263709068298339844e-01 3.495898842811584473e-01
8.730047196149826050e-02 1.236508935689926147e-01 3.639073073863983154e-01
-3.781915009021759033e-01 7.995603978633880615e-02 2.954006791114807129e-01
-3.532584309577941895e-01 8.865587413311004639e-02 2.990753352642059326e-01
-3.608831763267517090e-01 8.497143536806106567e-02 3.129967451095581055e-01
-3.345085680484771729e-01 9.382826089859008789e-02 3.162447810173034668e-01
-2.937981784343719482e-01 3.064167201519012451e-01 1.186567693948745728e-01
-2.863851785659790039e-01 3.272734582424163818e-01 1.159309223294258118e-01
-2.811561524868011475e-01 3.139375448226928711e-01 1.334146857261657715e-01
-2.719187140464782715e-01 3.352006375789642334e-01 1.311421096324920654e-01
-3.405234217643737793e-01 -1.626134663820266724e-01 6.516106724739074707e-01
-3.395374417304992676e-01 -1.491380631923675537e-01 6.484848260879516602e-01
-3.216884732246398926e-01 -1.589208692312240601e-01 6.589964032173156738e-01
-3.218410909175872803e-01 -1.463152468204498291e-01 6.574864983558654785e-01
-6.041013002395629883e-01 -2.088912576436996460e-01 4.009323716163635254e-01
-6.166118383407592773e-01 -2.091115862131118774e-01 4.235885441303253174e-01
-5.874862670898437500e-01 -2.036938518285751343e-01 4.172044694423675537e-01
-5.992912650108337402e-01 -2.062873691320419312e-01 4.396708011627197266e-01
6.792178153991699219e-01 -3.303367644548416138e-02 -2.106347978115081787e-01
6.667507290840148926e-01 -1.529440004378557205e-02 -2.076211720705032349e-01
6.811395287513732910e-01 -3.500521183013916016e-02 -1.924450695514678955e-01
6.699084043502807617e-01 -1.717804744839668274e-02 -1.898594200611114502e-01
5.737166386097669601e-03 -1.770560741424560547e-01 -6.466519832611083984e-01
6.653525633737444878e-04 -1.717222929000854492e-01 -6.330277919769287109e-01
2.580213174223899841e-02 -1.726390570402145386e-01 -6.353465914726257324e-01
2.017003856599330902e-02 -1.672608703374862671e-01 -6.217629313468933105e-01
5.372453331947326660e-01 -9.924601018428802490e-02 -4.780938625335693359e-01
5.233114957809448242e-01 -8.629199117422103882e-02 -4.648081660270690918e-01
5.491333007812500000e-01 -1.003381162881851196e-01 -4.579282104969024658e-01
5.345643758773803711e-01 -8.557651937007904053e-02 -4.440781772136688232e-01
6.637071967124938965e-01 -2.098162174224853516e-01 -4.997006952762603760e-01
6.692748069763183594e-01 -2.093325853347778320e-01 -4.909515976905822754e-01
6.807627677917480469e-01 -2.072145789861679077e-01 -4.836295545101165771e-01
6.728644967079162598e-01 -2.070150822401046753e-01 -4.673469662666320801e-01
-4.274908900260925293e-01 -1.664847135543823242e-03 -3.688216507434844971e-01
-4.323169887065887451e-01 1.585750468075275421e-02 -3.628028631210327148e-01
-4.177816510200500488e-01 1.720201224088668823e-02 -3.733967542648315430e-01
-4.216612279415130615e-01 3.285739943385124207e-02 -3.664124310016632080e-01
-9.728135913610458374e-02 1.238130629062652588e-01 2.406687140464782715e-01
-8.400357514619827271e-02 1.326579451560974121e-01 2.308953851461410522e-01
-8.014753460884094238e-02 1.230525523424148560e-01 2.462536245584487915e-01
-6.273077428340911865e-02 1.303555816411972046e-01 2.367582023143768311e-01
-5.911768227815628052e-02 -1.398885548114776611e-01 4.951406121253967285e-01
-4.919002950191497803e-02 -1.300562024116516113e-01 4.891223013401031494e-01
-4.440528526902198792e-02 -1.376705318689346313e-01 5.072868466377258301e-01
-2.672209031879901886e-02 -1.327848732471466064e-01 4.961472153663635254e-01
1.892024278640747070e-01 -2.090302109718322754e-01 3.711670637130737305e-01
1.735734492540359497e-01 -2.041209340095520020e-01 3.930203616619110107e-01
2.028779685497283936e-01 -2.114367336034774780e-01 3.767740428447723389e-01
1.889638751745223999e-01 -2.116363495588302612e-01 4.024377167224884033e-01
6.778130531311035156e-01 -1.972241848707199097e-01 -6.295688152313232422e-01
6.833522319793701172e-01 -1.880393475294113159e-01 -6.302018165588378906e-01
6.945019364356994629e-01 -1.990712732076644897e-01 -6.157107949256896973e-01
6.999620199203491211e-01 -1.908086240291595459e-01 -6.142582297325134277e-01
-8.110664486885070801e-01 -2.001357227563858032e-01 1.379521340131759644e-01
-8.170157670974731445e-01 -1.957863420248031616e-01 1.539366096258163452e-01
-8.029136061668395996e-01 -1.990460902452468872e-01 1.612808108329772949e-01
-8.088253736495971680e-01 -1.945120990276336670e-01 1.769078969955444336e-01
2.554176449775695801e-01 8.605847507715225220e-02 -1.902150809764862061e-01
2.426335662603378296e-01 8.158349990844726562e-02 -1.646296828985214233e-01
2.701389491558074951e-01 8.582995831966400146e-02 -1.756158769130706787e-01
2.570881545543670654e-01 8.187135308980941772e-02 -1.528937965631484985e-01
-2.403204143047332764e-01 2.072396725416183472e-01 -2.032698988914489746e-01
-2.511066794395446777e-01 2.268630117177963257e-01 -1.941311508417129517e-01
-2.273337393999099731e-01 2.258106172084808350e-01 -2.035106718540191650e-01
-2.417794466018676758e-01 2.440181821584701538e-01 -1.929788142442703247e-01
-2.931548357009887695e-01 1.201257407665252686e-01 3.586097359657287598e-01
-2.851455807685852051e-01 1.225074082612991333e-01 3.579255044460296631e-01
-2.732492387294769287e-01 1.135849207639694214e-01 3.717955052852630615e-01
-2.653735578060150146e-01 1.175189837813377380e-01 3.692242205142974854e-01
1.313670426607131958e-01 8.767598867416381836e-02 -6.234779208898544312e-02
1.187035590410232544e-01 8.839765191078186035e-02 -4.121066629886627197e-02
1.451318711042404175e-01 8.741816878318786621e-02 -4.452286660671234131e-02
1.318022161722183228e-01 8.795346319675445557e-02 -2.269636094570159912e-02
-6.193384528160095215e-01 -1.474605649709701538e-01 4.563711583614349365e-01
-6.010652780532836914e-01 -1.386987566947937012e-01 4.466581642627716064e-01
-6.053049564361572266e-01 -1.417993158102035522e-01 4.658416211605072021e-01
-5.875049829483032227e-01 -1.304076910018920898e-01 4.544554650783538818e-01
1.866436004638671875e-01 -1.296314299106597900e-01 3.678559064865112305e-01
1.705206632614135742e-01 -1.134055778384208679e-01 3.787417709827423096e-01
1.995117515325546265e-01 -1.039559096097946167e-01 3.658146560192108154e-01
1.844558119773864746e-01 -8.902649581432342529e-02 3.757513761520385742e-01
-3.056627810001373291e-01 8.126191049814224243e-02 -2.629484832286834717e-01
-3.173004090785980225e-01 8.616641908884048462e-02 -2.447096109390258789e-01
-2.937691509723663330e-01 8.551299571990966797e-02 -2.470763623714447021e-01
-3.057526350021362305e-01 8.898455649614334106e-02 -2.282210737466812134e-01
-7.534729242324829102e-01 -2.093428373336791992e-01 -1.974616646766662598e-01
-7.637416124343872070e-01 -2.091391086578369141e-01 -1.823930144309997559e-01
-7.466809153556823730e-01 -2.079592943191528320e-01 -1.863048970699310303e-01
-7.564497590065002441e-01 -2.074374556541442871e-01 -1.717545986175537109e-01
5.371255278587341309e-01 -2.245175093412399292e-02 -4.453453123569488525e-01
5.257323384284973145e-01 -2.044557221233844757e-02 -4.253643751144409180e-01
5.515230894088745117e-01 -2.221628464758396149e-02 -4.288566708564758301e-01
5.404159426689147949e-01 -1.852660253643989563e-02 -4.113841354846954346e-01
-7.962931990623474121e-01 -1.457076519727706909e-01 -1.749093085527420044e-02
-7.757971286773681641e-01 -1.449841707944869995e-01 -1.204868219792842865e-02
-7.799255251884460449e-01 -1.408856511116027832e-01 6.307158619165420532e-04
-7.632594108581542969e-01 -1.394103765487670898e-01 9.122760966420173645e-03
6.585052013397216797e-01 -1.914761066436767578e-01 5.750820636749267578e-01
6.510859131813049316e-01 -1.851545125246047974e-01 5.831606388092041016e-01
6.740460395812988281e-01 -1.878547966480255127e-01 5.782996416091918945e-01
6.675675511360168457e-01 -1.804938167333602905e-01 5.852662920951843262e-01
-2.106510996818542480e-01 -9.697918593883514404e-02 4.613278210163116455e-01
-2.078745514154434204e-01 -7.814926654100418091e-02 4.611175656318664551e-01
-1.908070296049118042e-01 -9.235485643148422241e-02 4.597733914852142334e-01
-1.884684413671493530e-01 -7.310935109853744507e-02 4.595269858837127686e-01
3.868497014045715332e-01 -1.706828474998474121e-01 4.634917080402374268e-01
3.932255208492279053e-01 -1.564484387636184692e-01 4.571436643600463867e-01
4.001842141151428223e-01 -1.675170511007308960e-01 4.678776264190673828e-01
4.068554341793060303e-01 -1.530073583126068115e-01 4.606943130493164062e-01
-2.529419958591461182e-01 1.768725365400314331e-01 1.593704670667648315e-01
-2.542952299118041992e-01 1.985876560211181641e-01 1.603928804397583008e-01
-2.366272211074829102e-01 1.787152886390686035e-01 1.613482087850570679e-01
-2.371079325675964355e-01 1.992902755737304688e-01 1.629657447338104248e-01
-3.234547749161720276e-02 1.667444407939910889e-01 1.310645192861557007e-01
-3.712172433733940125e-02 1.771918237209320068e-01 1.431764662265777588e-01
-1.892746984958648682e-02 1.711780875921249390e-01 1.433239132165908813e-01
-2.300937473773956299e-02 1.829881817102432251e-01 1.540958136320114136e-01
5.111647844314575195e-01 7.796406745910644531e-02 -2.161387801170349121e-01
4.991004765033721924e-01 7.848856598138809204e-02 -2.046944499015808105e-01
5.257992744445800781e-01 7.669588923454284668e-02 -2.061115503311157227e-01
5.138460993766784668e-01 7.746451348066329956e-02 -1.945726126432418823e-01
3.015709221363067627e-01 -2.081134617328643799e-01 3.989132046699523926e-01
3.262401223182678223e-01 -2.000102400779724121e-01 3.935032188892364502e-01
3.183662593364715576e-01 -2.048492282629013062e-01 4.106947183609008789e-01
3.417737185955047607e-01 -1.966724991798400879e-01 4.039093852043151855e-01
7.860541939735412598e-01 -2.056091129779815674e-01 4.191565513610839844e-01
7.796308994293212891e-01 -2.060147076845169067e-01 4.377293586730957031e-01
7.999637722969055176e-01 -2.045813202857971191e-01 4.319853782653808594e-01
7.937693595886230469e-01 -2.047120034694671631e-01 4.502122700214385986e-01
2.872647717595100403e-03 4.666223004460334778e-02 4.365098178386688232e-01
1.003742124885320663e-02 5.325331538915634155e-02 4.266103506088256836e-01
2.067349664866924286e-02 4.249641671776771545e-02 4.473977684974670410e-01
2.511268481612205505e-02 5.129051953554153442e-02 4.386433362960815430e-01
-1.359347105026245117e-01 -2.081711590290069580e-01 -5.959661006927490234e-01
-1.448742449283599854e-01 -2.054628878831863403e-01 -5.855625271797180176e-01
-1.186255887150764465e-01 -2.098124921321868896e-01 -5.914341807365417480e-01
-1.297771036624908447e-01 -2.093743234872817993e-01 -5.772840380668640137e-01
3.189682364463806152e-01 -1.362609863281250000e-01 4.417595267295837402e-01
3.300393819808959961e-01 -1.226039826869964600e-01 4.329592585563659668e-01
3.351908326148986816e-01 -1.357657462358474731e-01 4.445339441299438477e-01
3.452565371990203857e-01 -1.220005899667739868e-01 4.359518289566040039e-01
-3.287655413150787354e-01 1.247380822896957397e-01 2.859106659889221191e-02
-3.190313279628753662e-01 1.425939202308654785e-01 2.031005546450614929e-02
-3.260162472724914551e-01 1.305512636899948120e-01 4.991353675723075867e-02
-3.177332878112792969e-01 1.483038216829299927e-01 4.246776551008224487e-02
-1.956453472375869751e-01 7.575842738151550293e-02 2.031432092189788818e-01
-1.882662624120712280e-01 8.420976251363754272e-02 2.059835046529769897e-01
-1.785199344158172607e-01 7.467528432607650757e-02 2.043789923191070557e-01
-1.712985783815383911e-01 8.326288312673568726e-02 2.069955170154571533e-01
9.843830764293670654e-02 8.610752969980239868e-02 6.840564310550689697e-02
8.219288289546966553e-02 8.813029527664184570e-02 8.653685450553894043e-02
1.129306107759475708e-01 8.234875649213790894e-02 8.034142851829528809e-02
9.602633863687515259e-02 8.331414312124252319e-02 1.003941521048545837e-01
-4.330419301986694336e-01 -1.437301188707351685e-01 4.196366965770721436e-01
-4.233062863349914551e-01 -1.346207410097122192e-01 4.099724590778350830e-01
-4.242955744266510010e-01 -1.415862292051315308e-01 4.295790791511535645e-01
-4.142617881298065186e-01 -1.325812041759490967e-01 4.204204082489013672e-01
2.036599367856979370e-01 -1.454689204692840576e-01 -6.272987723350524902e-01
1.950435638427734375e-01 -1.426604986190795898e-01 -6.109973192214965820e-01
2.152751684188842773e-01 -1.431013196706771851e-01 -6.140868663787841797e-01
2.076309472322463989e-01 -1.411252766847610474e-01 -5.991904139518737793e-01
-3.778890669345855713e-01 -6.945409346371889114e-03 -3.936491608619689941e-01
-3.825293183326721191e-01 6.523283664137125015e-03 -3.882239162921905518e-01
-3.606282174587249756e-01 6.969348527491092682e-03 -4.000490307807922363e-01
-3.647057116031646729e-01 1.941869407892227173e-02 -3.945757150650024414e-01
-5.306259393692016602e-01 9.287073463201522827e-02 -9.547626972198486328e-02
-5.139243602752685547e-01 9.804806858301162720e-02 -8.948128670454025269e-02
-5.208729505538940430e-01 9.893268346786499023e-02 -6.417434662580490112e-02
-5.014123916625976562e-01 1.025525704026222229e-01 -6.114920228719711304e-02
5.672967433929443359e-01 -1.020238772034645081e-01 3.629348874092102051e-01
5.721312165260314941e-01 -9.055268764495849609e-02 3.509805798530578613e-01
5.806186199188232422e-01 -1.059164479374885559e-01 3.675608038902282715e-01
5.847550630569458008e-01 -9.492169320583343506e-02 3.563154637813568115e-01
-2.989608049392700195e-01 1.731391102075576782e-01 1.650585830211639404e-01
-3.012192547321319580e-01 1.966565698385238647e-01 1.646429151296615601e-01
-2.850664556026458740e-01 1.707028001546859741e-01 1.754354536533355713e-01
-2.875095009803771973e-01 1.943219006061553955e-01 1.748424321413040161e-01
-2.100587487220764160e-01 2.122107520699501038e-02 -4.872781634330749512e-01
-2.115171402692794800e-01 4.666171222925186157e-02 -4.850413203239440918e-01
-1.849504858255386353e-01 3.270607441663742065e-02 -4.918060898780822754e-01
-1.871736198663711548e-01 5.828089267015457153e-02 -4.895322322845458984e-01
1.709983199834823608e-01 2.330156117677688599e-01 -1.508904993534088135e-01
1.562359333038330078e-01 2.521755099296569824e-01 -1.507582664489746094e-01
1.951364427804946899e-01 2.140255421400070190e-01 -1.472243368625640869e-01
1.821021437644958496e-01 2.352398782968521118e-01 -1.488987356424331665e-01
2.331172972917556763e-01 1.297698915004730225e-01 2.460292428731918335e-01
2.290233671665191650e-01 1.323519349098205566e-01 2.445318102836608887e-01
2.473697066307067871e-01 1.263106763362884521e-01 2.556053400039672852e-01
2.436311990022659302e-01 1.290772408246994019e-01 2.530996799468994141e-01
2.254004478454589844e-01 8.123014122247695923e-02 -3.296355605125427246e-01
2.190838158130645752e-01 8.998215198516845703e-02 -3.176793456077575684e-01
2.427916824817657471e-01 8.965417742729187012e-02 -3.190312981605529785e-01
2.352833151817321777e-01 9.890576452016830444e-02 -3.055959939956665039e-01
-3.297348916530609131e-01 -2.094000577926635742e-01 -4.656891226768493652e-01
-3.389549553394317627e-01 -2.090640813112258911e-01 -4.502261281013488770e-01
-3.192297220230102539e-01 -2.064646929502487183e-01 -4.564199149608612061e-01
-3.288455009460449219e-01 -2.049727439880371094e-01 -4.410392642021179199e-01
6.884711384773254395e-01 -1.540284454822540283e-01 3.778430223464965820e-01
6.816301941871643066e-01 -1.467854082584381104e-01 3.854334950447082520e-01
7.022010087966918945e-01 -1.492408365011215210e-01 3.891395330429077148e-01
6.941107511520385742e-01 -1.451991200447082520e-01 4.023514986038208008e-01
2.980625629425048828e-01 -8.716048672795295715e-03 -2.959236502647399902e-01
2.954963147640228271e-01 9.616341441869735718e-03 -2.946145534515380859e-01
3.183614313602447510e-01 -1.399274915456771851e-04 -3.015603125095367432e-01
3.143404722213745117e-01 1.884089410305023193e-02 -2.996644079685211182e-01
4.628724455833435059e-01 1.119447499513626099e-01 4.299912974238395691e-02
4.406335353851318359e-01 1.165645271539688110e-01 5.586560070514678955e-02
4.835702776908874512e-01 1.093173176050186157e-01 5.498027801513671875e-02
4.629039168357849121e-01 1.135136783123016357e-01 7.079878449440002441e-02
-5.870398879051208496e-01 -1.656876504421234131e-01 -1.591478288173675537e-01
-5.772660374641418457e-01 -1.504287868738174438e-01 -1.597605645656585693e-01
-5.822288990020751953e-01 -1.569581925868988037e-01 -1.413487046957015991e-01
-5.747399926185607910e-01 -1.421173065900802612e-01 -1.421483159065246582e-01
8.121380582451820374e-03 1.714055091142654419e-01 9.307666122913360596e-02
7.747360970824956894e-03 1.871538907289505005e-01 9.722340106964111328e-02
6.557967513799667358e-03 1.753293722867965698e-01 1.098113432526588440e-01
3.304251469671726227e-03 1.889405101537704468e-01 1.170741468667984009e-01
2.241183072328567505e-01 9.364750981330871582e-02 2.706954479217529297e-01
2.156615108251571655e-01 9.641287475824356079e-02 2.692245841026306152e-01
2.433923631906509399e-01 8.184272795915603638e-02 2.815783321857452393e-01
2.379720807075500488e-01 8.640950173139572144e-02 2.756210267543792725e-01
7.407017946243286133e-01 -1.062531918287277222e-01 -2.381615936756134033e-01
7.320443987846374512e-01 -9.673950076103210449e-02 -2.269509732723236084e-01
7.467980384826660156e-01 -1.024350598454475403e-01 -2.199377864599227905e-01
7.372352480888366699e-01 -9.240799397230148315e-02 -2.085411697626113892e-01
-3.507325351238250732e-01 -1.912035495042800903e-01 -4.124367237091064453e-01
-3.618289828300476074e-01 -1.807856857776641846e-01 -3.988318145275115967e-01
-3.487478196620941162e-01 -1.774441003799438477e-01 -4.044135212898254395e-01
-3.602440655231475830e-01 -1.664303839206695557e-01 -3.907233774662017822e-01
-3.608209192752838135e-01 -1.873476207256317139e-01 -5.219643115997314453e-01
-3.751967847347259521e-01 -1.893618106842041016e-01 -5.056139826774597168e-01
-3.460443615913391113e-01 -1.880489438772201538e-01 -5.064663887023925781e-01
-3.588589727878570557e-01 -1.903999596834182739e-01 -4.898819923400878906e-01
3.441669046878814697e-01 1.456309109926223755e-01 -1.697846204042434692e-01
3.201447427272796631e-01 1.480188369750976562e-01 -1.645568460226058960e-01
3.599718511104583740e-01 1.409313976764678955e-01 -1.590722352266311646e-01
3.363195061683654785e-01 1.426905989646911621e-01 -1.535232216119766235e-01
-5.061458945274353027e-01 8.630543202161788940e-02 -1.955291181802749634e-01
-4.852941930294036865e-01 9.136275947093963623e-02 -2.056380957365036011e-01
-4.977703094482421875e-01 8.718902617692947388e-02 -1.729578077793121338e-01
-4.742123484611511230e-01 9.085854887962341309e-02 -1.811506003141403198e-01
-5.907958745956420898e-01 -1.460100561380386353e-01 -3.903108239173889160e-01
-5.659084320068359375e-01 -1.419451981782913208e-01 -3.980742990970611572e-01
-5.858644247055053711e-01 -1.447890698909759521e-01 -3.706373870372772217e-01
-5.625784397125244141e-01 -1.389149129390716553e-01 -3.774849474430084229e-01
-3.306956589221954346e-01 2.802261710166931152e-01 -3.573651239275932312e-02
-3.284642994403839111e-01 3.009512424468994141e-01 -3.821915015578269958e-02
-3.371356725692749023e-01 2.839111089706420898e-01 -1.141284219920635223e-02
-3.341324329376220703e-01 3.044674098491668701e-01 -1.173300202935934067e-02
3.146572411060333252e-01 1.004027873277664185e-01 -3.132968842983245850e-01
3.066299259662628174e-01 1.111538559198379517e-01 -2.992391586303710938e-01
3.273923993110656738e-01 1.067504733800888062e-01 -3.003121614456176758e-01
3.190627098083496094e-01 1.167820021510124207e-01 -2.863438129425048828e-01
3.049641847610473633e-01 8.802424371242523193e-02 5.707018077373504639e-02
2.964460849761962891e-01 9.239881485700607300e-02 7.588654756546020508e-02
3.148810863494873047e-01 9.115511178970336914e-02 8.087310940027236938e-02
3.073314130306243896e-01 9.508089721202850342e-02 9.847881644964218140e-02
2.319372594356536865e-01 -2.075854092836380005e-01 -6.180742383003234863e-01
2.424659878015518188e-01 -1.998505294322967529e-01 -6.175932884216308594e-01
2.440980225801467896e-01 -2.072605639696121216e-01 -6.076037883758544922e-01
2.585131525993347168e-01 -1.987040638923645020e-01 -6.094220876693725586e-01
-3.297677040100097656e-01 1.116653308272361755e-01 4.244492352008819580e-01
-3.201197385787963867e-01 1.241154372692108154e-01 4.183620810508728027e-01
-3.090870082378387451e-01 1.104921549558639526e-01 4.329226016998291016e-01
-2.969752550125122070e-01 1.222766637802124023e-01 4.264265894889831543e-01
3.633283078670501709e-01 1.225602254271507263e-01 2.564987540245056152e-01
3.585150837898254395e-01 1.271440684795379639e-01 2.526263892650604248e-01
3.829163312911987305e-01 1.157701015472412109e-01 2.683141827583312988e-01
3.811175525188446045e-01 1.206773594021797180e-01 2.625663876533508301e-01
4.922216832637786865e-01 1.225006729364395142e-01 -2.069285064935684204e-01
4.799862504005432129e-01 1.241063177585601807e-01 -1.973684132099151611e-01
5.077464580535888672e-01 1.185789778828620911e-01 -1.954866796731948853e-01
4.963150322437286377e-01 1.200886368751525879e-01 -1.860003620386123657e-01
8.317558467388153076e-02 8.701971173286437988e-02 2.622273564338684082e-01
7.591476291418075562e-02 8.778358250856399536e-02 2.820671796798706055e-01
9.655248373746871948e-02 8.818447589874267578e-02 2.820250689983367920e-01
9.289251267910003662e-02 8.894159644842147827e-02 2.950937747955322266e-01
-6.830099225044250488e-01 -2.074506133794784546e-01 -1.221080720424652100e-01
-6.943303346633911133e-01 -2.098121047019958496e-01 -9.892695397138595581e-02
-6.683405041694641113e-01 -2.062663733959197998e-01 -1.064274311065673828e-01
-6.787622570991516113e-01 -2.079389244318008423e-01 -8.309406042098999023e-02
6.761996150016784668e-01 2.818956598639488220e-02 -1.192113384604454041e-02
6.639437079429626465e-01 4.026393219828605652e-02 -7.663713768124580383e-04
6.794717907905578613e-01 2.850750647485256195e-02 6.078823935240507126e-03
6.668826937675476074e-01 4.149069637060165405e-02 1.660544238984584808e-02
8.325444161891937256e-02 4.873723909258842468e-02 4.456622898578643799e-01
7.704614847898483276e-02 6.457146257162094116e-02 4.432475566864013672e-01
1.009980216622352600e-01 4.097608104348182678e-02 4.434478282928466797e-01
9.156332165002822876e-02 5.744782462716102600e-02 4.436495006084442139e-01
1.126701459288597107e-01 1.195458993315696716e-01 -3.555974960327148438e-01
1.046741008758544922e-01 1.286997646093368530e-01 -3.444235622882843018e-01
1.361228972673416138e-01 1.120623126626014709e-01 -3.449610471725463867e-01
1.296285837888717651e-01 1.218095272779464722e-01 -3.342546820640563965e-01
-2.060184925794601440e-01 8.191286772489547729e-02 -2.868218421936035156e-01
-2.195385843515396118e-01 8.253264427185058594e-02 -2.657554745674133301e-01
-1.888649910688400269e-01 8.384575694799423218e-02 -2.702449560165405273e-01
-2.035366445779800415e-01 8.427779376506805420e-02 -2.489802092313766479e-01
-2.937450706958770752e-01 2.839406430721282959e-01 -1.061248630285263062e-01
-2.951917350292205811e-01 3.019415736198425293e-01 -1.068089380860328674e-01
-3.056706190109252930e-01 2.894192934036254883e-01 -8.736175298690795898e-02
-3.064393103122711182e-01 3.083527684211730957e-01 -8.800382912158966064e-02
-3.518435359001159668e-01 -1.501408070325851440e-01 6.461195945739746094e-01
-3.500889539718627930e-01 -1.366050690412521362e-01 6.432119607925415039e-01
-3.347730636596679688e-01 -1.487980782985687256e-01 6.564695835113525391e-01
-3.337870836257934570e-01 -1.353226751089096069e-01 6.533437371253967285e-01
7.890534400939941406e-01 -1.951877474784851074e-01 5.453123450279235840e-01
7.918155789375305176e-01 -1.836197078227996826e-01 5.432243347167968750e-01
8.098079562187194824e-01 -1.895884275436401367e-01 5.470416545867919922e-01
8.064067363739013672e-01 -1.782920658588409424e-01 5.474281907081604004e-01
-1.999793797731399536e-01 8.146671950817108154e-02 -4.399411082267761230e-01
-2.085719406604766846e-01 8.951385319232940674e-02 -4.269497096538543701e-01
-1.836157292127609253e-01 8.946983516216278076e-02 -4.324215650558471680e-01
-1.935463696718215942e-01 9.439705312252044678e-02 -4.197649955749511719e-01
-3.047064244747161865e-01 -1.799205783754587173e-03 4.312595427036285400e-01
-3.029816150665283203e-01 1.824512332677841187e-02 4.296913146972656250e-01
-2.826367616653442383e-01 3.369651734828948975e-03 4.386917054653167725e-01
-2.819933593273162842e-01 2.467020414769649506e-02 4.367530941963195801e-01
-7.119434475898742676e-01 -1.447193026542663574e-01 6.583066284656524658e-02
-6.961642503738403320e-01 -1.401139199733734131e-01 6.964252889156341553e-02
-7.070612311363220215e-01 -1.432830542325973511e-01 8.355559408664703369e-02
-6.875432133674621582e-01 -1.380133330821990967e-01 8.407311886548995972e-02
-5.354712009429931641e-01 9.554550051689147949e-02 -1.362474262714385986e-02
-5.261600613594055176e-01 9.849044680595397949e-02 -6.132415495812892914e-03
-5.138315558433532715e-01 9.458355605602264404e-02 5.822147242724895477e-03
-5.194156169891357422e-01 9.711584448814392090e-02 2.240263856947422028e-02
-5.388396978378295898e-01 -4.517650604248046875e-02 2.948250174522399902e-01
-5.370832085609436035e-01 -2.948971837759017944e-02 2.897337079048156738e-01
-5.237384438514709473e-01 -3.641977533698081970e-02 3.119624257087707520e-01
-5.226688981056213379e-01 -1.945303939282894135e-02 3.066809177398681641e-01
-4.870022237300872803e-01 -7.333756983280181885e-02 -3.556331098079681396e-01
-4.798878133296966553e-01 -5.509626865386962891e-02 -3.585794866085052490e-01
-4.953569173812866211e-01 -5.878908932209014893e-02 -3.396578431129455566e-01
-4.877364635467529297e-01 -3.977061808109283447e-02 -3.429662287235260010e-01
-8.304250240325927734e-02 2.379422783851623535e-01 -1.801164001226425171e-01
-7.675471156835556030e-02 2.679847478866577148e-01 -1.750642061233520508e-01
-6.211071833968162537e-02 2.412704378366470337e-01 -1.646576523780822754e-01
-5.700521916151046753e-02 2.709859013557434082e-01 -1.590742766857147217e-01
-5.891712903976440430e-01 -2.077802121639251709e-01 -5.119456648826599121e-01
-6.128671765327453613e-01 -1.989986151456832886e-01 -4.920950233936309814e-01
-5.733001232147216797e-01 -2.172708064317703247e-01 -4.981761872768402100e-01
-5.965769886970520020e-01 -2.089506983757019043e-01 -4.781430959701538086e-01
-4.484061300754547119e-01 -1.486150175333023071e-01 -5.132573843002319336e-01
-4.641428291797637939e-01 -1.458956152200698853e-01 -4.945850968360900879e-01
-4.297794699668884277e-01 -1.452600657939910889e-01 -5.009183883666992188e-01
-4.464695453643798828e-01 -1.429713666439056396e-01 -4.813366532325744629e-01
-5.988947153091430664e-01 1.108470857143402100e-01 1.029943078756332397e-01
-5.840290188789367676e-01 1.280559450387954712e-01 1.021253764629364014e-01
-5.884386897087097168e-01 1.159165799617767334e-01 1.210870668292045593e-01
-5.730866789817810059e-01 1.342620253562927246e-01 1.195386871695518494e-01
-2.459385693073272705e-01 2.144718468189239502e-01 -2.033283412456512451e-01
-2.556719183921813965e-01 2.343098372220993042e-01 -1.945530325174331665e-01
-2.349177002906799316e-01 2.323508858680725098e-01 -2.018474191427230835e-01
-2.492666095495223999e-01 2.509225904941558838e-01 -1.910651624202728271e-01
-4.578973650932312012e-01 1.128432080149650574e-01 8.103337883949279785e-02
-4.438565075397491455e-01 1.130345016717910767e-01 8.217390626668930054e-02
-4.453862905502319336e-01 1.119844838976860046e-01 1.028155237436294556e-01
-4.239316880702972412e-01 1.110387220978736877e-01 9.834945201873779297e-02
7.078344225883483887e-01 -7.727880775928497314e-02 1.183304935693740845e-01
6.972247362136840820e-01 -6.065279617905616760e-02 1.230950951576232910e-01
7.068510055541992188e-01 -8.016205579042434692e-02 1.438170373439788818e-01
6.959189176559448242e-01 -6.246164068579673767e-02 1.464667320251464844e-01
-3.821363151073455811e-01 1.135679259896278381e-01 1.510330438613891602e-01
-3.645740747451782227e-01 1.121873632073402405e-01 1.534927040338516235e-01
-3.652112782001495361e-01 1.122667416930198669e-01 1.701177358627319336e-01
-3.516492843627929688e-01 1.113606691360473633e-01 1.751067489385604858e-01
1.218823343515396118e-01 3.020816743373870850e-01 1.801413744688034058e-01
1.054254546761512756e-01 3.136515319347381592e-01 1.830489486455917358e-01
1.369275599718093872e-01 2.930595874786376953e-01 1.832367777824401855e-01
1.211537122726440430e-01 3.077489435672760010e-01 1.820823848247528076e-01
-1.797486245632171631e-01 -8.150280453264713287e-03 4.948873519897460938e-01
-1.794248223304748535e-01 1.677368581295013428e-02 4.930199980735778809e-01
-1.574569195508956909e-01 -4.683371633291244507e-03 4.948463737964630127e-01
-1.604933142662048340e-01 2.001092955470085144e-02 4.937921464443206787e-01
-6.490394473075866699e-01 -1.458664685487747192e-01 4.473564624786376953e-01
-6.303957104682922363e-01 -1.390106379985809326e-01 4.388860762119293213e-01
-6.311568617820739746e-01 -1.420917361974716187e-01 4.585994184017181396e-01
-6.129105687141418457e-01 -1.321903914213180542e-01 4.482109248638153076e-01
-4.644629955291748047e-01 -1.505711376667022705e-01 5.191860795021057129e-01
-4.372463524341583252e-01 -1.410616636276245117e-01 5.143483281135559082e-01
-4.430801570415496826e-01 -1.448047906160354614e-01 5.301405787467956543e-01
-4.215814173221588135e-01 -1.352988034486770630e-01 5.298210382461547852e-01
-2.650572657585144043e-01 2.998169064521789551e-01 1.460989266633987427e-01
-2.552318274974822998e-01 3.210857808589935303e-01 1.445302218198776245e-01
-2.497074753046035767e-01 3.066132664680480957e-01 1.602873355150222778e-01
-2.403313219547271729e-01 3.261817097663879395e-01 1.587051302194595337e-01
-6.730099320411682129e-01 -2.038194686174392700e-01 -4.218257665634155273e-01
-6.952642798423767090e-01 -1.930995732545852661e-01 -4.074883759021759033e-01
-6.799829006195068359e-01 -2.023614943027496338e-01 -3.951419293880462646e-01
-6.958145499229431152e-01 -1.928423494100570679e-01 -3.831579089164733887e-01
-1.590601354837417603e-01 2.660159766674041748e-01 2.287524789571762085e-01
-1.577109843492507935e-01 2.836163640022277832e-01 2.249260991811752319e-01
-1.394086182117462158e-01 2.662751674652099609e-01 2.280961871147155762e-01
-1.402272284030914307e-01 2.827646732330322266e-01 2.259098440408706665e-01
1.863119006156921387e-01 -2.028792053461074829e-01 -6.390818357467651367e-01
1.802945435047149658e-01 -1.969242244958877563e-01 -6.261770725250244141e-01
2.009576857089996338e-01 -2.036650031805038452e-01 -6.260308027267456055e-01
1.994476616382598877e-01 -1.983326822519302368e-01 -6.144544482231140137e-01
-3.607845306396484375e-01 8.201199769973754883e-02 2.540583536028862000e-02
-3.439723849296569824e-01 8.966713398694992065e-02 2.219441533088684082e-02
-3.524267375469207764e-01 8.638405799865722656e-02 4.956936091184616089e-02
-3.362137973308563232e-01 9.600901603698730469e-02 4.456999897956848145e-02
-2.169518023729324341e-01 -1.825590804219245911e-02 4.606111645698547363e-01
-2.153738141059875488e-01 8.878155611455440521e-03 4.576453864574432373e-01
-1.952976286411285400e-01 -9.014891460537910461e-03 4.620980322360992432e-01
-1.935328543186187744e-01 1.616050116717815399e-02 4.594151377677917480e-01
6.315182447433471680e-01 -9.924050420522689819e-02 -5.109710693359375000e-01
6.109293699264526367e-01 -8.701507747173309326e-02 -5.025213956832885742e-01
6.482645273208618164e-01 -1.066033691167831421e-01 -4.878018796443939209e-01
6.264113187789916992e-01 -9.378591924905776978e-02 -4.796108603477478027e-01
7.773156762123107910e-01 -1.407649219036102295e-01 -1.289059966802597046e-01
7.672777771949768066e-01 -1.294374018907546997e-01 -1.216492950916290283e-01
7.819631695747375488e-01 -1.422875821590423584e-01 -1.133857071399688721e-01
7.713912129402160645e-01 -1.301470547914505005e-01 -1.060571745038032532e-01
4.199005663394927979e-01 -8.972451090812683105e-02 3.400703370571136475e-01
4.245132803916931152e-01 -6.965516507625579834e-02 3.342272043228149414e-01
4.294308423995971680e-01 -8.616851270198822021e-02 3.554424047470092773e-01
4.339043200016021729e-01 -6.629092991352081299e-02 3.494831919670104980e-01
-3.750842511653900146e-01 4.031183570623397827e-02 -3.938212692737579346e-01
-3.795430958271026611e-01 5.235116556286811829e-02 -3.869879543781280518e-01
-3.573208153247833252e-01 4.748884588479995728e-02 -3.994568586349487305e-01
-3.633455038070678711e-01 5.909899622201919556e-02 -3.927101194858551025e-01
5.569187998771667480e-01 -8.268618583679199219e-02 2.985959947109222412e-01
5.608741044998168945e-01 -5.816663056612014771e-02 2.963428795337677002e-01
5.776982903480529785e-01 -7.909408956766128540e-02 2.988910675048828125e-01
5.799334049224853516e-01 -5.616287887096405029e-02 2.965869009494781494e-01
2.632998228073120117e-01 -1.435941308736801147e-01 -3.708968758583068848e-01
2.934416830539703369e-01 -1.351649165153503418e-01 -3.772674202919006348e-01
2.816318571567535400e-01 -1.384300738573074341e-01 -3.672704100608825684e-01
3.049633800983428955e-01 -1.289063692092895508e-01 -3.690854012966156006e-01
2.282557785511016846e-01 -2.860262617468833923e-02 3.447653055191040039e-01
2.320339977741241455e-01 -8.033328689634799957e-03 3.444634079933166504e-01
2.460477203130722046e-01 -2.138098329305648804e-02 3.422576189041137695e-01
2.492718398571014404e-01 -3.945995122194290161e-04 3.419551551342010498e-01
5.284069180488586426e-01 -1.236412078142166138e-01 5.011387467384338379e-01
5.238640308380126953e-01 -1.059832423925399780e-01 5.057748556137084961e-01
5.482241511344909668e-01 -1.215089112520217896e-01 5.038869976997375488e-01
5.401508808135986328e-01 -1.061090081930160522e-01 5.103894472122192383e-01
5.939171314239501953e-01 -6.293762475252151489e-02 -6.205364465713500977e-01
5.794245600700378418e-01 -4.558350145816802979e-02 -6.128883361816406250e-01
6.117372512817382812e-01 -7.174684852361679077e-02 -6.100417375564575195e-01
5.972406268119812012e-01 -5.256865173578262329e-02 -6.008753180503845215e-01
-3.896257281303405762e-01 1.159718558192253113e-01 -2.284656167030334473e-01
-3.817740976810455322e-01 1.164931952953338623e-01 -2.222478687763214111e-01
