1.661488860845565796e-01 9.028184413909912109e-01 -1.354924291372299194e-01
1.681192517280578613e-01 9.117928743362426758e-01 -1.346517503261566162e-01
7.706975191831588745e-02 -9.003973007202148438e-02 3.600114583969116211e-01
7.359515130519866943e-02 -7.898353785276412964e-02 3.629269897937774658e-01
9.103811532258987427e-02 -8.987025916576385498e-02 3.556653261184692383e-01
8.767145872116088867e-02 -7.851722836494445801e-02 3.584038615226745605e-01
-3.430329859256744385e-01 2.834501676261425018e-03 7.980380952358245850e-02
-3.551670610904693604e-01 1.043562684208154678e-02 8.790936321020126343e-02
-3.377117514610290527e-01 -1.714915153570473194e-03 9.381130337715148926e-02
-3.497567474842071533e-01 5.180701613426208496e-03 1.026305258274078369e-01
-4.458605945110321045e-01 5.623985528945922852e-01 -2.607737854123115540e-02
-4.453201293945312500e-01 5.752853155136108398e-01 -2.372395806014537811e-02
-4.380818009376525879e-01 5.673838853836059570e-01 -2.250756695866584778e-02
-4.395636022090911865e-01 5.813115835189819336e-01 -1.880660280585289001e-02
2.923392653465270996e-01 -9.167927503585815430e-02 3.366223275661468506e-01
2.912428975105285645e-01 -8.413832634687423706e-02 3.432398736476898193e-01
3.054130971431732178e-01 -8.734948188066482544e-02 3.390867412090301514e-01
3.043710291385650635e-01 -7.943496108055114746e-02 3.455021381378173828e-01
-1.703635901212692261e-01 1.996819674968719482e-02 2.409234046936035156e-01
-1.637855321168899536e-01 2.477864176034927368e-02 2.273990660905838013e-01
-1.609649956226348877e-01 1.683547161519527435e-02 2.505337297916412354e-01
-1.541281789541244507e-01 2.143016457557678223e-02 2.365192621946334839e-01
4.559841156005859375e-01 -3.199422955513000488e-01 1.368602067232131958e-01
4.510947763919830322e-01 -3.010621368885040283e-01 1.493690907955169678e-01
4.629277884960174561e-01 -3.087206780910491943e-01 1.413912177085876465e-01
4.593389332294464111e-01 -2.898250520229339600e-01 1.528383791446685791e-01
1.716205924749374390e-01 6.107551231980323792e-02 -3.473108410835266113e-01
1.709429174661636353e-01 7.416202127933502197e-02 -3.422871232032775879e-01
1.784468293190002441e-01 6.522066891193389893e-02 -3.432688117027282715e-01
1.768161505460739136e-01 7.828365266323089600e-02 -3.369338512420654297e-01
4.643865525722503662e-01 -3.920484781265258789e-01 1.123720109462738037e-01
4.620912075042724609e-01 -3.754894733428955078e-01 1.125674694776535034e-01
4.750630855560302734e-01 -3.913508355617523193e-01 1.216969639062881470e-01
4.725769460201263428e-01 -3.748975396156311035e-01 1.219829171895980835e-01
-3.025776743888854980e-01 -3.517796695232391357e-01 -1.067700088024139404e-01
-3.007872104644775391e-01 -3.430773317813873291e-01 -1.095590591430664062e-01
-2.928909361362457275e-01 -3.529101312160491943e-01 -8.980819582939147949e-02
-2.881410419940948486e-01 -3.447948098182678223e-01 -9.297004342079162598e-02
-4.495707750320434570e-01 6.590861082077026367e-01 -3.070409968495368958e-02
-4.559255540370941162e-01 6.741974353790283203e-01 -2.383209206163883209e-02
-4.571904540061950684e-01 6.688551902770996094e-01 -2.222568541765213013e-02
-4.606243669986724854e-01 6.835479140281677246e-01 -1.619663089513778687e-02
2.488730996847152710e-01 8.577354550361633301e-01 -1.326664239168167114e-01
2.480356693267822266e-01 8.678658604621887207e-01 -1.285014003515243530e-01
2.555823922157287598e-01 8.603544235229492188e-01 -1.279195994138717651e-01
2.547449469566345215e-01 8.704848289489746094e-01 -1.237545683979988098e-01
4.382267296314239502e-01 -2.009769678115844727e-01 1.825686395168304443e-01
4.439637064933776855e-01 -1.871349960565567017e-01 1.847597062587738037e-01
4.407101869583129883e-01 -1.926013380289077759e-01 1.868868470191955566e-01
4.458104372024536133e-01 -1.793480813503265381e-01 1.894753575325012207e-01
-2.071629911661148071e-01 8.789000511169433594e-01 -5.608341097831726074e-02
-1.940044313669204712e-01 8.874841928482055664e-01 -6.654912233352661133e-02
-1.922249346971511841e-01 8.813276290893554688e-01 -5.376569926738739014e-02
-1.802319288253784180e-01 8.900677561759948730e-01 -6.402069330215454102e-02
1.738017052412033081e-01 -3.293745219707489014e-02 4.049957394599914551e-01
1.902102082967758179e-01 -2.940214425325393677e-02 3.982433080673217773e-01
1.917477250099182129e-01 -3.519730269908905029e-02 4.092518389225006104e-01
2.068998962640762329e-01 -3.039383515715599060e-02 4.019941091537475586e-01
-9.322705864906311035e-02 -8.412818610668182373e-02 4.471734464168548584e-01
-8.599063754081726074e-02 -7.694285362958908081e-02 4.424371719360351562e-01
-8.167503029108047485e-02 -8.855841308832168579e-02 4.453024268150329590e-01
-7.570206373929977417e-02 -8.043599128723144531e-02 4.422150850296020508e-01
-2.642995417118072510e-01 -6.837936490774154663e-02 2.986715435981750488e-01
-2.528828084468841553e-01 -6.023844704031944275e-02 2.966043651103973389e-01
-2.546497881412506104e-01 -6.662938743829727173e-02 3.076698482036590576e-01
-2.433935254812240601e-01 -5.856741219758987427e-02 3.054999411106109619e-01
-2.906617522239685059e-01 -7.901573181152343750e-01 2.673800885677337646e-01
-2.941708862781524658e-01 -7.715867161750793457e-01 2.721782624721527100e-01
-2.902888953685760498e-01 -7.844227552413940430e-01 2.782252430915832520e-01
-2.938870489597320557e-01 -7.658774852752685547e-01 2.830265462398529053e-01
2.893680930137634277e-01 7.193832397460937500e-01 -1.959841549396514893e-01
2.909010648727416992e-01 7.345910072326660156e-01 -1.953800916671752930e-01
2.983928024768829346e-01 7.176764607429504395e-01 -1.842114180326461792e-01
2.996311187744140625e-01 7.340854406356811523e-01 -1.841052323579788208e-01
-3.049954175949096680e-01 3.648702288046479225e-03 2.869763970375061035e-01
-2.885563969612121582e-01 9.188122116029262543e-03 2.827374041080474854e-01
-2.927897572517395020e-01 5.445013288408517838e-03 2.984273433685302734e-01
-2.786552011966705322e-01 1.027291268110275269e-02 2.932141721248626709e-01
-1.047135740518569946e-01 -1.968921571969985962e-01 -3.371435999870300293e-01
-1.076235994696617126e-01 -1.949092298746109009e-01 -3.328055143356323242e-01
-8.809843659400939941e-02 -1.943591386079788208e-01 -3.396397233009338379e-01
-9.350018948316574097e-02 -1.926652193069458008e-01 -3.323268592357635498e-01
-1.032912880182266235e-01 -7.455576956272125244e-02 4.812948703765869141e-01
-9.546173363924026489e-02 -6.789517402648925781e-02 4.740500450134277344e-01
-9.308694303035736084e-02 -7.881163805723190308e-02 4.834015369415283203e-01
-8.535140007734298706e-02 -7.181919366121292114e-02 4.769354760646820068e-01
-2.709928750991821289e-01 -8.803645372390747070e-01 1.964714378118515015e-01
-2.678526043891906738e-01 -8.675174713134765625e-01 1.975431889295578003e-01
-2.605187892913818359e-01 -8.797706961631774902e-01 2.039370685815811157e-01
-2.581654787063598633e-01 -8.672602772712707520e-01 2.046697288751602173e-01
2.420612573623657227e-01 5.852367877960205078e-01 -1.616844385862350464e-01
2.415828704833984375e-01 6.009927392005920410e-01 -1.599216461181640625e-01
2.431935369968414307e-01 5.932139158248901367e-01 -1.515056192874908447e-01
2.419587522745132446e-01 6.080279946327209473e-01 -1.498900651931762695e-01
2.982642501592636108e-02 7.069163322448730469e-01 -1.475997418165206909e-01
2.932371757924556732e-02 7.213311195373535156e-01 -1.437842249870300293e-01
4.714495688676834106e-02 7.084327340126037598e-01 -1.382519900798797607e-01
5.442778393626213074e-02 7.215859889984130859e-01 -1.401445120573043823e-01
-2.430520653724670410e-01 -2.343033850193023682e-01 4.423503577709197998e-01
-2.446184009313583374e-01 -2.198409736156463623e-01 4.510456919670104980e-01
-2.287305891513824463e-01 -2.292370051145553589e-01 4.402296841144561768e-01
-2.298867106437683105e-01 -2.141908407211303711e-01 4.486109912395477295e-01
1.643458455801010132e-01 -4.480104446411132812e-01 -5.422809123992919922e-01
1.607278734445571899e-01 -4.349109530448913574e-01 -5.385746955871582031e-01
1.738841086626052856e-01 -4.489723443984985352e-01 -5.353067517280578613e-01
1.700349301099777222e-01 -4.356359243392944336e-01 -5.313779115676879883e-01
2.931780517101287842e-01 5.046041607856750488e-01 -2.128819376230239868e-01
2.959961295127868652e-01 5.207940340042114258e-01 -2.113914191722869873e-01
2.990139722824096680e-01 5.064713954925537109e-01 -2.017373442649841309e-01
3.016448915004730225e-01 5.223373174667358398e-01 -2.005484104156494141e-01
-2.937882840633392334e-01 -6.332357227802276611e-02 -2.316850721836090088e-01
-2.925569415092468262e-01 -5.171412229537963867e-02 -2.302765697240829468e-01
-2.930306792259216309e-01 -6.016153097152709961e-02 -2.209877222776412964e-01
-2.921871840953826904e-01 -4.880001023411750793e-02 -2.191879898309707642e-01
1.270769089460372925e-01 -4.072016477584838867e-01 2.552355527877807617e-01
1.348044127225875854e-01 -4.023717641830444336e-01 2.537915706634521484e-01
1.428248733282089233e-01 -4.086510539054870605e-01 2.619331777095794678e-01
1.565958261489868164e-01 -4.060273766517639160e-01 2.573679089546203613e-01
-2.566454410552978516e-01 1.148579046130180359e-01 -4.703213647007942200e-02
-2.488496452569961548e-01 1.169152706861495972e-01 -5.390113592147827148e-02
-2.431898117065429688e-01 1.105500310659408569e-01 -3.954955190420150757e-02
-2.347549498081207275e-01 1.124476566910743713e-01 -4.613540694117546082e-02
-1.466256231069564819e-01 1.164995692670345306e-02 2.710638046264648438e-01
-1.398831605911254883e-01 1.479556690901517868e-02 2.589312493801116943e-01
-1.346987485885620117e-01 8.322619833052158356e-03 2.790157496929168701e-01
-1.278558820486068726e-01 1.134588383138179779e-02 2.674515843391418457e-01
-2.962188720703125000e-01 -3.377574086189270020e-01 -1.967699378728866577e-01
-3.092305660247802734e-01 -3.262996673583984375e-01 -1.952301561832427979e-01
-2.896573841571807861e-01 -3.422719240188598633e-01 -1.816470772027969360e-01
-3.033279180526733398e-01 -3.309420347213745117e-01 -1.800575703382492065e-01
-2.858829498291015625e-01 -4.660487174987792969e-01 1.100189983844757080e-01
-2.962424457073211670e-01 -4.570545256137847900e-01 1.176152452826499939e-01
-2.815679907798767090e-01 -4.742294847965240479e-01 1.244747042655944824e-01
-2.916629016399383545e-01 -4.653468728065490723e-01 1.320171654224395752e-01
-4.395307898521423340e-01 6.068398952484130859e-01 -4.034205805510282516e-03
-4.465741813182830811e-01 6.213113665580749512e-01 6.185525562614202499e-03
-4.432713091373443604e-01 6.122889518737792969e-01 8.347060531377792358e-03
-4.497625827789306641e-01 6.276805400848388672e-01 1.851718686521053314e-02
-3.232267871499061584e-02 1.440001875162124634e-01 -1.252715736627578735e-01
-2.195521071553230286e-02 1.473485678434371948e-01 -1.317610293626785278e-01
-2.137208729982376099e-02 1.436584293842315674e-01 -1.166183948516845703e-01
-1.170325651764869690e-02 1.473261564970016479e-01 -1.228366568684577942e-01
4.530027508735656738e-01 -4.496717751026153564e-01 7.691539824008941650e-02
4.525409936904907227e-01 -4.342179000377655029e-01 7.621329277753829956e-02
4.587201774120330811e-01 -4.460050463676452637e-01 8.683974295854568481e-02
4.580580890178680420e-01 -4.301528036594390869e-01 8.611942827701568604e-02
3.431493043899536133e-01 -4.910758882761001587e-02 3.480271100997924805e-01
3.482402265071868896e-01 -4.006906598806381226e-02 3.461203575134277344e-01
3.590485155582427979e-01 -4.962699115276336670e-02 3.468491137027740479e-01
3.587423264980316162e-01 -3.830502182245254517e-02 3.472321629524230957e-01
-1.615310758352279663e-01 8.678139448165893555e-01 -5.999997258186340332e-02
-1.495855599641799927e-01 8.741292953491210938e-01 -6.860921531915664673e-02
-1.441428214311599731e-01 8.671004772186279297e-01 -5.855349451303482056e-02
-1.327834427356719971e-01 8.734993934631347656e-01 -6.662902235984802246e-02
2.542205154895782471e-02 -8.984789997339248657e-02 3.687260448932647705e-01
2.169019542634487152e-02 -8.219618350267410278e-02 3.719571232795715332e-01
3.922761976718902588e-02 -9.521377831697463989e-02 3.699547946453094482e-01
3.364675119519233704e-02 -8.684388548135757446e-02 3.739291727542877197e-01
2.049034684896469116e-01 -3.546788394451141357e-01 -4.807263612747192383e-01
2.103670090436935425e-01 -3.430305719375610352e-01 -4.812543094158172607e-01
2.050996273756027222e-01 -3.498917222023010254e-01 -4.732652604579925537e-01
2.100545316934585571e-01 -3.381581306457519531e-01 -4.736379086971282959e-01
1.605791747570037842e-01 -1.158199235796928406e-01 -4.269877970218658447e-01
1.586183458566665649e-01 -9.943318367004394531e-02 -4.237585961818695068e-01
1.696704775094985962e-01 -1.159908249974250793e-01 -4.170452058315277100e-01
1.681974828243255615e-01 -9.915363788604736328e-02 -4.147797822952270508e-01
2.819367349147796631e-01 1.712385863065719604e-01 -1.520234495401382446e-01
2.939307391643524170e-01 1.770671606063842773e-01 -1.615807116031646729e-01
2.952082753181457520e-01 1.732519268989562988e-01 -1.430902630090713501e-01
3.055404424667358398e-01 1.789336055517196655e-01 -1.518606990575790405e-01
-2.867836058139801025e-01 -2.303323522210121155e-02 3.560892939567565918e-01
-2.753062248229980469e-01 -1.878593489527702332e-02 3.495569229125976562e-01
-2.756313085556030273e-01 -2.657275646924972534e-02 3.660105168819427490e-01
-2.674145400524139404e-01 -2.177387475967407227e-02 3.587041199207305908e-01
-3.991878628730773926e-01 2.409736514091491699e-01 -1.496576666831970215e-01
-3.931545615196228027e-01 2.599673867225646973e-01 -1.460583508014678955e-01
-4.021723270416259766e-01 2.514409124851226807e-01 -1.382439881563186646e-01
-3.962590396404266357e-01 2.706143856048583984e-01 -1.351192891597747803e-01
-3.122886717319488525e-01 -5.811151489615440369e-02 4.287930727005004883e-01
-3.076066374778747559e-01 -4.349012672901153564e-02 4.258511364459991455e-01
-3.041696846485137939e-01 -5.630138516426086426e-02 4.396311342716217041e-01
-3.000314533710479736e-01 -4.124334827065467834e-02 4.368420839309692383e-01
-3.679921850562095642e-02 4.400909245014190674e-01 -1.839725077152252197e-01
-4.555734246969223022e-02 4.439903497695922852e-01 -1.768937259912490845e-01
-1.614652201533317566e-02 4.356278479099273682e-01 -1.804744303226470947e-01
-2.814328856766223907e-02 4.401366114616394043e-01 -1.718171834945678711e-01
1.409854590892791748e-01 -5.504933372139930725e-02 3.575647175312042236e-01
1.366025209426879883e-01 -4.125618189573287964e-02 3.570898175239562988e-01
1.544572561979293823e-01 -5.313417315483093262e-02 3.542463183403015137e-01
1.502517163753509521e-01 -3.891514241695404053e-02 3.535884916782379150e-01
-4.041577875614166260e-01 6.639264225959777832e-01 2.866770885884761810e-02
-4.082994759082794189e-01 6.775112152099609375e-01 3.005709499120712280e-02
-4.061074852943420410e-01 6.630665659904479980e-01 3.733384981751441956e-02
-4.106386005878448486e-01 6.778881549835205078e-01 3.871394321322441101e-02
2.126183062791824341e-01 7.865978032350540161e-02 6.587395071983337402e-02
2.240469306707382202e-01 8.207562565803527832e-02 5.747914314270019531e-02
2.237434685230255127e-01 7.960107922554016113e-02 7.355464994907379150e-02
2.350966036319732666e-01 8.245733380317687988e-02 6.494610011577606201e-02
-3.159941434860229492e-01 -8.594106435775756836e-01 2.136609256267547607e-01
-3.112746477127075195e-01 -8.445410132408142090e-01 2.163555175065994263e-01
-3.033014237880706787e-01 -8.542458415031433105e-01 2.141561657190322876e-01
-2.979701161384582520e-01 -8.394051194190979004e-01 2.168628871440887451e-01
1.675622016191482544e-01 6.946267485618591309e-01 -1.855599582195281982e-01
1.611792445182800293e-01 6.961407661437988281e-01 -1.764023005962371826e-01
1.811262369155883789e-01 6.961833834648132324e-01 -1.806484907865524292e-01
1.737676262855529785e-01 6.981177330017089844e-01 -1.711767762899398804e-01
-4.068874716758728027e-01 5.583735704421997070e-01 -7.256451994180679321e-02
-4.062730073928833008e-01 5.675268173217773438e-01 -7.008276879787445068e-02
-3.995414972305297852e-01 5.637578368186950684e-01 -7.300598174333572388e-02
-3.988667428493499756e-01 5.728480815887451172e-01 -7.075801491737365723e-02
1.338793486356735229e-01 -4.976086691021919250e-02 3.568701744079589844e-01
1.295732408761978149e-01 -3.565539047122001648e-02 3.560130000114440918e-01
1.458013802766799927e-01 -4.772076755762100220e-02 3.560085594654083252e-01
1.422225832939147949e-01 -3.413245081901550293e-02 3.544136881828308105e-01
-3.245071172714233398e-01 -3.955279290676116943e-01 9.316461160778999329e-03
-3.165766596794128418e-01 -3.839652836322784424e-01 4.242336377501487732e-03
-3.190812468528747559e-01 -3.970082998275756836e-01 2.691698446869850159e-02
-3.100071251392364502e-01 -3.857249319553375244e-01 2.219598181545734406e-02
-3.185136616230010986e-01 6.672145128250122070e-01 -7.848702371120452881e-02
-3.283233046531677246e-01 6.736389994621276855e-01 -6.372956931591033936e-02
-3.041746616363525391e-01 6.787106394767761230e-01 -7.189974188804626465e-02
-3.137397468090057373e-01 6.848509907722473145e-01 -5.774136260151863098e-02
-3.665817379951477051e-01 4.671726822853088379e-01 -1.001615598797798157e-01
-3.704105317592620850e-01 4.818233847618103027e-01 -9.679590910673141479e-02
-3.572236597537994385e-01 4.684826135635375977e-01 -9.296178817749023438e-02
-3.586696982383728027e-01 4.824168384075164795e-01 -9.006267786026000977e-02
-2.386873662471771240e-01 4.583716392517089844e-03 2.722457945346832275e-01
-2.307031899690628052e-01 9.403734467923641205e-03 2.666575014591217041e-01
-2.273425459861755371e-01 3.241757396608591080e-03 2.824802994728088379e-01
-2.188407778739929199e-01 7.867722772061824799e-03 2.770879566669464111e-01
3.061491250991821289e-01 6.271867752075195312e-01 -1.863603442907333374e-01
3.077534437179565430e-01 6.430374383926391602e-01 -1.874899417161941528e-01
3.124450147151947021e-01 6.332788467407226562e-01 -1.768578886985778809e-01
3.137671947479248047e-01 6.494233012199401855e-01 -1.777905225753784180e-01
1.905761361122131348e-01 -1.200068145990371704e-01 -3.645656108856201172e-01
1.894110441207885742e-01 -1.079817414283752441e-01 -3.615137338638305664e-01
2.026174366474151611e-01 -1.184274405241012573e-01 -3.605125844478607178e-01
2.019492089748382568e-01 -1.061081960797309875e-01 -3.571518659591674805e-01
-3.262888789176940918e-01 -2.494508214294910431e-02 1.624162942171096802e-01
-3.375425338745117188e-01 -2.111426554620265961e-02 1.706874370574951172e-01
-3.151211440563201904e-01 -3.096135705709457397e-02 1.744562536478042603e-01
-3.272081017494201660e-01 -2.804287336766719818e-02 1.825736016035079956e-01
-4.449497163295745850e-01 6.236795783042907715e-01 -7.976810447871685028e-04
-4.513296186923980713e-01 6.384889483451843262e-01 9.110659360885620117e-03
-4.470466971397399902e-01 6.266368627548217773e-01 1.108010020107030869e-02
-4.528972506523132324e-01 6.408845186233520508e-01 2.001371234655380249e-02
4.426533281803131104e-01 -5.271939560770988464e-02 2.317025214433670044e-01
4.493082165718078613e-01 -3.948387503623962402e-02 2.287744879722595215e-01
4.464569389820098877e-01 -4.919515550136566162e-02 2.407241165637969971e-01
4.530566036701202393e-01 -3.580740839242935181e-02 2.374922186136245728e-01
1.418009698390960693e-01 8.677294850349426270e-01 -1.282557547092437744e-01
1.427428573369979858e-01 8.719429373741149902e-01 -1.224341318011283875e-01
1.547624319791793823e-01 8.707106113433837891e-01 -1.248622462153434753e-01
1.568083763122558594e-01 8.756096363067626953e-01 -1.201973184943199158e-01
4.855534434318542480e-01 -2.304721474647521973e-01 1.934399455785751343e-01
4.866659045219421387e-01 -2.166064977645874023e-01 1.949643939733505249e-01
4.890092015266418457e-01 -2.261623889207839966e-01 2.058497965335845947e-01
4.905323982238769531e-01 -2.127218842506408691e-01 2.074099779129028320e-01
4.145448207855224609e-01 -5.863252282142639160e-02 2.284498214721679688e-01
4.236833453178405762e-01 -4.739550873637199402e-02 2.267786264419555664e-01
4.188110828399658203e-01 -5.647104233503341675e-02 2.397614270448684692e-01
4.263605773448944092e-01 -4.404267668724060059e-02 2.387350648641586304e-01
-2.109252810478210449e-01 -1.807064116001129150e-01 4.159118831157684326e-01
-2.140267938375473022e-01 -1.668118089437484741e-01 4.194671213626861572e-01
-2.002537250518798828e-01 -1.752855926752090454e-01 4.170909523963928223e-01
-2.024411559104919434e-01 -1.601157486438751221e-01 4.208009839057922363e-01
1.797475665807723999e-01 6.897668242454528809e-01 -1.559260785579681396e-01
1.723131537437438965e-01 6.874263882637023926e-01 -1.448270380496978760e-01
1.923775672912597656e-01 6.917892098426818848e-01 -1.509781926870346069e-01
1.848324835300445557e-01 6.889248490333557129e-01 -1.398149132728576660e-01
-3.479683995246887207e-01 2.973028123378753662e-01 -1.529309749603271484e-01
-3.481864035129547119e-01 3.095451891422271729e-01 -1.504221856594085693e-01
-3.424851000308990479e-01 2.981487214565277100e-01 -1.452790200710296631e-01
-3.431908488273620605e-01 3.102893233299255371e-01 -1.427261382341384888e-01
-4.295189380645751953e-01 8.521313667297363281e-01 5.606550723314285278e-02
-4.399110674858093262e-01 8.612815141677856445e-01 6.452088057994842529e-02
-4.168031513690948486e-01 8.533611297607421875e-01 6.328038126230239868e-02
-4.272930026054382324e-01 8.628345131874084473e-01 7.159696519374847412e-02
7.427335530519485474e-02 -1.834699511528015137e-01 -3.968195319175720215e-01
7.656684517860412598e-02 -1.772705465555191040e-01 -3.954959511756896973e-01
9.126900136470794678e-02 -1.875679939985275269e-01 -3.905821144580841064e-01
9.380585700273513794e-02 -1.812185347080230713e-01 -3.931153118610382080e-01
8.205833286046981812e-02 7.037132978439331055e-01 -1.415053606033325195e-01
9.478385746479034424e-02 7.125712633132934570e-01 -1.470519751310348511e-01
9.988634288311004639e-02 7.076842188835144043e-01 -1.390803009271621704e-01
1.088616102933883667e-01 7.140567302703857422e-01 -1.423435658216476440e-01
1.725446730852127075e-01 -1.754414886236190796e-01 -3.989805877208709717e-01
1.698851138353347778e-01 -1.635428220033645630e-01 -3.947556912899017334e-01
1.840030848979949951e-01 -1.788412183523178101e-01 -3.930795192718505859e-01
1.822143644094467163e-01 -1.673697531223297119e-01 -3.900003433227539062e-01
1.548530161380767822e-01 1.157947033643722534e-01 -4.859085008502006531e-02
1.611007452011108398e-01 1.198387965559959412e-01 -5.538265034556388855e-02
1.673644781112670898e-01 1.116368696093559265e-01 -3.754446655511856079e-02
1.733905673027038574e-01 1.155006140470504761e-01 -4.494912177324295044e-02
2.178962677717208862e-01 5.648898705840110779e-02 -3.787215054035186768e-01
2.188706547021865845e-01 6.744279712438583374e-02 -3.741702735424041748e-01
2.279132455587387085e-01 5.882525071501731873e-02 -3.747502565383911133e-01
2.278198748826980591e-01 7.017146050930023193e-02 -3.709639906883239746e-01
1.405463069677352905e-01 8.993895053863525391e-01 -1.492157280445098877e-01
1.401286423206329346e-01 9.084784388542175293e-01 -1.465735733509063721e-01
1.540568321943283081e-01 9.008966088294982910e-01 -1.455647498369216919e-01
1.541884243488311768e-01 9.100917577743530273e-01 -1.432401090860366821e-01
-4.165673255920410156e-01 8.474147319793701172e-01 2.718275226652622223e-02
-4.291704893112182617e-01 8.570305109024047852e-01 3.784646838903427124e-02
-4.052699506282806396e-01 8.476917743682861328e-01 3.496007621288299561e-02
-4.170084297657012939e-01 8.580072522163391113e-01 4.438804462552070618e-02
-5.048887431621551514e-02 4.539780914783477783e-01 -1.683635115623474121e-01
-5.075156688690185547e-02 4.585551917552947998e-01 -1.675024777650833130e-01
-2.851173840463161469e-02 4.534684419631958008e-01 -1.679492741823196411e-01
-3.600307926535606384e-02 4.571612775325775146e-01 -1.614173352718353271e-01
4.701444879174232483e-02 -3.306663408875465393e-02 4.091487824916839600e-01
5.364973470568656921e-02 -2.846109308302402496e-02 3.998287618160247803e-01
6.097348779439926147e-02 -3.825139999389648438e-02 4.114333689212799072e-01
6.746199727058410645e-02 -3.323890268802642822e-02 4.007377624511718750e-01
2.798868119716644287e-01 4.288115501403808594e-01 -2.320664525032043457e-01
2.867997586727142334e-01 4.456373453140258789e-01 -2.347371578216552734e-01
2.856359779834747314e-01 4.315820336341857910e-01 -2.228779792785644531e-01
2.908773422241210938e-01 4.477011859416961670e-01 -2.258811295032501221e-01
-3.114985525608062744e-01 -5.248258635401725769e-02 2.404197156429290771e-01
-3.079485893249511719e-01 -4.775336384773254395e-02 2.375714629888534546e-01
-3.028877675533294678e-01 -5.822905898094177246e-02 2.507731914520263672e-01
-2.973499000072479248e-01 -5.219664424657821655e-02 2.482932955026626587e-01
-3.697556555271148682e-01 -8.978512138128280640e-02 -2.807638943195343018e-01
-3.679591417312622070e-01 -7.753943651914596558e-02 -2.770358622074127197e-01
-3.605736196041107178e-01 -8.508227020502090454e-02 -2.802204489707946777e-01
-3.598740696907043457e-01 -7.407527416944503784e-02 -2.768610417842864990e-01
4.449352025985717773e-01 3.247151523828506470e-02 1.947060376405715942e-01
4.456609189510345459e-01 4.234955832362174988e-02 1.972431838512420654e-01
4.543992578983306885e-01 3.649065271019935608e-02 2.083434313535690308e-01
4.556697607040405273e-01 4.661956802010536194e-02 2.101735770702362061e-01
-4.744438230991363525e-01 7.518412470817565918e-01 4.061922803521156311e-02
-4.746438860893249512e-01 7.694629430770874023e-01 4.181040078401565552e-02
-4.628086686134338379e-01 7.522016167640686035e-01 4.429238289594650269e-02
-4.636828005313873291e-01 7.699300050735473633e-01 4.482253640890121460e-02
1.476526111364364624e-01 1.816661804914474487e-01 -2.250126898288726807e-01
1.552617549896240234e-01 1.869532614946365356e-01 -2.358382195234298706e-01
1.630703210830688477e-01 1.771571040153503418e-01 -2.158325761556625366e-01
1.697711348533630371e-01 1.820350140333175659e-01 -2.272623479366302490e-01
3.556980490684509277e-01 -1.590215135365724564e-03 3.153478503227233887e-01
3.625078201293945312e-01 5.081422859802842140e-04 3.064008653163909912e-01
3.665063083171844482e-01 -6.820370908826589584e-03 3.206605315208435059e-01
3.737987279891967773e-01 -4.656950943171977997e-03 3.117086291313171387e-01
-2.981566488742828369e-01 8.706020712852478027e-01 -3.981627896428108215e-02
-2.844111919403076172e-01 8.774266242980957031e-01 -4.928999021649360657e-02
-2.844244241714477539e-01 8.740602135658264160e-01 -3.805770352482795715e-02
-2.710790634155273438e-01 8.820835351943969727e-01 -4.724266380071640015e-02
-3.199622929096221924e-01 -4.396105110645294189e-01 4.063181206583976746e-02
-3.129054605960845947e-01 -4.292501807212829590e-01 3.880480676889419556e-02
-3.155722618103027344e-01 -4.405643343925476074e-01 6.140324473381042480e-02
-3.083328902721405029e-01 -4.310391247272491455e-01 5.978161469101905823e-02
2.338811308145523071e-01 8.720934391021728516e-02 1.201703306287527084e-02
2.462243139743804932e-01 8.950462192296981812e-02 6.105741485953330994e-03
2.423501312732696533e-01 8.482227474451065063e-02 2.433171495795249939e-02
2.538478076457977295e-01 8.710254728794097900e-02 2.054193429648876190e-02
-3.819843381643295288e-02 3.492118790745735168e-02 1.992898881435394287e-01
-3.145803511142730713e-02 3.792129456996917725e-02 1.896592229604721069e-01
-2.632286399602890015e-02 3.286899253726005554e-02 2.078213542699813843e-01
-1.924381405115127563e-02 3.569304943084716797e-02 1.985191255807876587e-01
2.762780189514160156e-01 -2.678806483745574951e-01 -3.107782304286956787e-01
2.844695448875427246e-01 -2.582040727138519287e-01 -3.199270665645599365e-01
2.856624424457550049e-01 -2.681420445442199707e-01 -2.962143421173095703e-01
2.917827069759368896e-01 -2.579995095729827881e-01 -3.086290657520294189e-01
-2.274416685104370117e-01 9.378701448440551758e-02 5.044829845428466797e-02
-2.222106456756591797e-01 1.019245907664299011e-01 4.345494881272315979e-02
-2.174274623394012451e-01 8.982554823160171509e-02 5.098792165517807007e-02
-2.121362686157226562e-01 9.802524745464324951e-02 4.428135976195335388e-02
1.518094539642333984e-01 -4.251257479190826416e-01 -5.433318614959716797e-01
1.492130756378173828e-01 -4.134319126605987549e-01 -5.411653518676757812e-01
1.610032767057418823e-01 -4.255013763904571533e-01 -5.334776639938354492e-01
1.585243046283721924e-01 -4.132865667343139648e-01 -5.306333303451538086e-01
-1.284051537513732910e-01 2.070266753435134888e-02 2.410409003496170044e-01
-1.177505999803543091e-01 2.406906522810459137e-02 2.318294197320938110e-01
-1.197174564003944397e-01 1.819493062794208527e-02 2.468519955873489380e-01
-1.084821969270706177e-01 2.148564159870147705e-02 2.373937219381332397e-01
1.895597428083419800e-01 -2.836701273918151855e-01 -4.463531970977783203e-01
1.821000277996063232e-01 -2.747917175292968750e-01 -4.384300708770751953e-01
2.014405280351638794e-01 -2.823202311992645264e-01 -4.416306614875793457e-01
1.945766508579254150e-01 -2.729609012603759766e-01 -4.341552555561065674e-01
-3.323439359664916992e-01 -3.287112340331077576e-02 2.249744981527328491e-01
-3.421653807163238525e-01 -2.971613034605979919e-02 2.315528094768524170e-01
-3.276410996913909912e-01 -4.023483395576477051e-02 2.392072230577468872e-01
-3.335916101932525635e-01 -3.651383891701698303e-02 2.433696091175079346e-01
2.172634303569793701e-01 -1.030192375183105469e-01 3.123028576374053955e-01
2.121550142765045166e-01 -9.571087360382080078e-02 3.222524225711822510e-01
2.303983122110366821e-01 -9.739544987678527832e-02 3.134018182754516602e-01
2.251569926738739014e-01 -8.993348479270935059e-02 3.234374225139617920e-01
-1.773880422115325928e-01 1.068607568740844727e-01 7.382438052445650101e-04
-1.697158664464950562e-01 1.113435328006744385e-01 -4.724325146526098251e-03
-1.687392592430114746e-01 1.026502922177314758e-01 1.021625287830829620e-02
-1.611848473548889160e-01 1.070452556014060974e-01 5.123829469084739685e-03
2.654841840267181396e-01 1.139176487922668457e-01 -2.251113653182983398e-01
2.607615292072296143e-01 1.207806542515754700e-01 -2.172944843769073486e-01
2.717814743518829346e-01 1.168633401393890381e-01 -2.141920775175094604e-01
2.665723264217376709e-01 1.229385286569595337e-01 -2.067140489816665649e-01
3.433455824851989746e-01 1.175168901681900024e-01 -2.660622820258140564e-02
3.553107082843780518e-01 1.205776855349540710e-01 -3.989544883370399475e-02
3.553853034973144531e-01 1.186039298772811890e-01 -2.039988897740840912e-02
3.669207990169525146e-01 1.214783936738967896e-01 -3.250935673713684082e-02
-2.687060236930847168e-01 -8.205135911703109741e-02 3.113733232021331787e-01
-2.574311792850494385e-01 -7.405522465705871582e-02 3.088522851467132568e-01
-2.576976418495178223e-01 -8.081459254026412964e-02 3.198718428611755371e-01
-2.464472353458404541e-01 -7.273878157138824463e-02 3.172233402729034424e-01
-2.620995342731475830e-01 -5.890806205570697784e-03 2.385352700948715210e-01
-2.543363869190216064e-01 2.014884026721119881e-03 2.341976314783096313e-01
-2.551436424255371094e-01 -4.638136364519596100e-03 2.470837533473968506e-01
-2.473271340131759644e-01 2.948448993265628815e-03 2.422109395265579224e-01
3.585972189903259277e-01 -7.709832489490509033e-02 2.890875041484832764e-01
3.527416586875915527e-01 -6.457713991403579712e-02 2.952391207218170166e-01
3.717258572578430176e-01 -7.735277712345123291e-02 2.865712940692901611e-01
3.660909533500671387e-01 -6.456122547388076782e-02 2.924011349678039551e-01
1.293574869632720947e-01 2.497127652168273926e-02 1.985907256603240967e-01
1.355288326740264893e-01 2.854650840163230896e-02 1.926359832286834717e-01
1.419158875942230225e-01 2.253009192645549774e-02 2.095333784818649292e-01
1.480426788330078125e-01 2.596194669604301453e-02 2.024052292108535767e-01
1.673758476972579956e-01 9.756429493427276611e-02 1.908879727125167847e-02
1.754527986049652100e-01 1.009710282087326050e-01 1.027613691985607147e-02
1.788670420646667480e-01 9.470541030168533325e-02 2.312402799725532532e-02
1.878265142440795898e-01 9.894006699323654175e-02 1.431709993630647659e-02
2.019161134958267212e-01 2.557211220264434814e-01 -2.988342642784118652e-01
2.077552527189254761e-01 2.710071802139282227e-01 -2.942536771297454834e-01
2.061944305896759033e-01 2.652519047260284424e-01 -2.906796038150787354e-01
2.139456123113632202e-01 2.817884385585784912e-01 -2.871069908142089844e-01
-2.481689304113388062e-01 1.064145863056182861e-01 -3.644701093435287476e-03
-2.398112118244171143e-01 1.094991341233253479e-01 -9.969504550099372864e-03
-2.346839308738708496e-01 1.016998589038848877e-01 5.532421171665191650e-03
-2.268048524856567383e-01 1.055934205651283264e-01 -1.464343746192753315e-03
2.332603633403778076e-01 4.792965948581695557e-01 -1.791487485170364380e-01
2.287321239709854126e-01 4.972610175609588623e-01 -1.796164214611053467e-01
2.410940825939178467e-01 4.760722815990447998e-01 -1.731770187616348267e-01
2.363366186618804932e-01 4.946660399436950684e-01 -1.733226925134658813e-01
-2.323706597089767456e-01 -1.055857911705970764e-01 4.888901710510253906e-01
-2.322320640087127686e-01 -9.401771426200866699e-02 4.909169971942901611e-01
-2.218022346496582031e-01 -1.036550775170326233e-01 4.880341887474060059e-01
-2.217403650283813477e-01 -9.305103123188018799e-02 4.909951090812683105e-01
4.916384518146514893e-01 -5.294877886772155762e-01 1.243216395378112793e-01
4.920003116130828857e-01 -5.127693414688110352e-01 1.268962770700454712e-01
4.944561421871185303e-01 -5.243203043937683105e-01 1.366974711418151855e-01
4.949052631855010986e-01 -5.071511268615722656e-01 1.400401741266250610e-01
4.055839776992797852e-01 -2.342529147863388062e-01 1.964444667100906372e-01
4.095500707626342773e-01 -2.186297178268432617e-01 1.986492127180099487e-01
4.028973877429962158e-01 -2.252544015645980835e-01 2.077323198318481445e-01
4.066159129142761230e-01 -2.085450887680053711e-01 2.091423422098159790e-01
1.547275632619857788e-01 -4.410306811332702637e-01 -6.110755801200866699e-01
1.510057896375656128e-01 -4.266368746757507324e-01 -6.020097136497497559e-01
1.553896069526672363e-01 -4.336984157562255859e-01 -6.030501723289489746e-01
1.530678421258926392e-01 -4.186576306819915771e-01 -5.943555235862731934e-01
3.712906241416931152e-01 4.674977622926235199e-03 9.123372286558151245e-02
3.545845150947570801e-01 5.163333844393491745e-03 9.565987437963485718e-02
3.787960410118103027e-01 -3.239069133996963501e-03 1.025303006172180176e-01
3.618740439414978027e-01 -2.186422701925039291e-03 1.074500679969787598e-01
2.921867966651916504e-01 4.679628312587738037e-01 -2.024593204259872437e-01
2.959731221199035645e-01 4.827757775783538818e-01 -2.043258845806121826e-01
2.946524322032928467e-01 4.679494202136993408e-01 -1.933641433715820312e-01
2.981175780296325684e-01 4.820938408374786377e-01 -1.941124051809310913e-01
2.389345020055770874e-01 4.444339871406555176e-01 -1.783582866191864014e-01
2.366630733013153076e-01 4.594658017158508301e-01 -1.750630736351013184e-01
2.486886829137802124e-01 4.478946626186370850e-01 -1.760735511779785156e-01
2.464146614074707031e-01 4.610920250415802002e-01 -1.718312948942184448e-01
4.186443090438842773e-01 -3.114236891269683838e-01 2.184554189443588257e-01
4.179307520389556885e-01 -2.969034910202026367e-01 2.243423610925674438e-01
4.319979250431060791e-01 -3.061775565147399902e-01 2.208656966686248779e-01
4.312660992145538330e-01 -2.919493913650512695e-01 2.264577299356460571e-01
-3.621637523174285889e-01 -8.125826716423034668e-02 -2.104958891868591309e-01
-3.669657409191131592e-01 -6.602355092763900757e-02 -2.013804912567138672e-01
-3.514748215675354004e-01 -8.085176348686218262e-02 -2.029195278882980347e-01
-3.560129106044769287e-01 -6.601996719837188721e-02 -1.943151056766510010e-01
4.082269966602325439e-01 -4.207856953144073486e-01 1.197206899523735046e-01
4.061183631420135498e-01 -4.053700566291809082e-01 1.234773918986320496e-01
4.115407764911651611e-01 -4.142852425575256348e-01 1.326277107000350952e-01
4.087863564491271973e-01 -3.987001180648803711e-01 1.369106620550155640e-01
-2.239996939897537231e-02 8.995438218116760254e-01 -1.162298768758773804e-01
-2.668011933565139771e-02 9.020100235939025879e-01 -1.058171615004539490e-01
-1.102378591895103455e-02 8.972299098968505859e-01 -1.057358980178833008e-01
-1.515427324920892715e-02 9.006496071815490723e-01 -9.565570950508117676e-02
-3.073842227458953857e-01 -3.162267804145812988e-01 -2.333620786666870117e-01
-3.108080327510833740e-01 -3.022744953632354736e-01 -2.375089526176452637e-01
-3.002807497978210449e-01 -3.187916576862335205e-01 -2.204686105251312256e-01
-3.066231608390808105e-01 -3.046416044235229492e-01 -2.238677591085433960e-01
4.403183460235595703e-01 -6.735038757324218750e-02 3.285671472549438477e-01
4.320111572742462158e-01 -5.414283275604248047e-02 3.387160003185272217e-01
4.570127725601196289e-01 -6.801690161228179932e-02 3.252961635589599609e-01
4.495051503181457520e-01 -5.471674352884292603e-02 3.341855704784393311e-01
7.123815268278121948e-02 8.857505321502685547e-01 -1.545521616935729980e-01
6.159369274973869324e-02 8.887162804603576660e-01 -1.454130709171295166e-01
8.397366106510162354e-02 8.839918375015258789e-01 -1.499601900577545166e-01
7.673313468694686890e-02 8.876816034317016602e-01 -1.414912790060043335e-01
1.476297825574874878e-01 5.731807556003332138e-03 2.297611236572265625e-01
1.553172171115875244e-01 1.043509226292371750e-02 2.192608267068862915e-01
1.553541272878646851e-01 4.561153706163167953e-03 2.371236085891723633e-01
1.634386777877807617e-01 9.229787625372409821e-03 2.259345203638076782e-01
-3.004211485385894775e-01 -2.718943059444427490e-01 3.847475051879882812e-01
-2.992824912071228027e-01 -2.555836439132690430e-01 3.870546817779541016e-01
-2.994050979614257812e-01 -2.660605907440185547e-01 3.936484158039093018e-01
-2.975268065929412842e-01 -2.505376935005187988e-01 3.955684900283813477e-01
4.036794006824493408e-01 -1.927125900983810425e-01 2.161957621574401855e-01
4.091370105743408203e-01 -1.755606830120086670e-01 2.165784835815429688e-01
4.017373025417327881e-01 -1.824259161949157715e-01 2.264507263898849487e-01
4.066230654716491699e-01 -1.654924005270004272e-01 2.263946533203125000e-01
-3.488324582576751709e-01 -2.401056289672851562e-01 -2.645685374736785889e-01
-3.534644544124603271e-01 -2.243900150060653687e-01 -2.621529102325439453e-01
-3.360563814640045166e-01 -2.422000765800476074e-01 -2.605984210968017578e-01
-3.411576747894287109e-01 -2.262457013130187988e-01 -2.582305967807769775e-01
1.854616403579711914e-01 1.397543102502822876e-01 -1.259434074163436890e-01
1.881170719861984253e-01 1.425180286169052124e-01 -1.352977156639099121e-01
1.940712779760360718e-01 1.381126642227172852e-01 -1.197576820850372314e-01
1.964719891548156738e-01 1.409150063991546631e-01 -1.288062632083892822e-01
-3.536840081214904785e-01 -5.394847691059112549e-02 -2.752350270748138428e-01
-3.552522659301757812e-01 -4.339244961738586426e-02 -2.706505060195922852e-01
-3.425059914588928223e-01 -5.053472146391868591e-02 -2.745929360389709473e-01
-3.440407812595367432e-01 -4.006228595972061157e-02 -2.701091170310974121e-01
3.315790891647338867e-01 2.841544710099697113e-02 2.180208079516887665e-02
3.408311307430267334e-01 3.019665181636810303e-02 1.900319568812847137e-02
3.418000638484954834e-01 2.736020088195800781e-02 3.127673268318176270e-02
3.511568605899810791e-01 2.924512699246406555e-02 2.830423973500728607e-02
1.971684992313385010e-01 7.144887447357177734e-01 -1.603068411350250244e-01
1.880250573158264160e-01 7.199681997299194336e-01 -1.528762429952621460e-01
2.094098180532455444e-01 7.154456377029418945e-01 -1.571884155273437500e-01
2.008103281259536743e-01 7.233576774597167969e-01 -1.501549035310745239e-01
2.640714645385742188e-01 9.954481571912765503e-02 8.668744936585426331e-03
2.669573128223419189e-01 1.006390303373336792e-01 1.209243386983871460e-02
2.750723063945770264e-01 9.659913927316665649e-02 1.737518236041069031e-02
2.726841568946838379e-01 9.773009270429611206e-02 2.328654751181602478e-02
-2.443520277738571167e-01 -9.175909161567687988e-01 2.289061099290847778e-01
-2.467229366302490234e-01 -9.048572182655334473e-01 2.325680106878280640e-01
-2.358334064483642578e-01 -9.098734259605407715e-01 2.343114316463470459e-01
-2.360755503177642822e-01 -8.969480395317077637e-01 2.366098016500473022e-01
3.097826838493347168e-01 7.226149737834930420e-02 -9.643165022134780884e-02
3.143148124217987061e-01 7.886886596679687500e-02 -1.037660613656044006e-01
3.135769665241241455e-01 6.653106957674026489e-02 -8.607241511344909668e-02
3.203200995922088623e-01 7.256425917148590088e-02 -9.222114086151123047e-02
-1.737071424722671509e-01 1.903058290481567383e-01 -2.151106894016265869e-01
-1.639095097780227661e-01 1.988327056169509888e-01 -2.251922637224197388e-01
-1.688965111970901489e-01 1.846156865358352661e-01 -2.021430432796478271e-01
-1.569260060787200928e-01 1.927413344383239746e-01 -2.121639847755432129e-01
2.560143172740936279e-01 7.953926324844360352e-01 -1.486408859491348267e-01
2.586065530776977539e-01 8.065330386161804199e-01 -1.491915285587310791e-01
2.558975815773010254e-01 7.965357303619384766e-01 -1.406605839729309082e-01
2.580588757991790771e-01 8.080373406410217285e-01 -1.410041898488998413e-01
1.806967854499816895e-01 -3.124027252197265625e-01 -5.579535961151123047e-01
1.779658347368240356e-01 -2.992921471595764160e-01 -5.511980652809143066e-01
1.884571462869644165e-01 -3.056532144546508789e-01 -5.496091246604919434e-01
1.852634400129318237e-01 -2.922704815864562988e-01 -5.428633689880371094e-01
-2.866768240928649902e-01 -6.906411051750183105e-01 3.030075728893280029e-01
-2.864985764026641846e-01 -6.766363978385925293e-01 3.054805397987365723e-01
-2.769495248794555664e-01 -6.884488463401794434e-01 3.022865653038024902e-01
-2.770355343818664551e-01 -6.741655468940734863e-01 3.047510683536529541e-01
2.413903325796127319e-01 7.965310476720333099e-03 2.462397217750549316e-01
2.472663074731826782e-01 1.130837388336658478e-02 2.340476363897323608e-01
2.530565261840820312e-01 2.992860507220029831e-03 2.613527178764343262e-01
2.589137256145477295e-01 5.918788257986307144e-03 2.494062185287475586e-01
-1.381147801876068115e-01 -6.485532969236373901e-02 4.259721636772155762e-01
-1.285121440887451172e-01 -6.274893879890441895e-02 4.204353392124176025e-01
-1.277745664119720459e-01 -6.870941072702407837e-02 4.340035617351531982e-01
-1.189884841442108154e-01 -6.617148220539093018e-02 4.292725622653961182e-01
-3.213969171047210693e-01 8.449643850326538086e-02 -5.188076570630073547e-02
-3.135110735893249512e-01 9.492179006338119507e-02 -5.771831050515174866e-02
-3.123195171356201172e-01 8.208660036325454712e-02 -4.227506741881370544e-02
-3.042675852775573730e-01 9.255713969469070435e-02 -4.819847643375396729e-02
-3.250293731689453125e-01 4.348411560058593750e-01 -1.160022169351577759e-01
-3.199988901615142822e-01 4.447016716003417969e-01 -1.173642426729202271e-01
-3.156548738479614258e-01 4.418954551219940186e-01 -1.115948408842086792e-01
-3.077527880668640137e-01 4.514989554882049561e-01 -1.144452765583992004e-01
7.968742400407791138e-02 2.636213041841983795e-02 1.923965513706207275e-01
8.592950552701950073e-02 3.059000894427299500e-02 1.832848787307739258e-01
8.915765583515167236e-02 2.533786930143833160e-02 2.043728828430175781e-01
9.533829241991043091e-02 2.977347373962402344e-02 1.959955692291259766e-01
-2.959672510623931885e-01 -2.979446351528167725e-01 -3.336072266101837158e-01
-2.960476875305175781e-01 -2.849218249320983887e-01 -3.334441184997558594e-01
-2.968241274356842041e-01 -2.972736358642578125e-01 -3.204314708709716797e-01
-2.959337830543518066e-01 -2.853220701217651367e-01 -3.209603726863861084e-01
-3.629930019378662109e-01 3.822951912879943848e-01 -1.288914829492568970e-01
-3.654365837574005127e-01 3.954418003559112549e-01 -1.277412474155426025e-01
-3.551921546459197998e-01 3.831033706665039062e-01 -1.237059086561203003e-01
-3.575232923030853271e-01 3.961343467235565186e-01 -1.225357428193092346e-01
1.446176618337631226e-01 8.694784045219421387e-01 -1.276805996894836426e-01
1.460613012313842773e-01 8.735992908477783203e-01 -1.224690303206443787e-01
1.596527397632598877e-01 8.723973035812377930e-01 -1.208776682615280151e-01
1.623061597347259521e-01 8.775093555450439453e-01 -1.171532198786735535e-01
5.777560919523239136e-02 7.219141721725463867e-01 -1.628184020519256592e-01
7.122595608234405518e-02 7.330178022384643555e-01 -1.679462939500808716e-01
7.730866968631744385e-02 7.269389033317565918e-01 -1.579772233963012695e-01
9.225582331418991089e-02 7.369275093078613281e-01 -1.635794192552566528e-01
3.059716522693634033e-01 5.540985614061355591e-02 1.468289941549301147e-01
3.157133758068084717e-01 6.056976318359375000e-02 1.378089487552642822e-01
3.179071843624114990e-01 5.556458979845046997e-02 1.537829190492630005e-01
3.282338678836822510e-01 5.949437245726585388e-02 1.445506513118743896e-01
4.788109958171844482e-01 -6.220138669013977051e-01 1.202354654669761658e-01
4.813469052314758301e-01 -6.080692410469055176e-01 1.198863908648490906e-01
4.763508439064025879e-01 -6.168746948242187500e-01 1.298055052757263184e-01
4.788601696491241455e-01 -6.031048297882080078e-01 1.297316104173660278e-01
1.562709063291549683e-01 4.375765919685363770e-01 -2.071749567985534668e-01
1.504776328802108765e-01 4.414989948272705078e-01 -2.012340724468231201e-01
1.734253615140914917e-01 4.374169707298278809e-01 -2.049828469753265381e-01
1.719222068786621094e-01 4.447054266929626465e-01 -2.020512670278549194e-01
-2.178878635168075562e-01 -2.525485157966613770e-01 4.017798900604248047e-01
-2.191093713045120239e-01 -2.388297468423843384e-01 4.021963179111480713e-01
-2.143512815237045288e-01 -2.498460114002227783e-01 4.139320552349090576e-01
-2.159023284912109375e-01 -2.354602217674255371e-01 4.151926934719085693e-01
-7.475404441356658936e-02 1.788613796234130859e-01 -1.852735728025436401e-01
-6.644654273986816406e-02 1.840988844633102417e-01 -1.952752172946929932e-01
-6.118268519639968872e-02 1.767725944519042969e-01 -1.780685186386108398e-01
-5.550618842244148254e-02 1.819024235010147095e-01 -1.882063299417495728e-01
3.273879885673522949e-01 -3.291198611259460449e-01 -2.126715183258056641e-01
3.342341184616088867e-01 -3.179361224174499512e-01 -2.169586569070816040e-01
3.374862372875213623e-01 -3.231348991394042969e-01 -2.038421481847763062e-01
3.432956337928771973e-01 -3.106073141098022461e-01 -2.074309736490249634e-01
2.136567533016204834e-01 3.982221335172653198e-02 -3.024010360240936279e-01
2.113703042268753052e-01 5.281782895326614380e-02 -2.970453798770904541e-01
2.185413390398025513e-01 4.275564849376678467e-02 -2.923951148986816406e-01
2.153966873884201050e-01 5.494533479213714600e-02 -2.866723239421844482e-01
-4.961918592453002930e-01 8.413062095642089844e-01 4.933525621891021729e-02
-4.908123016357421875e-01 8.509844541549682617e-01 5.024752765893936157e-02
-4.835674166679382324e-01 8.458406925201416016e-01 6.263662874698638916e-02
-4.759201109409332275e-01 8.558335900306701660e-01 6.066570058465003967e-02
-2.823963761329650879e-01 1.011647135019302368e-01 -2.205330319702625275e-02
-2.730731368064880371e-01 1.106498688459396362e-01 -2.726433239877223969e-02
-2.740057408809661865e-01 9.964960068464279175e-02 -1.157494541257619858e-02
-2.653206586837768555e-01 1.058144867420196533e-01 -1.782778836786746979e-02
-4.726235941052436829e-02 2.702053822576999664e-02 1.941255778074264526e-01
-4.025879874825477600e-02 3.034550510346889496e-02 1.841879785060882568e-01
-3.832333907485008240e-02 2.348475903272628784e-02 2.049461007118225098e-01
-3.165062144398689270e-02 2.663058042526245117e-02 1.953123360872268677e-01
3.088636100292205811e-01 4.392812401056289673e-02 1.461007595062255859e-01
3.184328973293304443e-01 4.905540123581886292e-02 1.370401084423065186e-01
3.185909986495971680e-01 4.222661256790161133e-02 1.546694487333297729e-01
3.285922706127166748e-01 4.598625376820564270e-02 1.462850570678710938e-01
-3.780330121517181396e-01 -1.294936090707778931e-01 -2.787491083145141602e-01
-3.764783740043640137e-01 -1.127652898430824280e-01 -2.758708000183105469e-01
