7.634674310684204102e-01 -4.649904370307922363e-02 -1.232743933796882629e-01
-6.554366350173950195e-01 2.372136861085891724e-01 -1.247974708676338196e-01
-6.542235016822814941e-01 2.582466006278991699e-01 -1.254217475652694702e-01
-6.359650492668151855e-01 2.387077212333679199e-01 -1.268992573022842407e-01
-6.337425708770751953e-01 2.608336210250854492e-01 -1.274529695510864258e-01
-1.929334402084350586e-01 -9.172319620847702026e-02 1.229485198855400085e-01
-1.924446672201156616e-01 -7.546177506446838379e-02 1.220007985830307007e-01
-1.663149744272232056e-01 -9.246517717838287354e-02 1.236639171838760376e-01
-1.657178699970245361e-01 -7.644406706094741821e-02 1.223502159118652344e-01
1.056319251656532288e-01 4.649223685264587402e-01 -1.272998899221420288e-01
1.042327433824539185e-01 4.887904524803161621e-01 -1.245172023773193359e-01
1.268870681524276733e-01 4.684752821922302246e-01 -1.283962279558181763e-01
1.255170404911041260e-01 4.920974969863891602e-01 -1.255093961954116821e-01
6.794302463531494141e-01 3.286184668540954590e-01 4.942348599433898926e-02
6.701450943946838379e-01 3.395681977272033691e-01 6.419107317924499512e-02
6.946083307266235352e-01 3.312435448169708252e-01 5.960248783230781555e-02
6.874479055404663086e-01 3.422137200832366943e-01 7.399088889360427856e-02
-7.064738869667053223e-01 4.923653006553649902e-01 1.204465627670288086e-01
-7.069475054740905762e-01 5.112638473510742188e-01 1.160670965909957886e-01
-6.861105561256408691e-01 4.939815998077392578e-01 1.219595745205879211e-01
-6.862756609916687012e-01 5.127767324447631836e-01 1.176373958587646484e-01
-7.066369652748107910e-01 4.512405395507812500e-01 1.252890825271606445e-01
-7.071295976638793945e-01 4.709140956401824951e-01 1.225923448801040649e-01
-6.865885257720947266e-01 4.549949169158935547e-01 1.265077143907546997e-01
-6.866182684898376465e-01 4.747277498245239258e-01 1.242188811302185059e-01
8.547407388687133789e-01 4.556235074996948242e-01 1.013152115046977997e-02
8.486800193786621094e-01 4.739104211330413818e-01 1.111357100307941437e-02
8.519327640533447266e-01 4.569494128227233887e-01 3.221796825528144836e-02
8.474131226539611816e-01 4.742686748504638672e-01 3.543253242969512939e-02
-1.715699732303619385e-01 7.478892803192138672e-01 -1.264704167842864990e-01
-1.750205457210540771e-01 7.690723538398742676e-01 -1.244546100497245789e-01
-1.457099616527557373e-01 7.489578723907470703e-01 -1.241917163133621216e-01
-1.507416665554046631e-01 7.714933156967163086e-01 -1.214326769113540649e-01
3.957770764827728271e-01 -2.920417487621307373e-01 1.233586668968200684e-01
3.921187222003936768e-01 -2.716697156429290771e-01 1.225782707333564758e-01
4.177802205085754395e-01 -2.961562275886535645e-01 1.216533780097961426e-01
4.140456020832061768e-01 -2.760148346424102783e-01 1.211125701665878296e-01
5.146875381469726562e-01 -7.006497383117675781e-01 -1.201879605650901794e-01
5.152399539947509766e-01 -6.825764179229736328e-01 -1.187907680869102478e-01
5.228286385536193848e-01 -6.953805088996887207e-01 -1.085531413555145264e-01
5.239864587783813477e-01 -6.771467924118041992e-01 -1.071580052375793457e-01
4.042035043239593506e-01 3.169063627719879150e-01 1.242195144295692444e-01
4.033333659172058105e-01 3.402339518070220947e-01 1.240310296416282654e-01
4.287429451942443848e-01 3.189681768417358398e-01 1.231397315859794617e-01
4.283518195152282715e-01 3.426382541656494141e-01 1.231071650981903076e-01
-7.679077982902526855e-01 -2.243165671825408936e-01 1.228361204266548157e-01
-7.654810547828674316e-01 -2.069647610187530518e-01 1.224500238895416260e-01
-7.501698136329650879e-01 -2.252950966358184814e-01 1.218769997358322144e-01
-7.471364736557006836e-01 -2.070968449115753174e-01 1.207139343023300171e-01
-6.960389018058776855e-01 -8.094002306461334229e-02 1.219439804553985596e-01
-6.965760588645935059e-01 -6.361752748489379883e-02 1.222794353961944580e-01
-6.675421595573425293e-01 -8.305741846561431885e-02 1.224272623658180237e-01
-6.680620312690734863e-01 -6.485760957002639771e-02 1.229035109281539917e-01
-1.890326142311096191e-01 -3.769597411155700684e-02 1.226046979427337646e-01
-1.886426508426666260e-01 -1.156486198306083679e-02 1.229700446128845215e-01
-1.631761938333511353e-01 -3.558384254574775696e-02 1.220758110284805298e-01
-1.624356210231781006e-01 -1.071706041693687439e-02 1.223425343632698059e-01
-8.682906031608581543e-01 -3.047696948051452637e-01 5.406046658754348755e-02
-8.713997006416320801e-01 -2.838595211505889893e-01 5.552315711975097656e-02
-8.536231517791748047e-01 -3.068678081035614014e-01 6.284040957689285278e-02
-8.568080663681030273e-01 -2.865908145904541016e-01 6.454665213823318481e-02
4.800055921077728271e-01 -3.283726274967193604e-01 1.228710711002349854e-01
4.843314290046691895e-01 -3.074190616607666016e-01 1.228239163756370544e-01
5.050306916236877441e-01 -3.218122720718383789e-01 1.244560629129409790e-01
5.103663206100463867e-01 -3.012463748455047607e-01 1.243816018104553223e-01
4.641268849372863770e-01 -8.696864247322082520e-01 -1.035849750041961670e-02
4.846056103706359863e-01 -8.606810569763183594e-01 -1.616258919239044189e-02
4.693672358989715576e-01 -8.625743389129638672e-01 1.271275803446769714e-02
4.896522462368011475e-01 -8.525838255882263184e-01 7.037320639938116074e-03
7.311257123947143555e-01 -4.994195997714996338e-01 -1.239369288086891174e-01
7.371637225151062012e-01 -4.804668426513671875e-01 -1.270806938409805298e-01
7.523348927497863770e-01 -4.950586557388305664e-01 -1.225594133138656616e-01
7.580777406692504883e-01 -4.761525094509124756e-01 -1.252743005752563477e-01
-7.159106731414794922e-01 1.593609526753425598e-02 1.233250349760055542e-01
-7.163389921188354492e-01 3.685129433870315552e-02 1.235904246568679810e-01
-6.844813227653503418e-01 1.580079272389411926e-02 1.241541728377342224e-01
-6.853991746902465820e-01 3.726433962583541870e-02 1.241330504417419434e-01
-8.573744893074035645e-01 6.344123184680938721e-02 5.489445757120847702e-03
-8.569045066833496094e-01 8.660443127155303955e-02 1.138335559517145157e-02
-8.567170500755310059e-01 7.125870883464813232e-02 2.835336141288280487e-02
-8.563898205757141113e-01 9.430976957082748413e-02 3.412945568561553955e-02
-5.819739103317260742e-01 -4.118655323982238770e-01 -1.263268291950225830e-01
-5.794249773025512695e-01 -3.887044191360473633e-01 -1.263196915388107300e-01
-5.586886405944824219e-01 -4.078003168106079102e-01 -1.260609179735183716e-01
-5.567615628242492676e-01 -3.852456510066986084e-01 -1.261748969554901123e-01
5.363332033157348633e-01 8.724428713321685791e-02 -1.249911487102508545e-01
5.398463010787963867e-01 1.075442135334014893e-01 -1.254004687070846558e-01
5.591588616371154785e-01 9.125119447708129883e-02 -1.262493878602981567e-01
5.622597932815551758e-01 1.111999154090881348e-01 -1.264980137348175049e-01
-3.983331471681594849e-02 2.051385045051574707e-01 -1.244343668222427368e-01
-4.208216443657875061e-02 2.307186871767044067e-01 -1.264628767967224121e-01
-1.483976095914840698e-02 1.964131742715835571e-01 -1.265872418880462646e-01
-1.997191086411476135e-02 2.233942300081253052e-01 -1.285511404275894165e-01
-4.538711607456207275e-01 -2.177372872829437256e-01 1.223349943757057190e-01
-4.526320695877075195e-01 -1.918810606002807617e-01 1.242885589599609375e-01
-4.277834892272949219e-01 -2.140902131795883179e-01 1.221490800380706787e-01
-4.265189766883850098e-01 -1.883068680763244629e-01 1.238592192530632019e-01
-4.190485775470733643e-01 -5.643658638000488281e-01 1.228469982743263245e-01
-4.158400595188140869e-01 -5.421625971794128418e-01 1.232236102223396301e-01
-3.880912661552429199e-01 -5.578221678733825684e-01 1.254474222660064697e-01
-3.843369483947753906e-01 -5.351835489273071289e-01 1.257439255714416504e-01
-4.812182486057281494e-01 4.783775806427001953e-01 1.248257160186767578e-01
-4.817054569721221924e-01 5.037972927093505859e-01 1.233923956751823425e-01
-4.537674188613891602e-01 4.783147573471069336e-01 1.219055354595184326e-01
-4.538493752479553223e-01 5.047987699508666992e-01 1.211492568254470825e-01
-8.175121545791625977e-01 2.516275346279144287e-01 -1.239658370614051819e-01
-8.200289607048034668e-01 2.734668850898742676e-01 -1.228454783558845520e-01
-7.983315587043762207e-01 2.567813098430633545e-01 -1.276586800813674927e-01
-8.008397817611694336e-01 2.781617343425750732e-01 -1.264083534479141235e-01
3.523342013359069824e-01 3.052554130554199219e-01 1.250476092100143433e-01
3.511939048767089844e-01 3.279251158237457275e-01 1.244300827383995056e-01
3.754717409610748291e-01 3.072058856487274170e-01 1.232898235321044922e-01
3.740106821060180664e-01 3.303220570087432861e-01 1.227616295218467712e-01
-8.431693315505981445e-01 1.573745310306549072e-01 1.142596825957298279e-01
-8.447706103324890137e-01 1.799810677766799927e-01 1.189828142523765564e-01
-8.274406790733337402e-01 1.619738191366195679e-01 1.211759746074676514e-01
-8.265327215194702148e-01 1.857561469078063965e-01 1.252370029687881470e-01
-1.503366529941558838e-01 7.660809159278869629e-02 -1.244541108608245850e-01
-1.499428451061248779e-01 9.852174669504165649e-02 -1.258115917444229126e-01
-1.297683119773864746e-01 8.163012564182281494e-02 -1.241367608308792114e-01
-1.306983530521392822e-01 1.043237671256065369e-01 -1.255774199962615967e-01
-7.158057093620300293e-01 -2.401317209005355835e-01 1.234226673841476440e-01
-7.118659019470214844e-01 -2.209371775388717651e-01 1.221613436937332153e-01
-6.982986927032470703e-01 -2.370824217796325684e-01 1.229585409164428711e-01
-6.937156915664672852e-01 -2.173647433519363403e-01 1.216542422771453857e-01
2.487987875938415527e-01 7.230334877967834473e-01 1.224305257201194763e-01
2.500894963741302490e-01 7.455401420593261719e-01 1.231107115745544434e-01
2.682655155658721924e-01 7.266534566879272461e-01 1.201687753200531006e-01
2.706200778484344482e-01 7.488262057304382324e-01 1.209055185317993164e-01
-4.985077083110809326e-01 -8.610578179359436035e-01 1.808951236307621002e-02
-5.099542140960693359e-01 -8.464894890785217285e-01 3.031448833644390106e-02
-4.912902116775512695e-01 -8.629187345504760742e-01 3.835687413811683655e-02
-5.037353634834289551e-01 -8.469454646110534668e-01 5.172155052423477173e-02
6.453193426132202148e-01 3.333972096443176270e-01 -1.093872822821140289e-03
6.323719024658203125e-01 3.418534994125366211e-01 1.114227343350648880e-02
6.540147066116333008e-01 3.323237895965576172e-01 1.344631798565387726e-02
6.408913135528564453e-01 3.416648507118225098e-01 2.624601125717163086e-02
1.235903501510620117e-01 -8.072728514671325684e-01 1.208610013127326965e-01
1.213321089744567871e-01 -7.876133918762207031e-01 1.274928301572799683e-01
1.439199298620223999e-01 -8.022556900978088379e-01 1.222759038209915161e-01
1.424300819635391235e-01 -7.821879386901855469e-01 1.285505145788192749e-01
-2.526629269123077393e-01 1.113846153020858765e-02 1.240189224481582642e-01
-2.457226961851119995e-01 3.818739205598831177e-02 1.223516166210174561e-01
-2.303195744752883911e-01 1.720827445387840271e-02 1.220764964818954468e-01
-2.223936468362808228e-01 4.452464357018470764e-02 1.202471777796745300e-01
3.103845417499542236e-01 -1.757058501243591309e-01 -1.246377751231193542e-01
3.149444162845611572e-01 -1.522070467472076416e-01 -1.251497417688369751e-01
3.403467535972595215e-01 -1.684740036725997925e-01 -1.240000203251838684e-01
3.455372750759124756e-01 -1.454460471868515015e-01 -1.246590614318847656e-01
1.316304504871368408e-02 8.500651717185974121e-01 6.884448230266571045e-02
-9.886231273412704468e-03 8.508332371711730957e-01 7.733079046010971069e-02
3.314873948693275452e-02 8.421563506126403809e-01 8.007594943046569824e-02
1.289708353579044342e-02 8.454596400260925293e-01 8.646414428949356079e-02
3.940841853618621826e-01 2.497197985649108887e-01 1.249705851078033447e-01
3.979343771934509277e-01 2.724758684635162354e-01 1.240499019622802734e-01
4.179657101631164551e-01 2.524918019771575928e-01 1.236873045563697815e-01
4.207957386970520020e-01 2.754776179790496826e-01 1.236477270722389221e-01
-8.637387752532958984e-01 -2.092963308095932007e-01 1.014044508337974548e-01
-8.653745055198669434e-01 -1.902181357145309448e-01 1.067332401871681213e-01
-8.520798683166503906e-01 -2.061383426189422607e-01 1.174678727984428406e-01
-8.528223037719726562e-01 -1.874408572912216187e-01 1.224937587976455688e-01
5.225123763084411621e-01 6.414421796798706055e-01 1.262598019093275070e-02
5.201813578605651855e-01 6.610227823257446289e-01 1.526575908064842224e-02
5.230097770690917969e-01 6.449386477470397949e-01 3.599788248538970947e-02
5.196272134780883789e-01 6.639592647552490234e-01 3.884549066424369812e-02
5.192500352859497070e-01 6.920942664146423340e-02 -1.255682110786437988e-01
5.234947204589843750e-01 9.009685367345809937e-02 -1.258178949356079102e-01
5.405200123786926270e-01 6.982267647981643677e-02 -1.282307803630828857e-01
5.439800024032592773e-01 9.099316596984863281e-02 -1.286159753799438477e-01
1.602675765752792358e-02 3.760758042335510254e-01 1.240180656313896179e-01
1.862740702927112579e-02 3.966106772422790527e-01 1.232571974396705627e-01
4.188367724418640137e-02 3.806440234184265137e-01 1.236673071980476379e-01
4.459756985306739807e-02 4.012668728828430176e-01 1.231242045760154724e-01
4.372783601284027100e-01 5.005794167518615723e-01 -1.259180456399917603e-01
4.392207860946655273e-01 5.284445285797119141e-01 -1.234137788414955139e-01
4.611654281616210938e-01 5.053414106369018555e-01 -1.282727420330047607e-01
4.636649787425994873e-01 5.334398746490478516e-01 -1.252261549234390259e-01
7.941193878650665283e-02 5.280506014823913574e-01 -1.247529909014701843e-01
8.487088233232498169e-02 5.526571869850158691e-01 -1.260184496641159058e-01
1.006974130868911743e-01 5.340602397918701172e-01 -1.253911107778549194e-01
1.066613495349884033e-01 5.589426755905151367e-01 -1.271877139806747437e-01
-2.193700373172760010e-01 -6.783674955368041992e-01 1.239517182111740112e-01
-2.198638617992401123e-01 -6.584927439689636230e-01 1.236992552876472473e-01
-1.933805793523788452e-01 -6.748026609420776367e-01 1.254594027996063232e-01
-1.938309967517852783e-01 -6.542714238166809082e-01 1.253226995468139648e-01
6.976717114448547363e-01 7.596732676029205322e-02 1.225585564970970154e-01
6.989311575889587402e-01 9.982950240373611450e-02 1.238462775945663452e-01
7.200589776039123535e-01 8.264285326004028320e-02 1.210092902183532715e-01
7.226138114929199219e-01 1.045733615756034851e-01 1.217576935887336731e-01
8.488761782646179199e-01 9.794346988201141357e-02 2.849745377898216248e-02
8.503842353820800781e-01 1.235653758049011230e-01 2.795815654098987579e-02
8.468419313430786133e-01 1.002513021230697632e-01 5.551422387361526489e-02
8.475331664085388184e-01 1.252399235963821411e-01 5.381476506590843201e-02
-4.813292622566223145e-02 -7.567672133445739746e-01 1.241298913955688477e-01
-4.958032071590423584e-02 -7.362024188041687012e-01 1.229350045323371887e-01
-2.399988658726215363e-02 -7.542520761489868164e-01 1.231881901621818542e-01
-2.472310885787010193e-02 -7.338854670524597168e-01 1.226344034075737000e-01
7.006074190139770508e-01 5.143897533416748047e-01 -2.991874888539314270e-02
6.838338971138000488e-01 5.197535753250122070e-01 -1.478039659559726715e-02
7.198911905288696289e-01 5.092322230339050293e-01 -1.675077900290489197e-02
7.026492953300476074e-01 5.139876008033752441e-01 -8.532833307981491089e-04
3.180091083049774170e-01 4.557915329933166504e-01 -1.252992302179336548e-01
3.168596029281616211e-01 4.802538156509399414e-01 -1.267513930797576904e-01
3.419313430786132812e-01 4.589620828628540039e-01 -1.273298114538192749e-01
3.428112864494323730e-01 4.823026657104492188e-01 -1.280450671911239624e-01
-2.300215959548950195e-01 -3.484488278627395630e-02 1.239298209547996521e-01
-2.299162894487380981e-01 -8.914534002542495728e-03 1.235264241695404053e-01
-2.075210958719253540e-01 -3.002016246318817139e-02 1.207205876708030701e-01
-2.074922174215316772e-01 -3.922808915376663208e-03 1.209632083773612976e-01
-5.192117691040039062e-01 -3.971557617187500000e-01 -1.248873770236968994e-01
-5.235936641693115234e-01 -3.758108019828796387e-01 -1.265211403369903564e-01
-4.955384731292724609e-01 -4.013003408908843994e-01 -1.260851472616195679e-01
-5.003927350044250488e-01 -3.794403672218322754e-01 -1.287550628185272217e-01
-1.970102936029434204e-01 4.262166023254394531e-01 1.244758889079093933e-01
-1.944800168275833130e-01 4.495607614517211914e-01 1.247264146804809570e-01
-1.703235357999801636e-01 4.300712347030639648e-01 1.212935447692871094e-01
-1.677115112543106079e-01 4.534647464752197266e-01 1.217854470014572144e-01
5.294211953878402710e-02 -8.562695384025573730e-01 -9.669259190559387207e-02
3.522129356861114502e-02 -8.611779808998107910e-01 -7.394472509622573853e-02
7.243245840072631836e-02 -8.569411039352416992e-01 -8.030541986227035522e-02
5.497479066252708435e-02 -8.617215156555175781e-01 -5.614854022860527039e-02
-3.857709765434265137e-01 -3.395038545131683350e-01 -1.262700259685516357e-01
-3.821905553340911865e-01 -3.213251233100891113e-01 -1.270928978919982910e-01
-3.589666187763214111e-01 -3.366849124431610107e-01 -1.250763684511184692e-01
-3.550796508789062500e-01 -3.177327811717987061e-01 -1.258118301630020142e-01
-2.586095333099365234e-01 7.428572177886962891e-01 1.226863563060760498e-01
-2.582679688930511475e-01 7.665902972221374512e-01 1.205453276634216309e-01
-2.384306192398071289e-01 7.420535087585449219e-01 1.231255382299423218e-01
-2.350045293569564819e-01 7.662906050682067871e-01 1.216406077146530151e-01
8.508259654045104980e-01 2.340164482593536377e-01 5.279643833637237549e-02
8.498654365539550781e-01 2.607413828372955322e-01 4.867582023143768311e-02
8.485751748085021973e-01 2.374282032251358032e-01 7.940506190061569214e-02
8.469524383544921875e-01 2.638122141361236572e-01 7.483149319887161255e-02
-8.594034910202026367e-01 4.496051967144012451e-01 5.068099126219749451e-02
-8.531865477561950684e-01 4.720642864704132080e-01 5.360579118132591248e-02
-8.575567603111267090e-01 4.560987055301666260e-01 7.031892240047454834e-02
-8.513373136520385742e-01 4.783092439174652100e-01 7.236909121274948120e-02
-8.151306509971618652e-01 -1.548475176095962524e-01 1.212076395750045776e-01
-8.113735914230346680e-01 -1.325403302907943726e-01 1.201096251606941223e-01
-7.995260953903198242e-01 -1.520909816026687622e-01 1.230515688657760620e-01
-7.970005869865417480e-01 -1.302216202020645142e-01 1.225673928856849670e-01
8.464773297309875488e-01 -4.001149237155914307e-01 -7.004949450492858887e-02
8.509691357612609863e-01 -3.778921961784362793e-01 -7.004151493310928345e-02
8.480809330940246582e-01 -4.000070691108703613e-01 -4.966688528656959534e-02
8.515249490737915039e-01 -3.774586915969848633e-01 -4.952333495020866394e-02
6.016182899475097656e-01 -3.187243342399597168e-01 -1.256706118583679199e-01
6.009464859962463379e-01 -2.918861508369445801e-01 -1.258854568004608154e-01
6.231788396835327148e-01 -3.202575147151947021e-01 -1.277181059122085571e-01
6.248909235000610352e-01 -2.929722964763641357e-01 -1.285992115736007690e-01
7.526234388351440430e-01 4.771108031272888184e-01 1.282125264406204224e-01
7.565490007400512695e-01 4.879510104656219482e-01 1.174788326025009155e-01
7.727281451225280762e-01 4.684944450855255127e-01 1.333207786083221436e-01
7.756300568580627441e-01 4.810090959072113037e-01 1.243712082505226135e-01
1.840169876813888550e-01 -4.965139925479888916e-02 -1.252267360687255859e-01
1.861996948719024658e-01 -2.961144223809242249e-02 -1.247749328613281250e-01
2.063002288341522217e-01 -4.607068747282028198e-02 -1.239006891846656799e-01
2.067810595035552979e-01 -2.575856447219848633e-02 -1.240871697664260864e-01
-4.087553620338439941e-01 -8.577879071235656738e-01 -8.393028378486633301e-02
-4.229834675788879395e-01 -8.572551012039184570e-01 -6.875309348106384277e-02
-3.904382288455963135e-01 -8.574460744857788086e-01 -7.880476862192153931e-02
-4.055378139019012451e-01 -8.584832549095153809e-01 -6.125662103295326233e-02
-6.831464171409606934e-02 8.002858161926269531e-01 -1.300291419029235840e-01
-7.546329498291015625e-02 8.184472322463989258e-01 -1.201478689908981323e-01
-4.921420291066169739e-02 8.077592849731445312e-01 -1.290743052959442139e-01
-5.561835691332817078e-02 8.263201117515563965e-01 -1.184182241559028625e-01
-2.187049239873886108e-01 -3.526016473770141602e-01 -1.264287680387496948e-01
-2.211327552795410156e-01 -3.203180432319641113e-01 -1.247186064720153809e-01
-1.896754950284957886e-01 -3.497034013271331787e-01 -1.270417571067810059e-01
-1.922382414340972900e-01 -3.179994225502014160e-01 -1.251578629016876221e-01
-5.281828641891479492e-01 4.677972793579101562e-01 1.245239600539207458e-01
-5.297570228576660156e-01 4.918792545795440674e-01 1.219159662723541260e-01
-5.015939474105834961e-01 4.667505025863647461e-01 1.238857656717300415e-01
-5.029332637786865234e-01 4.911782443523406982e-01 1.213969960808753967e-01
-3.742369115352630615e-01 7.501988410949707031e-01 -1.213150247931480408e-01
-3.729062080383300781e-01 7.668826580047607422e-01 -1.219329833984375000e-01
-3.558633327484130859e-01 7.450258135795593262e-01 -1.199598312377929688e-01
-3.541127443313598633e-01 7.628742456436157227e-01 -1.207349970936775208e-01
-4.394284188747406006e-01 4.411750435829162598e-01 1.247786208987236023e-01
-4.380742609500885010e-01 4.701475501060485840e-01 1.228693351149559021e-01
-4.136217534542083740e-01 4.477598965167999268e-01 1.234329789876937866e-01
-4.118585288524627686e-01 4.773256182670593262e-01 1.218015998601913452e-01
-6.752293705940246582e-01 -5.794463679194450378e-02 1.216785684227943420e-01
-6.760034561157226562e-01 -3.925992175936698914e-02 1.218389496207237244e-01
-6.465466618537902832e-01 -5.858413875102996826e-02 1.229787692427635193e-01
-6.473775506019592285e-01 -3.719564154744148254e-02 1.231290698051452637e-01
-1.616427153348922729e-01 -4.713393747806549072e-01 -1.258908212184906006e-01
-1.495733261108398438e-01 -4.456796646118164062e-01 -1.265857070684432983e-01
-1.305361092090606689e-01 -4.634786546230316162e-01 -1.270724087953567505e-01
-1.176035553216934204e-01 -4.373813867568969727e-01 -1.272554099559783936e-01
5.343795418739318848e-01 5.962032079696655273e-01 1.252867840230464935e-02
5.272178053855895996e-01 6.169185638427734375e-01 1.891362294554710388e-02
5.354841351509094238e-01 5.979377627372741699e-01 3.607378154993057251e-02
5.267760753631591797e-01 6.184777617454528809e-01 4.213519021868705750e-02
1.140538230538368225e-01 5.557801946997642517e-02 -1.259799748659133911e-01
1.231187358498573303e-01 7.704336941242218018e-02 -1.254460513591766357e-01
1.357233226299285889e-01 6.284534931182861328e-02 -1.260148584842681885e-01
1.445314288139343262e-01 8.401284366846084595e-02 -1.256880313158035278e-01
-2.659087479114532471e-01 -1.763436794281005859e-01 1.236147135496139526e-01
-2.681126296520233154e-01 -1.538057625293731689e-01 1.234772801399230957e-01
-2.437473684549331665e-01 -1.753104627132415771e-01 1.215209513902664185e-01
-2.453257441520690918e-01 -1.533165872097015381e-01 1.207907497882843018e-01
-6.880639195442199707e-01 3.715319633483886719e-01 -1.251934021711349487e-01
-6.866190433502197266e-01 3.908405900001525879e-01 -1.265395730733871460e-01
-6.708506345748901367e-01 3.749000728130340576e-01 -1.269964575767517090e-01
-6.690969467163085938e-01 3.937928974628448486e-01 -1.282615810632705688e-01
-2.922953665256500244e-01 -7.775639891624450684e-01 -1.227272301912307739e-01
-2.938427031040191650e-01 -7.575465440750122070e-01 -1.230842396616935730e-01
-2.727915644645690918e-01 -7.736077308654785156e-01 -1.238609701395034790e-01
-2.746935188770294189e-01 -7.538222074508666992e-01 -1.240292713046073914e-01
-5.490900874137878418e-01 5.789653062820434570e-01 5.235668271780014038e-03
-5.377725958824157715e-01 6.004909873008728027e-01 2.758049231488257647e-04
-5.478413105010986328e-01 5.880864858627319336e-01 2.439751476049423218e-02
-5.382782816886901855e-01 6.101726889610290527e-01 1.952669583261013031e-02
-1.010035052895545959e-01 3.222977221012115479e-01 -1.252161711454391479e-01
-1.004368439316749573e-01 3.410858213901519775e-01 -1.266867220401763916e-01
-7.858625054359436035e-02 3.230912983417510986e-01 -1.267626881599426270e-01
-7.908467203378677368e-02 3.420399725437164307e-01 -1.281094849109649658e-01
7.553229331970214844e-01 2.481854856014251709e-01 1.222672909498214722e-01
7.528334259986877441e-01 2.756269872188568115e-01 1.237234398722648621e-01
7.793474793434143066e-01 2.499364912509918213e-01 1.217374131083488464e-01
7.760085463523864746e-01 2.774046659469604492e-01 1.223100200295448303e-01
1.088738366961479187e-01 6.480170488357543945e-01 -1.224924549460411072e-01
1.086391359567642212e-01 6.707876920700073242e-01 -1.229175478219985962e-01
1.380019336938858032e-01 6.500645875930786133e-01 -1.242848336696624756e-01
1.372558474540710449e-01 6.733348369598388672e-01 -1.244169697165489197e-01
-6.307350993156433105e-01 -9.240099042654037476e-02 1.243410184979438782e-01
-6.315594315528869629e-01 -6.922484934329986572e-02 1.249148845672607422e-01
-6.041061878204345703e-01 -8.945868909358978271e-02 1.255854666233062744e-01
-6.051869392395019531e-01 -6.128880381584167480e-02 1.254815310239791870e-01
5.309391021728515625e-01 -2.335471659898757935e-01 1.247797533869743347e-01
5.335224866867065430e-01 -2.099795937538146973e-01 1.259226500988006592e-01
5.545424818992614746e-01 -2.279291301965713501e-01 1.240563914179801941e-01
5.569649934768676758e-01 -2.035921812057495117e-01 1.254417896270751953e-01
5.176761746406555176e-01 -7.934154868125915527e-01 3.016637638211250305e-02
5.250952839851379395e-01 -7.730376720428466797e-01 2.746199630200862885e-02
5.148658156394958496e-01 -7.873453497886657715e-01 5.699427053332328796e-02
5.196912884712219238e-01 -7.670486569404602051e-01 5.568291991949081421e-02
-2.571645379066467285e-01 -8.689065575599670410e-01 -1.171837598085403442e-01
-2.585104405879974365e-01 -8.571626543998718262e-01 -1.201332136988639832e-01
-2.398352921009063721e-01 -8.656178116798400879e-01 -1.195969358086585999e-01
-2.403333783149719238e-01 -8.545512557029724121e-01 -1.223845630884170532e-01
1.488343179225921631e-01 -3.589488267898559570e-01 1.242938935756683350e-01
1.507294774055480957e-01 -3.326957821846008301e-01 1.239328607916831970e-01
1.729055643081665039e-01 -3.543870747089385986e-01 1.222663819789886475e-01
1.736617535352706909e-01 -3.306400775909423828e-01 1.215190887451171875e-01
-1.520030498504638672e-01 -3.150535225868225098e-01 1.246429011225700378e-01
-1.552141755819320679e-01 -2.923927605152130127e-01 1.255310773849487305e-01
-1.272573620080947876e-01 -3.134309649467468262e-01 1.207600310444831848e-01
-1.305524259805679321e-01 -2.899886071681976318e-01 1.217967197299003601e-01
2.391290813684463501e-01 5.545933246612548828e-01 1.229916661977767944e-01
2.401220500469207764e-01 5.803714394569396973e-01 1.231762766838073730e-01
2.661381065845489502e-01 5.653403401374816895e-01 1.241004988551139832e-01
2.670680880546569824e-01 5.910801887512207031e-01 1.242000162601470947e-01
8.418796658515930176e-01 -2.275907993316650391e-01 -1.263240277767181396e-01
8.473421931266784668e-01 -2.074152082204818726e-01 -1.261251568794250488e-01
8.492323756217956543e-01 -2.279918938875198364e-01 -1.076874732971191406e-01
8.544409871101379395e-01 -2.079549133777618408e-01 -1.074735820293426514e-01
-8.546202182769775391e-01 -1.061223894357681274e-01 -6.274262070655822754e-02
-8.537476062774658203e-01 -8.085028827190399170e-02 -6.208023056387901306e-02
-8.569020628929138184e-01 -1.042027622461318970e-01 -4.205000400543212891e-02
-8.566341996192932129e-01 -7.847620546817779541e-02 -4.044226929545402527e-02
-5.190306305885314941e-01 -2.399939298629760742e-01 -1.244469434022903442e-01
-5.188238024711608887e-01 -2.208838909864425659e-01 -1.250218451023101807e-01
-4.925490021705627441e-01 -2.405069470405578613e-01 -1.256648898124694824e-01
-4.919887185096740723e-01 -2.208574563264846802e-01 -1.260371208190917969e-01
4.803255200386047363e-01 2.563432753086090088e-01 -1.256317347288131714e-01
4.774749577045440674e-01 2.847287654876708984e-01 -1.243347078561782837e-01
5.066705942153930664e-01 2.531690597534179688e-01 -1.282359063625335693e-01
5.037389993667602539e-01 2.813926935195922852e-01 -1.264674812555313110e-01
-2.582908272743225098e-01 -5.795658230781555176e-01 1.227174475789070129e-01
-2.550011277198791504e-01 -5.594670176506042480e-01 1.225776523351669312e-01
-2.332931458950042725e-01 -5.729967355728149414e-01 1.231210157275199890e-01
-2.306756526231765747e-01 -5.536003708839416504e-01 1.237104386091232300e-01
-5.669580101966857910e-01 5.732094645500183105e-01 -8.799564838409423828e-02
-5.603338479995727539e-01 5.920610427856445312e-01 -9.357207268476486206e-02
-5.548536777496337891e-01 5.744670033454895020e-01 -8.247333019971847534e-02
-5.483449697494506836e-01 5.932602882385253906e-01 -8.791407942771911621e-02
-2.304713428020477295e-01 6.865661144256591797e-01 1.216813772916793823e-01
-2.287693172693252563e-01 7.156542539596557617e-01 1.222986727952957153e-01
-2.040246427059173584e-01 6.951835155487060547e-01 1.212217509746551514e-01
-2.022696286439895630e-01 7.233162522315979004e-01 1.213915497064590454e-01
7.010111212730407715e-02 6.021800041198730469e-01 1.237762197852134705e-01
7.513321936130523682e-02 6.265301704406738281e-01 1.241296455264091492e-01
9.603305906057357788e-02 6.135434508323669434e-01 1.260245591402053833e-01
1.019585356116294861e-01 6.366805434226989746e-01 1.256381571292877197e-01
2.706571519374847412e-01 -1.931152790784835815e-01 1.223405525088310242e-01
2.731496393680572510e-01 -1.716293096542358398e-01 1.232915818691253662e-01
2.886541783809661865e-01 -1.875706166028976440e-01 1.214985474944114685e-01
2.913604080677032471e-01 -1.652466505765914917e-01 1.227057352662086487e-01
1.742218136787414551e-01 -8.592588305473327637e-01 9.500497020781040192e-03
1.612367033958435059e-01 -8.608280420303344727e-01 2.850400283932685852e-02
1.918081790208816528e-01 -8.576824665069580078e-01 2.269350737333297729e-02
1.790361851453781128e-01 -8.597637414932250977e-01 4.191626235842704773e-02
2.816497981548309326e-01 1.959723532199859619e-01 -1.257748752832412720e-01
2.875527143478393555e-01 2.204043567180633545e-01 -1.263452023267745972e-01
3.078489601612091064e-01 1.971617937088012695e-01 -1.274242401123046875e-01
3.135506510734558105e-01 2.219222486019134521e-01 -1.276338547468185425e-01
3.945207297801971436e-01 -2.337132692337036133e-01 1.232313662767410278e-01
3.934397399425506592e-01 -2.142788469791412354e-01 1.214724034070968628e-01
4.159734845161437988e-01 -2.356652021408081055e-01 1.218174919486045837e-01
4.141826331615447998e-01 -2.167400717735290527e-01 1.201624795794487000e-01
-4.090194702148437500e-01 9.252180904150009155e-02 1.240160018205642700e-01
-4.047535061836242676e-01 1.170351803302764893e-01 1.232101544737815857e-01
-3.847396075725555420e-01 9.950480610132217407e-02 1.236693188548088074e-01
-3.823845982551574707e-01 1.232628524303436279e-01 1.226234585046768188e-01
-3.248090147972106934e-01 -5.067380517721176147e-02 1.241007149219512939e-01
-3.224216699600219727e-01 -2.280519902706146240e-02 1.243449971079826355e-01
-3.005510866641998291e-01 -4.574822634458541870e-02 1.190020665526390076e-01
-2.974973618984222412e-01 -1.855626516044139862e-02 1.189797148108482361e-01
8.088654279708862305e-01 -2.859102189540863037e-01 -1.364286541938781738e-01
8.135247826576232910e-01 -2.650406360626220703e-01 -1.370475441217422485e-01
8.162660598754882812e-01 -2.888298034667968750e-01 -1.205843761563301086e-01
8.212574124336242676e-01 -2.686638832092285156e-01 -1.214082762598991394e-01
4.816974699497222900e-01 3.753719031810760498e-01 1.233826205134391785e-01
4.805620014667510986e-01 4.007689952850341797e-01 1.244757398962974548e-01
5.059680938720703125e-01 3.737975358963012695e-01 1.229757741093635559e-01
5.050989389419555664e-01 3.985931873321533203e-01 1.234204471111297607e-01
2.009897232055664062e-01 -2.540294080972671509e-02 1.219637244939804077e-01
2.020495533943176270e-01 -5.868315696716308594e-03 1.214226856827735901e-01
2.243183702230453491e-01 -2.386740595102310181e-02 1.233050897717475891e-01
2.258415967226028442e-01 -3.708565607666969299e-03 1.224786490201950073e-01
2.729866206645965576e-01 -6.626025438308715820e-01 1.237962245941162109e-01
2.776154875755310059e-01 -6.418702006340026855e-01 1.226805672049522400e-01
2.975893914699554443e-01 -6.596242189407348633e-01 1.234962716698646545e-01
3.018176555633544922e-01 -6.392662525177001953e-01 1.226842179894447327e-01
6.016584634780883789e-01 2.480591088533401489e-01 -1.295995414257049561e-01
6.024816036224365234e-01 2.729485630989074707e-01 -1.265433281660079956e-01
6.259092688560485840e-01 2.521454691886901855e-01 -1.287974566221237183e-01
6.291154623031616211e-01 2.759987413883209229e-01 -1.259516179561614990e-01
8.461564183235168457e-01 3.387481868267059326e-01 -7.695662975311279297e-02
8.516634106636047363e-01 3.612037897109985352e-01 -7.765326648950576782e-02
8.488169908523559570e-01 3.409338593482971191e-01 -5.683177337050437927e-02
8.542851805686950684e-01 3.637550473213195801e-01 -5.772389844059944153e-02
-3.884844183921813965e-01 -4.902842268347740173e-02 1.244777739048004150e-01
-3.875775635242462158e-01 -2.360162511467933655e-02 1.258611977100372314e-01
-3.614493608474731445e-01 -4.610158503055572510e-02 1.179672926664352417e-01
-3.612868487834930420e-01 -2.063379436731338501e-02 1.192652732133865356e-01
-3.172140568494796753e-03 5.084035992622375488e-01 1.247432380914688110e-01
-3.262095153331756592e-03 5.296987891197204590e-01 1.245219260454177856e-01
2.802740409970283508e-02 5.109290480613708496e-01 1.259629428386688232e-01
2.860651910305023193e-02 5.317226648330688477e-01 1.255925148725509644e-01
-5.924648642539978027e-01 4.308423101902008057e-01 -1.279833614826202393e-01
-5.903523564338684082e-01 4.469421803951263428e-01 -1.271061152219772339e-01
-5.724533796310424805e-01 4.377094209194183350e-01 -1.275387704372406006e-01
-5.732128024101257324e-01 4.568553268909454346e-01 -1.263104081153869629e-01
-8.906930685043334961e-02 4.789119660854339600e-01 1.235566586256027222e-01
-8.718720078468322754e-02 5.026242136955261230e-01 1.235149055719375610e-01
-6.863458454608917236e-02 4.818674921989440918e-01 1.228879466652870178e-01
-6.657239794731140137e-02 5.055883526802062988e-01 1.224079728126525879e-01
6.135070323944091797e-01 3.368559479713439941e-01 1.244685873389244080e-01
6.167631149291992188e-01 3.557387590408325195e-01 1.226775124669075012e-01
6.398099660873413086e-01 3.443326652050018311e-01 1.254083067178726196e-01
6.439620852470397949e-01 3.630370497703552246e-01 1.244378164410591125e-01
4.436972141265869141e-01 8.510926365852355957e-02 -1.252174228429794312e-01
4.467386901378631592e-01 1.062166690826416016e-01 -1.260592192411422729e-01
4.646433591842651367e-01 8.524990081787109375e-02 -1.263649761676788330e-01
4.686166644096374512e-01 1.072965487837791443e-01 -1.274570077657699585e-01
-1.649709939956665039e-01 8.437632322311401367e-01 -8.323723822832107544e-02
-1.781574189662933350e-01 8.563484549522399902e-01 -7.379416376352310181e-02
-1.495708078145980835e-01 8.513631224632263184e-01 -7.815614342689514160e-02
-1.695645749568939209e-01 8.542721271514892578e-01 -5.904887989163398743e-02
3.015948534011840820e-01 8.467191457748413086e-01 1.086563467979431152e-01
3.094204366207122803e-01 8.527262806892395020e-01 1.019160822033882141e-01
3.194623589515686035e-01 8.429401516914367676e-01 1.176657602190971375e-01
3.260690271854400635e-01 8.524144291877746582e-01 1.112042367458343506e-01
-1.423879340291023254e-02 5.448179244995117188e-01 1.239983066916465759e-01
-1.017574220895767212e-02 5.664671063423156738e-01 1.233268901705741882e-01
1.815948821604251862e-02 5.476766824722290039e-01 1.246286630630493164e-01
2.183805033564567566e-02 5.691023468971252441e-01 1.239155083894729614e-01
7.569944858551025391e-01 2.319721132516860962e-01 -1.252662539482116699e-01
7.613863348960876465e-01 2.516836822032928467e-01 -1.253552883863449097e-01
7.772175669670104980e-01 2.360926568508148193e-01 -1.240043640136718750e-01
7.827750444412231445e-01 2.556462585926055908e-01 -1.244532242417335510e-01
2.730968296527862549e-01 -3.927145600318908691e-01 1.243023499846458435e-01
2.720974087715148926e-01 -3.748315870761871338e-01 1.235069334506988525e-01
2.958872914314270020e-01 -3.928793966770172119e-01 1.238927617669105530e-01
2.949675619602203369e-01 -3.746263384819030762e-01 1.233396455645561218e-01
8.483589887619018555e-01 2.695226073265075684e-01 -8.913612924516201019e-03
8.522069454193115234e-01 2.977683842182159424e-01 -1.182549912482500076e-02
8.481960296630859375e-01 2.692072987556457520e-01 1.463205181062221527e-02
8.514745831489562988e-01 2.983307540416717529e-01 1.171745546162128448e-02
-7.552034854888916016e-01 -5.116251111030578613e-01 -1.268579512834548950e-01
-7.663018703460693359e-01 -4.958858788013458252e-01 -1.223001256585121155e-01
-7.337633967399597168e-01 -5.107323527336120605e-01 -1.267772763967514038e-01
-7.452893257141113281e-01 -4.964757263660430908e-01 -1.199333593249320984e-01
4.285680651664733887e-01 -4.686290621757507324e-01 -1.253877431154251099e-01
4.279025197029113770e-01 -4.481414258480072021e-01 -1.267564445734024048e-01
4.496964216232299805e-01 -4.691617488861083984e-01 -1.258431524038314819e-01
4.497542381286621094e-01 -4.484878480434417725e-01 -1.280629932880401611e-01
-8.555769920349121094e-01 -4.796696603298187256e-01 -1.227333173155784607e-01
-8.579353094100952148e-01 -4.612618684768676758e-01 -1.264657825231552124e-01
-8.558987379074096680e-01 -4.813081324100494385e-01 -1.062247082591056824e-01
-8.585733175277709961e-01 -4.618275761604309082e-01 -1.099585369229316711e-01
-2.292651087045669556e-01 2.512358725070953369e-01 -1.234615594148635864e-01
-2.283481061458587646e-01 2.720489799976348877e-01 -1.240398138761520386e-01
-2.034842669963836670e-01 2.554988861083984375e-01 -1.246809661388397217e-01
-2.028557509183883667e-01 2.775600850582122803e-01 -1.247144266963005066e-01
-7.057450413703918457e-01 -4.850921630859375000e-01 -1.286014765501022339e-01
-7.117716670036315918e-01 -4.717628657817840576e-01 -1.190789490938186646e-01
-6.871703863143920898e-01 -4.845840632915496826e-01 -1.205229535698890686e-01
-6.927794814109802246e-01 -4.712910652160644531e-01 -1.118881180882453918e-01
9.011000394821166992e-02 7.550490498542785645e-01 1.246012747287750244e-01
9.519899636507034302e-02 7.767431139945983887e-01 1.232900992035865784e-01
1.166502386331558228e-01 7.602196335792541504e-01 1.235155537724494934e-01
1.227619200944900513e-01 7.818221449851989746e-01 1.224514171481132507e-01
-5.057301521301269531e-01 -8.613556027412414551e-01 7.434554398059844971e-02
-5.154610872268676758e-01 -8.422664403915405273e-01 8.663967251777648926e-02
-4.959513843059539795e-01 -8.630042672157287598e-01 8.717379719018936157e-02
-5.044734477996826172e-01 -8.426555395126342773e-01 9.835249185562133789e-02
-1.084443256258964539e-01 2.554573118686676025e-01 1.225791126489639282e-01
-1.032163351774215698e-01 2.809293568134307861e-01 1.225589886307716370e-01
-7.849872857332229614e-02 2.670091688632965088e-01 1.247582286596298218e-01
-7.379112392663955688e-02 2.916263043880462646e-01 1.246658712625503540e-01
5.980945229530334473e-01 -1.301812380552291870e-01 1.233025789260864258e-01
5.982630848884582520e-01 -1.068597882986068726e-01 1.218016967177391052e-01
6.283878087997436523e-01 -1.305342316627502441e-01 1.232490241527557373e-01
6.278177499771118164e-01 -1.079375073313713074e-01 1.220862865447998047e-01
-1.982756257057189941e-01 6.418083310127258301e-01 -1.242719888687133789e-01
-1.930039972066879272e-01 6.638790369033813477e-01 -1.249102577567100525e-01
-1.697172522544860840e-01 6.430439352989196777e-01 -1.232286468148231506e-01
-1.646671146154403687e-01 6.659011840820312500e-01 -1.235766038298606873e-01
5.210660696029663086e-01 6.524550914764404297e-01 -4.419083893299102783e-02
5.197110772132873535e-01 6.723309159278869629e-01 -4.123390093445777893e-02
5.214424729347229004e-01 6.556611657142639160e-01 -2.152211219072341919e-02
5.202153325080871582e-01 6.745899915695190430e-01 -1.868543215095996857e-02
-7.597171068191528320e-01 -2.125826179981231689e-01 1.227071732282638550e-01
-7.575568556785583496e-01 -1.948486864566802979e-01 1.217959523200988770e-01
-7.410781383514404297e-01 -2.133465260267257690e-01 1.220893114805221558e-01
-7.382366657257080078e-01 -1.952846050262451172e-01 1.208585351705551147e-01
-4.325459301471710205e-01 8.473096489906311035e-01 -2.250487543642520905e-02
-4.513684511184692383e-01 8.456562757492065430e-01 1.588081009685993195e-03
-4.166041910648345947e-01 8.540816903114318848e-01 -6.858668290078639984e-03
-4.375891983509063721e-01 8.511026501655578613e-01 1.825029402971267700e-02
-6.577616184949874878e-02 5.918870568275451660e-01 1.239917725324630737e-01
-5.431493371725082397e-02 6.184782385826110840e-01 1.227661967277526855e-01
-3.910491988062858582e-02 5.989230275154113770e-01 1.225153729319572449e-01
-2.741721272468566895e-02 6.252657771110534668e-01 1.213598996400833130e-01
-5.170956850051879883e-01 -2.202381044626235962e-01 -1.260247826576232910e-01
-5.162153840065002441e-01 -2.014790028333663940e-01 -1.269708126783370972e-01
-4.907610118389129639e-01 -2.215800136327743530e-01 -1.261410862207412720e-01
-4.892773330211639404e-01 -2.026021480560302734e-01 -1.269408911466598511e-01
-6.423421502113342285e-01 1.032897904515266418e-01 -1.245736330747604370e-01
-6.441174149513244629e-01 1.242363750934600830e-01 -1.256388574838638306e-01
-6.196271181106567383e-01 1.051742658019065857e-01 -1.260371953248977661e-01
-6.207084655761718750e-01 1.263792067766189575e-01 -1.267072111368179321e-01
-6.888859272003173828e-01 1.167174726724624634e-01 -1.248592287302017212e-01
-6.927136778831481934e-01 1.379254311323165894e-01 -1.263478547334671021e-01
-6.669305562973022461e-01 1.139263361692428589e-01 -1.268233656883239746e-01
-6.701546907424926758e-01 1.349676996469497681e-01 -1.282525509595870972e-01
3.764444217085838318e-02 -3.156386613845825195e-01 1.247994378209114075e-01
3.797404095530509949e-02 -2.904554009437561035e-01 1.232965961098670959e-01
6.442431360483169556e-02 -3.101032376289367676e-01 1.236008629202842712e-01
6.505977362394332886e-02 -2.831073701381683350e-01 1.236967891454696655e-01
-8.244960308074951172e-01 -4.930340647697448730e-01 -1.192988380789756775e-01
-8.263461589813232422e-01 -4.746455550193786621e-01 -1.225180551409721375e-01
-8.000007271766662598e-01 -4.964645206928253174e-01 -1.205191388726234436e-01
-8.032355904579162598e-01 -4.786166846752166748e-01 -1.226276382803916931e-01
2.422170788049697876e-01 -3.902313113212585449e-01 1.236547753214836121e-01
2.410773038864135742e-01 -3.720626235008239746e-01 1.223297193646430969e-01
2.638054788112640381e-01 -3.909181356430053711e-01 1.226275563240051270e-01
2.628328204154968262e-01 -3.730653822422027588e-01 1.219589859247207642e-01
5.953590273857116699e-01 2.570082843303680420e-01 -1.285284310579299927e-01
5.959566831588745117e-01 2.823640108108520508e-01 -1.255172789096832275e-01
6.195940375328063965e-01 2.666168212890625000e-01 -1.279987394809722900e-01
6.226184964179992676e-01 2.906976342201232910e-01 -1.249081417918205261e-01
-1.261753682047128677e-02 2.748155593872070312e-01 1.244245395064353943e-01
-1.215228438377380371e-02 2.970672249794006348e-01 1.244369447231292725e-01
1.305280253291130066e-02 2.787251174449920654e-01 1.230370029807090759e-01
1.398199331015348434e-02 3.005201220512390137e-01 1.228363439440727234e-01
-8.404020220041275024e-02 -8.582488894462585449e-01 3.674261271953582764e-02
-9.686113148927688599e-02 -8.644305467605590820e-01 6.142123788595199585e-02
-6.705366075038909912e-02 -8.517698049545288086e-01 4.231212288141250610e-02
-7.930938899517059326e-02 -8.573852181434631348e-01 6.671784818172454834e-02
3.587603271007537842e-01 3.227990865707397461e-01 -1.241912543773651123e-01
3.660587966442108154e-01 3.474972844123840332e-01 -1.262185424566268921e-01
3.861973881721496582e-01 3.274153769016265869e-01 -1.241683512926101685e-01
3.943380117416381836e-01 3.530489206314086914e-01 -1.260979622602462769e-01
-4.090571030974388123e-02 1.540824621915817261e-01 -1.216761246323585510e-01
-4.673670604825019836e-02 1.815301477909088135e-01 -1.233666464686393738e-01
-1.391037832945585251e-02 1.478987336158752441e-01 -1.221046447753906250e-01
-1.934700086712837219e-02 1.751464605331420898e-01 -1.238901168107986450e-01
-2.497922927141189575e-01 1.406527459621429443e-01 1.234962940216064453e-01
-2.506126165390014648e-01 1.611783504486083984e-01 1.229620203375816345e-01
-2.279181629419326782e-01 1.403415501117706299e-01 1.220766380429267883e-01
-2.277737259864807129e-01 1.607416868209838867e-01 1.212691664695739746e-01
-3.536290824413299561e-01 1.103693097829818726e-01 -1.249984279274940491e-01
-3.502099812030792236e-01 1.366948783397674561e-01 -1.242552697658538818e-01
-3.274377882480621338e-01 1.179005801677703857e-01 -1.230519339442253113e-01
-3.248640298843383789e-01 1.433290988206863403e-01 -1.228102818131446838e-01
-5.312644243240356445e-01 -5.961961150169372559e-01 1.128385886549949646e-01
-5.301880836486816406e-01 -5.755442380905151367e-01 1.227108761668205261e-01
-5.190677642822265625e-01 -5.900985598564147949e-01 1.237767636775970459e-01
-5.170484185218811035e-01 -5.692625641822814941e-01 1.305015236139297485e-01
-1.465599834918975830e-01 -6.233064532279968262e-01 -1.279843449592590332e-01
-1.361373513936996460e-01 -5.954387784004211426e-01 -1.255668252706527710e-01
-1.247040554881095886e-01 -6.178015470504760742e-01 -1.295781731605529785e-01
-1.145412996411323547e-01 -5.897831916809082031e-01 -1.274000704288482666e-01
-1.147340238094329834e-01 -9.886000305414199829e-03 1.215269267559051514e-01
-1.114847958087921143e-01 1.497198082506656647e-02 1.223486289381980896e-01
-8.469740301370620728e-02 -3.096590749919414520e-03 1.238578110933303833e-01
-8.133760839700698853e-02 2.264495752751827240e-02 1.244868859648704529e-01
7.280969619750976562e-01 5.095182657241821289e-01 -2.956224977970123291e-02
7.133335471153259277e-01 5.150871872901916504e-01 -1.687237620353698730e-02
7.437564134597778320e-01 5.033465623855590820e-01 -1.337562408298254013e-02
7.279081344604492188e-01 5.086025595664978027e-01 -1.697455067187547684e-03
-3.641759753227233887e-01 5.750726461410522461e-01 1.251393556594848633e-01
-3.587337434291839600e-01 5.977715849876403809e-01 1.230143234133720398e-01
-3.441569209098815918e-01 5.806709527969360352e-01 1.227865293622016907e-01
-3.376540243625640869e-01 6.029074192047119141e-01 1.210097000002861023e-01
9.714213758707046509e-02 1.343660801649093628e-01 1.215133890509605408e-01
9.729170799255371094e-02 1.586161404848098755e-01 1.223492100834846497e-01
1.254505962133407593e-01 1.364184468984603882e-01 1.216210052371025085e-01
1.258471757173538208e-01 1.609649658203125000e-01 1.224650964140892029e-01
5.234541296958923340e-01 -4.905114769935607910e-01 1.201509460806846619e-01
5.250448584556579590e-01 -4.687883853912353516e-01 1.214445605874061584e-01
5.443710684776306152e-01 -4.863492250442504883e-01 1.189866960048675537e-01
5.455665588378906250e-01 -4.656237065792083740e-01 1.203613951802253723e-01
-4.591425359249114990e-01 -5.275617837905883789e-01 -1.271686404943466187e-01
-4.555314779281616211e-01 -5.061905980110168457e-01 -1.271323412656784058e-01
-4.355805218219757080e-01 -5.248274207115173340e-01 -1.273784488439559937e-01
-4.335242807865142822e-01 -5.042534470558166504e-01 -1.270822286605834961e-01
5.762418508529663086e-01 3.360015749931335449e-01 -1.270779371261596680e-01
5.812286138534545898e-01 3.597477674484252930e-01 -1.237636655569076538e-01
6.012871861457824707e-01 3.460115194320678711e-01 -1.258956193923950195e-01
6.065917611122131348e-01 3.697277605533599854e-01 -1.220863386988639832e-01
-4.574681222438812256e-01 7.460026741027832031e-01 1.226406544446945190e-01
-4.567050337791442871e-01 7.660664916038513184e-01 1.202202290296554565e-01
-4.439937472343444824e-01 7.506001591682434082e-01 1.229973137378692627e-01
