-2.028536349534988403e-01 -2.886674832552671432e-03 -3.300226628780364990e-01
-2.069841623306274414e-01 9.798156097531318665e-03 -3.284865617752075195e-01
1.343233138322830200e-01 -1.686912029981613159e-02 -4.267688491381704807e-04
1.386461853981018066e-01 -2.912122290581464767e-03 9.725468698889017105e-04
1.338624358177185059e-01 -1.240665279328823090e-02 1.697878167033195496e-02
1.372668147087097168e-01 2.137847710400819778e-03 1.907641999423503876e-02
1.188406050205230713e-01 2.897126674652099609e-01 -7.866773605346679688e-01
1.153952851891517639e-01 3.027043342590332031e-01 -7.852490544319152832e-01
1.247316598892211914e-01 2.889384329319000244e-01 -7.755507826805114746e-01
1.220651268959045410e-01 3.018239736557006836e-01 -7.746438980102539062e-01
-7.382555305957794189e-02 9.328205138444900513e-02 6.037830710411071777e-01
-8.077618479728698730e-02 1.038832888007164001e-01 6.088576316833496094e-01
-6.794462352991104126e-02 8.584112673997879028e-02 6.141878962516784668e-01
-7.526149600744247437e-02 9.590039402246475220e-02 6.206231117248535156e-01
-1.306718885898590088e-01 -1.901121586561203003e-01 -8.165240883827209473e-01
-1.270456612110137939e-01 -1.758708208799362183e-01 -8.191501498222351074e-01
-1.335895061492919922e-01 -1.853240728378295898e-01 -8.053962588310241699e-01
-1.298533082008361816e-01 -1.708551943302154541e-01 -8.084571957588195801e-01
-6.328867375850677490e-02 -2.950824499130249023e-01 4.351623728871345520e-02
-6.644761562347412109e-02 -2.784712910652160645e-01 4.340980201959609985e-02
-5.280889570713043213e-02 -2.899645566940307617e-01 4.815224930644035339e-02
-5.609431862831115723e-02 -2.720081210136413574e-01 4.800668358802795410e-02
1.720800846815109253e-01 1.507335603237152100e-01 2.014999464154243469e-02
1.696010529994964600e-01 1.611103564500808716e-01 2.399239875376224518e-02
1.686275452375411987e-01 1.498420238494873047e-01 3.488985076546669006e-02
1.663538813591003418e-01 1.605667471885681152e-01 3.856752440333366394e-02
-1.998078227043151855e-01 4.800148680806159973e-02 -5.185102224349975586e-01
-2.026394456624984741e-01 6.467210501432418823e-02 -5.213124155998229980e-01
-1.991893947124481201e-01 5.040930211544036865e-02 -5.074369907379150391e-01
-2.017435878515243530e-01 6.785810738801956177e-02 -5.099026560783386230e-01
-5.885942652821540833e-02 -3.058630526065826416e-01 -7.896701693534851074e-01
-5.911631137132644653e-02 -2.904633879661560059e-01 -7.893387079238891602e-01
-5.827334895730018616e-02 -3.022944629192352295e-01 -7.789918780326843262e-01
-5.718429014086723328e-02 -2.877080738544464111e-01 -7.786144614219665527e-01
-9.033888578414916992e-02 1.578682810068130493e-01 5.614202022552490234e-01
-9.137832373380661011e-02 1.728790104389190674e-01 5.598026514053344727e-01
-8.797652274370193481e-02 1.549738794565200806e-01 5.767145752906799316e-01
-8.959900587797164917e-02 1.694577485322952271e-01 5.748161077499389648e-01
2.843748405575752258e-02 3.543480932712554932e-01 5.504748225212097168e-01
2.201212570071220398e-02 3.579263985157012939e-01 5.563812851905822754e-01
3.912169858813285828e-02 3.522265553474426270e-01 5.594273209571838379e-01
3.292167931795120239e-02 3.552967011928558350e-01 5.654935240745544434e-01
-1.232632324099540710e-01 -1.165468096733093262e-01 -3.001720011234283447e-01
-1.315678656101226807e-01 -1.089434996247291565e-01 -2.930850088596343994e-01
-1.181927919387817383e-01 -1.222648471593856812e-01 -2.865998148918151855e-01
-1.264896541833877563e-01 -1.145461201667785645e-01 -2.792744934558868408e-01
1.795945316553115845e-01 2.279873490333557129e-01 -5.704252719879150391e-01
1.784936040639877319e-01 2.391618639230728149e-01 -5.663322806358337402e-01
1.793275922536849976e-01 2.291284799575805664e-01 -5.571548342704772949e-01
1.778352558612823486e-01 2.410847395658493042e-01 -5.525528192520141602e-01
5.601974204182624817e-03 2.342858463525772095e-01 -8.318682312965393066e-01
1.778837991878390312e-03 2.520725727081298828e-01 -8.308393359184265137e-01
2.191196754574775696e-02 2.373387664556503296e-01 -8.279951214790344238e-01
1.891207322478294373e-02 2.544957399368286133e-01 -8.271433115005493164e-01
1.312127858400344849e-01 -3.866499066352844238e-01 -7.667590379714965820e-01
1.269323676824569702e-01 -3.729076385498046875e-01 -7.650450468063354492e-01
1.289540529251098633e-01 -3.911866843700408936e-01 -7.530446648597717285e-01
1.232606768608093262e-01 -3.765936791896820068e-01 -7.504482865333557129e-01
5.236110463738441467e-02 3.779664337635040283e-01 -7.073100805282592773e-01
4.035408794879913330e-02 3.865928053855895996e-01 -7.037434577941894531e-01
6.696273386478424072e-02 3.737828135490417480e-01 -6.947541236877441406e-01
5.472613498568534851e-02 3.810442984104156494e-01 -6.914545297622680664e-01
-1.435843259096145630e-01 -4.792357236146926880e-02 -6.030361652374267578e-01
-1.491986364126205444e-01 -3.918883204460144043e-02 -5.970352292060852051e-01
-1.362728625535964966e-01 -4.634620249271392822e-02 -5.937571525573730469e-01
-1.426453441381454468e-01 -3.906247019767761230e-02 -5.869258046150207520e-01
1.399654448032379150e-01 2.058290988206863403e-01 -7.622231841087341309e-01
1.447961330413818359e-01 2.191814035177230835e-01 -7.636324167251586914e-01
1.459305733442306519e-01 2.051932215690612793e-01 -7.504231929779052734e-01
1.501358896493911743e-01 2.184679508209228516e-01 -7.513296604156494141e-01
1.057720035314559937e-01 2.135297954082489014e-01 6.344168782234191895e-01
1.049874424934387207e-01 2.290579527616500854e-01 6.340260505676269531e-01
1.066634356975555420e-01 2.195016592741012573e-01 6.483514308929443359e-01
1.046661809086799622e-01 2.340863347053527832e-01 6.493121981620788574e-01
5.624513328075408936e-02 8.614373952150344849e-02 -8.192781805992126465e-01
5.133435502648353577e-02 1.039513945579528809e-01 -8.208205103874206543e-01
6.954416632652282715e-02 8.692090213298797607e-02 -8.124455213546752930e-01
6.522429734468460083e-02 1.045360341668128967e-01 -8.143010139465332031e-01
-2.038248032331466675e-01 6.217861175537109375e-02 -5.533268302679061890e-02
-2.043104916810989380e-01 7.689826190471649170e-02 -5.442235246300697327e-02
-2.025882899761199951e-01 6.467297673225402832e-02 -4.289840534329414368e-02
-2.025991082191467285e-01 7.919587194919586182e-02 -4.143827408552169800e-02
1.402229070663452148e-01 2.395157665014266968e-01 1.096339598298072815e-01
1.368694752454757690e-01 2.503480613231658936e-01 1.126853302121162415e-01
1.391792148351669312e-01 2.402001917362213135e-01 1.208656206727027893e-01
1.355693489313125610e-01 2.505707144737243652e-01 1.243409886956214905e-01
3.148818388581275940e-02 -1.368168741464614868e-04 -7.888025641441345215e-01
1.924498565495014191e-02 1.244422234594821930e-02 -7.840236425399780273e-01
3.763499855995178223e-02 -9.554890915751457214e-03 -7.778551578521728516e-01
2.538437955081462860e-02 2.833244856446981430e-03 -7.732554674148559570e-01
-5.173831433057785034e-02 -2.699264287948608398e-01 7.524809241294860840e-02
-5.307332053780555725e-02 -2.532604038715362549e-01 7.444297522306442261e-02
-5.198755860328674316e-02 -2.621088027954101562e-01 8.562096208333969116e-02
-5.201910063624382019e-02 -2.456543147563934326e-01 8.498058468103408813e-02
-1.664875596761703491e-01 -3.510104864835739136e-02 -7.259564995765686035e-01
-1.666075736284255981e-01 -2.177835628390312195e-02 -7.240175604820251465e-01
-1.708721220493316650e-01 -3.067855536937713623e-02 -7.146770954132080078e-01
-1.717350184917449951e-01 -1.678199321031570435e-02 -7.128394246101379395e-01
-3.753744438290596008e-02 8.808661252260208130e-02 -8.234630227088928223e-01
-3.967512026429176331e-02 1.043434813618659973e-01 -8.246772289276123047e-01
-2.584988251328468323e-02 8.632095903158187866e-02 -8.240618705749511719e-01
-2.722111344337463379e-02 1.026421189308166504e-01 -8.262553215026855469e-01
-4.412462934851646423e-02 3.635897338390350342e-01 4.327364861965179443e-01
-2.903349697589874268e-02 3.695003092288970947e-01 4.291342198848724365e-01
-2.883369475603103638e-02 3.677498102188110352e-01 4.440944194793701172e-01
-1.507598534226417542e-02 3.738695681095123291e-01 4.403688013553619385e-01
-4.726761206984519958e-02 1.477822661399841309e-01 -8.426569700241088867e-01
-4.435674101114273071e-02 1.642381846904754639e-01 -8.445839285850524902e-01
-3.630818426609039307e-02 1.502440720796585083e-01 -8.443786501884460449e-01
-3.368501365184783936e-02 1.669688522815704346e-01 -8.463203310966491699e-01
-1.471584141254425049e-01 -1.791892349720001221e-01 -7.259061932563781738e-01
-1.501349955797195435e-01 -1.639959365129470825e-01 -7.270454764366149902e-01
-1.441478580236434937e-01 -1.770816892385482788e-01 -7.150709033012390137e-01
-1.473503261804580688e-01 -1.620712131261825562e-01 -7.152277827262878418e-01
5.319938063621520996e-02 -1.794016957283020020e-01 -7.658380270004272461e-01
5.207866057753562927e-02 -1.626136600971221924e-01 -7.644401192665100098e-01
5.270897597074508667e-02 -1.755182445049285889e-01 -7.521390318870544434e-01
5.187773704528808594e-02 -1.589639633893966675e-01 -7.513820528984069824e-01
5.519218370318412781e-02 3.802431225776672363e-01 -7.035925984382629395e-01
4.318493604660034180e-02 3.889261782169342041e-01 -7.000288963317871094e-01
6.700594723224639893e-02 3.756859004497528076e-01 -6.938821673393249512e-01
5.466013029217720032e-02 3.831776976585388184e-01 -6.904523372650146484e-01
1.329180151224136353e-01 -4.038064181804656982e-02 -4.352701008319854736e-01
1.423734128475189209e-01 -2.586247399449348450e-02 -4.407205879688262939e-01
1.398970335721969604e-01 -4.048753157258033752e-02 -4.197955429553985596e-01
1.494322121143341064e-01 -2.560964226722717285e-02 -4.252248108386993408e-01
4.411352053284645081e-02 -5.719823017716407776e-02 -7.557975649833679199e-01
4.151754826307296753e-02 -4.259430244565010071e-02 -7.525834441184997559e-01
4.172071442008018494e-02 -5.435223132371902466e-02 -7.387050390243530273e-01
3.932284563779830933e-02 -4.131923615932464600e-02 -7.366529107093811035e-01
-1.189119964838027954e-01 6.752234697341918945e-02 -8.076891899108886719e-01
-1.149148866534233093e-01 8.091446757316589355e-02 -8.086900711059570312e-01
-1.109125614166259766e-01 6.980784982442855835e-02 -8.110066056251525879e-01
-1.069680005311965942e-01 8.304193615913391113e-02 -8.118872046470642090e-01
-1.125202402472496033e-01 -3.582177758216857910e-01 3.486339747905731201e-02
-1.107720062136650085e-01 -3.417695462703704834e-01 3.692287579178810120e-02
-1.179581657052040100e-01 -3.535465002059936523e-01 4.477513954043388367e-02
-1.186484321951866150e-01 -3.371959924697875977e-01 4.730188474059104919e-02
-6.061517819762229919e-02 -2.297236770391464233e-01 1.218288838863372803e-01
-6.298518925905227661e-02 -2.178951352834701538e-01 1.262008547782897949e-01
-5.831067264080047607e-02 -2.258698940277099609e-01 1.283290833234786987e-01
-6.127253919839859009e-02 -2.144280076026916504e-01 1.333220303058624268e-01
1.134506464004516602e-01 3.369604647159576416e-01 -7.066594362258911133e-01
1.058006733655929565e-01 3.464022278785705566e-01 -6.995304822921752930e-01
1.199397295713424683e-01 3.347979187965393066e-01 -6.913813948631286621e-01
1.119170486927032471e-01 3.450746536254882812e-01 -6.840091347694396973e-01
6.499795615673065186e-02 -2.308784276247024536e-01 -7.484264969825744629e-01
6.242009624838829041e-02 -2.147544473409652710e-01 -7.503135204315185547e-01
6.912091374397277832e-02 -2.317667156457901001e-01 -7.381300330162048340e-01
6.627149879932403564e-02 -2.157657742500305176e-01 -7.398461103439331055e-01
6.933214515447616577e-02 9.982056915760040283e-02 5.097469687461853027e-01
7.613203674554824829e-02 1.136840209364891052e-01 5.051990151405334473e-01
7.536727190017700195e-02 9.720332920551300049e-02 5.267212390899658203e-01
8.189429342746734619e-02 1.109666451811790466e-01 5.215021371841430664e-01
-8.168552815914154053e-02 3.936274945735931396e-01 5.223491787910461426e-02
-6.947683542966842651e-02 4.056130647659301758e-01 4.629093781113624573e-02
-7.472523301839828491e-02 3.982875347137451172e-01 6.651774793863296509e-02
-6.240739673376083374e-02 4.097024202346801758e-01 6.029241532087326050e-02
5.540912598371505737e-02 -4.237555265426635742e-01 3.550646081566810608e-02
5.765292420983314514e-02 -4.090293347835540771e-01 3.987806290388107300e-02
6.203883886337280273e-02 -4.188247919082641602e-01 4.159755259752273560e-02
6.440364569425582886e-02 -4.044219255447387695e-01 4.578904807567596436e-02
6.955463439226150513e-02 3.956829011440277100e-01 -5.181366205215454102e-01
5.292706936597824097e-02 4.006664752960205078e-01 -5.085560679435729980e-01
8.217602968215942383e-02 3.896858394145965576e-01 -5.075951218605041504e-01
6.591730564832687378e-02 3.956166207790374756e-01 -4.985745251178741455e-01
8.766920864582061768e-02 2.915349304676055908e-01 2.704001069068908691e-01
8.299618214368820190e-02 3.022568821907043457e-01 2.741594612598419189e-01
8.599591255187988281e-02 2.898040115833282471e-01 2.846599221229553223e-01
8.147308975458145142e-02 3.005786538124084473e-01 2.884050309658050537e-01
-1.457403004169464111e-01 -5.439499616622924805e-01 -7.450132966041564941e-01
-1.521717607975006104e-01 -5.330207943916320801e-01 -7.361042499542236328e-01
-1.427959799766540527e-01 -5.449744462966918945e-01 -7.342048883438110352e-01
-1.484212577342987061e-01 -5.350451469421386719e-01 -7.262427806854248047e-01
-1.029068604111671448e-01 1.057748124003410339e-01 -8.208518028259277344e-01
-1.010304391384124756e-01 1.207156479358673096e-01 -8.209726214408874512e-01
-9.352453052997589111e-02 1.099049374461174011e-01 -8.252477645874023438e-01
-9.197691828012466431e-02 1.246944367885589600e-01 -8.253003954887390137e-01
-8.123395591974258423e-02 -3.185464739799499512e-01 1.179854124784469604e-01
-8.224757760763168335e-02 -3.052156567573547363e-01 1.255077570676803589e-01
-6.972272694110870361e-02 -3.147673606872558594e-01 1.176309660077095032e-01
-7.070121914148330688e-02 -3.013559877872467041e-01 1.253103315830230713e-01
-1.268245428800582886e-01 8.463082462549209595e-02 -8.025041818618774414e-01
-1.231235414743423462e-01 9.826587885618209839e-02 -8.034644722938537598e-01
-1.212610751390457153e-01 8.666432648897171021e-02 -8.048259019851684570e-01
-1.174993440508842468e-01 9.982065856456756592e-02 -8.054721951484680176e-01
-9.057577699422836304e-02 -5.607692003250122070e-01 -7.586056590080261230e-01
-9.599994122982025146e-02 -5.615202784538269043e-01 -7.465968132019042969e-01
-7.886634021997451782e-02 -5.582064390182495117e-01 -7.495126724243164062e-01
-8.454977720975875854e-02 -5.593900084495544434e-01 -7.367399334907531738e-01
6.549750268459320068e-02 3.936945497989654541e-01 -4.700640738010406494e-01
4.808525368571281433e-02 3.945736885070800781e-01 -4.660651683807373047e-01
7.580567151308059692e-02 3.912310600280761719e-01 -4.612503647804260254e-01
5.984202399849891663e-02 3.927564620971679688e-01 -4.572141170501708984e-01
-4.452519491314888000e-02 -1.605322957038879395e-01 -9.515093266963958740e-02
-5.651941522955894470e-02 -1.576099395751953125e-01 -8.952514827251434326e-02
-3.186922892928123474e-02 -1.618596315383911133e-01 -8.662977069616317749e-02
-4.504597187042236328e-02 -1.595472544431686401e-01 -8.133193850517272949e-02
2.843128889799118042e-02 3.990810513496398926e-01 -8.188288658857345581e-02
1.402865536510944366e-02 4.008300304412841797e-01 -7.271136343479156494e-02
4.235826432704925537e-02 3.973392546176910400e-01 -7.024744153022766113e-02
2.739131264388561249e-02 4.004015922546386719e-01 -6.212375313043594360e-02
5.833074450492858887e-02 3.797245919704437256e-01 -7.487004250288009644e-02
4.495245218276977539e-02 3.844355046749114990e-01 -6.814061105251312256e-02
6.927532702684402466e-02 3.735385537147521973e-01 -6.141300126910209656e-02
5.808684229850769043e-02 3.824910521507263184e-01 -5.772470310330390930e-02
1.552842557430267334e-01 -4.547508358955383301e-01 -8.062168359756469727e-01
1.536401063203811646e-01 -4.370524585247039795e-01 -8.032842278480529785e-01
1.554676443338394165e-01 -4.521283209323883057e-01 -7.923755645751953125e-01
1.525614261627197266e-01 -4.358358085155487061e-01 -7.886757254600524902e-01
-8.714185655117034912e-02 -1.181253045797348022e-01 2.210864722728729248e-01
-9.093505144119262695e-02 -1.093926280736923218e-01 2.266956269741058350e-01
-7.770280539989471436e-02 -1.179843917489051819e-01 2.322402447462081909e-01
-8.115863800048828125e-02 -1.087190434336662292e-01 2.374007552862167358e-01
-1.709533482789993286e-01 -6.222092360258102417e-02 -1.457064300775527954e-01
-1.769551485776901245e-01 -5.124323815107345581e-02 -1.403249055147171021e-01
-1.646961718797683716e-01 -6.627324223518371582e-02 -1.314813345670700073e-01
-1.712734997272491455e-01 -5.437854677438735962e-02 -1.265859007835388184e-01
6.582380831241607666e-02 3.258392512798309326e-01 5.634736418724060059e-01
5.924292653799057007e-02 3.345318734645843506e-01 5.663553476333618164e-01
6.926954537630081177e-02 3.245191872119903564e-01 5.706797838211059570e-01
6.280691921710968018e-02 3.337549567222595215e-01 5.732491016387939453e-01
6.866145879030227661e-02 -6.257752329111099243e-02 -5.501220822334289551e-01
8.285493403673171997e-02 -5.340915545821189880e-02 -5.517844557762145996e-01
7.688106596469879150e-02 -5.695635825395584106e-02 -5.354230403900146484e-01
9.112330526113510132e-02 -4.778154194355010986e-02 -5.376127362251281738e-01
-1.485841162502765656e-02 5.689937248826026917e-02 6.444516777992248535e-01
-2.730496972799301147e-02 6.015701219439506531e-02 6.523054242134094238e-01
-9.418683126568794250e-03 5.222392827272415161e-02 6.553095579147338867e-01
-2.184991724789142609e-02 5.535805225372314453e-02 6.631850004196166992e-01
-6.891509518027305603e-03 3.910638093948364258e-01 3.184796273708343506e-01
-1.970644295215606689e-02 3.929226994514465332e-01 3.278264999389648438e-01
2.048477297648787498e-03 3.883336782455444336e-01 3.302958309650421143e-01
-1.111491583287715912e-02 3.907006382942199707e-01 3.391654491424560547e-01
1.018575504422187805e-01 2.555412650108337402e-01 2.869726121425628662e-01
9.674615412950515747e-02 2.679845392704010010e-01 2.921924293041229248e-01
9.932709485292434692e-02 2.558601200580596924e-01 3.003663122653961182e-01
9.401965141296386719e-02 2.683519721031188965e-01 3.058427572250366211e-01
9.001261740922927856e-02 2.841761112213134766e-01 2.941302657127380371e-01
8.545225113630294800e-02 2.953476309776306152e-01 2.978897392749786377e-01
8.836428076028823853e-02 2.836875319480895996e-01 3.073537051677703857e-01
8.374252170324325562e-02 2.948735058307647705e-01 3.111710250377655029e-01
-4.596306011080741882e-02 1.441387534141540527e-01 -8.502632379531860352e-01
-4.315786063671112061e-02 1.606120467185974121e-01 -8.522751927375793457e-01
-3.409389033913612366e-02 1.464387774467468262e-01 -8.522139787673950195e-01
-3.143707662820816040e-02 1.631846129894256592e-01 -8.541249036788940430e-01
1.670971661806106567e-01 8.704346418380737305e-02 1.984879076480865479e-01
1.666391342878341675e-01 9.864438325166702271e-02 2.014853656291961670e-01
1.646407097578048706e-01 8.743437379598617554e-02 2.139489501714706421e-01
1.633524447679519653e-01 9.803567081689834595e-02 2.176347672939300537e-01
6.420865654945373535e-02 2.075542956590652466e-01 7.202901244163513184e-01
5.675159022212028503e-02 2.196538448333740234e-01 7.228575944900512695e-01
5.916322767734527588e-02 2.024701386690139771e-01 7.330738902091979980e-01
5.342364683747291565e-02 2.151984870433807373e-01 7.339200377464294434e-01
2.949171699583530426e-02 -1.598684936761856079e-01 1.662771403789520264e-02
3.860057517886161804e-02 -1.523756682872772217e-01 1.256218459457159042e-02
3.432214260101318359e-02 -1.578718572854995728e-01 2.607432752847671509e-02
4.275950789451599121e-02 -1.503984630107879639e-01 2.295183576643466949e-02
-1.252975016832351685e-01 -3.697417378425598145e-01 -8.245485424995422363e-01
-1.305404305458068848e-01 -3.540495336055755615e-01 -8.222387433052062988e-01
-1.239666417241096497e-01 -3.745859563350677490e-01 -8.114795088768005371e-01
-1.292913109064102173e-01 -3.585869371891021729e-01 -8.080311417579650879e-01
-4.092026129364967346e-02 3.989506959915161133e-01 -8.574287593364715576e-02
-4.545411095023155212e-02 4.021458327770233154e-01 -7.622010260820388794e-02
-3.056401759386062622e-02 4.027867615222930908e-01 -6.960761547088623047e-02
-3.657761961221694946e-02 4.055336117744445801e-01 -6.044964119791984558e-02
-6.692212074995040894e-02 -4.892891645431518555e-02 3.106868267059326172e-01
-7.291313260793685913e-02 -3.751422464847564697e-02 3.139342665672302246e-01
-5.482919141650199890e-02 -4.828020930290222168e-02 3.201117515563964844e-01
-6.009975820779800415e-02 -3.642461821436882019e-02 3.239614367485046387e-01
-9.468465298414230347e-02 3.899143636226654053e-01 -5.709800720214843750e-01
-8.166825771331787109e-02 3.964321613311767578e-01 -5.764299035072326660e-01
-8.623455464839935303e-02 3.955899178981781006e-01 -5.576646924018859863e-01
-7.249446213245391846e-02 4.019716680049896240e-01 -5.635465383529663086e-01
1.333018392324447632e-01 3.087777197360992432e-01 5.402948856353759766e-01
1.300407201051712036e-01 3.187699615955352783e-01 5.437895655632019043e-01
1.445434093475341797e-01 3.142017126083374023e-01 5.385577082633972168e-01
1.417146623134613037e-01 3.254404067993164062e-01 5.411823987960815430e-01
-9.419645369052886963e-02 -2.279757261276245117e-01 -8.550257682800292969e-01
-9.213726222515106201e-02 -2.152569591999053955e-01 -8.552550673484802246e-01
-8.758553862571716309e-02 -2.300966084003448486e-01 -8.472640514373779297e-01
-8.490856736898422241e-02 -2.171181589365005493e-01 -8.478808403015136719e-01
1.962097883224487305e-01 1.800570935010910034e-01 -1.552153080701828003e-01
1.970681250095367432e-01 1.932463496923446655e-01 -1.573580950498580933e-01
1.956297606229782104e-01 1.830632835626602173e-01 -1.420048475265502930e-01
1.966212987899780273e-01 1.962627172470092773e-01 -1.441873610019683838e-01
-1.639712154865264893e-01 -1.192496493458747864e-01 1.796976178884506226e-01
-1.655861884355545044e-01 -1.056429892778396606e-01 1.852372586727142334e-01
-1.499053388833999634e-01 -1.198337897658348083e-01 1.885926425457000732e-01
-1.516176909208297729e-01 -1.064317375421524048e-01 1.943726390600204468e-01
-2.103668749332427979e-01 1.003014892339706421e-01 -5.928474292159080505e-02
-2.093537151813507080e-01 1.149191409349441528e-01 -5.853433534502983093e-02
-2.076467275619506836e-01 1.019666269421577454e-01 -4.300932213664054871e-02
-2.062140852212905884e-01 1.163951903581619263e-01 -4.200161993503570557e-02
1.917432695627212524e-01 1.263727247714996338e-01 -5.046122670173645020e-01
1.894126385450363159e-01 1.402183324098587036e-01 -4.998881220817565918e-01
1.859257370233535767e-01 1.305005997419357300e-01 -4.913158714771270752e-01
1.836052834987640381e-01 1.447162926197052002e-01 -4.865528345108032227e-01
-5.444882437586784363e-03 5.352734774351119995e-02 5.098433494567871094e-01
-7.441692054271697998e-03 5.658985674381256104e-02 5.111779570579528809e-01
2.045516390353441238e-03 5.013440921902656555e-02 5.223696231842041016e-01
2.064840868115425110e-03 5.366156622767448425e-02 5.227961540222167969e-01
-9.826967120170593262e-02 -1.988719254732131958e-01 -8.580790758132934570e-01
-9.691978991031646729e-02 -1.852058023214340210e-01 -8.578572869300842285e-01
-8.579319715499877930e-02 -1.954272836446762085e-01 -8.509604930877685547e-01
-8.441516011953353882e-02 -1.819582581520080566e-01 -8.502553701400756836e-01
8.089093863964080811e-02 2.942621707916259766e-01 3.443774282932281494e-01
7.677503675222396851e-02 3.064779639244079590e-01 3.473776280879974365e-01
7.836055755615234375e-02 2.960711121559143066e-01 3.588164746761322021e-01
7.399705052375793457e-02 3.091037571430206299e-01 3.614572882652282715e-01
-1.015983819961547852e-01 3.011985421180725098e-01 -8.111576437950134277e-01
-1.007541120052337646e-01 3.157703280448913574e-01 -8.042898774147033691e-01
-8.874094486236572266e-02 3.130091130733489990e-01 -8.118736743927001953e-01
-9.033630788326263428e-02 3.262912631034851074e-01 -8.035163283348083496e-01
1.294416934251785278e-01 -4.988664388656616211e-01 1.231907904148101807e-01
1.190098002552986145e-01 -4.932450950145721436e-01 1.265787184238433838e-01
1.261530518531799316e-01 -5.079721808433532715e-01 1.324636042118072510e-01
1.164414510130882263e-01 -5.022553205490112305e-01 1.348351091146469116e-01
1.916334182024002075e-01 1.817046552896499634e-01 -5.386325120925903320e-01
1.906616091728210449e-01 1.940348446369171143e-01 -5.355377793312072754e-01
1.877336055040359497e-01 1.852556318044662476e-01 -5.242275595664978027e-01
1.866497844457626343e-01 1.985717266798019409e-01 -5.220382213592529297e-01
-1.492182314395904541e-01 -4.275735467672348022e-02 -4.442452788352966309e-01
-1.588702350854873657e-01 -3.361736238002777100e-02 -4.397287666797637939e-01
-1.459113359451293945e-01 -4.891708120703697205e-02 -4.324237704277038574e-01
-1.563735753297805786e-01 -3.994823619723320007e-02 -4.273902177810668945e-01
-9.789133071899414062e-02 2.136909365653991699e-01 4.496660232543945312e-01
-9.695200622081756592e-02 2.290668338537216187e-01 4.453352689743041992e-01
-9.511564671993255615e-02 2.175252884626388550e-01 4.642274379730224609e-01
-9.417801350355148315e-02 2.323534786701202393e-01 4.609429240226745605e-01
1.677167788147926331e-02 3.975696861743927002e-01 -1.131532937288284302e-01
5.661271512508392334e-03 3.977549672126770020e-01 -1.020732522010803223e-01
2.775122784078121185e-02 3.985184431076049805e-01 -1.022671386599540710e-01
1.594966836273670197e-02 3.993506729602813721e-01 -9.175932407379150391e-02
7.556634396314620972e-02 3.152089118957519531e-01 5.561981797218322754e-01
7.086982578039169312e-02 3.242671787738800049e-01 5.604403614997863770e-01
8.282695710659027100e-02 3.152643442153930664e-01 5.617360472679138184e-01
7.788244634866714478e-02 3.245544433593750000e-01 5.654389262199401855e-01
-1.420840620994567871e-01 -5.240228176116943359e-01 -8.115804791450500488e-01
-1.412220150232315063e-01 -5.103204846382141113e-01 -8.116045594215393066e-01
-1.415776014328002930e-01 -5.240033864974975586e-01 -8.020687699317932129e-01
-1.410242766141891479e-01 -5.101261138916015625e-01 -8.010976910591125488e-01
-2.602423354983329773e-02 -1.640788465738296509e-01 -7.025194168090820312e-02
-4.079936817288398743e-02 -1.619163453578948975e-01 -6.373986601829528809e-02
-1.476102136075496674e-02 -1.654056310653686523e-01 -6.373817473649978638e-02
-2.847606316208839417e-02 -1.640123575925827026e-01 -5.616984516382217407e-02
-1.147619485855102539e-01 -8.606181293725967407e-02 2.107882685959339142e-02
-1.139324754476547241e-01 -7.392653822898864746e-02 1.594606041908264160e-02
-1.048008501529693604e-01 -9.274339675903320312e-02 2.376373112201690674e-02
-1.062501221895217896e-01 -8.024743199348449707e-02 1.871031336486339569e-02
-5.459806323051452637e-02 -5.034933686256408691e-01 6.869817525148391724e-02
-5.281530693173408508e-02 -4.855104684829711914e-01 7.343348115682601929e-02
-5.618669837713241577e-02 -4.974347352981567383e-01 8.652809262275695801e-02
-5.432474240660667419e-02 -4.797566831111907959e-01 9.135802835226058960e-02
-1.876728385686874390e-01 3.358420729637145996e-01 5.912421345710754395e-01
-1.912250518798828125e-01 3.397448360919952393e-01 5.975985527038574219e-01
-1.789853423833847046e-01 3.413827419281005859e-01 5.974923372268676758e-01
-1.829361468553543091e-01 3.451756834983825684e-01 6.037664413452148438e-01
-1.267346292734146118e-01 -3.920834958553314209e-01 3.631322458386421204e-02
-1.232444271445274353e-01 -3.780678510665893555e-01 3.782278299331665039e-02
-1.252795457839965820e-01 -3.874126076698303223e-01 4.973667114973068237e-02
-1.225109770894050598e-01 -3.738675713539123535e-01 5.040990933775901794e-02
-2.280747517943382263e-02 5.720393359661102295e-02 5.887421369552612305e-01
-3.703615069389343262e-02 5.976117774844169617e-02 5.961720347404479980e-01
-1.142734475433826447e-02 5.230472981929779053e-02 5.968447923660278320e-01
-2.363331615924835205e-02 5.427132919430732727e-02 6.062242984771728516e-01
-1.728261113166809082e-01 1.101340912282466888e-02 2.621828317642211914e-01
-1.773747056722640991e-01 2.228510752320289612e-02 2.643556296825408936e-01
-1.662471294403076172e-01 5.364089738577604294e-03 2.722547650337219238e-01
-1.709239482879638672e-01 1.642498560249805450e-02 2.750382721424102783e-01
1.551727652549743652e-01 -5.544187128543853760e-02 -2.442189753055572510e-01
1.629026532173156738e-01 -4.063872247934341431e-02 -2.459516674280166626e-01
1.600729674100875854e-01 -4.614898562431335449e-02 -2.336250543594360352e-01
1.676198691129684448e-01 -3.218542784452438354e-02 -2.351762801408767700e-01
-1.820430308580398560e-01 -4.413283616304397583e-02 -1.562459319829940796e-01
-1.873741447925567627e-01 -3.321984037756919861e-02 -1.505372226238250732e-01
-1.769018471240997314e-01 -4.790969938039779663e-02 -1.409477442502975464e-01
-1.825834661722183228e-01 -3.698505461215972900e-02 -1.350477039813995361e-01
8.781345188617706299e-02 3.525432050228118896e-01 7.548146694898605347e-02
7.955553382635116577e-02 3.617668747901916504e-01 8.447340875864028931e-02
8.683017641305923462e-02 3.498033881187438965e-01 9.253364056348800659e-02
7.878779619932174683e-02 3.589057624340057373e-01 1.012189015746116638e-01
-9.098413586616516113e-02 3.981375694274902344e-02 -8.204877376556396484e-01
-8.597327768802642822e-02 5.244280770421028137e-02 -8.216499090194702148e-01
-8.071822673082351685e-02 4.089867323637008667e-02 -8.210341334342956543e-01
-7.573338598012924194e-02 5.417356640100479126e-02 -8.230432271957397461e-01
1.593140661716461182e-01 3.191439509391784668e-01 5.289409160614013672e-01
1.575733572244644165e-01 3.312770724296569824e-01 5.326511859893798828e-01
1.689577549695968628e-01 3.249894082546234131e-01 5.294544696807861328e-01
1.676414608955383301e-01 3.365686535835266113e-01 5.328716039657592773e-01
-1.497867703437805176e-01 -2.306123971939086914e-01 7.321854680776596069e-02
-1.541163921356201172e-01 -2.174763530492782593e-01 7.486687600612640381e-02
-1.512004286050796509e-01 -2.292340695858001709e-01 8.518078178167343140e-02
-1.551713347434997559e-01 -2.158857882022857666e-01 8.620709925889968872e-02
-1.076894998550415039e-01 -4.350039362907409668e-02 -6.002059578895568848e-01
-1.149841994047164917e-01 -3.811841830611228943e-02 -5.888261198997497559e-01
-9.729100018739700317e-02 -3.906176984310150146e-02 -5.911961793899536133e-01
-1.052547693252563477e-01 -3.404191881418228149e-02 -5.792532563209533691e-01
-1.792849898338317871e-01 1.695176213979721069e-01 1.925765424966812134e-01
-1.753773689270019531e-01 1.852139383554458618e-01 1.867069005966186523e-01
-1.774765998125076294e-01 1.692476123571395874e-01 2.076777517795562744e-01
-1.735919415950775146e-01 1.851717978715896606e-01 2.015665620565414429e-01
-6.030298396944999695e-02 3.567647337913513184e-01 4.553538560867309570e-01
-4.554373770952224731e-02 3.637771606445312500e-01 4.517909884452819824e-01
-4.785791784524917603e-02 3.599644899368286133e-01 4.693115353584289551e-01
-3.288877010345458984e-02 3.668134212493896484e-01 4.658186435699462891e-01
-1.974469572305679321e-01 2.305904328823089600e-01 -4.154056310653686523e-01
-1.922584176063537598e-01 2.473535388708114624e-01 -4.194111526012420654e-01
-1.979200243949890137e-01 2.314708232879638672e-01 -3.980274498462677002e-01
-1.923593282699584961e-01 2.485551089048385620e-01 -4.014503657817840576e-01
1.283542513847351074e-01 -5.594643354415893555e-01 1.147465333342552185e-01
1.210407167673110962e-01 -5.609455704689025879e-01 1.279432326555252075e-01
1.364629268646240234e-01 -5.561755299568176270e-01 1.239137351512908936e-01
1.301185637712478638e-01 -5.575479269027709961e-01 1.371608674526214600e-01
-3.844219073653221130e-02 -1.841226816177368164e-01 -2.713877260684967041e-01
-5.573832243680953979e-02 -1.754728406667709351e-01 -2.652292549610137939e-01
-3.134047612547874451e-02 -1.849088072776794434e-01 -2.584708631038665771e-01
-4.809490218758583069e-02 -1.765733063220977783e-01 -2.522753477096557617e-01
2.212302014231681824e-02 -1.803989261388778687e-01 -2.900078892707824707e-01
3.207004070281982422e-02 -1.698009371757507324e-01 -2.916150987148284912e-01
2.969806455075740814e-02 -1.742302328348159790e-01 -2.774817049503326416e-01
4.001307487487792969e-02 -1.634625047445297241e-01 -2.789461910724639893e-01
9.888240694999694824e-02 -1.345607489347457886e-01 2.850988693535327911e-02
1.023888215422630310e-01 -1.239148527383804321e-01 2.539046853780746460e-02
1.071561798453330994e-01 -1.353559792041778564e-01 3.653828054666519165e-02
1.106486469507217407e-01 -1.245316714048385620e-01 3.364616632461547852e-02
1.143663600087165833e-01 -3.398372530937194824e-01 -8.510674834251403809e-01
1.161642223596572876e-01 -3.245730400085449219e-01 -8.480237722396850586e-01
1.088415607810020447e-01 -3.358435034751892090e-01 -8.399917483329772949e-01
1.102099120616912842e-01 -3.205631673336029053e-01 -8.366723656654357910e-01
-6.179759651422500610e-02 3.632190227508544922e-01 3.994354009628295898e-01
-4.856730997562408447e-02 3.694983422756195068e-01 3.953824639320373535e-01
-5.197468400001525879e-02 3.666867315769195557e-01 4.121530950069427490e-01
-3.662290051579475403e-02 3.721418976783752441e-01 4.077570140361785889e-01
-2.218198627233505249e-01 1.040658056735992432e-01 -1.201751455664634705e-01
-2.207327634096145630e-01 1.193885579705238342e-01 -1.180538460612297058e-01
-2.203583419322967529e-01 1.038559600710868835e-01 -1.025840267539024353e-01
-2.195647060871124268e-01 1.197198778390884399e-01 -1.006727367639541626e-01
-1.746875047683715820e-01 -6.656112521886825562e-02 -7.056559920310974121e-01
-1.763949841260910034e-01 -5.173402279615402222e-02 -7.032600641250610352e-01
-1.769825518131256104e-01 -6.401202082633972168e-02 -6.907771825790405273e-01
-1.787032485008239746e-01 -4.976682364940643311e-02 -6.885883212089538574e-01
1.285271197557449341e-01 2.866546511650085449e-01 -7.706977128982543945e-01
1.259362548589706421e-01 2.991223931312561035e-01 -7.698080539703369141e-01
1.340149939060211182e-01 2.885070145130157471e-01 -7.584225535392761230e-01
1.306368708610534668e-01 3.008454442024230957e-01 -7.577297687530517578e-01
-1.789055764675140381e-01 2.689179591834545135e-02 -7.228032946586608887e-01
-1.803202629089355469e-01 3.918351233005523682e-02 -7.209042310714721680e-01
-1.843869090080261230e-01 3.134699165821075439e-02 -7.090256810188293457e-01
-1.861754059791564941e-01 4.370798170566558838e-02 -7.069860696792602539e-01
-9.857487678527832031e-02 -5.646193027496337891e-01 9.731096774339675903e-02
-8.338008075952529907e-02 -5.576321482658386230e-01 9.618679434061050415e-02
-8.861713111400604248e-02 -5.578384995460510254e-01 1.041639968752861023e-01
-7.172144204378128052e-02 -5.504745841026306152e-01 1.027621105313301086e-01
-5.868618190288543701e-02 -4.266227781772613525e-01 -7.840695381164550781e-01
-6.464754045009613037e-02 -4.156221151351928711e-01 -7.802860736846923828e-01
-6.436546146869659424e-02 -4.317737519741058350e-01 -7.723627686500549316e-01
-7.099539786577224731e-02 -4.205118715763092041e-01 -7.681453824043273926e-01
-1.309873461723327637e-01 -4.623658657073974609e-01 9.053136408329010010e-02
-1.308095604181289673e-01 -4.465397894382476807e-01 9.500739723443984985e-02
-1.321503818035125732e-01 -4.553003609180450439e-01 1.077328547835350037e-01
-1.317160576581954956e-01 -4.397262334823608398e-01 1.119668558239936829e-01
-3.694726154208183289e-02 3.635670989751815796e-02 3.887164592742919922e-01
-4.082531481981277466e-02 4.727420955896377563e-02 3.982999026775360107e-01
-2.487647160887718201e-02 3.760718181729316711e-02 3.934548199176788330e-01
-3.016545437276363373e-02 4.812128096818923950e-02 4.056097269058227539e-01
8.406694233417510986e-02 -5.586628317832946777e-01 -7.730844020843505859e-01
9.015432745218276978e-02 -5.521233677864074707e-01 -7.776996493339538574e-01
9.378043562173843384e-02 -5.655964016914367676e-01 -7.643553018569946289e-01
1.021105498075485229e-01 -5.595137476921081543e-01 -7.694543004035949707e-01
-1.870357990264892578e-01 7.353918254375457764e-02 2.481762766838073730e-01
-1.866490840911865234e-01 8.776935189962387085e-02 2.494862079620361328e-01
-1.793178468942642212e-01 7.110637426376342773e-02 2.647503018379211426e-01
-1.791256517171859741e-01 8.478891849517822266e-02 2.659362852573394775e-01
1.398715525865554810e-01 -2.422235719859600067e-02 2.534551024436950684e-01
1.471696197986602783e-01 -1.240953803062438965e-02 2.519193291664123535e-01
1.395058780908584595e-01 -1.463585626333951950e-02 2.658479809761047363e-01
1.471287459135055542e-01 -3.101004753261804581e-03 2.634562253952026367e-01
-2.273540049791336060e-01 7.924662530422210693e-02 -2.780430316925048828e-01
-2.264549732208251953e-01 9.417699277400970459e-02 -2.760931253433227539e-01
-2.290051877498626709e-01 8.349324017763137817e-02 -2.657892107963562012e-01
-2.279994636774063110e-01 9.822732955217361450e-02 -2.637807428836822510e-01
-2.289206683635711670e-01 1.213875561952590942e-01 -2.028736621141433716e-01
-2.260441780090332031e-01 1.370484530925750732e-01 -2.031732052564620972e-01
-2.284102737903594971e-01 1.275519281625747681e-01 -1.906476318836212158e-01
-2.248722761869430542e-01 1.453371047973632812e-01 -1.902769953012466431e-01
-1.708022058010101318e-01 2.440661489963531494e-01 5.596469640731811523e-01
-1.773474067449569702e-01 2.607490718364715576e-01 5.647993087768554688e-01
-1.586815863847732544e-01 2.433559894561767578e-01 5.633322000503540039e-01
-1.644877642393112183e-01 2.606558799743652344e-01 5.681781172752380371e-01
-6.446322426199913025e-03 3.846625089645385742e-01 3.567454516887664795e-01
-1.844613254070281982e-02 3.862629532814025879e-01 3.648534715175628662e-01
4.110058769583702087e-03 3.808056116104125977e-01 3.683438897132873535e-01
-8.270181715488433838e-03 3.824223577976226807e-01 3.750721514225006104e-01
-6.385977566242218018e-02 -1.510718017816543579e-01 1.453458666801452637e-01
-6.999761611223220825e-02 -1.444951593875885010e-01 1.498291790485382080e-01
-5.921689420938491821e-02 -1.523541361093521118e-01 1.555235981941223145e-01
-6.546943634748458862e-02 -1.458861678838729858e-01 1.601245254278182983e-01
-5.950314179062843323e-02 3.852262496948242188e-01 -2.742067575454711914e-01
-4.107086732983589172e-02 3.879326879978179932e-01 -2.803634703159332275e-01
-5.060141906142234802e-02 3.878182768821716309e-01 -2.602108716964721680e-01
-3.138310834765434265e-02 3.900901377201080322e-01 -2.658664584159851074e-01
2.100635506212711334e-02 4.068389236927032471e-01 -5.899927765130996704e-02
2.613344229757785797e-03 4.084278047084808350e-01 -4.872396588325500488e-02
3.431446850299835205e-02 4.042826592922210693e-01 -4.742971807718276978e-02
1.639593392610549927e-02 4.064439833164215088e-01 -3.740864247083663940e-02
7.873606681823730469e-02 2.885225415229797363e-01 6.855229139328002930e-01
6.661584973335266113e-02 2.980341911315917969e-01 6.915135383605957031e-01
7.937927544116973877e-02 2.776996493339538574e-01 6.949608325958251953e-01
6.591209769248962402e-02 2.875093221664428711e-01 7.010420560836791992e-01
1.864159256219863892e-01 1.945036649703979492e-01 -5.178996324539184570e-01
1.851483881473541260e-01 2.077064514160156250e-01 -5.155566930770874023e-01
1.835964918136596680e-01 1.980795264244079590e-01 -5.051556229591369629e-01
1.828273385763168335e-01 2.117961794137954712e-01 -5.038544535636901855e-01
6.797843426465988159e-02 -5.587667226791381836e-01 8.875774592161178589e-02
7.563250511884689331e-02 -5.529013872146606445e-01 7.466953992843627930e-02
7.859781384468078613e-02 -5.619947910308837891e-01 9.320444613695144653e-02
8.322275429964065552e-02 -5.578855872154235840e-01 8.380974084138870239e-02
-1.586051285266876221e-01 2.332622408866882324e-01 1.723291277885437012e-01
-1.531138569116592407e-01 2.489119917154312134e-01 1.714013963937759399e-01
-1.550753712654113770e-01 2.398238182067871094e-01 1.867040991783142090e-01
-1.489622145891189575e-01 2.559018433094024658e-01 1.849227696657180786e-01
-1.219078227877616882e-01 -3.514691889286041260e-01 9.701485931873321533e-02
-1.250141710042953491e-01 -3.391080498695373535e-01 9.667107462882995605e-02
-1.147824078798294067e-01 -3.524880111217498779e-01 1.060362309217453003e-01
-1.178887560963630676e-01 -3.401268720626831055e-01 1.056924462318420410e-01
-1.859212219715118408e-01 8.159974589943885803e-03 -5.845623612403869629e-01
-1.901719272136688232e-01 1.957632228732109070e-02 -5.835179686546325684e-01
-1.825777739286422729e-01 6.185019388794898987e-03 -5.724747776985168457e-01
-1.879414170980453491e-01 1.746577396988868713e-02 -5.710254311561584473e-01
1.003410369157791138e-01 3.547483384609222412e-01 -3.783063292503356934e-01
9.172227978706359863e-02 3.611833453178405762e-01 -3.693732023239135742e-01
1.012609675526618958e-01 3.520797491073608398e-01 -3.639273047447204590e-01
9.274052083492279053e-02 3.585832417011260986e-01 -3.550840914249420166e-01
-4.077882692217826843e-02 -2.141502499580383301e-01 -3.036610484123229980e-01
-3.920128196477890015e-02 -2.068498432636260986e-01 -3.040302991867065430e-01
-3.940030932426452637e-02 -2.136987745761871338e-01 -2.850485742092132568e-01
-3.280231356620788574e-02 -2.066403180360794067e-01 -2.883630990982055664e-01
-8.766117691993713379e-02 -3.331713080406188965e-01 -8.561697602272033691e-01
-9.028016030788421631e-02 -3.188498914241790771e-01 -8.559231162071228027e-01
-8.161001652479171753e-02 -3.342377245426177979e-01 -8.485382199287414551e-01
-8.430609107017517090e-02 -3.196209073066711426e-01 -8.481249213218688965e-01
-7.577945291996002197e-02 -2.356626838445663452e-01 -7.210807800292968750e-01
-7.418688386678695679e-02 -2.225696742534637451e-01 -7.184112071990966797e-01
-7.733108848333358765e-02 -2.290945649147033691e-01 -7.112017273902893066e-01
-7.662641257047653198e-02 -2.157560288906097412e-01 -7.084282636642456055e-01
-2.325700223445892334e-02 4.221788048744201660e-01 6.412917375564575195e-02
-3.482755646109580994e-02 4.219624996185302734e-01 7.222261279821395874e-02
-9.073097258806228638e-03 4.223108887672424316e-01 7.698441296815872192e-02
-2.378991246223449707e-02 4.226267933845520020e-01 8.504453301429748535e-02
-2.090516537427902222e-01 1.098055839538574219e-01 -6.128960847854614258e-01
-2.109903693199157715e-01 1.249677389860153198e-01 -6.101843714714050293e-01
-2.127300947904586792e-01 1.114818230271339417e-01 -5.953279137611389160e-01
-2.147365063428878784e-01 1.261306703090667725e-01 -5.929841399192810059e-01
1.725070774555206299e-01 2.713109254837036133e-01 -5.314950346946716309e-01
1.711026281118392944e-01 2.838784456253051758e-01 -5.305516719818115234e-01
1.723589152097702026e-01 2.734887003898620605e-01 -5.164620280265808105e-01
1.705408543348312378e-01 2.878344058990478516e-01 -5.163365602493286133e-01
-2.242560684680938721e-01 4.603096842765808105e-02 -2.244055271148681641e-01
-2.249745130538940430e-01 5.857369303703308105e-02 -2.225141674280166626e-01
-2.265023738145828247e-01 5.187127739191055298e-02 -2.112299352884292603e-01
-2.269649356603622437e-01 6.407201290130615234e-02 -2.093638777732849121e-01
-1.152456998825073242e-01 3.375747501850128174e-01 1.215424239635467529e-01
-1.054193601012229919e-01 3.538935184478759766e-01 1.152064725756645203e-01
-1.101563721895217896e-01 3.452959060668945312e-01 1.362971812486648560e-01
-1.003030091524124146e-01 3.614405393600463867e-01 1.293895989656448364e-01
-6.323274224996566772e-02 -1.525049060583114624e-01 -1.005009040236473083e-01
-7.305350154638290405e-02 -1.470218449831008911e-01 -9.369029104709625244e-02
-5.387113243341445923e-02 -1.537450402975082397e-01 -9.006211161613464355e-02
-6.395454704761505127e-02 -1.489420235157012939e-01 -8.300317078828811646e-02
3.433259949088096619e-02 3.873580098152160645e-01 -3.274139165878295898e-01
1.584573090076446533e-02 3.876196146011352539e-01 -3.160997927188873291e-01
4.667985439300537109e-02 3.837644755840301514e-01 -3.117708563804626465e-01
3.034422919154167175e-02 3.872178792953491211e-01 -3.058360815048217773e-01
-1.036229953169822693e-01 -1.168549358844757080e-01 1.910315901041030884e-01
-1.113419011235237122e-01 -1.092112660408020020e-01 1.972404867410659790e-01
-9.442458301782608032e-02 -1.162683591246604919e-01 2.005581557750701904e-01
-9.980499744415283203e-02 -1.086522266268730164e-01 2.062670886516571045e-01
6.629837211221456528e-03 1.387109458446502686e-01 -8.317669034004211426e-01
8.412335067987442017e-03 1.535798609256744385e-01 -8.335110545158386230e-01
2.113620005548000336e-02 1.361753344535827637e-01 -8.305783271789550781e-01
2.498679608106613159e-02 1.520715057849884033e-01 -8.319250345230102539e-01
8.993458002805709839e-02 1.779131591320037842e-01 6.754213571548461914e-01
8.615484088659286499e-02 1.907444000244140625e-01 6.785899996757507324e-01
8.494742214679718018e-02 1.812009066343307495e-01 6.874319314956665039e-01
8.022225648164749146e-02 1.939535737037658691e-01 6.910405755043029785e-01
-1.423806250095367432e-01 -2.970342934131622314e-01 8.596714586019515991e-02
-1.468290090560913086e-01 -2.841736376285552979e-01 8.649729937314987183e-02
-1.366910934448242188e-01 -2.992536127567291260e-01 9.881770610809326172e-02
-1.418695747852325439e-01 -2.867447435855865479e-01 9.854298830032348633e-02
1.237121373414993286e-01 -1.050888299942016602e-01 -8.093712925910949707e-01
1.237284541130065918e-01 -9.302124381065368652e-02 -8.105135560035705566e-01
1.297527402639389038e-01 -1.023437827825546265e-01 -8.001608252525329590e-01
1.297336071729660034e-01 -8.981627225875854492e-02 -8.018741607666015625e-01
-8.744993060827255249e-02 3.762282133102416992e-01 1.659209430217742920e-01
-7.907798886299133301e-02 3.879298567771911621e-01 1.614769697189331055e-01
-8.042029291391372681e-02 3.811364173889160156e-01 1.765761077404022217e-01
-7.251320034265518188e-02 3.925332725048065186e-01 1.728871911764144897e-01
1.850316077470779419e-01 1.526406258344650269e-01 -3.348489105701446533e-01
1.872834712266921997e-01 1.675692200660705566e-01 -3.371972441673278809e-01
1.865774393081665039e-01 1.464076191186904907e-01 -3.218630552291870117e-01
1.888275295495986938e-01 1.617645919322967529e-01 -3.228634893894195557e-01
-7.033889740705490112e-02 1.351001262664794922e-01 6.611535549163818359e-01
-6.980816274881362915e-02 1.463327109813690186e-01 6.638119220733642578e-01
-6.873036921024322510e-02 1.380125880241394043e-01 6.725466847419738770e-01
-6.821610778570175171e-02 1.493887752294540405e-01 6.753917932510375977e-01
-1.846147328615188599e-01 4.054731689393520355e-03 1.941994428634643555e-01
-1.882605552673339844e-01 1.955208741128444672e-02 2.029627114534378052e-01
-1.825232058763504028e-01 9.771951474249362946e-03 2.121266722679138184e-01
-1.857199072837829590e-01 2.522980235517024994e-02 2.207792699337005615e-01
-1.834755390882492065e-01 3.302638232707977295e-01 -5.260770916938781738e-01
-1.744339913129806519e-01 3.423686027526855469e-01 -5.327029228210449219e-01
-1.789834052324295044e-01 3.360754847526550293e-01 -5.086004734039306641e-01
-1.698248833417892456e-01 3.484255075454711914e-01 -5.149610042572021484e-01
1.480518281459808350e-01 2.596257627010345459e-01 -6.357841938734054565e-02
1.422686427831649780e-01 2.721195518970489502e-01 -5.571831390261650085e-02
1.465947329998016357e-01 2.568645477294921875e-01 -4.780004546046257019e-02
1.409286260604858398e-01 2.696925401687622070e-01 -3.984475135803222656e-02
-1.661036610603332520e-01 2.162308096885681152e-01 1.362932622432708740e-01
-1.614476889371871948e-01 2.300472557544708252e-01 1.364925354719161987e-01
-1.631074547767639160e-01 2.283333837985992432e-01 1.481429785490036011e-01
-1.580722481012344360e-01 2.422677725553512573e-01 1.480831950902938843e-01
1.831829994916915894e-01 1.699853986501693726e-01 -6.510736942291259766e-01
1.824063658714294434e-01 1.841001063585281372e-01 -6.517301201820373535e-01
1.867318302392959595e-01 1.662885844707489014e-01 -6.370772719383239746e-01
1.868156194686889648e-01 1.808682382106781006e-01 -6.370347142219543457e-01
-1.068625897169113159e-01 -3.958861902356147766e-02 2.661428153514862061e-01
