-4.419816136360168457e-01 9.613595902919769287e-02 -6.336081624031066895e-01
-3.018366992473602295e-01 -1.375202238559722900e-01 -5.514950752258300781e-01
-2.898809611797332764e-01 -1.307776123285293579e-01 -5.567467212677001953e-01
-2.980410754680633545e-01 -1.350279301404953003e-01 -5.336173176765441895e-01
-2.836936712265014648e-01 -1.257032006978988647e-01 -5.418644547462463379e-01
2.479046583175659180e-01 1.084430664777755737e-01 3.969334065914154053e-01
2.566438615322113037e-01 1.222019270062446594e-01 3.872976005077362061e-01
2.624077796936035156e-01 1.139888763427734375e-01 4.103599190711975098e-01
2.710723280906677246e-01 1.270592361688613892e-01 4.007739424705505371e-01
-3.904251456260681152e-01 6.549415737390518188e-02 -2.591281831264495850e-01
-3.847579956054687500e-01 8.270847797393798828e-02 -2.584750652313232422e-01
-3.783337771892547607e-01 7.571320235729217529e-02 -2.453054934740066528e-01
-3.727573156356811523e-01 9.371872991323471069e-02 -2.441523969173431396e-01
-3.875710368156433105e-01 9.838982671499252319e-02 2.945874333381652832e-01
-3.788231909275054932e-01 1.109984815120697021e-01 2.964431047439575195e-01
-3.820113539695739746e-01 1.076718419790267944e-01 3.059892058372497559e-01
-3.728538155555725098e-01 1.199007257819175720e-01 3.078192174434661865e-01
-3.013035356998443604e-01 -1.041655987501144409e-01 -5.894286930561065674e-02
-3.114575147628784180e-01 -8.988887816667556763e-02 -5.435755848884582520e-02
-2.924453616142272949e-01 -1.069278568029403687e-01 -4.260122776031494141e-02
-3.028191030025482178e-01 -9.344250708818435669e-02 -3.701032698154449463e-02
-1.709111183881759644e-01 1.442066729068756104e-01 -7.751378417015075684e-01
-1.844794750213623047e-01 1.438645571470260620e-01 -7.644549012184143066e-01
-1.646543294191360474e-01 1.421180367469787598e-01 -7.614201903343200684e-01
-1.724105477333068848e-01 1.429181247949600220e-01 -7.597057819366455078e-01
1.450849622488021851e-01 -1.257914304733276367e-01 -7.543741464614868164e-01
1.292439848184585571e-01 -1.164151132106781006e-01 -7.447771430015563965e-01
1.637019217014312744e-01 -1.279558688402175903e-01 -7.484886646270751953e-01
1.483781486749649048e-01 -1.180171370506286621e-01 -7.386958003044128418e-01
-2.649440467357635498e-01 1.068448647856712341e-01 -5.408378243446350098e-01
-2.770634293556213379e-01 1.148113161325454712e-01 -5.372069478034973145e-01
-2.572013139724731445e-01 1.019241660833358765e-01 -5.296217799186706543e-01
-2.692627310752868652e-01 1.099558547139167786e-01 -5.256370306015014648e-01
-6.765296310186386108e-02 1.938158720731735229e-01 8.588865399360656738e-02
-5.178260058164596558e-02 1.956452578306198120e-01 8.144540339708328247e-02
-5.382751673460006714e-02 1.961077004671096802e-01 9.973374009132385254e-02
-3.686526417732238770e-02 1.984026283025741577e-01 9.274899959564208984e-02
3.537881746888160706e-02 1.067824512720108032e-01 -2.547716200351715088e-01
3.238676488399505615e-02 1.170436441898345947e-01 -2.435247302055358887e-01
5.267523229122161865e-02 1.141073629260063171e-01 -2.495471537113189697e-01
4.985418915748596191e-02 1.239830106496810913e-01 -2.383924573659896851e-01
2.489491105079650879e-01 -9.892217814922332764e-02 5.768734216690063477e-01
2.382728457450866699e-01 -8.395104110240936279e-02 5.830007791519165039e-01
2.479162216186523438e-01 -1.026506572961807251e-01 5.912562608718872070e-01
2.371349781751632690e-01 -8.777673542499542236e-02 5.971490740776062012e-01
3.461119532585144043e-01 -9.635445475578308105e-02 8.171675801277160645e-01
3.577011227607727051e-01 -7.819971442222595215e-02 8.192580342292785645e-01
3.374699950218200684e-01 -7.756066322326660156e-02 8.337384462356567383e-01
3.485565185546875000e-01 -5.906287580728530884e-02 8.363150358200073242e-01
-2.093360722064971924e-01 -1.389663964509963989e-01 7.213888764381408691e-01
-1.992385387420654297e-01 -1.263646334409713745e-01 7.113882303237915039e-01
-1.960291713476181030e-01 -1.296849846839904785e-01 7.332978248596191406e-01
-1.854526549577713013e-01 -1.166359335184097290e-01 7.226047515869140625e-01
-2.695402801036834717e-01 1.430521607398986816e-01 1.353544294834136963e-01
-2.556537985801696777e-01 1.504475772380828857e-01 1.285774409770965576e-01
-2.608217895030975342e-01 1.491935104131698608e-01 1.491935104131698608e-01
-2.456384003162384033e-01 1.561315208673477173e-01 1.418437659740447998e-01
4.761810600757598877e-01 -4.454463720321655273e-02 5.021387934684753418e-01
4.806430637836456299e-01 -3.012420237064361572e-02 5.037283301353454590e-01
4.777548313140869141e-01 -3.450255841016769409e-02 5.144891738891601562e-01
4.820319414138793945e-01 -2.006570622324943542e-02 5.161266326904296875e-01
-4.439617097377777100e-01 -6.430623680353164673e-02 -6.678833365440368652e-01
-4.521181285381317139e-01 -5.127868801355361938e-02 -6.616460084915161133e-01
-4.515140056610107422e-01 -6.454636901617050171e-02 -6.521767377853393555e-01
-4.596300125122070312e-01 -5.140989273786544800e-02 -6.461152434349060059e-01
-2.536392807960510254e-01 1.338678747415542603e-01 3.735895156860351562e-01
-2.676169276237487793e-01 1.355102062225341797e-01 3.811985552310943604e-01
-2.408169656991958618e-01 1.284416764974594116e-01 3.861696422100067139e-01
-2.538320720195770264e-01 1.317669302225112915e-01 3.915853500366210938e-01
-2.215704470872879028e-01 1.554734259843826294e-01 7.991612553596496582e-01
-2.090907841920852661e-01 1.573382616043090820e-01 7.956760525703430176e-01
-2.030190527439117432e-01 1.554472893476486206e-01 8.145387172698974609e-01
-1.930209994316101074e-01 1.578488200902938843e-01 8.113623857498168945e-01
3.832823038101196289e-01 1.332871168851852417e-01 6.860774159431457520e-01
3.627853691577911377e-01 1.363788545131683350e-01 6.928896903991699219e-01
3.969759643077850342e-01 1.297366023063659668e-01 6.970987915992736816e-01
3.765387535095214844e-01 1.332841366529464722e-01 7.035516500473022461e-01
-2.218313068151473999e-01 -1.557328402996063232e-01 7.862457633018493652e-01
-2.385278642177581787e-01 -1.543509215116500854e-01 7.931120395660400391e-01
-2.089403420686721802e-01 -1.543461233377456665e-01 7.943754196166992188e-01
-2.239933758974075317e-01 -1.533589214086532593e-01 8.016415238380432129e-01
1.991886496543884277e-01 -1.443334519863128662e-01 7.533429861068725586e-01
1.844026893377304077e-01 -1.471358984708786011e-01 7.636312842369079590e-01
2.107117623090744019e-01 -1.458467245101928711e-01 7.643672823905944824e-01
1.964787244796752930e-01 -1.483473330736160278e-01 7.762002944946289062e-01
4.200209081172943115e-01 -7.987191528081893921e-02 -7.113547325134277344e-01
4.263567030429840088e-01 -6.734006106853485107e-02 -7.139608263969421387e-01
4.270124137401580811e-01 -7.501816004514694214e-02 -6.995676755905151367e-01
4.330865442752838135e-01 -6.246304512023925781e-02 -7.020135521888732910e-01
3.154185786843299866e-02 5.402427166700363159e-02 9.856795668601989746e-01
3.822422027587890625e-02 6.569293886423110962e-02 9.796728491783142090e-01
4.779825359582901001e-02 5.174189433455467224e-02 9.857734441757202148e-01
5.554345995187759399e-02 6.339450180530548096e-02 9.803459644317626953e-01
4.324943125247955322e-01 -1.096540689468383789e-01 -6.323117017745971680e-01
4.403289854526519775e-01 -9.567848592996597290e-02 -6.342403888702392578e-01
4.407908022403717041e-01 -1.023758128285408020e-01 -6.193137764930725098e-01
4.485476613044738770e-01 -8.814159035682678223e-02 -6.211700439453125000e-01
4.718210995197296143e-01 2.469560131430625916e-03 -4.480037987232208252e-01
4.699625372886657715e-01 1.960262656211853027e-02 -4.421563148498535156e-01
4.647178649902343750e-01 1.041769701987504959e-02 -4.294717013835906982e-01
4.634218811988830566e-01 2.673054486513137817e-02 -4.240082502365112305e-01
-3.914422988891601562e-01 -8.012908697128295898e-02 -7.650206685066223145e-01
-4.008262753486633301e-01 -6.828702241182327271e-02 -7.617396712303161621e-01
-3.959928154945373535e-01 -8.133223652839660645e-02 -7.516645193099975586e-01
-4.050191640853881836e-01 -6.917522847652435303e-02 -7.485905885696411133e-01
-2.790579795837402344e-01 1.289902627468109131e-01 -1.181916519999504089e-01
-2.627517580986022949e-01 1.422440856695175171e-01 -1.218959242105484009e-01
-2.642424106597900391e-01 1.366176158189773560e-01 -1.001329049468040466e-01
-2.477250546216964722e-01 1.497978568077087402e-01 -1.041705086827278137e-01
-2.265451550483703613e-01 -4.032318666577339172e-02 5.578000545501708984e-01
-2.223257124423980713e-01 -2.482743561267852783e-02 5.569329261779785156e-01
-2.232853919267654419e-01 -3.786036372184753418e-02 5.748961567878723145e-01
-2.196131050586700439e-01 -2.121944166719913483e-02 5.739057660102844238e-01
9.005481377243995667e-03 -1.448510289192199707e-01 8.239321112632751465e-01
1.805769279599189758e-02 -1.403690725564956665e-01 8.135242462158203125e-01
2.330725081264972687e-02 -1.484318673610687256e-01 8.334483504295349121e-01
3.121548518538475037e-02 -1.448124349117279053e-01 8.257093429565429688e-01
-1.669617146253585815e-01 -2.375815249979496002e-02 -6.625983119010925293e-01
-1.694925129413604736e-01 -6.105904467403888702e-03 -6.593239903450012207e-01
-1.764890700578689575e-01 -1.667635515332221985e-02 -6.482763290405273438e-01
-1.791572719812393188e-01 8.810260333120822906e-04 -6.437702178955078125e-01
2.441934645175933838e-01 1.174455434083938599e-01 6.331072449684143066e-01
2.603276073932647705e-01 1.277033835649490356e-01 6.307752132415771484e-01
2.523204088211059570e-01 1.273383945226669312e-01 6.456100344657897949e-01
2.698072493076324463e-01 1.364821493625640869e-01 6.419638395309448242e-01
1.863143593072891235e-01 -1.717896312475204468e-01 -1.168536618351936340e-01
2.033212333917617798e-01 -1.659889519214630127e-01 -1.262853145599365234e-01
1.982446461915969849e-01 -1.668101549148559570e-01 -1.053575202822685242e-01
2.140398919582366943e-01 -1.605820953845977783e-01 -1.130822971463203430e-01
5.795416980981826782e-02 1.013869643211364746e-01 -2.636741101741790771e-01
5.562224239110946655e-02 1.113221645355224609e-01 -2.528163790702819824e-01
7.235138118267059326e-02 1.115432530641555786e-01 -2.607431411743164062e-01
7.029009610414505005e-02 1.210429742932319641e-01 -2.494740635156631470e-01
-2.895335853099822998e-01 -7.307788729667663574e-02 -8.801842331886291504e-01
-3.058143854141235352e-01 -6.139152497053146362e-02 -8.753271102905273438e-01
-2.799883484840393066e-01 -8.867111802101135254e-02 -8.726180195808410645e-01
-2.973494231700897217e-01 -8.001581579446792603e-02 -8.704687356948852539e-01
3.842622339725494385e-01 -1.214773729443550110e-01 -3.281699717044830322e-01
3.953854441642761230e-01 -1.136208847165107727e-01 -3.306116461753845215e-01
3.863903582096099854e-01 -1.144301369786262512e-01 -3.130387067794799805e-01
3.960711061954498291e-01 -1.054347902536392212e-01 -3.141925036907196045e-01
2.801669239997863770e-01 -1.580831408500671387e-01 2.910299599170684814e-01
2.718861401081085205e-01 -1.554168462753295898e-01 3.057039678096771240e-01
2.886127233505249023e-01 -1.579482555389404297e-01 3.045393228530883789e-01
2.846871912479400635e-01 -1.547094136476516724e-01 3.148212730884552002e-01
4.346038997173309326e-01 1.217808499932289124e-01 5.201001763343811035e-01
4.223370254039764404e-01 1.301449388265609741e-01 5.257561802864074707e-01
4.414847493171691895e-01 1.164057776331901550e-01 5.345554351806640625e-01
4.300466775894165039e-01 1.252479553222656250e-01 5.411391258239746094e-01
6.706263124942779541e-02 1.389072239398956299e-01 -9.180167913436889648e-01
5.935469642281532288e-02 1.439329087734222412e-01 -9.087193608283996582e-01
7.959940284490585327e-02 1.439345777034759521e-01 -9.099366068840026855e-01
6.944637745618820190e-02 1.483677476644515991e-01 -9.012489318847656250e-01
3.761252854019403458e-03 -9.619621932506561279e-02 2.605931460857391357e-01
9.588045068085193634e-04 -8.233042061328887939e-02 2.737249732017517090e-01
1.968233659863471985e-02 -8.538205921649932861e-02 2.627737224102020264e-01
1.727628707885742188e-02 -7.219491153955459595e-02 2.752229273319244385e-01
1.959078460931777954e-01 1.238746419548988342e-01 -8.964253067970275879e-01
1.861948966979980469e-01 1.315923184156417847e-01 -8.885165452957153320e-01
2.091759443283081055e-01 1.225907355546951294e-01 -8.888148665428161621e-01
1.995698660612106323e-01 1.301002502441406250e-01 -8.806907534599304199e-01
-2.291555404663085938e-01 -4.960490390658378601e-02 5.363513231277465820e-01
-2.243661582469940186e-01 -3.459484502673149109e-02 5.356070399284362793e-01
-2.271760553121566772e-01 -4.602940380573272705e-02 5.496753454208374023e-01
-2.226466387510299683e-01 -3.057360462844371796e-02 5.489348173141479492e-01
3.260692656040191650e-01 -1.365433037281036377e-01 7.755489945411682129e-01
3.302633464336395264e-01 -1.289609819650650024e-01 7.828662395477294922e-01
3.268041908740997314e-01 -1.256914585828781128e-01 7.856804728507995605e-01
3.375417888164520264e-01 -1.149643734097480774e-01 7.895451784133911133e-01
1.920063048601150513e-01 1.486015170812606812e-01 8.478788733482360840e-01
1.754522025585174561e-01 1.471244543790817261e-01 8.562614917755126953e-01
2.042142301797866821e-01 1.436609923839569092e-01 8.609501719474792480e-01
1.929682046175003052e-01 1.444780379533767700e-01 8.627617359161376953e-01
-4.517478868365287781e-02 6.685137003660202026e-02 2.761399745941162109e-01
-4.109114035964012146e-02 8.096706867218017578e-02 2.652135789394378662e-01
-2.867832966148853302e-02 6.347413361072540283e-02 2.772340774536132812e-01
-2.468707039952278137e-02 7.932939380407333374e-02 2.673234045505523682e-01
3.105122745037078857e-01 -1.480401158332824707e-01 -3.801588118076324463e-01
2.969461679458618164e-01 -1.497308164834976196e-01 -3.644388616085052490e-01
3.158940672874450684e-01 -1.503187119960784912e-01 -3.667227923870086670e-01
3.090210855007171631e-01 -1.521080583333969116e-01 -3.547441065311431885e-01
-1.588028222322463989e-01 1.319382339715957642e-01 2.714146077632904053e-01
-1.537114232778549194e-01 1.386342644691467285e-01 2.571700513362884521e-01
-1.479898691177368164e-01 1.204228252172470093e-01 2.791271209716796875e-01
-1.411639004945755005e-01 1.278296113014221191e-01 2.651793062686920166e-01
-3.455193936824798584e-01 1.173561662435531616e-01 2.372020632028579712e-01
-3.312924206256866455e-01 1.294337064027786255e-01 2.311294078826904297e-01
-3.463785946369171143e-01 1.244329959154129028e-01 2.510194182395935059e-01
-3.255115151405334473e-01 1.323332190513610840e-01 2.433483749628067017e-01
-1.304837316274642944e-01 -1.861477792263031006e-01 -1.174163147807121277e-01
-1.467386186122894287e-01 -1.869660764932632446e-01 -1.069588810205459595e-01
-1.169509887695312500e-01 -1.889119148254394531e-01 -1.053298413753509521e-01
-1.330892443656921387e-01 -1.896039843559265137e-01 -9.450432658195495605e-02
2.339646816253662109e-01 -7.243535667657852173e-02 -4.543221890926361084e-01
2.280841469764709473e-01 -5.759319663047790527e-02 -4.522553086280822754e-01
2.329585105180740356e-01 -7.313171029090881348e-02 -4.399208426475524902e-01
2.263897508382797241e-01 -5.903438478708267212e-02 -4.375832378864288330e-01
-2.290124148130416870e-01 6.237376853823661804e-02 -5.764076113700866699e-01
-2.332688719034194946e-01 7.247944921255111694e-02 -5.715051889419555664e-01
-2.329214811325073242e-01 6.271138787269592285e-02 -5.612310171127319336e-01
-2.357814013957977295e-01 7.477530092000961304e-02 -5.587656497955322266e-01
1.975590735673904419e-01 -2.322242781519889832e-02 4.098002314567565918e-01
1.990936994552612305e-01 -4.235672764480113983e-03 4.138425588607788086e-01
2.061001360416412354e-01 -1.735519059002399445e-02 4.244316518306732178e-01
2.082575261592864990e-01 1.347366254776716232e-03 4.274375140666961670e-01
-4.354621767997741699e-01 -7.538962364196777344e-02 -3.808135986328125000e-01
-4.425706565380096436e-01 -6.098850071430206299e-02 -3.797626793384552002e-01
-4.268367588520050049e-01 -8.031032979488372803e-02 -3.661465644836425781e-01
-4.339464306831359863e-01 -6.688614189624786377e-02 -3.628729283809661865e-01
-4.625159800052642822e-01 -5.059740319848060608e-02 -4.550926387310028076e-01
-4.693891704082489014e-01 -3.170260414481163025e-02 -4.551802575588226318e-01
-4.581073522567749023e-01 -5.139555782079696655e-02 -4.396820962429046631e-01
-4.662227034568786621e-01 -3.127751126885414124e-02 -4.403519928455352783e-01
1.560971438884735107e-01 1.463114023208618164e-01 -2.444872111082077026e-01
1.457178741693496704e-01 1.521107405424118042e-01 -2.287377715110778809e-01
1.701330542564392090e-01 1.537792980670928955e-01 -2.331733107566833496e-01
1.572152078151702881e-01 1.581852585077285767e-01 -2.165778577327728271e-01
-2.302474528551101685e-01 -1.549773067235946655e-01 7.584279030561447144e-02
-2.455987781286239624e-01 -1.515796482563018799e-01 8.011309057474136353e-02
-2.182212620973587036e-01 -1.578806191682815552e-01 8.632865548133850098e-02
-2.329542040824890137e-01 -1.551979780197143555e-01 9.057399630546569824e-02
2.278106212615966797e-01 1.505068093538284302e-01 -8.176814913749694824e-01
2.118145972490310669e-01 1.518116742372512817e-01 -8.055256009101867676e-01
2.383150309324264526e-01 1.537000387907028198e-01 -8.074883818626403809e-01
2.233187854290008545e-01 1.539191901683807373e-01 -7.954212427139282227e-01
-1.184263378381729126e-01 1.134467944502830505e-01 -9.323730468750000000e-01
-1.273733675479888916e-01 1.213553324341773987e-01 -9.198366999626159668e-01
-1.073741689324378967e-01 1.239353865385055542e-01 -9.304618239402770996e-01
-1.163376793265342712e-01 1.319789737462997437e-01 -9.179450273513793945e-01
-3.657270073890686035e-01 -1.461869776248931885e-01 -5.010011792182922363e-01
-3.740884959697723389e-01 -1.491533815860748291e-01 -4.856637418270111084e-01
-3.575896918773651123e-01 -1.483860760927200317e-01 -4.855573475360870361e-01
-3.630267977714538574e-01 -1.505414992570877075e-01 -4.727410674095153809e-01
-4.378346502780914307e-01 5.872573330998420715e-02 6.951205134391784668e-01
-4.330712854862213135e-01 7.354152947664260864e-02 6.918473243713378906e-01
-4.284508526325225830e-01 5.967906489968299866e-02 7.134560346603393555e-01
-4.244784414768218994e-01 7.403092831373214722e-02 7.112756371498107910e-01
2.391589432954788208e-01 1.352147012948989868e-01 3.274237513542175293e-01
2.523281276226043701e-01 1.432032138109207153e-01 3.246661424636840820e-01
2.549172639846801758e-01 1.391538232564926147e-01 3.411038815975189209e-01
2.684293985366821289e-01 1.477140784263610840e-01 3.375340998172760010e-01
-2.648099064826965332e-01 1.250461339950561523e-01 6.096989512443542480e-01
-2.744843363761901855e-01 1.343188434839248657e-01 6.202771663665771484e-01
-2.611623108386993408e-01 1.248987540602684021e-01 6.261066794395446777e-01
-2.718949019908905029e-01 1.321575194597244263e-01 6.337638497352600098e-01
3.658338785171508789e-01 -1.228388696908950806e-01 2.953533530235290527e-01
3.760513067245483398e-01 -1.083774268627166748e-01 2.930491566658020020e-01
3.764092028141021729e-01 -1.172215864062309265e-01 3.101218640804290771e-01
3.868262171745300293e-01 -1.017609983682632446e-01 3.088844716548919678e-01
2.085079401731491089e-01 1.063025593757629395e-01 6.717120409011840820e-01
2.250646799802780151e-01 1.169607937335968018e-01 6.672560572624206543e-01
2.161172926425933838e-01 1.194571033120155334e-01 6.833395361900329590e-01
2.245128452777862549e-01 1.267031133174896240e-01 6.857267022132873535e-01
-2.898856103420257568e-01 -1.487333625555038452e-01 -2.307230383157730103e-01
-3.027878403663635254e-01 -1.457155048847198486e-01 -2.219696640968322754e-01
-2.759981155395507812e-01 -1.523595154285430908e-01 -2.218424826860427856e-01
-2.887275815010070801e-01 -1.490512192249298096e-01 -2.136296033859252930e-01
-4.496806263923645020e-01 5.602294579148292542e-02 6.563070416450500488e-01
-4.452456831932067871e-01 7.343561202287673950e-02 6.515549421310424805e-01
-4.438657462596893311e-01 6.122385337948799133e-02 6.749507188796997070e-01
-4.379688501358032227e-01 7.643029093742370605e-02 6.703127026557922363e-01
4.281404316425323486e-01 -1.291338056325912476e-01 -4.975136816501617432e-01
4.364504218101501465e-01 -1.165075600147247314e-01 -4.974715113639831543e-01
4.316472709178924561e-01 -1.204914599657058716e-01 -4.842807054519653320e-01
4.394921660423278809e-01 -1.079845726490020752e-01 -4.840574860572814941e-01
-2.828231751918792725e-01 -1.506809741258621216e-01 6.782785654067993164e-01
-2.711549997329711914e-01 -1.430676430463790894e-01 6.718294024467468262e-01
-2.746718823909759521e-01 -1.483676880598068237e-01 6.900416612625122070e-01
-2.638395130634307861e-01 -1.387478411197662354e-01 6.826683878898620605e-01
-1.526406705379486084e-01 4.754307866096496582e-02 -3.348138630390167236e-01
-1.547467708587646484e-01 6.646747142076492310e-02 -3.331328332424163818e-01
-1.410023272037506104e-01 5.251709371805191040e-02 -3.266883492469787598e-01
-1.425221413373947144e-01 7.206150144338607788e-02 -3.248816430568695068e-01
4.211419448256492615e-02 -1.482958048582077026e-01 8.989171385765075684e-01
3.338590264320373535e-02 -1.445599198341369629e-01 9.135863184928894043e-01
5.775552615523338318e-02 -1.451215296983718872e-01 9.039897322654724121e-01
4.938092082738876343e-02 -1.412187069654464722e-01 9.185976386070251465e-01
1.291559040546417236e-01 -1.053046956658363342e-01 7.384004592895507812e-01
1.150685250759124756e-01 -9.568483382463455200e-02 7.387129664421081543e-01
1.344857066869735718e-01 -1.209432408213615417e-01 7.456946969032287598e-01
1.203336343169212341e-01 -1.140225753188133240e-01 7.460035085678100586e-01
8.793041110038757324e-02 -1.431795805692672729e-01 -8.034561872482299805e-01
7.852790504693984985e-02 -1.363219320774078369e-01 -7.910472154617309570e-01
1.066247671842575073e-01 -1.423240602016448975e-01 -7.943624258041381836e-01
9.557019919157028198e-02 -1.344775110483169556e-01 -7.830864787101745605e-01
3.625432252883911133e-01 -7.789617031812667847e-02 8.119090199470520020e-01
3.730393350124359131e-01 -5.931877344846725464e-02 8.138475418090820312e-01
3.536302447319030762e-01 -6.401333957910537720e-02 8.305252194404602051e-01
3.620750308036804199e-01 -4.478549957275390625e-02 8.329248428344726562e-01
1.585213392972946167e-01 1.362679898738861084e-01 -7.663082480430603027e-01
1.687730252742767334e-01 1.463624238967895508e-01 -7.751287817955017090e-01
1.716366112232208252e-01 1.385250836610794067e-01 -7.529754638671875000e-01
1.840250939130783081e-01 1.459158807992935181e-01 -7.611067891120910645e-01
-3.591234087944030762e-01 -9.788480401039123535e-02 2.188797891139984131e-01
-3.689655661582946777e-01 -8.038317412137985229e-02 2.188310474157333374e-01
-3.566951155662536621e-01 -1.078123971819877625e-01 2.346518933773040771e-01
-3.665576577186584473e-01 -9.043290466070175171e-02 2.345702797174453735e-01
3.947853147983551025e-01 5.731170065701007843e-03 2.229302823543548584e-01
3.969633579254150391e-01 2.236199006438255310e-02 2.247235924005508423e-01
4.001547396183013916e-01 5.236128345131874084e-03 2.375544309616088867e-01
4.026247262954711914e-01 2.066647261381149292e-02 2.394638210535049438e-01
2.824091315269470215e-01 -1.823692023754119873e-02 9.025962352752685547e-01
2.854396104812622070e-01 2.967650070786476135e-04 9.019404649734497070e-01
2.801167666912078857e-01 -1.085533760488033295e-02 9.096792340278625488e-01
2.818810939788818359e-01 7.754406891763210297e-03 9.087433815002441406e-01
-3.760552108287811279e-01 1.121171340346336365e-01 -7.513412237167358398e-01
-3.606545925140380859e-01 1.242836564779281616e-01 -7.549278140068054199e-01
-3.685927391052246094e-01 1.251531392335891724e-01 -7.353151440620422363e-01
-3.505358397960662842e-01 1.361850202083587646e-01 -7.398704886436462402e-01
-1.974072754383087158e-01 1.690806448459625244e-02 6.197868585586547852e-01
-1.983828097581863403e-01 3.260011598467826843e-02 6.256629824638366699e-01
-1.875329315662384033e-01 1.902575045824050903e-02 6.329614520072937012e-01
-1.885411888360977173e-01 3.391281515359878540e-02 6.401441693305969238e-01
1.681412309408187866e-01 -1.948136277496814728e-02 -3.635395169258117676e-01
1.616922169923782349e-01 -5.741984583437442780e-03 -3.622995316982269287e-01
1.616838127374649048e-01 -2.241013199090957642e-02 -3.529599606990814209e-01
1.548641175031661987e-01 -9.561249986290931702e-03 -3.526084125041961670e-01
2.495269328355789185e-01 1.520415097475051880e-01 7.625649571418762207e-01
2.321711629629135132e-01 1.530053615570068359e-01 7.749226093292236328e-01
2.579898536205291748e-01 1.540122777223587036e-01 7.764296531677246094e-01
2.402416169643402100e-01 1.548638343811035156e-01 7.866671681404113770e-01
-3.906492888927459717e-01 -9.455376863479614258e-02 2.860683202743530273e-01
-3.961938619613647461e-01 -8.244854956865310669e-02 2.888724505901336670e-01
-3.988046348094940186e-01 -9.777676314115524292e-02 3.022837042808532715e-01
-4.041319787502288818e-01 -8.554806560277938843e-02 3.050374686717987061e-01
-1.986542642116546631e-01 -4.778256267309188843e-02 3.881293237209320068e-01
-1.950984448194503784e-01 -3.273276239633560181e-02 3.894091546535491943e-01
-2.018206864595413208e-01 -3.576738014817237854e-02 4.000642001628875732e-01
-1.987434029579162598e-01 -2.099715173244476318e-02 4.019356667995452881e-01
3.646920323371887207e-01 7.034833729267120361e-02 -8.028640151023864746e-01
3.546670079231262207e-01 8.600183576345443726e-02 -8.032789230346679688e-01
3.752631843090057373e-01 6.738156080245971680e-02 -7.913564443588256836e-01
3.670318722724914551e-01 8.334940671920776367e-02 -7.914923429489135742e-01
3.447315692901611328e-01 -2.587695792317390442e-02 -8.528528213500976562e-01
3.475332856178283691e-01 -9.406401775777339935e-03 -8.549777865409851074e-01
3.569748401641845703e-01 -2.594489604234695435e-02 -8.414809107780456543e-01
3.611091971397399902e-01 -9.653232060372829437e-03 -8.417888283729553223e-01
-3.040584921836853027e-01 -3.388420492410659790e-02 -8.868861198425292969e-01
-3.167612552642822266e-01 -1.409529522061347961e-02 -8.794243931770324707e-01
-3.196386098861694336e-01 -2.233313582837581635e-02 -8.750500082969665527e-01
-3.333376944065093994e-01 -2.352220937609672546e-03 -8.669067621231079102e-01
-4.722332060337066650e-01 2.673981525003910065e-02 -6.148139834403991699e-01
-4.709207415580749512e-01 3.970892354846000671e-02 -6.130529046058654785e-01
-4.752903282642364502e-01 3.037047386169433594e-02 -6.000173091888427734e-01
-4.736051261425018311e-01 4.330694302916526794e-02 -5.987039208412170410e-01
4.624380171298980713e-01 1.455637160688638687e-02 6.496970653533935547e-01
4.620548188686370850e-01 2.915814518928527832e-02 6.542772650718688965e-01
4.561308920383453369e-01 1.941256225109100342e-02 6.685233712196350098e-01
4.551884531974792480e-01 3.553209453821182251e-02 6.723481416702270508e-01
4.090766310691833496e-01 1.351631581783294678e-01 -5.078719854354858398e-01
3.954761028289794922e-01 1.430014669895172119e-01 -5.056563019752502441e-01
4.182808995246887207e-01 1.266791969537734985e-01 -4.942131042480468750e-01
4.060565531253814697e-01 1.352026760578155518e-01 -4.908926486968994141e-01
1.884616613388061523e-01 1.405556220561265945e-02 3.861891627311706543e-01
1.931354254484176636e-01 3.491595387458801270e-02 3.856728374958038330e-01
1.979103088378906250e-01 2.490028738975524902e-02 3.968861401081085205e-01
2.022621035575866699e-01 4.572452977299690247e-02 3.960935473442077637e-01
1.380681395530700684e-01 -1.887880265712738037e-01 1.079868525266647339e-01
1.320537328720092773e-01 -1.872594207525253296e-01 1.244127824902534485e-01
1.507876515388488770e-01 -1.832506805658340454e-01 1.169572994112968445e-01
1.444105356931686401e-01 -1.821304112672805786e-01 1.335504651069641113e-01
3.413624763488769531e-01 -1.206549555063247681e-01 -2.337742894887924194e-01
3.531174361705780029e-01 -1.090337857604026794e-01 -2.379886507987976074e-01
3.485277593135833740e-01 -1.100666895508766174e-01 -2.198468595743179321e-01
3.591696619987487793e-01 -9.805019944906234741e-02 -2.230024635791778564e-01
2.442702353000640869e-01 1.248583346605300903e-01 -8.679203391075134277e-01
2.332055419683456421e-01 1.338220983743667603e-01 -8.617488145828247070e-01
2.571798563003540039e-01 1.258877962827682495e-01 -8.561394810676574707e-01
2.453442811965942383e-01 1.350314915180206299e-01 -8.507902622222900391e-01
-3.119418919086456299e-01 4.439511336386203766e-03 8.836029171943664551e-01
-3.102094233036041260e-01 2.498787455260753632e-02 8.832064867019653320e-01
-2.967191040515899658e-01 7.214204408228397369e-03 8.930860161781311035e-01
-2.945525944232940674e-01 2.850574627518653870e-02 8.925443887710571289e-01
-1.709728688001632690e-01 -4.202490672469139099e-04 -3.633117079734802246e-01
-1.696239411830902100e-01 1.810584589838981628e-02 -3.612681925296783447e-01
-1.601770669221878052e-01 4.008082672953605652e-03 -3.528721630573272705e-01
-1.603782325983047485e-01 2.192702516913414001e-02 -3.512232601642608643e-01
2.101417928934097290e-01 1.634232848882675171e-01 9.972736239433288574e-03
1.934531331062316895e-01 1.699769049882888794e-01 1.530452724546194077e-02
2.256688028573989868e-01 1.578617393970489502e-01 2.164565399289131165e-02
2.092416435480117798e-01 1.646292954683303833e-01 2.672636881470680237e-02
3.521572053432464600e-01 1.536934822797775269e-01 -5.948618650436401367e-01
3.375822007656097412e-01 1.567452400922775269e-01 -5.871085524559020996e-01
3.654763698577880859e-01 1.519538909196853638e-01 -5.810405611991882324e-01
3.507880866527557373e-01 1.555319577455520630e-01 -5.741168260574340820e-01
2.619325816631317139e-01 1.087839007377624512e-01 -4.717222452163696289e-01
2.728538215160369873e-01 1.196564733982086182e-01 -4.745933413505554199e-01
2.649262249469757080e-01 1.179465204477310181e-01 -4.546986818313598633e-01
2.766098678112030029e-01 1.282800287008285522e-01 -4.574748575687408447e-01
-1.290376931428909302e-01 -7.196092046797275543e-04 -9.815223813056945801e-01
-1.241160184144973755e-01 1.814158819615840912e-02 -9.813314080238342285e-01
-1.113377884030342102e-01 5.950849503278732300e-03 -9.855321645736694336e-01
-1.063670665025711060e-01 2.444735355675220490e-02 -9.846711754798889160e-01
-1.528299599885940552e-02 -2.069239318370819092e-01 -1.872160099446773529e-02
-2.796116471290588379e-02 -2.082423865795135498e-01 -1.857559196650981903e-03
2.140139695256948471e-03 -2.061848193407058716e-01 -8.534800261259078979e-03
-1.008266396820545197e-02 -2.072216123342514038e-01 9.550910443067550659e-03
8.377820253372192383e-03 -7.007251679897308350e-02 9.857230782508850098e-01
7.106428034603595734e-03 -5.468356609344482422e-02 9.936178922653198242e-01
3.038607724010944366e-02 -6.514179706573486328e-02 9.859606623649597168e-01
2.857367880642414093e-02 -4.921203106641769409e-02 9.935184121131896973e-01
1.947073340415954590e-01 -7.750802487134933472e-02 -6.695996522903442383e-01
1.844274401664733887e-01 -6.338907778263092041e-02 -6.690330505371093750e-01
2.088107615709304810e-01 -8.714501559734344482e-02 -6.544668078422546387e-01
1.969355344772338867e-01 -7.290102541446685791e-02 -6.540845036506652832e-01
-2.336165904998779297e-01 7.408504933118820190e-02 -5.786740183830261230e-01
-2.386274039745330811e-01 8.349829167127609253e-02 -5.736554861068725586e-01
-2.379629015922546387e-01 7.401645928621292114e-02 -5.641556382179260254e-01
-2.428521960973739624e-01 8.420113474130630493e-02 -5.596988797187805176e-01
2.806032001972198486e-01 -1.329811215400695801e-01 4.346304237842559814e-01
2.710621654987335205e-01 -1.276619285345077515e-01 4.388195276260375977e-01
2.959169149398803711e-01 -1.361275613307952881e-01 4.461136758327484131e-01
2.848824560642242432e-01 -1.316018104553222656e-01 4.506626129150390625e-01
1.249811202287673950e-01 1.124900132417678833e-01 -2.728264331817626953e-01
1.196547374129295349e-01 1.207725778222084045e-01 -2.598955929279327393e-01
1.400986760854721069e-01 1.227828711271286011e-01 -2.683200538158416748e-01
1.324363350868225098e-01 1.297885924577713013e-01 -2.542196512222290039e-01
2.571508884429931641e-01 1.459495425224304199e-01 7.009972929954528809e-01
2.440590560436248779e-01 1.477662473917007446e-01 7.188903689384460449e-01
2.683918178081512451e-01 1.503554135560989380e-01 7.149024009704589844e-01
2.538316845893859863e-01 1.521295756101608276e-01 7.333517670631408691e-01
-3.334256112575531006e-01 1.407218724489212036e-01 2.769129574298858643e-01
-3.115809559822082520e-01 1.457355469465255737e-01 2.708776891231536865e-01
-3.227634727954864502e-01 1.453568935394287109e-01 2.903633415699005127e-01
-3.026655912399291992e-01 1.494959294795989990e-01 2.858802974224090576e-01
-1.098642051219940186e-01 -1.483505070209503174e-01 -8.854022026062011719e-01
-8.518812060356140137e-02 -1.498289853334426880e-01 -8.919485807418823242e-01
-9.454990923404693604e-02 -1.477930396795272827e-01 -8.726769685745239258e-01
-7.317220419645309448e-02 -1.484205573797225952e-01 -8.768298029899597168e-01
1.753885298967361450e-01 1.248594820499420166e-01 9.038324952125549316e-01
1.827385127544403076e-01 1.323108822107315063e-01 8.848916888236999512e-01
1.898684799671173096e-01 1.172694042325019836e-01 9.104409217834472656e-01
1.966875195503234863e-01 1.248635947704315186e-01 8.919853568077087402e-01
4.011454284191131592e-01 -7.407618314027786255e-02 2.748037278652191162e-01
4.083096385002136230e-01 -5.747063830494880676e-02 2.728098630905151367e-01
4.096143841743469238e-01 -6.764554232358932495e-02 2.907904088497161865e-01
4.163019955158233643e-01 -5.079464614391326904e-02 2.893205583095550537e-01
4.004369676113128662e-01 1.424569338560104370e-01 6.023863554000854492e-01
3.793475329875946045e-01 1.493595987558364868e-01 6.025192737579345703e-01
4.177044928073883057e-01 1.311209052801132202e-01 6.127694249153137207e-01
3.970888853073120117e-01 1.381615549325942993e-01 6.126407980918884277e-01
-2.222800999879837036e-01 9.052710235118865967e-02 -6.360356211662292480e-01
-2.362811118364334106e-01 1.003428101539611816e-01 -6.281479001045227051e-01
-2.218293994665145874e-01 8.515620231628417969e-02 -6.224429011344909668e-01
-2.334651052951812744e-01 9.502498805522918701e-02 -6.147145032882690430e-01
-1.428608000278472900e-01 7.165485620498657227e-02 7.102594971656799316e-01
-1.467421799898147583e-01 8.947505056858062744e-02 7.112132906913757324e-01
-1.272608190774917603e-01 7.556917518377304077e-02 7.231704592704772949e-01
-1.344589293003082275e-01 8.927436172962188721e-02 7.271365523338317871e-01
-3.520696461200714111e-01 -4.783661291003227234e-02 1.157847940921783447e-01
-3.572295606136322021e-01 -3.095462359488010406e-02 1.203740388154983521e-01
-3.574690520763397217e-01 -4.594101011753082275e-02 1.335499435663223267e-01
-3.637587726116180420e-01 -2.810269966721534729e-02 1.389850676059722900e-01
1.255886256694793701e-01 1.181084103882312775e-02 6.949620842933654785e-01
1.191134452819824219e-01 3.128846734762191772e-02 7.029774785041809082e-01
1.154564470052719116e-01 1.669034548103809357e-02 7.061342597007751465e-01
1.089800074696540833e-01 3.628822043538093567e-02 7.138835787773132324e-01
2.105622738599777222e-01 8.249069564044475555e-03 9.482373595237731934e-01
2.046709060668945312e-01 2.833355404436588287e-02 9.468310475349426270e-01
2.243257164955139160e-01 4.010235890746116638e-03 9.416389465332031250e-01
2.182451933622360229e-01 2.417482621967792511e-02 9.403881430625915527e-01
-6.780075374990701675e-03 2.072307169437408447e-01 -5.524115636944770813e-03
-7.695892825722694397e-03 2.049078047275543213e-01 8.997476659715175629e-03
1.639535184949636459e-03 2.089127600193023682e-01 1.407918147742748260e-02
8.519123308360576630e-03 2.080274224281311035e-01 2.128059044480323792e-02
4.774023890495300293e-01 3.382524475455284119e-03 4.804549813270568848e-01
4.795502722263336182e-01 2.271863818168640137e-02 4.782195389270782471e-01
4.792382121086120605e-01 1.232398860156536102e-02 4.937638640403747559e-01
4.814008772373199463e-01 3.135768324136734009e-02 4.917852878570556641e-01
2.294489294290542603e-01 3.925415128469467163e-02 -5.206431150436401367e-01
2.307670712471008301e-01 5.318434163928031921e-02 -5.167891979217529297e-01
2.277053147554397583e-01 4.393376410007476807e-02 -5.022464394569396973e-01
2.302305549383163452e-01 5.733064562082290649e-02 -4.992388784885406494e-01
-3.388647735118865967e-01 -1.533834338188171387e-01 6.568410396575927734e-01
-3.483043015003204346e-01 -1.508976072072982788e-01 6.681339740753173828e-01
-3.288598954677581787e-01 -1.529533565044403076e-01 6.655960679054260254e-01
-3.361966907978057861e-01 -1.504022926092147827e-01 6.751142740249633789e-01
3.233962953090667725e-01 8.176165819168090820e-02 -8.111497759819030762e-02
3.123516738414764404e-01 9.381630271673202515e-02 -7.441415637731552124e-02
3.195572197437286377e-01 7.541863620281219482e-02 -6.065195426344871521e-02
3.090096414089202881e-01 8.866474777460098267e-02 -5.473622679710388184e-02
3.785420656204223633e-01 -1.224412322044372559e-01 3.260206580162048340e-01
3.888000845909118652e-01 -1.079685315489768982e-01 3.255300521850585938e-01
3.881183862686157227e-01 -1.177996620535850525e-01 3.419875204563140869e-01
3.982845842838287354e-01 -1.025998070836067200e-01 3.413671255111694336e-01
4.282278418540954590e-01 -1.234814338386058807e-02 7.449383139610290527e-01
4.275311231613159180e-01 6.894523277878761292e-03 7.481914758682250977e-01
4.182284772396087646e-01 -2.676316536962985992e-03 7.616849541664123535e-01
4.176308810710906982e-01 1.579307019710540771e-02 7.650045156478881836e-01
3.563089529052376747e-03 -7.752995193004608154e-02 -9.770606756210327148e-01
1.484043616801500320e-02 -6.479451060295104980e-02 -9.832638502120971680e-01
2.293053269386291504e-02 -7.392579317092895508e-02 -9.770989418029785156e-01
3.330066427588462830e-02 -6.093958020210266113e-02 -9.831036925315856934e-01
1.964985132217407227e-01 -1.503757685422897339e-01 7.797504663467407227e-01
1.835325807332992554e-01 -1.534792929887771606e-01 7.937750816345214844e-01
2.061967700719833374e-01 -1.502984315156936646e-01 7.893304824829101562e-01
1.943843364715576172e-01 -1.527706384658813477e-01 8.044486641883850098e-01
-3.298709988594055176e-01 1.412008255720138550e-01 2.634610235691070557e-01
-3.073874711990356445e-01 1.473539024591445923e-01 2.562457919120788574e-01
-3.209881186485290527e-01 1.457670181989669800e-01 2.768647670745849609e-01
-2.994243502616882324e-01 1.506547927856445312e-01 2.711850106716156006e-01
2.513352036476135254e-01 2.383469045162200928e-02 -9.255082607269287109e-01
2.495781183242797852e-01 3.948203474283218384e-02 -9.240884780883789062e-01
2.670662403106689453e-01 2.637104876339435577e-02 -9.141665101051330566e-01
2.635420560836791992e-01 4.256867989897727966e-02 -9.145353436470031738e-01
2.914657592773437500e-01 -3.858382254838943481e-02 -8.909422159194946289e-01
2.951304912567138672e-01 -2.130071818828582764e-02 -8.938158154487609863e-01
3.030565977096557617e-01 -3.666252270340919495e-02 -8.802023530006408691e-01
3.061803281307220459e-01 -1.883737929165363312e-02 -8.835332393646240234e-01
2.600180506706237793e-01 -1.070052012801170349e-01 4.701634347438812256e-01
2.513439953327178955e-01 -9.795942902565002441e-02 4.757353067398071289e-01
2.686425745487213135e-01 -1.088673993945121765e-01 4.844847917556762695e-01
2.595287561416625977e-01 -9.969805181026458740e-02 4.900057017803192139e-01
1.947567798197269440e-02 -1.103361546993255615e-01 9.584230184555053711e-01
2.078622207045555115e-02 -9.487164020538330078e-02 9.685151576995849609e-01
4.029593616724014282e-02 -1.039028242230415344e-01 9.593857526779174805e-01
4.188253358006477356e-02 -8.847459405660629272e-02 9.699910879135131836e-01
2.235343903303146362e-01 -1.623148322105407715e-01 -7.956316322088241577e-02
2.374449670314788818e-01 -1.523737162351608276e-01 -8.660576492547988892e-02
2.328801602125167847e-01 -1.557134538888931274e-01 -6.543949246406555176e-02
2.463781088590621948e-01 -1.447694450616836548e-01 -7.216417789459228516e-02
4.020354896783828735e-02 1.511047482490539551e-01 8.805660605430603027e-01
4.542702436447143555e-02 1.539504975080490112e-01 8.735051155090332031e-01
5.097455531358718872e-02 1.493358016014099121e-01 8.893461227416992188e-01
6.293585151433944702e-02 1.539460122585296631e-01 8.750399351119995117e-01
2.145804911851882935e-01 5.167046189308166504e-02 5.993639230728149414e-01
2.211801260709762573e-01 6.625420600175857544e-02 5.982439517974853516e-01
2.097995579242706299e-01 6.094877421855926514e-02 6.129557490348815918e-01
2.170904874801635742e-01 7.538563013076782227e-02 6.124213337898254395e-01
2.481039911508560181e-01 -1.422093510627746582e-01 -7.832778617739677429e-03
2.617787420749664307e-01 -1.299429833889007568e-01 -1.326635573059320450e-02
2.553854286670684814e-01 -1.368358135223388672e-01 5.871530622243881226e-03
2.688867747783660889e-01 -1.243421062827110291e-01 1.927516190335154533e-03
-4.041297435760498047e-01 -1.982197165489196777e-02 -7.854576706886291504e-01
-4.079934060573577881e-01 1.828784123063087463e-03 -7.828578948974609375e-01
-4.164642691612243652e-01 -1.187560893595218658e-02 -7.669116258621215820e-01
-4.179326593875885010e-01 1.087229140102863312e-02 -7.644724845886230469e-01
-6.398583203554153442e-02 -8.369592577219009399e-02 7.510672807693481445e-01
-5.858270823955535889e-02 -6.703567504882812500e-02 7.424390912055969238e-01
-4.588929563760757446e-02 -7.978008687496185303e-02 7.547528147697448730e-01
-4.005290940403938293e-02 -6.343530863523483276e-02 7.460924983024597168e-01
-2.915603518486022949e-01 -1.215458661317825317e-01 -1.164727583527565002e-01
-3.049789965152740479e-01 -1.100735515356063843e-01 -1.160640791058540344e-01
-2.811802923679351807e-01 -1.268741488456726074e-01 -1.027628481388092041e-01
-2.948161959648132324e-01 -1.151116043329238892e-01 -1.024026349186897278e-01
-4.488820731639862061e-01 4.791693016886711121e-02 -6.863721013069152832e-01
-4.402436017990112305e-01 6.545481085777282715e-02 -6.868304610252380371e-01
-4.524896740913391113e-01 5.552228167653083801e-02 -6.681523919105529785e-01
-4.438272714614868164e-01 6.976482272148132324e-02 -6.681798100471496582e-01
3.073625266551971436e-01 1.438524872064590454e-01 4.277350902557373047e-01
3.247456550598144531e-01 1.458359807729721069e-01 4.254645109176635742e-01
3.176097571849822998e-01 1.477019786834716797e-01 4.427260458469390869e-01
3.357297182083129883e-01 1.490799933671951294e-01 4.396832287311553955e-01
-2.931908071041107178e-01 1.489658206701278687e-01 2.652854323387145996e-01
-2.777711451053619385e-01 1.513951420783996582e-01 2.638399004936218262e-01
-2.736563086509704590e-01 1.547415703535079956e-01 2.738116979598999023e-01
-2.721812129020690918e-01 1.554410159587860107e-01 2.796472907066345215e-01
-3.124830424785614014e-01 8.381769061088562012e-02 5.842675641179084778e-02
-3.042680323123931885e-01 9.503015875816345215e-02 5.827422067523002625e-02
-3.090060651302337646e-01 9.385805577039718628e-02 7.238072901964187622e-02
-3.001814186573028564e-01 1.044122874736785889e-01 7.268710434436798096e-02
-4.290606081485748291e-01 1.100388467311859131e-01 6.075615882873535156e-01
-4.179891347885131836e-01 1.259979456663131714e-01 6.023637056350708008e-01
-4.193029701709747314e-01 1.176465824246406555e-01 6.254807114601135254e-01
-4.081811010837554932e-01 1.333908438682556152e-01 6.202146410942077637e-01
-3.950465917587280273e-01 7.557199150323867798e-02 7.571865916252136230e-01
-3.863418698310852051e-01 8.871489018201828003e-02 7.574570178985595703e-01
-3.848685324192047119e-01 8.322392404079437256e-02 7.689602375030517578e-01
-3.760265111923217773e-01 9.629654139280319214e-02 7.687023878097534180e-01
-4.702553749084472656e-01 -2.402955666184425354e-02 4.485646188259124756e-01
-4.694615602493286133e-01 -4.728838801383972168e-03 4.491424858570098877e-01
-4.742601811885833740e-01 -1.865728013217449188e-02 4.631045460700988770e-01
-4.738294184207916260e-01 -6.578853353857994080e-04 4.648163914680480957e-01
-3.203574195504188538e-02 -2.057271450757980347e-01 -9.640371426939964294e-03
-4.412996768951416016e-02 -2.065644711256027222e-01 6.935324519872665405e-03
-1.490215770900249481e-02 -2.054593265056610107e-01 1.191671937704086304e-03
-2.689366787672042847e-02 -2.060729563236236572e-01 1.933124288916587830e-02
4.733189344406127930e-01 4.245887324213981628e-02 -5.462582111358642578e-01
4.707532227039337158e-01 5.957112088799476624e-02 -5.418562293052673340e-01
4.709382057189941406e-01 4.442150145769119263e-02 -5.319215655326843262e-01
4.682375192642211914e-01 6.164150312542915344e-02 -5.270892381668090820e-01
-3.857638835906982422e-01 -1.126748919486999512e-01 2.994836866855621338e-01
-3.914377689361572266e-01 -1.007026433944702148e-01 3.025048077106475830e-01
-3.932364881038665771e-01 -1.153249442577362061e-01 3.164281845092773438e-01
-3.989914357662200928e-01 -1.036651432514190674e-01 3.193246424198150635e-01
-4.712102934718132019e-02 2.050902247428894043e-01 -1.025931537151336670e-02
-4.458568245172500610e-02 2.053131461143493652e-01 -5.676122382283210754e-04
-4.314409196376800537e-02 2.053086459636688232e-01 1.004116889089345932e-02
-2.855791337788105011e-02 2.052040100097656250e-01 9.672707878053188324e-03
-1.364948749542236328e-01 -2.927310764789581299e-02 3.311170339584350586e-01
-1.383369266986846924e-01 -1.338982954621315002e-02 3.361954987049102783e-01
-1.244681850075721741e-01 -1.992759108543395996e-02 3.273870944976806641e-01
-1.262446343898773193e-01 -3.837288357317447662e-03 3.322622179985046387e-01
-4.026499986648559570e-01 -1.165907829999923706e-01 3.486761152744293213e-01
-4.110131263732910156e-01 -1.060555800795555115e-01 3.522844314575195312e-01
-4.028516709804534912e-01 -1.203325092792510986e-01 3.602998554706573486e-01
-4.127798080444335938e-01 -1.108274310827255249e-01 3.643960058689117432e-01
1.108028143644332886e-01 -6.199432909488677979e-02 7.148261666297912598e-01
9.633803367614746094e-02 -4.587332531809806824e-02 7.184847593307495117e-01
1.089343652129173279e-01 -6.860025972127914429e-02 7.225871086120605469e-01
9.535783529281616211e-02 -5.430451035499572754e-02 7.254949808120727539e-01
4.670004844665527344e-01 4.685201123356819153e-02 6.118831634521484375e-01
4.674340188503265381e-01 6.544522941112518311e-02 6.119236350059509277e-01
4.617203176021575928e-01 5.319993570446968079e-02 6.305069327354431152e-01
4.619499742984771729e-01 7.211288809776306152e-02 6.309474110603332520e-01
3.643480837345123291e-01 -1.507700979709625244e-01 -6.428139209747314453e-01
3.777732253074645996e-01 -1.433638781309127808e-01 -6.486057043075561523e-01
3.742068707942962646e-01 -1.483001559972763062e-01 -6.302438378334045410e-01
3.863598108291625977e-01 -1.391745954751968384e-01 -6.366655230522155762e-01
-9.384245425462722778e-02 2.429187856614589691e-02 -9.826342463493347168e-01
-9.021113812923431396e-02 4.169848561286926270e-02 -9.811148643493652344e-01
-7.718597352504730225e-02 2.811821177601814270e-02 -9.863671660423278809e-01
-7.493779063224792480e-02 4.414550960063934326e-02 -9.838288426399230957e-01
-1.705531626939773560e-01 4.734047874808311462e-02 -6.661456227302551270e-01
-1.833810657262802124e-01 5.833030492067337036e-02 -6.570599079132080078e-01
-1.798081398010253906e-01 4.508712887763977051e-02 -6.521801948547363281e-01
-1.922469139099121094e-01 5.750381946563720703e-02 -6.419581770896911621e-01
2.258195281028747559e-01 1.459963917732238770e-01 -7.437044978141784668e-01
2.351143956184387207e-01 1.490999907255172729e-01 -7.494742870330810547e-01
2.395661026239395142e-01 1.486127823591232300e-01 -7.297680377960205078e-01
2.511343955993652344e-01 1.539918929338455200e-01 -7.376856803894042969e-01
1.548815071582794189e-01 1.531569808721542358e-01 2.130783945322036743e-01
1.665238142013549805e-01 1.576709747314453125e-01 2.034823298454284668e-01
1.673370897769927979e-01 1.548653095960617065e-01 2.212943434715270996e-01
1.783562153577804565e-01 1.595240682363510132e-01 2.119319438934326172e-01
-6.204488873481750488e-02 -1.461098194122314453e-01 8.219566345214843750e-01
-5.543478578329086304e-02 -1.415923535823822021e-01 8.099982142448425293e-01
-5.205043777823448181e-02 -1.448319703340530396e-01 8.285720944404602051e-01
