7.711981236934661865e-02 -3.229240775108337402e-01 -1.350692361593246460e-01
-3.842988014221191406e-01 -2.247496694326400757e-02 -1.940470784902572632e-01
-3.795023858547210693e-01 -6.381402723491191864e-03 -1.917407363653182983e-01
-3.857916891574859619e-01 -5.183542612940073013e-03 -1.822428852319717407e-01
-3.805139958858489990e-01 1.165592856705188751e-02 -1.807862520217895508e-01
1.967020630836486816e-01 8.432195186614990234e-01 2.054104357957839966e-01
1.893640160560607910e-01 8.528567552566528320e-01 2.091373205184936523e-01
1.899996548891067505e-01 8.397064208984375000e-01 2.169473767280578613e-01
1.833245605230331421e-01 8.508222699165344238e-01 2.217081934213638306e-01
-4.088418558239936829e-03 -8.283519744873046875e-02 2.067245692014694214e-01
-1.813509385101497173e-03 -6.564597785472869873e-02 2.102313935756683350e-01
1.025244314223527908e-02 -7.816937565803527832e-02 2.049388438463211060e-01
1.266351900994777679e-02 -6.091807037591934204e-02 2.085519880056381226e-01
3.935910761356353760e-01 -2.444522976875305176e-01 -3.061009049415588379e-01
3.876733481884002686e-01 -2.330111712217330933e-01 -2.996317744255065918e-01
3.818392157554626465e-01 -2.412489056587219238e-01 -2.904342412948608398e-01
3.737671673297882080e-01 -2.305542528629302979e-01 -2.842226624488830566e-01
-3.778372108936309814e-01 -3.224128484725952148e-01 -3.233136832714080811e-01
-3.743323683738708496e-01 -3.092068135738372803e-01 -3.230897784233093262e-01
-3.659989237785339355e-01 -3.212506473064422607e-01 -3.185304999351501465e-01
-3.613598644733428955e-01 -3.079154491424560547e-01 -3.192433416843414307e-01
-3.898955583572387695e-01 6.628108024597167969e-02 -1.320629566907882690e-01
-3.755585551261901855e-01 7.880185544490814209e-02 -1.319371610879898071e-01
-3.887485861778259277e-01 7.623565196990966797e-02 -1.148177832365036011e-01
-3.754441738128662109e-01 8.775450289249420166e-02 -1.156865283846855164e-01
5.069064721465110779e-02 2.616394162178039551e-01 -1.434512734413146973e-01
4.240316525101661682e-02 2.674355506896972656e-01 -1.322698742151260376e-01
6.686893105506896973e-02 2.652744948863983154e-01 -1.326518803834915161e-01
5.821654945611953735e-02 2.712689042091369629e-01 -1.219094246625900269e-01
2.668063938617706299e-01 1.670310795307159424e-01 1.862185150384902954e-01
2.653632760047912598e-01 1.805261224508285522e-01 1.858470439910888672e-01
2.766506373882293701e-01 1.601343601942062378e-01 1.854376792907714844e-01
2.729647159576416016e-01 1.712377518415451050e-01 1.858833879232406616e-01
-5.553641319274902344e-01 -4.782380461692810059e-01 -2.490632086992263794e-01
-5.611129999160766602e-01 -4.695218801498413086e-01 -2.444801628589630127e-01
-5.427460074424743652e-01 -4.772340059280395508e-01 -2.488525509834289551e-01
-5.490096211433410645e-01 -4.687179327011108398e-01 -2.442625313997268677e-01
3.859561681747436523e-01 3.863218426704406738e-01 2.673148512840270996e-01
3.813376128673553467e-01 3.974109292030334473e-01 2.740260660648345947e-01
3.978549838066101074e-01 3.889669775962829590e-01 2.673091292381286621e-01
3.930729925632476807e-01 3.996757566928863525e-01 2.754504978656768799e-01
-3.362347781658172607e-01 1.049894914031028748e-01 7.572758942842483521e-02
-3.244520127773284912e-01 1.083462983369827271e-01 7.071892917156219482e-02
-3.194995820522308350e-01 1.091238111257553101e-01 8.589978516101837158e-02
-3.148546516895294189e-01 1.111930534243583679e-01 8.265445381402969360e-02
1.215654015541076660e-01 1.179830078035593033e-02 1.747590899467468262e-01
1.244334205985069275e-01 2.840365283191204071e-02 1.787162423133850098e-01
1.359260827302932739e-01 1.704294048249721527e-02 1.712970882654190063e-01
1.388766318559646606e-01 3.340596705675125122e-02 1.754899471998214722e-01
-3.261518478393554688e-01 -2.022242546081542969e-01 2.749547064304351807e-01
-3.302761018276214600e-01 -1.876001358032226562e-01 2.753724455833435059e-01
-3.114522397518157959e-01 -1.975843310356140137e-01 2.811602652072906494e-01
-3.154594302177429199e-01 -1.828005164861679077e-01 2.815188765525817871e-01
-3.420400023460388184e-01 -5.344319343566894531e-01 -3.581673279404640198e-02
-3.424804806709289551e-01 -5.233950018882751465e-01 -3.206805884838104248e-02
-3.356580138206481934e-01 -5.292420387268066406e-01 -2.514819055795669556e-02
-3.361784517765045166e-01 -5.180937647819519043e-01 -2.104347012937068939e-02
-3.517146110534667969e-01 1.472422294318675995e-02 -2.073983699083328247e-01
-3.463541269302368164e-01 3.100243024528026581e-02 -2.061185538768768311e-01
-3.519163727760314941e-01 3.049326501786708832e-02 -1.980824917554855347e-01
-3.463597893714904785e-01 4.681013524532318115e-02 -1.969025880098342896e-01
-2.599803209304809570e-01 -3.220966160297393799e-01 2.491406649351119995e-01
-2.687970101833343506e-01 -3.102774322032928467e-01 2.547520399093627930e-01
-2.438776344060897827e-01 -3.267120718955993652e-01 2.495533674955368042e-01
-2.516314089298248291e-01 -3.152044415473937988e-01 2.560881972312927246e-01
3.285787999629974365e-01 -4.191116243600845337e-02 1.753130704164505005e-01
3.151499032974243164e-01 -3.573379665613174438e-02 1.794276684522628784e-01
3.284331262111663818e-01 -5.664239078760147095e-02 1.859820783138275146e-01
3.154443204402923584e-01 -4.998215287923812866e-02 1.897789686918258667e-01
7.278823107481002808e-02 2.531337738037109375e-01 2.851788327097892761e-02
6.223844736814498901e-02 2.594880461692810059e-01 3.559950366616249084e-02
7.466316968202590942e-02 2.506037950515747070e-01 4.161828011274337769e-02
6.799677014350891113e-02 2.586100399494171143e-01 4.781652987003326416e-02
1.970924735069274902e-01 4.785072505474090576e-01 1.193523854017257690e-01
2.106714844703674316e-01 4.913099706172943115e-01 1.159121692180633545e-01
1.967372894287109375e-01 4.886643886566162109e-01 1.327951699495315552e-01
2.091136127710342407e-01 5.013084411621093750e-01 1.292310953140258789e-01
-5.222139358520507812e-01 -1.016229167580604553e-01 2.453028224408626556e-02
-5.161904096603393555e-01 -8.871710300445556641e-02 2.302701398730278015e-02
-5.188098549842834473e-01 -9.559740126132965088e-02 3.767634183168411255e-02
-5.128580331802368164e-01 -8.265664428472518921e-02 3.681644797325134277e-02
-6.192686557769775391e-01 -3.075137138366699219e-01 -9.337794780731201172e-02
-6.046222448348999023e-01 -2.964929938316345215e-01 -9.274573624134063721e-02
-6.050252914428710938e-01 -2.988369762897491455e-01 -7.697047293186187744e-02
-5.953252315521240234e-01 -2.879889905452728271e-01 -7.426878809928894043e-02
2.797796130180358887e-01 8.979751467704772949e-01 1.387370228767395020e-01
2.808137238025665283e-01 9.103140830993652344e-01 1.411553323268890381e-01
2.808869183063507080e-01 9.006892442703247070e-01 1.522819250822067261e-01
2.800123989582061768e-01 9.130750894546508789e-01 1.547360569238662720e-01
-1.430451422929763794e-01 -6.253658235073089600e-02 2.126165628433227539e-01
-1.426827311515808105e-01 -4.506483674049377441e-02 2.122589945793151855e-01
-1.280848383903503418e-01 -6.089270114898681641e-02 2.098325788974761963e-01
-1.275146007537841797e-01 -4.303727298974990845e-02 2.102199941873550415e-01
-5.028631687164306641e-01 -2.310339063405990601e-01 -1.313703209161758423e-01
-5.074280500411987305e-01 -2.177900969982147217e-01 -1.234964206814765930e-01
-5.101867318153381348e-01 -2.273706346750259399e-01 -1.138455122709274292e-01
-5.123062133789062500e-01 -2.137934565544128418e-01 -1.088402196764945984e-01
-1.048955470323562622e-01 2.244682759046554565e-01 -1.967872083187103271e-01
-1.133159399032592773e-01 2.332593798637390137e-01 -1.876865327358245850e-01
-9.216400235891342163e-02 2.303112745285034180e-01 -1.962935328483581543e-01
-1.002428457140922546e-01 2.388349473476409912e-01 -1.864832937717437744e-01
-5.594245791435241699e-01 -2.917998433113098145e-01 -2.893959581851959229e-01
-5.617805123329162598e-01 -2.881425619125366211e-01 -2.799546122550964355e-01
-5.497592091560363770e-01 -2.838717997074127197e-01 -2.809883058071136475e-01
-5.526524186134338379e-01 -2.826208770275115967e-01 -2.714373767375946045e-01
-3.225381672382354736e-01 -4.294205904006958008e-01 1.121788099408149719e-01
-3.246549665927886963e-01 -4.184701740741729736e-01 1.230811774730682373e-01
-3.085394799709320068e-01 -4.234534800052642822e-01 1.236421987414360046e-01
-3.106685280799865723e-01 -4.121959805488586426e-01 1.344076544046401978e-01
1.054681465029716492e-01 -2.517927587032318115e-01 -2.495135813951492310e-01
1.092494949698448181e-01 -2.443419396877288818e-01 -2.610064148902893066e-01
1.186295151710510254e-01 -2.600089907646179199e-01 -2.418411225080490112e-01
1.240510791540145874e-01 -2.528290152549743652e-01 -2.542381286621093750e-01
3.920684009790420532e-02 5.478755012154579163e-02 3.416413962841033936e-01
2.962920442223548889e-02 6.831914186477661133e-02 3.469490110874176025e-01
2.860232442617416382e-02 5.668579787015914917e-02 3.538881242275238037e-01
2.007563039660453796e-02 7.068006694316864014e-02 3.605411350727081299e-01
2.823319137096405029e-01 4.229349792003631592e-01 -2.710488438606262207e-02
2.843457162380218506e-01 4.388383626937866211e-01 -2.851509302854537964e-02
2.998811900615692139e-01 4.216684699058532715e-01 -2.464886568486690521e-02
3.016366064548492432e-01 4.375382959842681885e-01 -2.585977874696254730e-02
6.904460489749908447e-02 1.938132941722869873e-01 -2.428218126296997070e-01
6.359183788299560547e-02 2.006358057260513306e-01 -2.336450964212417603e-01
7.895643264055252075e-02 1.985341459512710571e-01 -2.385477870702743530e-01
7.418265938758850098e-02 2.058253437280654907e-01 -2.290337085723876953e-01
2.700131237506866455e-01 2.364721000194549561e-01 2.030865103006362915e-01
2.708875238895416260e-01 2.511401772499084473e-01 2.100131958723068237e-01
2.794479429721832275e-01 2.406609952449798584e-01 2.028808891773223877e-01
2.806203365325927734e-01 2.552421987056732178e-01 2.099342346191406250e-01
-5.555566549301147461e-01 -5.145039558410644531e-01 -2.799322009086608887e-01
-5.732057690620422363e-01 -5.031800270080566406e-01 -2.669169306755065918e-01
-5.384517908096313477e-01 -5.130290985107421875e-01 -2.795206308364868164e-01
-5.550459027290344238e-01 -5.022001862525939941e-01 -2.677304744720458984e-01
3.271904885768890381e-01 4.413062334060668945e-01 1.526283919811248779e-01
3.220566511154174805e-01 4.514461159706115723e-01 1.629615873098373413e-01
3.290908038616180420e-01 4.422365725040435791e-01 1.662623584270477295e-01
3.243199884891510010e-01 4.522784948348999023e-01 1.759859472513198853e-01
3.520345985889434814e-01 3.338562250137329102e-01 2.176820039749145508e-01
3.503051400184631348e-01 3.449241816997528076e-01 2.277722954750061035e-01
3.648977577686309814e-01 3.410719037055969238e-01 2.203772068023681641e-01
3.628405928611755371e-01 3.512338399887084961e-01 2.316487133502960205e-01
6.148919463157653809e-02 2.645788192749023438e-01 -1.302619129419326782e-01
5.283346027135848999e-02 2.706360816955566406e-01 -1.194541826844215393e-01
7.861655205488204956e-02 2.685260474681854248e-01 -1.201664879918098450e-01
6.929445266723632812e-02 2.741959095001220703e-01 -1.101408377289772034e-01
4.620114713907241821e-02 -2.716683745384216309e-01 1.121066287159919739e-01
4.912392422556877136e-02 -2.594419717788696289e-01 1.225797757506370544e-01
6.050511077046394348e-02 -2.617841660976409912e-01 1.123450025916099548e-01
6.316022574901580811e-02 -2.495885342359542847e-01 1.230578273534774780e-01
-4.677455723285675049e-01 -1.189174503087997437e-01 -1.862394362688064575e-01
-4.577167034149169922e-01 -1.042554080486297607e-01 -1.867339164018630981e-01
-4.709897041320800781e-01 -1.042457893490791321e-01 -1.719187498092651367e-01
-4.605715870857238770e-01 -8.912829309701919556e-02 -1.729791909456253052e-01
-5.377565622329711914e-01 -1.295530050992965698e-01 -2.281222864985466003e-02
-5.297508835792541504e-01 -1.135125011205673218e-01 -3.270855545997619629e-02
-5.368725657463073730e-01 -1.259204298257827759e-01 -1.032614335417747498e-02
-5.288550257682800293e-01 -1.100275143980979919e-01 -1.930417679250240326e-02
-4.541277885437011719e-01 -3.235769271850585938e-01 7.642766088247299194e-02
-4.598595798015594482e-01 -3.149490654468536377e-01 8.065246045589447021e-02
-4.500538706779479980e-01 -3.268592655658721924e-01 8.674640208482742310e-02
-4.562603533267974854e-01 -3.177451491355895996e-01 9.130270779132843018e-02
1.877353489398956299e-01 -4.010708928108215332e-01 -3.494501858949661255e-02
1.947802156209945679e-01 -3.854748606681823730e-01 -3.529434278607368469e-02
1.795141696929931641e-01 -3.893346786499023438e-01 -1.979099400341510773e-02
1.886758357286453247e-01 -3.735326528549194336e-01 -1.969172805547714233e-02
1.468998044729232788e-01 -4.993394613265991211e-01 -1.447072923183441162e-01
1.438278257846832275e-01 -4.860025048255920410e-01 -1.441697627305984497e-01
1.519687324762344360e-01 -4.986275732517242432e-01 -1.365879923105239868e-01
1.491722613573074341e-01 -4.848149716854095459e-01 -1.366535425186157227e-01
-3.427388072013854980e-01 -3.469789028167724609e-01 1.816637963056564331e-01
-3.483149409294128418e-01 -3.343703448772430420e-01 1.902593225240707397e-01
-3.248230814933776855e-01 -3.463924527168273926e-01 1.883972287178039551e-01
-3.302013576030731201e-01 -3.334698379039764404e-01 1.976228803396224976e-01
2.460994273424148560e-01 3.673927187919616699e-01 2.274348437786102295e-01
2.449887692928314209e-01 3.842747807502746582e-01 2.287887185811996460e-01
2.619174718856811523e-01 3.709383010864257812e-01 2.269791364669799805e-01
2.599988877773284912e-01 3.873886764049530029e-01 2.285018861293792725e-01
-4.672690629959106445e-01 -4.445674121379852295e-01 -2.972742319107055664e-01
-4.591991901397705078e-01 -4.284656047821044922e-01 -3.027697205543518066e-01
-4.568975865840911865e-01 -4.344475567340850830e-01 -2.853578925132751465e-01
-4.484700858592987061e-01 -4.175018072128295898e-01 -2.914834022521972656e-01
-5.319413542747497559e-01 -3.638865053653717041e-01 -3.410032987594604492e-01
-5.331714153289794922e-01 -3.516662716865539551e-01 -3.306475877761840820e-01
-5.228959321975708008e-01 -3.544583022594451904e-01 -3.359851241111755371e-01
-5.237925648689270020e-01 -3.422704041004180908e-01 -3.258378207683563232e-01
2.111656665802001953e-01 7.207357883453369141e-01 2.680089473724365234e-01
2.119544744491577148e-01 7.342907786369323730e-01 2.701590657234191895e-01
2.151186913251876831e-01 7.232330441474914551e-01 2.791374027729034424e-01
2.159101516008377075e-01 7.367073297500610352e-01 2.809102237224578857e-01
-5.071309208869934082e-01 -1.104484647512435913e-01 -1.131919324398040771e-01
-4.961678981781005859e-01 -9.304164350032806396e-02 -1.163004934787750244e-01
-5.102316737174987793e-01 -9.910049289464950562e-02 -9.800344705581665039e-02
-4.990032017230987549e-01 -8.167655020952224731e-02 -1.017359867691993713e-01
1.880006194114685059e-01 1.653565615415573120e-01 -1.347668319940567017e-01
1.759431362152099609e-01 1.749959290027618408e-01 -1.216531917452812195e-01
2.089325785636901855e-01 1.674108207225799561e-01 -1.255200803279876709e-01
1.966494023799896240e-01 1.778012663125991821e-01 -1.130000948905944824e-01
1.016070395708084106e-01 7.808510661125183105e-01 3.028376400470733643e-01
1.068730950355529785e-01 7.937074303627014160e-01 3.017512857913970947e-01
1.035615056753158569e-01 7.843400835990905762e-01 3.155847489833831787e-01
1.071917340159416199e-01 7.979981303215026855e-01 3.156176209449768066e-01
-4.627923667430877686e-01 -2.524866163730621338e-01 -2.580873370170593262e-01
-4.656543731689453125e-01 -2.436886727809906006e-01 -2.491179704666137695e-01
-4.629046022891998291e-01 -2.423952668905258179e-01 -2.487284094095230103e-01
-4.602473378181457520e-01 -2.314621210098266602e-01 -2.426389008760452271e-01
7.812783867120742798e-02 1.621270477771759033e-01 -1.954561918973922729e-01
6.689436733722686768e-02 1.670003533363342285e-01 -1.839222759008407593e-01
8.838880062103271484e-02 1.605686396360397339e-01 -1.906593143939971924e-01
7.992103695869445801e-02 1.664237976074218750e-01 -1.782135516405105591e-01
-2.132030427455902100e-01 -1.600591279566287994e-02 -2.428935319185256958e-01
-2.188086807727813721e-01 -5.662375129759311676e-03 -2.370385527610778809e-01
-2.001162022352218628e-01 -1.328565925359725952e-02 -2.432013154029846191e-01
-2.051098495721817017e-01 -3.003354649990797043e-03 -2.371924370527267456e-01
-5.139428004622459412e-02 1.127960719168186188e-02 2.217795103788375854e-01
-5.501450970768928528e-02 2.603507973253726959e-02 2.208502441644668579e-01
-3.498796001076698303e-02 1.080507598817348480e-02 2.194048166275024414e-01
-3.752189874649047852e-02 2.588554471731185913e-02 2.192939072847366333e-01
-3.038778714835643768e-02 2.574408352375030518e-01 -1.659244000911712646e-01
-3.867737948894500732e-02 2.655963599681854248e-01 -1.552769690752029419e-01
-1.862141676247119904e-02 2.601406574249267578e-01 -1.584019362926483154e-01
-2.717338129878044128e-02 2.679228782653808594e-01 -1.470985859632492065e-01
2.248921692371368408e-01 -4.270520061254501343e-02 2.644428014755249023e-01
2.120040208101272583e-01 -3.323837369680404663e-02 2.670365273952484131e-01
2.217332124710083008e-01 -5.687377229332923889e-02 2.752164900302886963e-01
2.094309628009796143e-01 -4.761390015482902527e-02 2.772333025932312012e-01
1.155150458216667175e-01 6.877911686897277832e-01 2.690755724906921387e-01
1.078102961182594299e-01 6.996537446975708008e-01 2.763119339942932129e-01
1.106627285480499268e-01 6.892920732498168945e-01 2.855473458766937256e-01
1.034758985042572021e-01 7.011279463768005371e-01 2.920843958854675293e-01
1.151730269193649292e-01 9.725476615130901337e-03 4.048529863357543945e-01
1.016598939895629883e-01 1.866951026022434235e-02 4.070158600807189941e-01
1.192524954676628113e-01 -7.225000765174627304e-03 4.084773957729339600e-01
1.063921898603439331e-01 2.067158697172999382e-03 4.100732803344726562e-01
1.524769067764282227e-01 8.681272268295288086e-01 2.978056073188781738e-01
1.614079177379608154e-01 8.767029047012329102e-01 2.932328283786773682e-01
1.569334119558334351e-01 8.708852529525756836e-01 3.045262694358825684e-01
1.655725240707397461e-01 8.794010281562805176e-01 2.991197109222412109e-01
-1.660733073949813843e-01 -4.671223759651184082e-01 -8.022448047995567322e-03
-1.568892300128936768e-01 -4.520060718059539795e-01 -2.155259437859058380e-02
-1.587017178535461426e-01 -4.624013602733612061e-01 4.575719591230154037e-03
-1.477665752172470093e-01 -4.486106634140014648e-01 -7.955672219395637512e-03
2.446255385875701904e-01 -1.055750176310539246e-01 -1.356733590364456177e-01
2.421434223651885986e-01 -8.463006466627120972e-02 -1.392372399568557739e-01
2.479907721281051636e-01 -1.002921909093856812e-01 -1.160939559340476990e-01
2.475633323192596436e-01 -7.751671224832534790e-02 -1.213528066873550415e-01
4.057944118976593018e-01 3.880325704813003540e-02 1.182893887162208557e-01
3.996388614177703857e-01 5.079386383295059204e-02 1.209339052438735962e-01
4.054640829563140869e-01 2.904063463211059570e-02 1.294592320919036865e-01
3.973354399204254150e-01 4.136723279953002930e-02 1.337635964155197144e-01
-3.134662508964538574e-01 -2.450011372566223145e-01 2.636826038360595703e-01
-3.168786168098449707e-01 -2.323512732982635498e-01 2.701301574707031250e-01
-3.042874932289123535e-01 -2.401496469974517822e-01 2.722421884536743164e-01
-3.079099953174591064e-01 -2.278499603271484375e-01 2.791817784309387207e-01
5.131391063332557678e-02 -1.611702889204025269e-01 1.693105548620223999e-01
5.248360708355903625e-02 -1.459258049726486206e-01 1.775444298982620239e-01
6.804337352514266968e-02 -1.573093235492706299e-01 1.655891239643096924e-01
6.905663013458251953e-02 -1.422337442636489868e-01 1.733900159597396851e-01
2.597542405128479004e-01 5.907576084136962891e-01 7.217483967542648315e-02
2.526050508022308350e-01 6.055091023445129395e-01 7.429851591587066650e-02
2.650902867317199707e-01 5.885038375854492188e-01 7.988274097442626953e-02
2.579765021800994873e-01 6.032124757766723633e-01 8.195242285728454590e-02
-2.751656472682952881e-01 -6.077983975410461426e-01 -1.855668425559997559e-01
-2.699315845966339111e-01 -5.898618698120117188e-01 -1.828960180282592773e-01
-2.573516964912414551e-01 -6.009405851364135742e-01 -1.831466108560562134e-01
-2.521879076957702637e-01 -5.834870934486389160e-01 -1.804355680942535400e-01
-4.923261106014251709e-01 -2.106439620256423950e-01 1.307797282934188843e-01
-4.957928955554962158e-01 -1.948174387216567993e-01 1.274950057268142700e-01
-4.824941158294677734e-01 -2.124510258436203003e-01 1.453403681516647339e-01
-4.848781228065490723e-01 -1.970663666725158691e-01 1.427536159753799438e-01
9.035764634609222412e-02 1.517393290996551514e-01 -2.809424102306365967e-01
8.155147731304168701e-02 1.585827916860580444e-01 -2.712052166461944580e-01
1.015516519546508789e-01 1.538869887590408325e-01 -2.766300737857818604e-01
9.577441960573196411e-02 1.630447506904602051e-01 -2.662131786346435547e-01
1.948850452899932861e-01 2.296262979507446289e-01 -1.487853676080703735e-01
1.788132041692733765e-01 2.384465187788009644e-01 -1.350868195295333862e-01
2.087456136941909790e-01 2.291470319032669067e-01 -1.388978213071823120e-01
1.957843601703643799e-01 2.374885380268096924e-01 -1.253600716590881348e-01
-4.835075438022613525e-01 -1.389583647251129150e-01 -1.815037727355957031e-01
-4.757408499717712402e-01 -1.223168075084686279e-01 -1.806943416595458984e-01
-4.905985891819000244e-01 -1.250239312648773193e-01 -1.659877151250839233e-01
-4.823383986949920654e-01 -1.085990667343139648e-01 -1.655977070331573486e-01
-3.136792778968811035e-01 -3.680215477943420410e-01 1.727730035781860352e-01
-3.168101012706756592e-01 -3.551605045795440674e-01 1.830661594867706299e-01
-2.961491644382476807e-01 -3.627042770385742188e-01 1.811250150203704834e-01
-2.992743849754333496e-01 -3.490243554115295410e-01 1.914001554250717163e-01
1.010618135333061218e-01 8.748047053813934326e-02 -7.616858929395675659e-02
1.010096967220306396e-01 1.001279205083847046e-01 -6.315922737121582031e-02
1.172126084566116333e-01 9.553188085556030273e-02 -6.986582279205322266e-02
1.169758439064025879e-01 1.081666946411132812e-01 -5.754939466714859009e-02
4.108556732535362244e-02 1.606427431106567383e-01 -2.269215583801269531e-01
2.812215127050876617e-02 1.647297590970993042e-01 -2.187242656946182251e-01
5.235420912504196167e-02 1.579511612653732300e-01 -2.207660377025604248e-01
3.920393064618110657e-02 1.621754169464111328e-01 -2.123717069625854492e-01
-1.667372286319732666e-01 -1.020972877740859985e-01 2.536997795104980469e-01
-1.665466278791427612e-01 -9.064857661724090576e-02 2.459844350814819336e-01
-1.577350795269012451e-01 -1.207211688160896301e-01 2.534124851226806641e-01
-1.578309834003448486e-01 -1.098578646779060364e-01 2.464783191680908203e-01
-5.600923299789428711e-01 -4.928217530250549316e-01 -4.143536090850830078e-01
-5.639433264732360840e-01 -4.824885427951812744e-01 -4.053911864757537842e-01
-5.484834909439086914e-01 -4.908725619316101074e-01 -4.088651537895202637e-01
-5.523627400398254395e-01 -4.808066487312316895e-01 -4.010575115680694580e-01
3.148421347141265869e-01 4.660519063472747803e-01 1.914849877357482910e-01
3.115333020687103271e-01 4.796213805675506592e-01 1.952773183584213257e-01
3.079292178153991699e-01 4.689887166023254395e-01 2.010953426361083984e-01
3.047317862510681152e-01 4.827143251895904541e-01 2.048083990812301636e-01
3.213351666927337646e-01 -3.385899960994720459e-02 1.784148067235946655e-01
3.077587783336639404e-01 -2.751889452338218689e-02 1.823731660842895508e-01
3.228271901607513428e-01 -4.946903139352798462e-02 1.883143484592437744e-01
3.095926344394683838e-01 -4.309049621224403381e-02 1.921807229518890381e-01
4.105252772569656372e-02 -4.470437467098236084e-01 -8.172214776277542114e-02
4.200293868780136108e-02 -4.332110583782196045e-01 -8.297582715749740601e-02
4.190047085285186768e-02 -4.428115785121917725e-01 -6.854113191366195679e-02
4.271832853555679321e-02 -4.285211861133575439e-01 -7.091079652309417725e-02
5.997069180011749268e-02 -2.205160707235336304e-01 -2.532014548778533936e-01
6.759141385555267334e-02 -2.110743671655654907e-01 -2.623721659183502197e-01
7.947551459074020386e-02 -2.245641946792602539e-01 -2.516895532608032227e-01
8.709830045700073242e-02 -2.149913460016250610e-01 -2.616318762302398682e-01
2.193985134363174438e-01 1.107529401779174805e-01 -2.688746154308319092e-01
2.119132131338119507e-01 1.131249442696571350e-01 -2.606010138988494873e-01
2.327462434768676758e-01 1.115627586841583252e-01 -2.644230723381042480e-01
2.263063639402389526e-01 1.125417500734329224e-01 -2.559128105640411377e-01
3.252757489681243896e-01 3.561434149742126465e-01 -3.457805141806602478e-04
3.245260119438171387e-01 3.764467835426330566e-01 8.080510306172072887e-04
3.338069915771484375e-01 3.587721884250640869e-01 1.255979388952255249e-02
3.325804471969604492e-01 3.785651028156280518e-01 1.297440472990274429e-02
-3.659816086292266846e-01 -4.499339684844017029e-02 2.440171092748641968e-01
-3.585305809974670410e-01 -3.098582662642002106e-02 2.417855709791183472e-01
-3.498043417930603027e-01 -4.128289222717285156e-02 2.501690089702606201e-01
-3.453234136104583740e-01 -2.784846536815166473e-02 2.462802231311798096e-01
-4.513573646545410156e-01 -1.977486461400985718e-01 -2.376621365547180176e-01
-4.402886033058166504e-01 -1.847619265317916870e-01 -2.367701083421707153e-01
-4.560199379920959473e-01 -1.838331222534179688e-01 -2.246192246675491333e-01
-4.471808373928070068e-01 -1.696263849735260010e-01 -2.237305641174316406e-01
7.691188901662826538e-02 8.125875890254974365e-02 2.942128181457519531e-01
6.896176934242248535e-02 9.379179030656814575e-02 2.986299693584442139e-01
6.471408158540725708e-02 7.823169231414794922e-02 3.061544597148895264e-01
5.730384960770606995e-02 9.172820299863815308e-02 3.102511167526245117e-01
1.283770650625228882e-01 2.076191753149032593e-01 -3.741880413144826889e-03
1.200907751917839050e-01 2.163474261760711670e-01 4.443936981260776520e-03
1.274971961975097656e-01 2.103235870599746704e-01 7.828205823898315430e-03
1.197074577212333679e-01 2.199018746614456177e-01 1.489408127963542938e-02
-5.900338664650917053e-02 -6.332390010356903076e-02 2.165887951850891113e-01
-5.957643315196037292e-02 -4.723754525184631348e-02 2.186964303255081177e-01
-4.543063417077064514e-02 -5.740765854716300964e-02 2.162283360958099365e-01
-4.597730189561843872e-02 -4.031926393508911133e-02 2.186299115419387817e-01
4.148242175579071045e-01 4.154397249221801758e-01 2.125634402036666870e-01
4.127964377403259277e-01 4.307502806186676025e-01 2.161867916584014893e-01
4.202701747417449951e-01 4.176922142505645752e-01 2.244489490985870361e-01
4.198091626167297363e-01 4.332964122295379639e-01 2.285318076610565186e-01
2.671255767345428467e-01 2.143595069646835327e-01 -1.303213685750961304e-01
2.584376931190490723e-01 2.220950126647949219e-01 -1.246362999081611633e-01
2.803349494934082031e-01 2.108399569988250732e-01 -1.165299639105796814e-01
2.727103233337402344e-01 2.192326784133911133e-01 -1.108389645814895630e-01
1.715018749237060547e-01 -5.551865100860595703e-01 -1.544560492038726807e-01
1.691853553056716919e-01 -5.424269437789916992e-01 -1.560057848691940308e-01
1.776233911514282227e-01 -5.551777482032775879e-01 -1.429712772369384766e-01
1.746098250150680542e-01 -5.429787039756774902e-01 -1.441400349140167236e-01
-3.071049153804779053e-01 -5.851482748985290527e-01 -1.734639108180999756e-01
-3.040506839752197266e-01 -5.698115825653076172e-01 -1.713695228099822998e-01
-2.916418313980102539e-01 -5.808964967727661133e-01 -1.740089356899261475e-01
-2.895834743976593018e-01 -5.657961964607238770e-01 -1.692109704017639160e-01
4.233448207378387451e-01 -3.040193915367126465e-01 -3.415958583354949951e-01
4.249828755855560303e-01 -2.892525792121887207e-01 -3.402973413467407227e-01
4.150396287441253662e-01 -2.958805561065673828e-01 -3.304332196712493896e-01
4.156522452831268311e-01 -2.819047570228576660e-01 -3.286379575729370117e-01
-8.839067071676254272e-02 2.604555785655975342e-01 -1.691185832023620605e-01
-9.725560247898101807e-02 2.664923071861267090e-01 -1.555576175451278687e-01
-7.820349931716918945e-02 2.634564340114593506e-01 -1.623093634843826294e-01
-8.720791339874267578e-02 2.696767747402191162e-01 -1.489165872335433960e-01
-1.111405044794082642e-01 2.690520286560058594e-01 -1.518912464380264282e-01
-1.211649775505065918e-01 2.744414806365966797e-01 -1.367417871952056885e-01
-1.007999926805496216e-01 2.735837697982788086e-01 -1.417708545923233032e-01
-1.111042574048042297e-01 2.788549959659576416e-01 -1.266749352216720581e-01
-1.928538531064987183e-01 -4.354746639728546143e-02 2.346937060356140137e-01
-1.887010633945465088e-01 -3.275691717863082886e-02 2.254346907138824463e-01
-1.777102351188659668e-01 -4.907597601413726807e-02 2.346555739641189575e-01
-1.757701188325881958e-01 -3.720040246844291687e-02 2.261658757925033569e-01
5.269989743828773499e-02 1.913960576057434082e-01 4.612750187516212463e-02
4.902800172567367554e-02 2.003281563520431519e-01 5.785147473216056824e-02
5.542578175663948059e-02 1.980137377977371216e-01 5.858147889375686646e-02
5.379491671919822693e-02 2.074854075908660889e-01 6.855002045631408691e-02
-1.771759092807769775e-01 1.006852239370346069e-01 1.481904983520507812e-01
-1.684049814939498901e-01 1.078023239970207214e-01 1.411204934120178223e-01
-1.725242435932159424e-01 9.930469840764999390e-02 1.647093445062637329e-01
-1.629468351602554321e-01 1.079636588692665100e-01 1.561750769615173340e-01
-4.826304018497467041e-01 -2.789098322391510010e-01 -2.846518754959106445e-01
-4.874557554721832275e-01 -2.736769318580627441e-01 -2.747842967510223389e-01
-4.717664420604705811e-01 -2.702630162239074707e-01 -2.769339382648468018e-01
-4.774300754070281982e-01 -2.650073468685150146e-01 -2.667413949966430664e-01
2.833377718925476074e-01 -2.368777841329574585e-01 -2.098990529775619507e-01
2.823097407817840576e-01 -2.230936884880065918e-01 -2.044790089130401611e-01
2.779172956943511963e-01 -2.318882197141647339e-01 -1.977094560861587524e-01
2.773554623126983643e-01 -2.175452858209609985e-01 -1.929075121879577637e-01
2.279076874256134033e-01 -1.159701570868492126e-01 -2.596616744995117188e-01
2.147641330957412720e-01 -1.070053875446319580e-01 -2.526803910732269287e-01
2.388694137334823608e-01 -1.185577884316444397e-01 -2.530784308910369873e-01
2.255984097719192505e-01 -1.089890599250793457e-01 -2.458145320415496826e-01
1.644343733787536621e-01 -1.151690408587455750e-01 1.196844577789306641e-01
1.717547029256820679e-01 -9.998023509979248047e-02 1.214732825756072998e-01
1.664146333932876587e-01 -1.039723530411720276e-01 1.272116899490356445e-01
1.751208007335662842e-01 -8.828513324260711670e-02 1.278849095106124878e-01
2.825750410556793213e-01 4.215230047702789307e-01 -2.731345221400260925e-02
2.840270400047302246e-01 4.374086558818817139e-01 -2.872398681938648224e-02
3.011552393436431885e-01 4.195547997951507568e-01 -2.439970895648002625e-02
3.029106557369232178e-01 4.354246258735656738e-01 -2.561062201857566833e-02
4.024857655167579651e-02 -5.303926467895507812e-01 -1.061974912881851196e-01
4.136177897453308105e-02 -5.175471305847167969e-01 -1.102362051606178284e-01
4.215123876929283142e-02 -5.289057493209838867e-01 -9.410233795642852783e-02
4.329416155815124512e-02 -5.160125494003295898e-01 -9.868848323822021484e-02
1.926628202199935913e-01 9.026092886924743652e-01 2.131328880786895752e-01
1.962923854589462280e-01 9.090647101402282715e-01 2.094546854496002197e-01
1.931024938821792603e-01 9.022071361541748047e-01 2.260695248842239380e-01
1.976435035467147827e-01 9.076387286186218262e-01 2.200261205434799194e-01
2.122150659561157227e-01 7.316150069236755371e-01 3.212389051914215088e-01
2.088933587074279785e-01 7.438458800315856934e-01 3.250111639499664307e-01
2.080352157354354858e-01 7.305085659027099609e-01 3.360544145107269287e-01
2.045206725597381592e-01 7.433155179023742676e-01 3.393701910972595215e-01
2.176631540060043335e-01 1.595866233110427856e-01 -1.402558237314224243e-01
2.052742838859558105e-01 1.697159260511398315e-01 -1.274318993091583252e-01
2.343009263277053833e-01 1.603690832853317261e-01 -1.337216645479202271e-01
2.229781299829483032e-01 1.700369566679000854e-01 -1.212865561246871948e-01
1.816599071025848389e-01 4.215377867221832275e-01 6.528634577989578247e-02
1.794639527797698975e-01 4.336858987808227539e-01 7.578592747449874878e-02
1.771961003541946411e-01 4.328137338161468506e-01 8.572104573249816895e-02
1.873532831668853760e-01 4.450630545616149902e-01 8.677291125059127808e-02
1.089180186390876770e-01 3.365956619381904602e-02 3.045316338539123535e-01
1.008337736129760742e-01 4.474114626646041870e-02 3.032739758491516113e-01
1.103521585464477539e-01 1.997375860810279846e-02 3.096137046813964844e-01
9.938888251781463623e-02 2.900813519954681396e-02 3.106231689453125000e-01
1.826047003269195557e-01 5.321585536003112793e-01 2.425402700901031494e-01
1.753841787576675415e-01 5.479208827018737793e-01 2.422001063823699951e-01
1.923564076423645020e-01 5.301381349563598633e-01 2.536281049251556396e-01
1.847495138645172119e-01 5.462108850479125977e-01 2.534669935703277588e-01
2.761843502521514893e-01 5.801230072975158691e-01 3.271447122097015381e-01
2.710356712341308594e-01 5.898342132568359375e-01 3.341090083122253418e-01
2.859596908092498779e-01 5.788006782531738281e-01 3.356505036354064941e-01
2.806828320026397705e-01 5.886257290840148926e-01 3.425174951553344727e-01
-4.924380779266357422e-01 -2.435366064310073853e-01 -1.677694469690322876e-01
-4.979630410671234131e-01 -2.303246706724166870e-01 -1.583688557147979736e-01
-4.974627494812011719e-01 -2.375740706920623779e-01 -1.550146639347076416e-01
-5.033098459243774414e-01 -2.243617773056030273e-01 -1.454139351844787598e-01
2.790926396846771240e-01 8.916943669319152832e-01 1.541628837585449219e-01
2.796898484230041504e-01 9.045389890670776367e-01 1.561013162136077881e-01
2.801278233528137207e-01 8.950552940368652344e-01 1.658722013235092163e-01
2.785320580005645752e-01 9.073648452758789062e-01 1.679464131593704224e-01
3.335680365562438965e-01 2.766004502773284912e-01 -1.350978109985589981e-02
3.346128463745117188e-01 2.927297353744506836e-01 -1.276624668389558792e-02
3.408953249454498291e-01 2.780515849590301514e-01 2.575616235844790936e-04
3.431562483310699463e-01 2.944142818450927734e-01 6.795901572331786156e-04
-4.979791641235351562e-01 -2.651340365409851074e-01 -1.052860394120216370e-01
-5.017234086990356445e-01 -2.511519789695739746e-01 -1.006736606359481812e-01
-5.047205090522766113e-01 -2.628992199897766113e-01 -8.893499523401260376e-02
-5.068627595901489258e-01 -2.492258399724960327e-01 -8.559639006853103638e-02
3.769752755761146545e-02 7.942961901426315308e-02 -9.165132790803909302e-02
2.901421487331390381e-02 8.794158697128295898e-02 -7.931974530220031738e-02
5.660107359290122986e-02 8.206921815872192383e-02 -8.981300890445709229e-02
4.871050640940666199e-02 9.108832478523254395e-02 -7.729531824588775635e-02
-2.876048684120178223e-01 -6.543052196502685547e-01 -1.285064369440078735e-01
-2.779804170131683350e-01 -6.458877325057983398e-01 -1.447543203830718994e-01
-2.766227126121520996e-01 -6.586264371871948242e-01 -1.229044795036315918e-01
-2.667988538742065430e-01 -6.522426605224609375e-01 -1.332939863204956055e-01
-4.614399969577789307e-01 -3.992680609226226807e-01 -3.339206874370574951e-01
-4.587054252624511719e-01 -3.860932290554046631e-01 -3.382780551910400391e-01
-4.486874938011169434e-01 -4.001708030700683594e-01 -3.262009918689727783e-01
-4.455083608627319336e-01 -3.865881264209747314e-01 -3.309862315654754639e-01
2.735895514488220215e-01 -8.275797218084335327e-02 -3.244749456644058228e-02
2.772267162799835205e-01 -6.524839997291564941e-02 -3.277598693966865540e-02
2.719360888004302979e-01 -7.451378554105758667e-02 -1.848716102540493011e-02
2.763341367244720459e-01 -5.862740799784660339e-02 -1.716206967830657959e-02
-4.758822545409202576e-02 2.368043065071105957e-01 -7.382705062627792358e-02
-5.892544239759445190e-02 2.442334145307540894e-01 -6.316776573657989502e-02
-3.269183263182640076e-02 2.368388324975967407e-01 -6.744383275508880615e-02
-4.389768838882446289e-02 2.446097731590270996e-01 -5.692591890692710876e-02
3.877353966236114502e-01 -3.447705507278442383e-01 -5.109323263168334961e-01
3.960784673690795898e-01 -3.288890421390533447e-01 -5.141358971595764160e-01
3.941655457019805908e-01 -3.390940725803375244e-01 -5.070707201957702637e-01
4.010757803916931152e-01 -3.235960900783538818e-01 -5.087049603462219238e-01
2.783869802951812744e-01 8.682572245597839355e-01 1.864876002073287964e-01
2.762149870395660400e-01 8.804671764373779297e-01 1.872547417879104614e-01
2.781431972980499268e-01 8.702815771102905273e-01 1.975401043891906738e-01
2.747465968132019043e-01 8.815558552742004395e-01 1.980222910642623901e-01
2.315535098314285278e-01 8.176955580711364746e-01 2.325779944658279419e-01
2.386225610971450806e-01 8.271278738975524902e-01 2.239724844694137573e-01
2.284606546163558960e-01 8.142091631889343262e-01 2.470559924840927124e-01
2.370761036872863770e-01 8.248571753501892090e-01 2.371907830238342285e-01
3.002997636795043945e-01 -2.955628037452697754e-01 -2.783861160278320312e-01
2.926786839962005615e-01 -2.889144122600555420e-01 -2.673999965190887451e-01
3.180038928985595703e-01 -2.891194820404052734e-01 -2.766964435577392578e-01
3.086800277233123779e-01 -2.823828160762786865e-01 -2.655158042907714844e-01
3.785453140735626221e-01 -3.985466063022613525e-01 -4.378882348537445068e-01
3.840226233005523682e-01 -3.920476436614990234e-01 -4.509077072143554688e-01
3.884449601173400879e-01 -4.031864106655120850e-01 -4.299821555614471436e-01
3.938713371753692627e-01 -3.967729508876800537e-01 -4.431830048561096191e-01
-5.065310597419738770e-01 -9.213022887706756592e-02 7.122321426868438721e-02
-5.013726949691772461e-01 -7.812914997339248657e-02 7.394894957542419434e-02
-5.002850890159606934e-01 -8.682767301797866821e-02 8.812095969915390015e-02
-4.952231645584106445e-01 -7.220084965229034424e-02 9.042989462614059448e-02
4.659144878387451172e-01 -3.877121210098266602e-01 -4.543235898017883301e-01
4.729777872562408447e-01 -3.780228495597839355e-01 -4.631958305835723877e-01
4.740577340126037598e-01 -3.826735615730285645e-01 -4.478547275066375732e-01
4.811665117740631104e-01 -3.732809722423553467e-01 -4.545513987541198730e-01
1.520911753177642822e-01 2.162821143865585327e-01 -5.717689171433448792e-02
1.398528516292572021e-01 2.206775695085525513e-01 -4.593747481703758240e-02
1.626201122999191284e-01 2.163048535585403442e-01 -5.137355253100395203e-02
1.511995792388916016e-01 2.216986268758773804e-01 -4.223071783781051636e-02
-8.060409873723983765e-02 8.397029712796211243e-03 -1.290022730827331543e-01
-8.678473532199859619e-02 1.744373142719268799e-02 -1.176463216543197632e-01
-6.812393665313720703e-02 1.520962268114089966e-02 -1.247499957680702209e-01
-7.305129617452621460e-02 2.424639090895652771e-02 -1.129925474524497986e-01
1.892908662557601929e-01 -6.452595442533493042e-02 1.239143088459968567e-01
2.010833472013473511e-01 -4.818157851696014404e-02 1.225498542189598083e-01
1.888951361179351807e-01 -5.477963015437126160e-02 1.316685229539871216e-01
1.994120180606842041e-01 -3.913705423474311829e-02 1.313468813896179199e-01
7.079441845417022705e-02 -2.952480614185333252e-01 -1.599674224853515625e-01
7.986976206302642822e-02 -2.866635620594024658e-01 -1.681653708219528198e-01
8.828350156545639038e-02 -2.979984581470489502e-01 -1.554569005966186523e-01
9.684506803750991821e-02 -2.890085577964782715e-01 -1.631987988948822021e-01
-1.304532214999198914e-02 2.622653841972351074e-01 -1.524922549724578857e-01
-2.160762622952461243e-02 2.698713243007659912e-01 -1.411285102367401123e-01
-2.114497590810060501e-03 2.640035450458526611e-01 -1.461861431598663330e-01
-1.078120805323123932e-02 2.715167999267578125e-01 -1.343293190002441406e-01
7.160942256450653076e-02 -1.535907387733459473e-01 1.640911549329757690e-01
7.249265164136886597e-02 -1.385754197835922241e-01 1.718631088733673096e-01
8.798643946647644043e-02 -1.481183171272277832e-01 1.588023900985717773e-01
8.847531676292419434e-02 -1.331083476543426514e-01 1.659345626831054688e-01
2.540100216865539551e-01 5.209428071975708008e-01 2.595224678516387939e-01
2.464437186717987061e-01 5.345227122306823730e-01 2.636894583702087402e-01
2.685882449150085449e-01 5.202196836471557617e-01 2.592142820358276367e-01
2.613371908664703369e-01 5.332309007644653320e-01 2.636913359165191650e-01
-1.608437448740005493e-01 8.638849854469299316e-02 6.266116350889205933e-02
-1.734693497419357300e-01 8.869306743144989014e-02 7.800935953855514526e-02
-1.526168137788772583e-01 9.373185038566589355e-02 7.314181327819824219e-02
-1.618589609861373901e-01 9.585903584957122803e-02 8.605176210403442383e-02
3.532344996929168701e-01 4.824010431766510010e-01 3.128218352794647217e-01
3.483823239803314209e-01 4.965435862541198730e-01 3.184584081172943115e-01
3.587602078914642334e-01 4.859009683132171631e-01 3.215478360652923584e-01
3.538034856319427490e-01 5.004661679267883301e-01 3.284538984298706055e-01
-2.165933698415756226e-01 -8.619359880685806274e-02 2.749403119087219238e-01
-2.101321965456008911e-01 -7.642333209514617920e-02 2.653643786907196045e-01
-2.081710100173950195e-01 -9.721394628286361694e-02 2.766994237899780273e-01
-2.016390115022659302e-01 -8.734404295682907104e-02 2.671506702899932861e-01
-5.140770077705383301e-01 -4.863757193088531494e-01 -2.911891341209411621e-01
-5.018204450607299805e-01 -4.735149741172790527e-01 -2.935173809528350830e-01
-5.101385712623596191e-01 -4.781621396541595459e-01 -2.781104445457458496e-01
-4.973345994949340820e-01 -4.657744765281677246e-01 -2.806246280670166016e-01
-5.656393766403198242e-01 -5.272146463394165039e-01 -2.850858271121978760e-01
-5.818220376968383789e-01 -5.153676867485046387e-01 -2.720518708229064941e-01
-5.462728738784790039e-01 -5.227423310279846191e-01 -2.848394215106964111e-01
-5.636554360389709473e-01 -5.113637447357177734e-01 -2.716737985610961914e-01
1.839562803506851196e-01 -2.670716941356658936e-01 -3.028453290462493896e-01
1.658099442720413208e-01 -2.598439455032348633e-01 -2.992348074913024902e-01
1.974673718214035034e-01 -2.784526050090789795e-01 -2.956712543964385986e-01
1.788633614778518677e-01 -2.717203199863433838e-01 -2.908582091331481934e-01
-3.618035018444061279e-01 -3.487721383571624756e-01 -1.454174369573593140e-01
-3.743866086006164551e-01 -3.449208140373229980e-01 -1.336208283901214600e-01
-3.585975170135498047e-01 -3.471318781375885010e-01 -1.381106525659561157e-01
-3.708605468273162842e-01 -3.434442281723022461e-01 -1.274556219577789307e-01
-5.020024254918098450e-02 -3.637739419937133789e-01 -8.970386534929275513e-02
-3.911352530121803284e-02 -3.534981608390808105e-01 -9.543723613023757935e-02
-3.976448252797126770e-02 -3.597555160522460938e-01 -7.874528318643569946e-02
-2.882252261042594910e-02 -3.497080206871032715e-01 -8.411514759063720703e-02
-2.979355454444885254e-01 1.067612245678901672e-01 1.008309945464134216e-01
-3.075486123561859131e-01 1.062237322330474854e-01 1.025395691394805908e-01
-2.852678298950195312e-01 1.037696078419685364e-01 1.091874018311500549e-01
-2.988364100456237793e-01 1.033417657017707825e-01 1.122511848807334900e-01
1.667183488607406616e-01 -5.105181336402893066e-01 -1.158964633941650391e-01
1.663630455732345581e-01 -4.965908527374267578e-01 -1.186022758483886719e-01
1.696546375751495361e-01 -5.100700259208679199e-01 -1.044008582830429077e-01
1.693000048398971558e-01 -4.957568943500518799e-01 -1.072071865200996399e-01
-5.072724223136901855e-01 -3.198303282260894775e-01 -3.282777965068817139e-01
-5.073029398918151855e-01 -3.115020990371704102e-01 -3.185958564281463623e-01
-4.960706532001495361e-01 -3.111442029476165771e-01 -3.248210549354553223e-01
-4.954953193664550781e-01 -3.030550777912139893e-01 -3.155350387096405029e-01
2.854195833206176758e-01 -2.086839377880096436e-01 -1.942639797925949097e-01
2.855190932750701904e-01 -1.947133839130401611e-01 -1.905900090932846069e-01
2.778290808200836182e-01 -2.013491839170455933e-01 -1.805348843336105347e-01
2.794252634048461914e-01 -1.880502700805664062e-01 -1.781719475984573364e-01
-2.935533821582794189e-01 -5.160555839538574219e-01 1.900870166718959808e-02
-2.980067729949951172e-01 -5.089856982231140137e-01 2.520762756466865540e-02
-2.831572294235229492e-01 -5.152693390846252441e-01 2.533376589417457581e-02
-2.877629101276397705e-01 -5.082119107246398926e-01 3.138136491179466248e-02
3.840448260307312012e-01 5.167780518531799316e-01 2.799790203571319580e-01
3.765155673027038574e-01 5.287648439407348633e-01 2.819645702838897705e-01
3.906795978546142578e-01 5.150758028030395508e-01 2.876712381839752197e-01
3.843938708305358887e-01 5.277464985847473145e-01 2.904140055179595947e-01
-1.283996105194091797e-01 -1.667968556284904480e-02 -1.848387271165847778e-01
-1.316535770893096924e-01 -8.614042773842811584e-03 -1.754209101200103760e-01
-1.177952438592910767e-01 -1.672676019370555878e-02 -1.783019155263900757e-01
-1.228795796632766724e-01 -8.401252329349517822e-03 -1.684034466743469238e-01
2.285529822111129761e-01 8.490451574325561523e-01 1.673284024000167847e-01
2.239283323287963867e-01 8.550621271133422852e-01 1.667892485857009888e-01
2.278345525264739990e-01 8.419230580329895020e-01 1.800773888826370239e-01
2.196757942438125610e-01 8.478043675422668457e-01 1.809034794569015503e-01
3.300595879554748535e-01 4.242974519729614258e-01 8.725881576538085938e-02
3.243908882141113281e-01 4.347410500049591064e-01 9.234930574893951416e-02
3.331122100353240967e-01 4.205044507980346680e-01 9.920773655176162720e-02
3.272628784179687500e-01 4.307430386543273926e-01 1.046257615089416504e-01
3.313620090484619141e-01 -1.928592771291732788e-01 -3.537896871566772461e-01
3.205738961696624756e-01 -1.878690719604492188e-01 -3.456429839134216309e-01
3.431264162063598633e-01 -1.897807121276855469e-01 -3.448617160320281982e-01
3.320057094097137451e-01 -1.846512407064437866e-01 -3.370376527309417725e-01
2.630305588245391846e-01 -9.728433191776275635e-02 8.468879386782646179e-03
2.666898369789123535e-01 -8.172751218080520630e-02 1.200361456722021103e-02
2.600121796131134033e-01 -8.809106796979904175e-02 2.426893822848796844e-02
2.634885311126708984e-01 -7.249648869037628174e-02 2.782909385859966278e-02
2.528691291809082031e-01 -1.979452669620513916e-01 -1.555347442626953125e-01
2.593906223773956299e-01 -1.871235072612762451e-01 -1.561948806047439575e-01
2.524806857109069824e-01 -1.890444308519363403e-01 -1.421056389808654785e-01
2.586264014244079590e-01 -1.775741130113601685e-01 -1.426815986633300781e-01
3.763007819652557373e-01 4.137268960475921631e-01 1.823402345180511475e-01
3.697260022163391113e-01 4.245676994323730469e-01 1.880906671285629272e-01
3.818066120147705078e-01 4.093197882175445557e-01 1.919843107461929321e-01
3.745653033256530762e-01 4.209952652454376221e-01 1.964759230613708496e-01
7.753212004899978638e-02 -3.708565533161163330e-01 -1.370024830102920532e-01
7.961354404687881470e-02 -3.559551835060119629e-01 -1.365471780300140381e-01
9.177125245332717896e-02 -3.679318428039550781e-01 -1.374302357435226440e-01
9.267837554216384888e-02 -3.521318137645721436e-01 -1.369514614343643188e-01
-1.753792315721511841e-01 -2.694528102874755859e-01 2.871553003787994385e-01
-1.748207956552505493e-01 -2.564532756805419922e-01 2.918165624141693115e-01
-1.612581759691238403e-01 -2.657639086246490479e-01 2.837007939815521240e-01
-1.610880643129348755e-01 -2.522760331630706787e-01 2.868969440460205078e-01
3.114144802093505859e-01 -6.766872853040695190e-02 2.074114531278610229e-01
2.990790903568267822e-01 -6.043474376201629639e-02 2.105572372674942017e-01
3.087610304355621338e-01 -8.040803670883178711e-02 2.183718085289001465e-01
2.969140112400054932e-01 -7.297159731388092041e-02 2.212440520524978638e-01
-8.344373852014541626e-02 -3.937701582908630371e-01 1.327838301658630371e-01
-7.445043325424194336e-02 -3.839569985866546631e-01 1.318985521793365479e-01
