2.096321731805801392e-01 -5.723621249198913574e-01 5.498414039611816406e-01
2.078858911991119385e-01 -5.619192719459533691e-01 5.538790822029113770e-01
2.178786695003509521e-01 -5.705010294914245605e-01 5.541668534278869629e-01
2.169063538312911987e-01 -5.603483319282531738e-01 5.584474802017211914e-01
-1.075007319450378418e-01 -7.929527014493942261e-02 -3.552294969558715820e-01
-1.009746715426445007e-01 -6.904581189155578613e-02 -3.638365864753723145e-01
-9.460446983575820923e-02 -8.320900052785873413e-02 -3.551238775253295898e-01
-8.750594407320022583e-02 -7.349562644958496094e-02 -3.640804886817932129e-01
-7.947438955307006836e-02 -5.033193826675415039e-01 -3.368354141712188721e-01
-7.731036096811294556e-02 -4.890988469123840332e-01 -3.320076763629913330e-01
-7.526663690805435181e-02 -4.997000992298126221e-01 -3.299261331558227539e-01
-7.312706112861633301e-02 -4.855813682079315186e-01 -3.249230682849884033e-01
-8.741777390241622925e-02 2.345912009477615356e-01 5.147729516029357910e-01
-8.291286975145339966e-02 2.451862543821334839e-01 5.088544487953186035e-01
-7.762269675731658936e-02 2.354613393545150757e-01 5.254281759262084961e-01
-7.301540672779083252e-02 2.452978342771530151e-01 5.193439126014709473e-01
-1.358987540006637573e-01 1.418088227510452271e-01 -3.759230971336364746e-01
-1.318226307630538940e-01 1.540858447551727295e-01 -3.738044500350952148e-01
-1.413344591856002808e-01 1.527014523744583130e-01 -3.637883067131042480e-01
-1.366112530231475830e-01 1.648136228322982788e-01 -3.618660867214202881e-01
-3.120961971580982208e-02 -1.469396799802780151e-01 -1.488001495599746704e-01
-4.112070053815841675e-02 -1.404176801443099976e-01 -1.413600146770477295e-01
-2.338168770074844360e-02 -1.458624899387359619e-01 -1.418966352939605713e-01
-3.398626297712326050e-02 -1.403076797723770142e-01 -1.337917894124984741e-01
-8.071802556514739990e-02 -1.418154686689376831e-01 4.944077432155609131e-01
-7.702747732400894165e-02 -1.296449154615402222e-01 4.910781681537628174e-01
-7.722256332635879517e-02 -1.394088864326477051e-01 5.034537911415100098e-01
-7.355804741382598877e-02 -1.276832520961761475e-01 5.016411542892456055e-01
2.042869776487350464e-01 -5.379997491836547852e-01 -1.528175622224807739e-01
2.024546414613723755e-01 -5.241442918777465820e-01 -1.523535251617431641e-01
2.095996737480163574e-01 -5.340862870216369629e-01 -1.465265154838562012e-01
2.074390798807144165e-01 -5.204202532768249512e-01 -1.459016054868698120e-01
2.736776471138000488e-01 2.228895016014575958e-02 4.118314683437347412e-01
2.746350169181823730e-01 3.708801418542861938e-02 4.169597327709197998e-01
2.706656157970428467e-01 3.095462359488010406e-02 4.293138384819030762e-01
2.719601392745971680e-01 4.597385600209236145e-02 4.343374669551849365e-01
1.973240226507186890e-01 -4.677326381206512451e-01 -1.593815684318542480e-01
1.950690001249313354e-01 -4.541174173355102539e-01 -1.575445085763931274e-01
1.995400786399841309e-01 -4.678551256656646729e-01 -1.511805951595306396e-01
1.968207061290740967e-01 -4.542117714881896973e-01 -1.492365896701812744e-01
-8.684334158897399902e-02 4.648186266422271729e-01 -4.323303103446960449e-01
-8.357964456081390381e-02 4.788955748081207275e-01 -4.322605133056640625e-01
-7.674224674701690674e-02 4.710019230842590332e-01 -4.205947518348693848e-01
-7.339857518672943115e-02 4.852863848209381104e-01 -4.220036864280700684e-01
-1.393699496984481812e-01 6.039066910743713379e-01 -7.110103964805603027e-01
-1.392633765935897827e-01 6.116656064987182617e-01 -7.161832451820373535e-01
-1.339165270328521729e-01 6.001366376876831055e-01 -7.024419903755187988e-01
-1.338484436273574829e-01 6.077122688293457031e-01 -7.078337073326110840e-01
2.184237726032733917e-02 3.044934384524822235e-02 -4.073201119899749756e-01
2.427317202091217041e-02 4.204115644097328186e-02 -4.111697375774383545e-01
3.510056063532829285e-02 2.992842718958854675e-02 -4.080587029457092285e-01
3.794382140040397644e-02 4.185822606086730957e-02 -4.120028316974639893e-01
2.038570195436477661e-01 -6.101099029183387756e-02 1.262221187353134155e-01
2.102308273315429688e-01 -5.063146725296974182e-02 1.256722509860992432e-01
2.074190378189086914e-01 -5.292479693889617920e-02 1.366316825151443481e-01
2.134667485952377319e-01 -4.259189218282699585e-02 1.360555291175842285e-01
-1.499664783477783203e-01 1.176394894719123840e-01 2.912921905517578125e-01
-1.492579579353332520e-01 1.302282959222793579e-01 2.938818037509918213e-01
-1.539981067180633545e-01 1.229821145534515381e-01 3.038366138935089111e-01
-1.544463932514190674e-01 1.360572725534439087e-01 3.069213628768920898e-01
-2.615171372890472412e-01 3.801766932010650635e-01 -5.937096476554870605e-01
-2.644208967685699463e-01 3.951891958713531494e-01 -5.911865830421447754e-01
-2.509235143661499023e-01 3.836575448513031006e-01 -5.861921310424804688e-01
-2.531781494617462158e-01 3.984481096267700195e-01 -5.836417675018310547e-01
-9.497271478176116943e-02 5.689619183540344238e-01 -5.099709630012512207e-01
-9.199533611536026001e-02 5.778635144233703613e-01 -5.177772045135498047e-01
-8.117502182722091675e-02 5.717340707778930664e-01 -5.020108222961425781e-01
-8.080847561359405518e-02 5.800377130508422852e-01 -5.082218050956726074e-01
-7.888542860746383667e-02 4.149422943592071533e-01 -3.984391391277313232e-01
-7.784657925367355347e-02 4.287385046482086182e-01 -4.024532437324523926e-01
-7.362043112516403198e-02 4.173108637332916260e-01 -3.878363370895385742e-01
-7.174352556467056274e-02 4.310646653175354004e-01 -3.913397490978240967e-01
-1.810677647590637207e-01 6.670647859573364258e-02 4.226093292236328125e-01
-1.790164560079574585e-01 8.046091347932815552e-02 4.270869195461273193e-01
-1.812344640493392944e-01 6.793015450239181519e-02 4.393663704395294189e-01
-1.791738718748092651e-01 8.214804530143737793e-02 4.442721903324127197e-01
-7.897350192070007324e-02 -9.938737750053405762e-02 5.944858789443969727e-01
-7.774768769741058350e-02 -9.021247923374176025e-02 5.933982729911804199e-01
-6.791172921657562256e-02 -9.684732556343078613e-02 5.987739562988281250e-01
-6.671185046434402466e-02 -8.725411444902420044e-02 5.975821614265441895e-01
2.120254039764404297e-01 -5.853285267949104309e-02 -2.654157876968383789e-01
2.171883434057235718e-01 -4.596453160047531128e-02 -2.674071788787841797e-01
2.135533094406127930e-01 -5.219538509845733643e-02 -2.517300248146057129e-01
2.185765653848648071e-01 -3.989029303193092346e-02 -2.535625994205474854e-01
-1.065995916724205017e-01 -1.599832251667976379e-02 2.717575430870056152e-01
-1.130218431353569031e-01 -5.228306166827678680e-03 2.757234871387481689e-01
-9.966055303812026978e-02 -1.368012465536594391e-02 2.828105688095092773e-01
-1.061506941914558411e-01 -2.790081780403852463e-03 2.867750525474548340e-01
-1.272780075669288635e-02 3.011014759540557861e-01 4.294301271438598633e-01
-2.217881614342331886e-03 3.041480779647827148e-01 4.262882173061370850e-01
-1.187452115118503571e-03 3.022245168685913086e-01 4.384380877017974854e-01
7.537264376878738403e-03 3.054352104663848877e-01 4.338046908378601074e-01
-9.915295988321304321e-02 -6.468977332115173340e-01 6.385022401809692383e-01
-9.497751295566558838e-02 -6.377488374710083008e-01 6.385918259620666504e-01
-8.867005258798599243e-02 -6.428617835044860840e-01 6.386941671371459961e-01
-8.459211140871047974e-02 -6.335497498512268066e-01 6.389262676239013672e-01
-1.313813775777816772e-01 -3.531845510005950928e-01 -2.733053565025329590e-01
-1.309219598770141602e-01 -3.410547077655792236e-01 -2.737474143505096436e-01
-1.317164301872253418e-01 -3.526876866817474365e-01 -2.635987699031829834e-01
-1.319766640663146973e-01 -3.396677374839782715e-01 -2.638461887836456299e-01
-1.381827890872955322e-01 -6.211264133453369141e-01 6.523766517639160156e-01
-1.423920392990112305e-01 -6.075118780136108398e-01 6.593448519706726074e-01
-1.350372582674026489e-01 -6.151646971702575684e-01 6.581868529319763184e-01
-1.386298239231109619e-01 -6.012092232704162598e-01 6.648785471916198730e-01
-1.686479337513446808e-02 3.140668869018554688e-01 -1.833565980195999146e-01
-1.002965215593576431e-02 3.243855535984039307e-01 -1.879980415105819702e-01
-8.021308109164237976e-03 3.179983496665954590e-01 -1.754209548234939575e-01
-2.296536928042769432e-03 3.287152945995330811e-01 -1.800615787506103516e-01
2.141195237636566162e-01 -2.678459323942661285e-02 5.085836052894592285e-01
2.209153026342391968e-01 -1.321804523468017578e-02 5.085933804512023926e-01
2.111170589923858643e-01 -1.833523996174335480e-02 5.163611769676208496e-01
2.180830985307693481e-01 -5.102289374917745590e-03 5.168573260307312012e-01
-1.241052895784378052e-01 -2.343152016401290894e-01 -2.873285114765167236e-01
-1.244914606213569641e-01 -2.193142026662826538e-01 -2.876206934452056885e-01
-1.154328137636184692e-01 -2.352092266082763672e-01 -2.867652773857116699e-01
-1.159815117716789246e-01 -2.202120870351791382e-01 -2.871125042438507080e-01
-1.284819394350051880e-01 4.047723487019538879e-02 2.830937504768371582e-01
-1.303827464580535889e-01 5.196881666779518127e-02 2.851045131683349609e-01
-1.344437897205352783e-01 3.947463259100914001e-02 2.952719330787658691e-01
-1.366180628538131714e-01 5.107397958636283875e-02 2.977285981178283691e-01
-6.767373532056808472e-02 -3.266113400459289551e-01 -2.450933456420898438e-01
-6.668026745319366455e-02 -3.142325282096862793e-01 -2.438378483057022095e-01
-7.319098711013793945e-02 -3.232238590717315674e-01 -2.347117513418197632e-01
-7.279331237077713013e-02 -3.109035193920135498e-01 -2.336879670619964600e-01
2.573110163211822510e-01 -3.421955928206443787e-02 4.338470101356506348e-01
2.602221965789794922e-01 -2.203201502561569214e-02 4.358459711074829102e-01
2.556262314319610596e-01 -2.316715754568576813e-02 4.442599713802337646e-01
2.584193348884582520e-01 -1.017017662525177002e-02 4.476145207881927490e-01
-5.877250432968139648e-02 -1.838996559381484985e-01 -2.935144007205963135e-01
-5.724426358938217163e-02 -1.694311797618865967e-01 -2.969553768634796143e-01
-5.336222797632217407e-02 -1.811387538909912109e-01 -2.850872278213500977e-01
-5.184464529156684875e-02 -1.668776720762252808e-01 -2.886670529842376709e-01
2.127223759889602661e-01 -2.222498208284378052e-01 4.204593300819396973e-01
2.194541394710540771e-01 -2.118674963712692261e-01 4.163775444030761719e-01
2.245752066373825073e-01 -2.205060422420501709e-01 4.267209172248840332e-01
2.305737584829330444e-01 -2.092994302511215210e-01 4.228405058383941650e-01
-1.138051748275756836e-01 1.968657523393630981e-01 1.468402594327926636e-01
-1.024321317672729492e-01 2.079381644725799561e-01 1.426597833633422852e-01
-1.064941659569740295e-01 2.050040513277053833e-01 1.592856794595718384e-01
-9.574217349290847778e-02 2.151497900485992432e-01 1.555645465850830078e-01
4.659955948591232300e-02 -1.467981785535812378e-01 -2.342552840709686279e-01
3.498703986406326294e-02 -1.470068395137786865e-01 -2.306538224220275879e-01
5.643882602453231812e-02 -1.497173160314559937e-01 -2.258633077144622803e-01
4.351604729890823364e-02 -1.493949294090270996e-01 -2.215750217437744141e-01
-5.777081474661827087e-02 -9.404549002647399902e-02 -1.338666677474975586e-01
-6.727861613035202026e-02 -8.503193408250808716e-02 -1.276012063026428223e-01
-5.621295794844627380e-02 -9.497990459203720093e-02 -1.235662773251533508e-01
-6.641828268766403198e-02 -8.669795095920562744e-02 -1.171803250908851624e-01
1.146815344691276550e-01 2.787716984748840332e-01 -3.913733065128326416e-01
1.106515526771545410e-01 2.924168705940246582e-01 -3.842341601848602295e-01
1.152923032641410828e-01 2.815447151660919189e-01 -3.759991526603698730e-01
1.110459342598915100e-01 2.952081561088562012e-01 -3.689048886299133301e-01
1.667088419198989868e-01 -5.547626614570617676e-01 -1.187588572502136230e-01
1.604861915111541748e-01 -5.405780076980590820e-01 -1.085772290825843811e-01
1.754056662321090698e-01 -5.500061511993408203e-01 -1.153449937701225281e-01
1.693800091743469238e-01 -5.360579490661621094e-01 -1.056362539529800415e-01
8.121383190155029297e-02 -1.489601731300354004e-01 -3.720633685588836670e-02
9.117837250232696533e-02 -1.426276415586471558e-01 -3.917504474520683289e-02
8.828250318765640259e-02 -1.433221548795700073e-01 -2.672661095857620239e-02
9.775858372449874878e-02 -1.362281143665313721e-01 -2.832517400383949280e-02
-7.619298994541168213e-02 2.098913639783859253e-01 4.028641805052757263e-02
-6.568825244903564453e-02 2.182776033878326416e-01 3.682200983166694641e-02
-7.122594118118286133e-02 2.158300876617431641e-01 5.347120016813278198e-02
-6.052579358220100403e-02 2.230866253376007080e-01 4.921992123126983643e-02
2.149743139743804932e-01 1.697486340999603271e-01 1.601263135671615601e-02
2.070028632879257202e-01 1.792384237051010132e-01 2.166923135519027710e-02
2.207954674959182739e-01 1.689056903123855591e-01 2.619622834026813507e-02
2.127343267202377319e-01 1.781876832246780396e-01 3.182547539472579956e-02
-8.879629522562026978e-02 4.274037480354309082e-01 -4.221392571926116943e-01
-8.703868836164474487e-02 4.403559863567352295e-01 -4.226814210414886475e-01
-8.237159997224807739e-02 4.311527311801910400e-01 -4.099741876125335693e-01
-8.101945370435714722e-02 4.448410272598266602e-01 -4.138036072254180908e-01
5.731229484081268311e-02 -1.526878923177719116e-01 -1.593258380889892578e-01
4.582350328564643860e-02 -1.525828987360000610e-01 -1.494616270065307617e-01
6.571122258901596069e-02 -1.551767885684967041e-01 -1.509613990783691406e-01
5.532464757561683655e-02 -1.550287604331970215e-01 -1.403729617595672607e-01
-1.153035536408424377e-01 -4.314759075641632080e-01 7.018215060234069824e-01
-1.150271818041801453e-01 -4.189929962158203125e-01 7.003645300865173340e-01
-1.123328208923339844e-01 -4.338995814323425293e-01 7.092943191528320312e-01
-1.120101734995841980e-01 -4.217194914817810059e-01 7.070898413658142090e-01
-1.252405643463134766e-01 -4.517697393894195557e-01 6.775219440460205078e-01
-1.241181120276451111e-01 -4.392626881599426270e-01 6.771221756935119629e-01
-1.237839907407760620e-01 -4.520998597145080566e-01 6.857353448867797852e-01
-1.227439269423484802e-01 -4.393738210201263428e-01 6.855272054672241211e-01
-2.665503025054931641e-01 5.454253554344177246e-01 -6.648707985877990723e-01
-2.556769549846649170e-01 5.555385947227478027e-01 -6.711013913154602051e-01
-2.632645666599273682e-01 5.500152111053466797e-01 -6.537711620330810547e-01
-2.521483600139617920e-01 5.601529479026794434e-01 -6.603603959083557129e-01
9.528626501560211182e-02 -1.179751753807067871e-01 -3.336406052112579346e-01
1.052277311682701111e-01 -1.067521348595619202e-01 -3.408348560333251953e-01
1.100004762411117554e-01 -1.191585883498191833e-01 -3.267283141613006592e-01
1.198443099856376648e-01 -1.075880676507949829e-01 -3.339920639991760254e-01
3.474313020706176758e-02 3.413700461387634277e-01 -5.321404933929443359e-01
3.648649156093597412e-02 3.556320369243621826e-01 -5.351763367652893066e-01
4.615129157900810242e-02 3.416646420955657959e-01 -5.225533246994018555e-01
4.815742745995521545e-02 3.557462096214294434e-01 -5.257600545883178711e-01
-1.213061809539794922e-01 5.787804722785949707e-01 -7.019472122192382812e-01
-1.235955953598022461e-01 5.890438556671142578e-01 -7.034112811088562012e-01
-1.159739121794700623e-01 5.768416523933410645e-01 -6.952324509620666504e-01
-1.192103847861289978e-01 5.864539146423339844e-01 -6.953299641609191895e-01
1.914259642362594604e-01 1.883780807256698608e-01 -2.814874649047851562e-01
1.861351132392883301e-01 1.983973830938339233e-01 -2.748498618602752686e-01
1.918289959430694580e-01 1.892451941967010498e-01 -2.673563659191131592e-01
1.864090114831924438e-01 1.993187665939331055e-01 -2.607066929340362549e-01
-5.867232382297515869e-02 -1.424814164638519287e-01 5.555482506752014160e-01
-5.654308199882507324e-02 -1.325020343065261841e-01 5.558003187179565430e-01
-5.376602709293365479e-02 -1.388076245784759521e-01 5.642594099044799805e-01
-5.170974507927894592e-02 -1.288852691650390625e-01 5.642191767692565918e-01
-1.737780123949050903e-01 1.367013007402420044e-01 4.384631216526031494e-01
-1.707582175731658936e-01 1.485855877399444580e-01 4.397154748439788818e-01
-1.750241816043853760e-01 1.402367502450942993e-01 4.531149566173553467e-01
-1.718515306711196899e-01 1.519528776407241821e-01 4.529933035373687744e-01
-6.777585949748754501e-03 2.623275816440582275e-01 -5.142573714256286621e-01
-3.138536121696233749e-03 2.746006250381469727e-01 -5.208507180213928223e-01
6.070274859666824341e-03 2.622461318969726562e-01 -5.115974545478820801e-01
9.711048565804958344e-03 2.749167084693908691e-01 -5.169233083724975586e-01
-8.958230167627334595e-02 3.997705280780792236e-01 -4.210108220577239990e-01
-8.839453011751174927e-02 4.112705290317535400e-01 -4.203990101814270020e-01
-8.333092182874679565e-02 3.998284339904785156e-01 -4.094123244285583496e-01
-8.192203193902969360e-02 4.127105772495269775e-01 -4.111177027225494385e-01
-6.508813053369522095e-02 -8.436868339776992798e-02 4.534926712512969971e-01
-6.169394403696060181e-02 -7.297153770923614502e-02 4.470289945602416992e-01
-6.074963510036468506e-02 -9.021105617284774780e-02 4.577968716621398926e-01
-5.691564083099365234e-02 -7.878802716732025146e-02 4.512531459331512451e-01
-7.962035387754440308e-02 -2.560743689537048340e-01 -2.282718569040298462e-01
-7.610683143138885498e-02 -2.427063584327697754e-01 -2.295881062746047974e-01
-8.100701123476028442e-02 -2.517074346542358398e-01 -2.175796031951904297e-01
-7.800127565860748291e-02 -2.385610491037368774e-01 -2.196722179651260376e-01
1.017531156539916992e-01 -2.659922279417514801e-02 3.298831880092620850e-01
9.463521093130111694e-02 -2.601923607289791107e-02 3.383890092372894287e-01
1.093681156635284424e-01 -2.501722425222396851e-02 3.374119102954864502e-01
1.022432669997215271e-01 -2.468294650316238403e-02 3.452191054821014404e-01
1.937106102705001831e-01 6.473481655120849609e-02 5.589903593063354492e-01
1.910766959190368652e-01 7.773484289646148682e-02 5.633004903793334961e-01
2.038943916559219360e-01 6.769378483295440674e-02 5.583553314208984375e-01
2.032245397567749023e-01 8.108396828174591064e-02 5.610775947570800781e-01
-1.991823166608810425e-01 3.334743380546569824e-01 -6.129789948463439941e-01
-2.045062035322189331e-01 3.345355093479156494e-01 -6.023676395416259766e-01
-1.896182447671890259e-01 3.340614736080169678e-01 -6.046814918518066406e-01
-1.949644535779953003e-01 3.353022634983062744e-01 -5.939583778381347656e-01
-2.447976917028427124e-02 1.891068182885646820e-03 -3.948229849338531494e-01
-1.995077356696128845e-02 1.255448348820209503e-02 -3.988106250762939453e-01
-1.057788450270891190e-02 8.157254196703433990e-04 -3.952247202396392822e-01
-6.823346484452486038e-03 1.168250478804111481e-02 -3.992130458354949951e-01
2.292063385248184204e-01 -5.989483743906021118e-02 3.349327743053436279e-01
2.347314655780792236e-01 -4.839742928743362427e-02 3.299002349376678467e-01
2.334545999765396118e-01 -5.955002084374427795e-02 3.462013900279998779e-01
2.389770001173019409e-01 -4.747449979186058044e-02 3.413388133049011230e-01
-1.713890284299850464e-01 6.765593588352203369e-02 3.478016853332519531e-01
-1.729655861854553223e-01 8.165089786052703857e-02 3.517332971096038818e-01
-1.759635508060455322e-01 7.384746521711349487e-02 3.609181940555572510e-01
-1.772089153528213501e-01 8.794210106134414673e-02 3.644357919692993164e-01
-5.620824918150901794e-02 -2.119096219539642334e-01 -2.481810897588729858e-01
-5.003173276782035828e-02 -1.993843466043472290e-01 -2.499557882547378540e-01
-6.080143153667449951e-02 -2.044391632080078125e-01 -2.360736280679702759e-01
-5.409297719597816467e-02 -1.926693171262741089e-01 -2.381468862295150757e-01
-2.147806733846664429e-01 3.315357267856597900e-01 -6.678133010864257812e-01
-2.117501795291900635e-01 3.318594098091125488e-01 -6.636583209037780762e-01
-2.025105655193328857e-01 3.317382335662841797e-01 -6.627118587493896484e-01
-2.047504931688308716e-01 3.308314085006713867e-01 -6.543485522270202637e-01
-4.583959653973579407e-02 5.590968728065490723e-01 -6.135295033454895020e-01
-4.995042458176612854e-02 5.671077370643615723e-01 -6.087302565574645996e-01
-4.048227146267890930e-02 5.599179267883300781e-01 -6.041843295097351074e-01
-4.469018802046775818e-02 5.683506131172180176e-01 -5.999118685722351074e-01
-1.497370451688766479e-01 1.266223043203353882e-01 -2.129054069519042969e-02
-1.447733640670776367e-01 1.376678049564361572e-01 -2.117593586444854736e-02
-1.505993455648422241e-01 1.319449543952941895e-01 -8.758028037846088409e-03
-1.445999443531036377e-01 1.435819864273071289e-01 -9.231672622263431549e-03
7.695449888706207275e-02 2.452892661094665527e-01 -3.275289759039878845e-02
6.596126407384872437e-02 2.443508356809616089e-01 -2.328856661915779114e-02
8.831795305013656616e-02 2.433472871780395508e-01 -2.291037142276763916e-02
7.695306092500686646e-02 2.424316108226776123e-01 -1.330135762691497803e-02
1.210891008377075195e-01 3.147068023681640625e-01 3.529471457004547119e-01
1.067048460245132446e-01 3.180863857269287109e-01 3.622810840606689453e-01
1.339177191257476807e-01 3.155766427516937256e-01 3.677496016025543213e-01
1.194010451436042786e-01 3.185703158378601074e-01 3.770203590393066406e-01
1.002816036343574524e-01 2.618181109428405762e-01 -4.527929723262786865e-01
1.024190932512283325e-01 2.763098180294036865e-01 -4.541771113872528076e-01
1.054544523358345032e-01 2.587672173976898193e-01 -4.411336183547973633e-01
1.066053956747055054e-01 2.732882201671600342e-01 -4.400250613689422607e-01
-1.019105836749076843e-01 1.784911453723907471e-01 -6.829074770212173462e-02
-9.358533471822738647e-02 1.896196603775024414e-01 -7.166682928800582886e-02
-9.802958369255065918e-02 1.823133230209350586e-01 -5.371559783816337585e-02
-8.942474424839019775e-02 1.940959542989730835e-01 -5.652540177106857300e-02
-1.581101864576339722e-01 1.732191592454910278e-01 3.195946514606475830e-01
-1.558576822280883789e-01 1.862445920705795288e-01 3.224219083786010742e-01
-1.605227440595626831e-01 1.801543831825256348e-01 3.324234187602996826e-01
-1.576616615056991577e-01 1.935338228940963745e-01 3.338976204395294189e-01
2.418143898248672485e-01 -6.160899400711059570e-01 5.092081427574157715e-01
2.419260889291763306e-01 -6.058308482170104980e-01 5.120835900306701660e-01
2.472510486841201782e-01 -6.122818589210510254e-01 5.171085596084594727e-01
2.469898015260696411e-01 -6.009876132011413574e-01 5.191361308097839355e-01
-8.344886451959609985e-02 -1.129538863897323608e-01 5.113074779510498047e-01
-8.091337978839874268e-02 -1.023238524794578552e-01 5.104552507400512695e-01
-7.724064588546752930e-02 -1.139174625277519226e-01 5.225114822387695312e-01
-7.488404959440231323e-02 -1.026335507631301880e-01 5.212283134460449219e-01
-5.925029888749122620e-02 5.665786862373352051e-01 -6.175217032432556152e-01
-6.300240755081176758e-02 5.747005939483642578e-01 -6.124144196510314941e-01
-5.270287394523620605e-02 5.693995952606201172e-01 -6.079722642898559570e-01
-5.672327801585197449e-02 5.773970484733581543e-01 -6.029527783393859863e-01
-1.245677471160888672e-01 -3.324467837810516357e-01 6.386733055114746094e-01
-1.235236451029777527e-01 -3.183616697788238525e-01 6.360204219818115234e-01
-1.192988753318786621e-01 -3.351200520992279053e-01 6.471549868583679199e-01
-1.180727183818817139e-01 -3.208344578742980957e-01 6.453252434730529785e-01
-8.688540756702423096e-02 1.249732598662376404e-01 5.824308991432189941e-01
-8.878252655267715454e-02 1.417130678892135620e-01 5.781872272491455078e-01
-6.991481035947799683e-02 1.225059628486633301e-01 5.907320380210876465e-01
-7.281781733036041260e-02 1.393135786056518555e-01 5.868425965309143066e-01
2.427457123994827271e-01 1.870187073945999146e-01 5.005270838737487793e-01
2.333218306303024292e-01 1.968766897916793823e-01 5.067080259323120117e-01
2.339631170034408569e-01 1.812838762998580933e-01 5.157824158668518066e-01
2.261700332164764404e-01 1.922523528337478638e-01 5.200282335281372070e-01
-1.706504523754119873e-01 1.767271459102630615e-01 3.924027383327484131e-01
-1.650386154651641846e-01 1.869834661483764648e-01 3.899053931236267090e-01
-1.692263334989547729e-01 1.790175139904022217e-01 4.036284089088439941e-01
-1.638569682836532593e-01 1.882911175489425659e-01 4.018481075763702393e-01
2.540273964405059814e-01 1.075821220874786377e-01 2.787156701087951660e-01
2.556855678558349609e-01 1.253443956375122070e-01 2.773348391056060791e-01
2.591545581817626953e-01 1.133124902844429016e-01 2.942354679107666016e-01
2.602654099464416504e-01 1.309410631656646729e-01 2.927149534225463867e-01
1.825553923845291138e-01 -5.594457387924194336e-01 -1.187274008989334106e-01
1.762376576662063599e-01 -5.463985204696655273e-01 -1.097235530614852905e-01
1.910682171583175659e-01 -5.566394329071044922e-01 -1.155834570527076721e-01
1.858036518096923828e-01 -5.435586571693420410e-01 -1.084307730197906494e-01
-6.350333243608474731e-02 -1.230042278766632080e-01 -6.949458271265029907e-02
-7.313080132007598877e-02 -1.132579445838928223e-01 -6.590822339057922363e-02
-6.164463981986045837e-02 -1.290758848190307617e-01 -5.727219209074974060e-02
-7.153636217117309570e-02 -1.196129620075225830e-01 -5.410279333591461182e-02
-1.119854450225830078e-01 -2.596425414085388184e-01 -2.329171746969223022e-01
-1.121339574456214905e-01 -2.460262179374694824e-01 -2.363190650939941406e-01
-1.076296716928482056e-01 -2.579676210880279541e-01 -2.232890874147415161e-01
-1.075356826186180115e-01 -2.441410571336746216e-01 -2.266190946102142334e-01
-1.457602232694625854e-01 7.005393505096435547e-02 -8.335326611995697021e-02
-1.419865936040878296e-01 8.287493884563446045e-02 -8.384186774492263794e-02
-1.482912600040435791e-01 7.579779624938964844e-02 -7.009123265743255615e-02
-1.449677646160125732e-01 8.785204589366912842e-02 -7.083610445261001587e-02
-1.356185227632522583e-01 -6.137311458587646484e-01 6.499036550521850586e-01
-1.394143849611282349e-01 -5.999259948730468750e-01 6.569349765777587891e-01
-1.329489350318908691e-01 -6.075015664100646973e-01 6.556127667427062988e-01
-1.355233043432235718e-01 -5.939136147499084473e-01 6.619886755943298340e-01
-4.325994476675987244e-02 -1.291916221380233765e-01 -1.124064996838569641e-01
-5.674517899751663208e-02 -1.226172819733619690e-01 -1.052649542689323425e-01
-3.964611515402793884e-02 -1.353264302015304565e-01 -1.004317551851272583e-01
-5.369175970554351807e-02 -1.283488720655441284e-01 -9.392312914133071899e-02
1.934257894754409790e-02 -6.201783567667007446e-02 -3.717331588268280029e-01
2.303873747587203979e-02 -5.419247597455978394e-02 -3.774355351924896240e-01
3.142330422997474670e-02 -6.517522782087326050e-02 -3.709470629692077637e-01
3.496028110384941101e-02 -5.753756687045097351e-02 -3.768623471260070801e-01
-8.468606323003768921e-02 2.904875278472900391e-01 -4.853300750255584717e-01
-8.716313540935516357e-02 3.034109771251678467e-01 -4.815467894077301025e-01
-8.687846362590789795e-02 2.951717674732208252e-01 -4.722940623760223389e-01
-8.930603414773941040e-02 3.082083165645599365e-01 -4.691146612167358398e-01
1.382858157157897949e-01 -3.761568963527679443e-01 -1.937641352415084839e-01
1.295019537210464478e-01 -3.666535615921020508e-01 -1.882771253585815430e-01
1.340510249137878418e-01 -3.785450458526611328e-01 -1.827584505081176758e-01
1.270957440137863159e-01 -3.683868646621704102e-01 -1.777025312185287476e-01
1.759388297796249390e-01 -1.138966679573059082e-01 -2.114057242870330811e-01
1.795885413885116577e-01 -1.002989783883094788e-01 -2.095756381750106812e-01
1.706190705299377441e-01 -1.070165634155273438e-01 -1.980180442333221436e-01
1.740052103996276855e-01 -9.335067123174667358e-02 -1.959744542837142944e-01
2.420456856489181519e-01 1.958170682191848755e-01 2.363546639680862427e-01
2.408369332551956177e-01 2.078813314437866211e-01 2.385913729667663574e-01
2.442340999841690063e-01 1.974790245294570923e-01 2.465589046478271484e-01
2.432307302951812744e-01 2.098858654499053955e-01 2.488253116607666016e-01
1.929475963115692139e-01 -6.383154988288879395e-01 5.192212462425231934e-01
1.857927143573760986e-01 -6.325423717498779297e-01 5.279732346534729004e-01
2.013551592826843262e-01 -6.379255056381225586e-01 5.253452658653259277e-01
1.943521350622177124e-01 -6.318648457527160645e-01 5.342094302177429199e-01
-5.509452894330024719e-02 -2.044653743505477905e-01 -2.801411449909210205e-01
-5.255013331770896912e-02 -1.910294145345687866e-01 -2.830837666988372803e-01
-4.902762919664382935e-02 -2.020678818225860596e-01 -2.715041637420654297e-01
-4.516213387250900269e-02 -1.890182346105575562e-01 -2.745433449745178223e-01
-1.154631152749061584e-01 4.296506047248840332e-01 -4.723388254642486572e-01
-1.143853366374969482e-01 4.445341229438781738e-01 -4.701332151889801025e-01
-1.082753986120223999e-01 4.312008619308471680e-01 -4.603010714054107666e-01
-1.068395972251892090e-01 4.452358186244964600e-01 -4.577219784259796143e-01
-1.412499845027923584e-01 -1.562442034482955933e-01 5.017026066780090332e-01
-1.437522321939468384e-01 -1.436795741319656372e-01 5.022022128105163574e-01
-1.456601619720458984e-01 -1.556800156831741333e-01 5.109794139862060547e-01
-1.483189910650253296e-01 -1.425025761127471924e-01 5.129073858261108398e-01
2.748268544673919678e-01 1.684957146644592285e-01 4.354260563850402832e-01
2.706378400325775146e-01 1.839314550161361694e-01 4.378505349159240723e-01
2.697980403900146484e-01 1.716016978025436401e-01 4.481404125690460205e-01
2.647649645805358887e-01 1.852459013462066650e-01 4.524162113666534424e-01
2.105941772460937500e-01 6.898172199726104736e-02 -2.211060225963592529e-01
2.118767350912094116e-01 8.649286627769470215e-02 -2.215456217527389526e-01
2.068053334951400757e-01 7.409451156854629517e-02 -2.065622657537460327e-01
2.080250233411788940e-01 9.119875729084014893e-02 -2.062723934650421143e-01
-1.325583606958389282e-01 -3.897544369101524353e-02 4.053423106670379639e-01
-1.467586010694503784e-01 -3.460049256682395935e-02 4.100532829761505127e-01
-1.286714673042297363e-01 -4.682739451527595520e-02 4.144737720489501953e-01
-1.424464881420135498e-01 -4.244153946638107300e-02 4.187539219856262207e-01
-5.761871859431266785e-02 -2.233734428882598877e-01 5.959598422050476074e-01
-5.218077450990676880e-02 -2.113978564739227295e-01 5.960572957992553711e-01
-5.261739343404769897e-02 -2.195272892713546753e-01 6.092368364334106445e-01
-4.735134169459342957e-02 -2.075232267379760742e-01 6.091011762619018555e-01
-1.356704980134963989e-01 2.306705117225646973e-01 2.824740409851074219e-01
-1.273887902498245239e-01 2.435053884983062744e-01 2.820513248443603516e-01
-1.353895366191864014e-01 2.374148964881896973e-01 2.945736348628997803e-01
-1.263907849788665771e-01 2.498919069766998291e-01 2.945065498352050781e-01
-1.792548457160592079e-03 -3.880628943443298340e-02 4.577787816524505615e-01
-1.725760288536548615e-03 -3.307989984750747681e-02 4.664319157600402832e-01
6.744720973074436188e-03 -2.692672424018383026e-02 4.657720029354095459e-01
6.726544350385665894e-03 -2.088227681815624237e-02 4.748394489288330078e-01
1.674014925956726074e-01 -6.452536582946777344e-01 -2.012312263250350952e-01
1.630369871854782104e-01 -6.302701234817504883e-01 -1.984253823757171631e-01
1.742907166481018066e-01 -6.457335352897644043e-01 -1.928721517324447632e-01
1.694383621215820312e-01 -6.309387683868408203e-01 -1.894983798265457153e-01
-6.121239811182022095e-02 -3.657246530055999756e-01 -3.005200028419494629e-01
-5.826206132769584656e-02 -3.558737635612487793e-01 -2.998067438602447510e-01
-6.027575954794883728e-02 -3.602270781993865967e-01 -2.905312180519104004e-01
-5.729373916983604431e-02 -3.504702150821685791e-01 -2.901656925678253174e-01
-7.601329684257507324e-02 -3.894544541835784912e-01 7.035158276557922363e-01
-8.018183708190917969e-02 -3.729255795478820801e-01 7.047759890556335449e-01
-7.947239279747009277e-02 -3.952989578247070312e-01 7.151093482971191406e-01
-8.320906013250350952e-02 -3.786697983741760254e-01 7.156511545181274414e-01
1.583358347415924072e-01 -2.600879669189453125e-01 4.685299098491668701e-01
1.499993801116943359e-01 -2.484922111034393311e-01 4.738025963306427002e-01
1.568225026130676270e-01 -2.674488723278045654e-01 4.797073304653167725e-01
1.487516164779663086e-01 -2.555909454822540283e-01 4.850738644599914551e-01
-2.954833209514617920e-01 5.091497302055358887e-01 -6.157927513122558594e-01
-2.915783226490020752e-01 5.204576849937438965e-01 -6.207405924797058105e-01
-2.873530387878417969e-01 5.120210051536560059e-01 -6.068611145019531250e-01
-2.832172513008117676e-01 5.233474373817443848e-01 -6.112583875656127930e-01
-1.636090576648712158e-01 1.365496814250946045e-01 1.468583196401596069e-01
-1.553826183080673218e-01 1.501128077507019043e-01 1.473049223423004150e-01
-1.592880189418792725e-01 1.419480144977569580e-01 1.620437651872634888e-01
-1.515278369188308716e-01 1.553211510181427002e-01 1.626718491315841675e-01
-1.691751331090927124e-01 8.200383186340332031e-02 -3.006176352500915527e-01
-1.671673953533172607e-01 9.559256583452224731e-02 -2.981104850769042969e-01
-1.682407408952713013e-01 8.790916949510574341e-02 -2.873523533344268799e-01
-1.662676632404327393e-01 1.005119904875755310e-01 -2.854230403900146484e-01
1.017778143286705017e-01 3.180305957794189453e-01 -3.635672032833099365e-01
9.695869684219360352e-02 3.306157588958740234e-01 -3.586509525775909424e-01
1.013274639844894409e-01 3.179084062576293945e-01 -3.503962755203247070e-01
9.615564346313476562e-02 3.303598165512084961e-01 -3.460067212581634521e-01
-1.083219945430755615e-01 -4.305641055107116699e-01 7.201736569404602051e-01
-1.078523620963096619e-01 -4.179825782775878906e-01 7.180795669555664062e-01
-1.038375422358512878e-01 -4.352101683616638184e-01 7.250711917877197266e-01
-1.033679097890853882e-01 -4.226286411285400391e-01 7.229771018028259277e-01
2.350852787494659424e-01 2.553898692131042480e-01 4.196989536285400391e-01
2.256615906953811646e-01 2.621832191944122314e-01 4.234659075736999512e-01
2.426934242248535156e-01 2.481964081525802612e-01 4.298256933689117432e-01
2.337821573019027710e-01 2.565422952175140381e-01 4.336895346641540527e-01
-8.741275221109390259e-02 -4.610868096351623535e-01 7.354716062545776367e-01
-8.669648319482803345e-02 -4.503504931926727295e-01 7.328724861145019531e-01
-8.097929507493972778e-02 -4.618868827819824219e-01 7.364805936813354492e-01
-8.023075014352798462e-02 -4.510094821453094482e-01 7.338969111442565918e-01
-1.373861879110336304e-01 1.815668195486068726e-01 -2.267625927925109863e-01
-1.317383199930191040e-01 1.935950964689254761e-01 -2.280787527561187744e-01
-1.331444084644317627e-01 1.884126961231231689e-01 -2.121222168207168579e-01
-1.273803561925888062e-01 2.014683783054351807e-01 -2.141663730144500732e-01
-7.426382601261138916e-02 2.965702414512634277e-01 -3.867889344692230225e-01
-7.234787940979003906e-02 3.113939464092254639e-01 -3.876760900020599365e-01
-7.381283491849899292e-02 3.019366860389709473e-01 -3.739461302757263184e-01
-7.056062668561935425e-02 3.168889880180358887e-01 -3.729324042797088623e-01
7.953538745641708374e-02 3.446265161037445068e-01 -2.536652982234954834e-01
6.964490562677383423e-02 3.522086143493652344e-01 -2.473505735397338867e-01
8.125995844602584839e-02 3.385550975799560547e-01 -2.452479153871536255e-01
7.045754790306091309e-02 3.455245196819305420e-01 -2.376378774642944336e-01
1.652743965387344360e-01 -9.924498945474624634e-02 1.165644153952598572e-01
1.748972833156585693e-01 -8.858260512351989746e-02 1.143110394477844238e-01
1.701955795288085938e-01 -9.055561572313308716e-02 1.255607604980468750e-01
1.796424835920333862e-01 -8.022164553403854370e-02 1.235634386539459229e-01
1.495962440967559814e-01 2.144508659839630127e-01 -5.491076037287712097e-02
1.374560147523880005e-01 2.200845330953598022e-01 -4.775536060333251953e-02
1.539260745048522949e-01 2.107083350419998169e-01 -4.452539980411529541e-02
1.423855125904083252e-01 2.169594466686248779e-01 -3.595884516835212708e-02
1.606393456459045410e-01 2.231738269329071045e-01 5.513178706169128418e-01
1.638755053281784058e-01 2.298029810190200806e-01 5.402839183807373047e-01
1.716174036264419556e-01 2.135725766420364380e-01 5.528812408447265625e-01
1.729962229728698730e-01 2.204193025827407837e-01 5.430475473403930664e-01
-1.451455056667327881e-01 -1.118314489722251892e-01 -3.208401203155517578e-01
-1.554438322782516479e-01 -1.015736907720565796e-01 -3.165084421634674072e-01
-1.383151412010192871e-01 -1.161231920123100281e-01 -3.162548542022705078e-01
-1.487945318222045898e-01 -1.062901541590690613e-01 -3.116263747215270996e-01
-1.592911034822463989e-01 1.197989657521247864e-01 -2.530403435230255127e-01
-1.558631360530853271e-01 1.347781121730804443e-01 -2.555047571659088135e-01
-1.571108847856521606e-01 1.237448006868362427e-01 -2.418262362480163574e-01
-1.535020470619201660e-01 1.389787793159484863e-01 -2.445171475410461426e-01
1.144417077302932739e-01 -2.146095335483551025e-01 -1.731789261102676392e-01
1.096459925174713135e-01 -2.025825679302215576e-01 -1.756756305694580078e-01
1.207608804106712341e-01 -2.163624167442321777e-01 -1.653873622417449951e-01
1.166624799370765686e-01 -2.042256146669387817e-01 -1.668593138456344604e-01
1.043116450309753418e-01 -1.439773943275213242e-03 5.025470256805419922e-01
9.931810945272445679e-02 9.362091310322284698e-03 5.100844502449035645e-01
1.187524646520614624e-01 3.030720166862010956e-03 5.091919898986816406e-01
1.147581711411476135e-01 1.416169852018356323e-02 5.170896053314208984e-01
2.701858282089233398e-01 2.811417356133460999e-02 3.668102025985717773e-01
2.742506861686706543e-01 4.394299909472465515e-02 3.673860728740692139e-01
2.704526484012603760e-01 3.193250671029090881e-02 3.812392652034759521e-01
2.742749452590942383e-01 4.813501611351966858e-02 3.825109004974365234e-01
8.635297417640686035e-02 -1.039768904447555542e-01 -3.488774299621582031e-01
9.616632759571075439e-02 -9.338118880987167358e-02 -3.565272688865661621e-01
1.001191288232803345e-01 -1.047083586454391479e-01 -3.439782559871673584e-01
1.102256327867507935e-01 -9.396294504404067993e-02 -3.513983488082885742e-01
1.023213788866996765e-01 -1.743113845586776733e-01 -2.702836990356445312e-01
1.058929935097694397e-01 -1.624989360570907593e-01 -2.746110558509826660e-01
1.162862777709960938e-01 -1.784687191247940063e-01 -2.679513692855834961e-01
1.214223131537437439e-01 -1.664326488971710205e-01 -2.733994126319885254e-01
-1.409776061773300171e-01 3.753800988197326660e-01 -5.596262216567993164e-01
-1.410011649131774902e-01 3.862704634666442871e-01 -5.575122237205505371e-01
-1.299213618040084839e-01 3.784278035163879395e-01 -5.511664152145385742e-01
-1.294352561235427856e-01 3.895860016345977783e-01 -5.486890077590942383e-01
1.067742481827735901e-01 -7.466911524534225464e-02 2.403426170349121094e-01
9.962927550077438354e-02 -7.089836150407791138e-02 2.561085820198059082e-01
1.157439649105072021e-01 -6.933884322643280029e-02 2.522448301315307617e-01
1.082059890031814575e-01 -6.617490202188491821e-02 2.679140865802764893e-01
-1.208098903298377991e-01 2.134880125522613525e-01 2.256606072187423706e-01
-1.116764098405838013e-01 2.248391509056091309e-01 2.280097156763076782e-01
-1.204058527946472168e-01 2.232236564159393311e-01 2.386175692081451416e-01
-1.107988730072975159e-01 2.347989678382873535e-01 2.411444485187530518e-01
-1.457373797893524170e-01 1.426734328269958496e-01 2.659960687160491943e-01
-1.433016657829284668e-01 1.542718410491943359e-01 2.675383388996124268e-01
-1.478280574083328247e-01 1.467504799365997314e-01 2.778602838516235352e-01
-1.465705335140228271e-01 1.583523005247116089e-01 2.803938388824462891e-01
2.088444530963897705e-01 1.397091895341873169e-01 -4.247558861970901489e-02
2.055608481168746948e-01 1.506507545709609985e-01 -3.466217964887619019e-02
2.130120843648910522e-01 1.444061994552612305e-01 -2.728299610316753387e-02
2.097092270851135254e-01 1.551355272531509399e-01 -1.967168413102626801e-02
-1.508697122335433960e-01 -1.469429284334182739e-01 5.158731341361999512e-01
-1.534755378961563110e-01 -1.335804909467697144e-01 5.173014998435974121e-01
-1.532594412565231323e-01 -1.469427645206451416e-01 5.260205864906311035e-01
-1.559384614229202271e-01 -1.330717951059341431e-01 5.274367332458496094e-01
1.269573569297790527e-01 2.321185022592544556e-01 -4.054338037967681885e-01
1.269180178642272949e-01 2.443376630544662476e-01 -4.023434817790985107e-01
1.333093792200088501e-01 2.339186817407608032e-01 -3.916070163249969482e-01
1.322291195392608643e-01 2.467299252748489380e-01 -3.898659348487854004e-01
1.898086443543434143e-02 2.273228205740451813e-02 5.273478627204895020e-01
2.766997739672660828e-02 3.104647994041442871e-02 5.257184505462646484e-01
1.915136165916919708e-02 3.028763458132743835e-02 5.369480848312377930e-01
2.823847904801368713e-02 3.898434340953826904e-02 5.352199673652648926e-01
-9.350214898586273193e-02 2.680399715900421143e-01 -2.778024375438690186e-01
-8.585172891616821289e-02 2.798623740673065186e-01 -2.831447124481201172e-01
-8.907768130302429199e-02 2.717364430427551270e-01 -2.655053138732910156e-01
-8.116539567708969116e-02 2.831324934959411621e-01 -2.711797654628753662e-01
1.123679950833320618e-01 -3.131060302257537842e-02 3.640537559986114502e-01
1.061967611312866211e-01 -3.107885457575321198e-02 3.734249770641326904e-01
1.199802756309509277e-01 -3.008848614990711212e-02 3.710477054119110107e-01
1.137875393033027649e-01 -2.990128099918365479e-02 3.802759647369384766e-01
1.653754562139511108e-01 -8.397842943668365479e-02 1.609701961278915405e-01
1.744969636201858521e-01 -7.408925890922546387e-02 1.593958884477615356e-01
1.689656823873519897e-01 -7.597406208515167236e-02 1.709541976451873779e-01
1.778770834207534790e-01 -6.626676768064498901e-02 1.694132834672927856e-01
2.093033790588378906e-01 -4.925974309444427490e-01 5.872916579246520996e-01
2.109375596046447754e-01 -4.797169864177703857e-01 5.857814550399780273e-01
2.157904058694839478e-01 -4.923743009567260742e-01 5.927399992942810059e-01
2.188119441270828247e-01 -4.803964495658874512e-01 5.916205048561096191e-01
2.293193936347961426e-01 -5.421895980834960938e-01 5.519372224807739258e-01
2.357440888881683350e-01 -5.316277742385864258e-01 5.526826381683349609e-01
2.304482311010360718e-01 -5.315957665443420410e-01 5.605663657188415527e-01
2.375410050153732300e-01 -5.214185118675231934e-01 5.612087249755859375e-01
2.662182748317718506e-01 9.487338364124298096e-03 4.329776763916015625e-01
2.667862176895141602e-01 2.335154823958873749e-02 4.389466345310211182e-01
2.631823718547821045e-01 2.114454470574855804e-02 4.484848976135253906e-01
2.637954652309417725e-01 3.535015881061553955e-02 4.542832076549530029e-01
-1.075227484107017517e-01 3.670551776885986328e-01 -5.047900080680847168e-01
-1.077283993363380432e-01 3.803329765796661377e-01 -5.022625923156738281e-01
-1.052954345941543579e-01 3.716042935848236084e-01 -4.883951246738433838e-01
-1.055799350142478943e-01 3.850841224193572998e-01 -4.876187443733215332e-01
-9.425754100084304810e-02 2.337891012430191040e-01 5.075192451477050781e-01
-8.913557231426239014e-02 2.450139969587326050e-01 5.012736916542053223e-01
-8.509926497936248779e-02 2.366286814212799072e-01 5.172529816627502441e-01
-8.059436082839965820e-02 2.472237348556518555e-01 5.113344788551330566e-01
-7.694637030363082886e-02 -1.034114286303520203e-01 -1.853313744068145752e-01
-8.260008692741394043e-02 -9.262085705995559692e-02 -1.815510541200637817e-01
-6.806991994380950928e-02 -1.031782999634742737e-01 -1.766367256641387939e-01
-7.410550862550735474e-02 -9.232635796070098877e-02 -1.727283447980880737e-01
1.059337258338928223e-01 -1.361179649829864502e-01 -4.201589152216911316e-02
1.145470812916755676e-01 -1.259879767894744873e-01 -4.265852645039558411e-02
1.115865558385848999e-01 -1.301345676183700562e-01 -3.173225745558738708e-02
1.201814636588096619e-01 -1.199776381254196167e-01 -3.236970677971839905e-02
-1.422948241233825684e-01 -3.804178908467292786e-03 5.452854633331298828e-01
-1.406886577606201172e-01 6.750537082552909851e-03 5.454180836677551270e-01
-1.345716267824172974e-01 -3.759872633963823318e-03 5.523653626441955566e-01
-1.322943866252899170e-01 6.711847148835659027e-03 5.522784590721130371e-01
-5.306757986545562744e-02 -2.373492568731307983e-01 -2.621100842952728271e-01
-4.838978499174118042e-02 -2.239059060811996460e-01 -2.622202634811401367e-01
-5.822774767875671387e-02 -2.303040772676467896e-01 -2.493585646152496338e-01
-5.212682858109474182e-02 -2.174866944551467896e-01 -2.507867515087127686e-01
9.289368242025375366e-02 2.438866645097732544e-01 -6.045261770486831665e-02
8.157908171415328979e-02 2.463594973087310791e-01 -5.591923743486404419e-02
1.034698709845542908e-01 2.383352965116500854e-01 -5.235985666513442993e-02
9.212832152843475342e-02 2.412225902080535889e-01 -4.732118919491767883e-02
-1.143774911761283875e-01 -3.906854987144470215e-01 6.494216918945312500e-01
-1.117560863494873047e-01 -3.737208843231201172e-01 6.487083435058593750e-01
-1.071965619921684265e-01 -3.902752399444580078e-01 6.558787822723388672e-01
-1.045027151703834534e-01 -3.729987740516662598e-01 6.552827358245849609e-01
-1.809343546628952026e-01 3.936492279171943665e-02 3.682748973369598389e-01
-1.822351217269897461e-01 5.427819117903709412e-02 3.718272149562835693e-01
-1.841618716716766357e-01 4.546657204627990723e-02 3.790992498397827148e-01
-1.855412125587463379e-01 6.028078496456146240e-02 3.825514018535614014e-01
-1.055221110582351685e-01 1.931325644254684448e-01 5.340324640274047852e-01
-1.005736961960792542e-01 2.061269432306289673e-01 5.330421328544616699e-01
-9.586795419454574585e-02 2.003450691699981689e-01 5.431062579154968262e-01
-9.087915718555450439e-02 2.133053988218307495e-01 5.426255464553833008e-01
-1.189467012882232666e-01 2.829655073583126068e-03 -1.370794773101806641e-01
-1.198617815971374512e-01 1.402667444199323654e-02 -1.348945200443267822e-01
-1.157790869474411011e-01 5.447121802717447281e-03 -1.244134455919265747e-01
-1.183747500181198120e-01 1.680988632142543793e-02 -1.234586983919143677e-01
-1.387545913457870483e-01 -1.231631487607955933e-01 -2.656342387199401855e-01
-1.467459052801132202e-01 -1.104306355118751526e-01 -2.657853364944458008e-01
-1.311952024698257446e-01 -1.277073323726654053e-01 -2.557299733161926270e-01
-1.390141695737838745e-01 -1.152516007423400879e-01 -2.562620937824249268e-01
-6.690374016761779785e-02 -1.383745223283767700e-01 3.303837403655052185e-02
-7.928160578012466431e-02 -1.307607740163803101e-01 3.842088952660560608e-02
-5.813497677445411682e-02 -1.414838284254074097e-01 4.279364272952079773e-02
-7.062591612339019775e-02 -1.340819448232650757e-01 4.856940731406211853e-02
-7.436510920524597168e-02 5.728415250778198242e-01 -6.309050321578979492e-01
-7.793793827295303345e-02 5.803027153015136719e-01 -6.258502006530761719e-01
-6.638205051422119141e-02 5.746952295303344727e-01 -6.209256052970886230e-01
-6.986675411462783813e-02 5.824938416481018066e-01 -6.156214475631713867e-01
2.318561673164367676e-01 -1.872499138116836548e-01 4.124163091182708740e-01
2.362913340330123901e-01 -1.735888868570327759e-01 4.079565107822418213e-01
2.387336045503616333e-01 -1.853992938995361328e-01 4.220618605613708496e-01
2.425848394632339478e-01 -1.715771108865737915e-01 4.176789522171020508e-01
-2.642909437417984009e-02 -1.501751393079757690e-01 -1.845076829195022583e-01
-3.377214446663856506e-02 -1.485827863216400146e-01 -1.766354739665985107e-01
-1.766050234436988831e-02 -1.501674950122833252e-01 -1.787900477647781372e-01
-2.541554346680641174e-02 -1.495027393102645874e-01 -1.703394204378128052e-01
-3.019267022609710693e-01 4.803299307823181152e-01 -7.272163629531860352e-01
-2.910546064376831055e-01 4.914054870605468750e-01 -7.311599850654602051e-01
-3.001700043678283691e-01 4.875777959823608398e-01 -7.191038131713867188e-01
-2.896730303764343262e-01 4.976435303688049316e-01 -7.227724194526672363e-01
-1.054268181324005127e-01 -3.629058003425598145e-01 6.988938450813293457e-01
-1.072613596916198730e-01 -3.457148373126983643e-01 6.993931531906127930e-01
