-7.690881937742233276e-02 7.720774412155151367e-01 -1.590217351913452148e-01
-5.643587559461593628e-02 7.700064182281494141e-01 -1.664635539054870605e-01
-6.566806882619857788e-02 7.850242853164672852e-01 -1.458903849124908447e-01
5.119316577911376953e-01 -1.077628657221794128e-01 3.781477510929107666e-01
5.305437445640563965e-01 -8.971448242664337158e-02 3.776166141033172607e-01
5.063761472702026367e-01 -8.943740278482437134e-02 4.005280733108520508e-01
5.237957835197448730e-01 -7.163840532302856445e-02 4.004359841346740723e-01
2.550044059753417969e-01 -3.528191745281219482e-01 3.951434791088104248e-01
2.742564976215362549e-01 -3.364741504192352295e-01 3.919660151004791260e-01
2.558167576789855957e-01 -3.358062207698822021e-01 4.108315408229827881e-01
2.741742730140686035e-01 -3.193278610706329346e-01 4.079880118370056152e-01
1.491594761610031128e-01 -6.814910173416137695e-01 -1.747809350490570068e-01
1.600231528282165527e-01 -6.645470261573791504e-01 -1.765518188476562500e-01
1.611474901437759399e-01 -6.755033135414123535e-01 -1.604068875312805176e-01
1.716915220022201538e-01 -6.582326292991638184e-01 -1.619104146957397461e-01
-3.455688357353210449e-01 2.120668590068817139e-01 4.353055655956268311e-01
-3.335345089435577393e-01 2.315141856670379639e-01 4.311117827892303467e-01
-3.256243169307708740e-01 2.218470722436904907e-01 4.548715353012084961e-01
-3.133375644683837891e-01 2.411129027605056763e-01 4.510675072669982910e-01
-2.908048927783966064e-01 -4.601541459560394287e-01 -2.441832423210144043e-01
-3.099097311496734619e-01 -4.515018165111541748e-01 -2.392318099737167358e-01
-2.912044525146484375e-01 -4.773561358451843262e-01 -2.272350341081619263e-01
-3.102459013462066650e-01 -4.686881601810455322e-01 -2.226559221744537354e-01
1.103627532720565796e-01 8.386985659599304199e-01 5.396435037255287170e-02
9.479991346597671509e-02 8.478342890739440918e-01 5.870226770639419556e-02
1.115191280841827393e-01 8.232389688491821289e-01 6.987155228853225708e-02
9.581637382507324219e-02 8.326842188835144043e-01 7.359571754932403564e-02
-1.828705221414566040e-01 -7.488804459571838379e-01 -6.609678268432617188e-02
-2.037885040044784546e-01 -7.366575002670288086e-01 -5.878062918782234192e-02
-1.857638508081436157e-01 -7.619451284408569336e-01 -4.729387536644935608e-02
-2.064912915229797363e-01 -7.487480640411376953e-01 -4.111931473016738892e-02
9.572648257017135620e-02 6.825881600379943848e-01 2.212782949209213257e-01
7.806617021560668945e-02 6.893608570098876953e-01 2.258764356374740601e-01
9.996879845857620239e-02 6.681159138679504395e-01 2.345477491617202759e-01
8.319187164306640625e-02 6.749315857887268066e-01 2.385732233524322510e-01
-4.862357303500175476e-02 1.786698997020721436e-01 -7.779126167297363281e-01
-4.314013943076133728e-02 1.884987652301788330e-01 -7.700248956680297852e-01
-3.589028492569923401e-02 1.923942267894744873e-01 -7.708016633987426758e-01
-3.810749948024749756e-02 2.031617760658264160e-01 -7.579777836799621582e-01
-1.251467913389205933e-01 6.759326159954071045e-02 -8.015628457069396973e-01
-1.103917360305786133e-01 8.346720784902572632e-02 -8.049232959747314453e-01
-1.278557181358337402e-01 8.786059170961380005e-02 -7.821831703186035156e-01
-1.118325367569923401e-01 1.034144312143325806e-01 -7.853797674179077148e-01
-2.123524993658065796e-01 5.927599668502807617e-01 1.943756639957427979e-01
-1.997010558843612671e-01 6.105908155441284180e-01 1.887489557266235352e-01
-1.929433643817901611e-01 6.038033366203308105e-01 2.044862061738967896e-01
-1.811914592981338501e-01 6.217306256294250488e-01 1.988020241260528564e-01
7.342920303344726562e-01 1.542772818356752396e-02 -2.445288747549057007e-01
7.299227714538574219e-01 3.524089977145195007e-02 -2.401706874370574951e-01
7.470948696136474609e-01 1.875759474933147430e-02 -2.288830876350402832e-01
7.410724759101867676e-01 3.884558379650115967e-02 -2.253149747848510742e-01
-1.764537245035171509e-01 -7.293864488601684570e-01 -8.999243378639221191e-02
-1.979564875364303589e-01 -7.171500921249389648e-01 -8.199367672204971313e-02
-1.804524064064025879e-01 -7.436965107917785645e-01 -6.974865496158599854e-02
-2.013703882694244385e-01 -7.314735651016235352e-01 -6.243250146508216858e-02
3.854908347129821777e-01 -3.336732089519500732e-01 2.837013900279998779e-01
3.987745940685272217e-01 -3.156875073909759521e-01 2.848386466503143311e-01
3.820564448833465576e-01 -3.137692809104919434e-01 3.024952411651611328e-01
3.941872119903564453e-01 -2.962472140789031982e-01 3.045343160629272461e-01
-3.218222856521606445e-01 -4.363056719303131104e-01 2.424854189157485962e-01
-3.384603261947631836e-01 -4.175764918327331543e-01 2.442178577184677124e-01
-3.004950582981109619e-01 -4.368726909160614014e-01 2.623081803321838379e-01
-3.206411302089691162e-01 -4.139509797096252441e-01 2.640788257122039795e-01
-4.027156531810760498e-02 -1.364000439643859863e-01 8.224255442619323730e-01
-5.261106044054031372e-02 -1.198899298906326294e-01 8.313629627227783203e-01
-1.631933078169822693e-02 -1.374682039022445679e-01 8.369385004043579102e-01
-3.013906069099903107e-02 -1.210237592458724976e-01 8.462880253791809082e-01
7.342715859413146973e-01 -2.507981956005096436e-01 -2.750165574252605438e-02
7.475934624671936035e-01 -2.343155741691589355e-01 -3.008276037871837616e-02
7.468920350074768066e-01 -2.393920272588729858e-01 -1.089846901595592499e-02
7.595936059951782227e-01 -2.237989008426666260e-01 -1.332048978656530380e-02
-9.071391820907592773e-02 3.272112458944320679e-02 -8.739449977874755859e-01
-8.116306364536285400e-02 4.987516999244689941e-02 -8.714042901992797852e-01
-9.044384211301803589e-02 5.200940370559692383e-02 -8.547388315200805664e-01
-7.531400769948959351e-02 6.834782660007476807e-02 -8.584313392639160156e-01
-1.598707959055900574e-02 -5.363900661468505859e-01 -4.448634982109069824e-01
-3.654156997799873352e-02 -5.300365686416625977e-01 -4.378291070461273193e-01
-3.247126936912536621e-03 -5.537434220314025879e-01 -4.385918974876403809e-01
-2.391262352466583252e-02 -5.475046038627624512e-01 -4.319722056388854980e-01
4.383816421031951904e-01 -1.364455521106719971e-01 4.252462089061737061e-01
4.560978710651397705e-01 -1.209151297807693481e-01 4.199727773666381836e-01
4.336795210838317871e-01 -1.183137148618698120e-01 4.482030570507049561e-01
4.548953771591186523e-01 -1.021539196372032166e-01 4.408309757709503174e-01
-1.986545324325561523e-01 4.735860228538513184e-01 3.236422836780548096e-01
-1.912605911493301392e-01 4.926790595054626465e-01 3.191727697849273682e-01
-1.839716285467147827e-01 4.768183827400207520e-01 3.413648903369903564e-01
-1.773568689823150635e-01 4.967295527458190918e-01 3.359240293502807617e-01
3.523828089237213135e-01 2.763420641422271729e-01 -3.697422742843627930e-01
3.370378017425537109e-01 2.935703396797180176e-01 -3.703606128692626953e-01
3.683903813362121582e-01 2.757181525230407715e-01 -3.555200695991516113e-01
3.536043167114257812e-01 2.926720678806304932e-01 -3.560757935047149658e-01
6.375066190958023071e-02 7.461985349655151367e-01 1.905507743358612061e-01
4.458987712860107422e-02 7.540934681892395020e-01 1.940688043832778931e-01
7.351391762495040894e-02 7.325085401535034180e-01 1.997545808553695679e-01
5.274213850498199463e-02 7.399857640266418457e-01 2.053306996822357178e-01
-9.137144684791564941e-02 8.807206153869628906e-01 2.579452469944953918e-02
-8.156042546033859253e-02 8.958621621131896973e-01 2.202468179166316986e-02
-8.239544928073883057e-02 8.838199973106384277e-01 4.279818385839462280e-02
-7.323601096868515015e-02 8.982194662094116211e-01 3.803800418972969055e-02
4.654385745525360107e-01 4.044710695743560791e-01 -1.281821131706237793e-01
4.507690668106079102e-01 4.219729304313659668e-01 -1.250382363796234131e-01
4.828718900680541992e-01 4.030548632144927979e-01 -1.159678697586059570e-01
4.672030210494995117e-01 4.205971062183380127e-01 -1.131124645471572876e-01
2.679436840116977692e-02 -1.671565771102905273e-01 -8.063967823982238770e-01
3.031393140554428101e-02 -1.545595675706863403e-01 -8.127616643905639648e-01
3.732944279909133911e-02 -1.676580309867858887e-01 -7.946128845214843750e-01
4.148875176906585693e-02 -1.534317880868911743e-01 -8.013323545455932617e-01
-2.670034766197204590e-01 2.724084854125976562e-01 4.594386816024780273e-01
-2.476764172315597534e-01 2.952764630317687988e-01 4.526609778404235840e-01
-2.473859935998916626e-01 2.790798544883728027e-01 4.773325026035308838e-01
-2.308846563100814819e-01 3.007795512676239014e-01 4.710590839385986328e-01
4.724926650524139404e-01 4.540102779865264893e-01 -6.949041783809661865e-02
4.604896903038024902e-01 4.711501002311706543e-01 -6.548916548490524292e-02
4.864391386508941650e-01 4.578611254692077637e-01 -5.541126802563667297e-02
4.744849801063537598e-01 4.740019738674163818e-01 -5.199291557073593140e-02
4.982053637504577637e-01 -4.867193996906280518e-01 5.801666527986526489e-03
5.099362134933471680e-01 -4.736160337924957275e-01 1.025840267539024353e-02
5.017261505126953125e-01 -4.736700057983398438e-01 2.652590349316596985e-02
5.134444236755371094e-01 -4.604738354682922363e-01 3.085204213857650757e-02
-1.942661255598068237e-01 5.969055891036987305e-01 -2.076539844274520874e-01
-1.754401028156280518e-01 6.133756041526794434e-01 -2.099335640668869019e-01
-1.966183632612228394e-01 6.164797544479370117e-01 -1.862713247537612915e-01
-1.779631823301315308e-01 6.335068941116333008e-01 -1.880380511283874512e-01
5.691099166870117188e-01 -2.638788819313049316e-01 1.736753135919570923e-01
5.901858210563659668e-01 -2.444130480289459229e-01 1.685183495283126831e-01
5.632438659667968750e-01 -2.427028566598892212e-01 1.974320411682128906e-01
5.848878026008605957e-01 -2.237789630889892578e-01 1.923992633819580078e-01
-6.436350345611572266e-01 -1.885411441326141357e-01 -1.652430444955825806e-01
-6.617737412452697754e-01 -1.779610663652420044e-01 -1.624082773923873901e-01
-6.444723606109619141e-01 -2.086467742919921875e-01 -1.475065052509307861e-01
-6.626670360565185547e-01 -1.976559311151504517e-01 -1.454371213912963867e-01
2.089166492223739624e-01 5.440926551818847656e-02 -7.366113066673278809e-01
2.060848176479339600e-01 7.126743346452713013e-02 -7.202234268188476562e-01
2.219092398881912231e-01 5.879800766706466675e-02 -7.205888032913208008e-01
2.203396409749984741e-01 7.564877718687057495e-02 -7.054159641265869141e-01
-9.433533251285552979e-02 -5.757638812065124512e-01 -3.288084268569946289e-01
-1.114307940006256104e-01 -5.664216876029968262e-01 -3.242107927799224854e-01
-9.156263619661331177e-02 -5.884279608726501465e-01 -3.198145627975463867e-01
-1.084743589162826538e-01 -5.798056721687316895e-01 -3.146334588527679443e-01
1.168093457818031311e-01 -7.667062282562255859e-01 1.125780418515205383e-01
1.406047940254211426e-01 -7.483579516410827637e-01 1.097760647535324097e-01
1.175129711627960205e-01 -7.480937242507934570e-01 1.316557377576828003e-01
1.413295120000839233e-01 -7.302898764610290527e-01 1.294730603694915771e-01
7.647272348403930664e-01 -1.347380578517913818e-01 1.024257391691207886e-01
7.767163515090942383e-01 -1.212223172187805176e-01 1.014012843370437622e-01
7.682083249092102051e-01 -1.146884113550186157e-01 1.178390979766845703e-01
7.811294198036193848e-01 -1.024514287710189819e-01 1.159484013915061951e-01
7.406634092330932617e-02 7.103447914123535156e-01 -2.135904580354690552e-01
6.943202018737792969e-02 7.286182045936584473e-01 -1.975102275609970093e-01
9.066371619701385498e-02 7.143310308456420898e-01 -1.972903609275817871e-01
8.728489279747009277e-02 7.330227494239807129e-01 -1.805700510740280151e-01
-4.247507154941558838e-01 -7.604113966226577759e-02 -4.950066506862640381e-01
-4.410493075847625732e-01 -6.494222581386566162e-02 -4.915002882480621338e-01
-4.274872839450836182e-01 -9.316336363554000854e-02 -4.788055121898651123e-01
-4.432129859924316406e-01 -8.381550759077072144e-02 -4.762268364429473877e-01
-2.089336812496185303e-01 -5.085607767105102539e-01 2.825067639350891113e-01
-2.271112650632858276e-01 -4.876708686351776123e-01 2.866989672183990479e-01
-1.919059604406356812e-01 -5.076696276664733887e-01 2.984931468963623047e-01
-2.096384614706039429e-01 -4.871872067451477051e-01 3.023702800273895264e-01
7.711580991744995117e-01 1.265117377042770386e-01 -1.015568450093269348e-01
7.619624733924865723e-01 1.416993588209152222e-01 -9.601009637117385864e-02
7.870950102806091309e-01 1.274733394384384155e-01 -8.612390607595443726e-02
7.777932882308959961e-01 1.422492861747741699e-01 -8.053553104400634766e-02
-5.669324398040771484e-01 4.157453775405883789e-01 1.796404831111431122e-02
-5.577050447463989258e-01 4.333682656288146973e-01 5.181980319321155548e-03
-5.530474185943603516e-01 4.230735301971435547e-01 3.270227834582328796e-02
-5.434138774871826172e-01 4.412657320499420166e-01 2.024284750223159790e-02
5.602089762687683105e-01 3.202758431434631348e-01 1.154853850603103638e-01
5.423922538757324219e-01 3.281488716602325439e-01 1.239675208926200867e-01
5.584834218025207520e-01 3.086600899696350098e-01 1.315587759017944336e-01
5.405613183975219727e-01 3.161826133728027344e-01 1.399871557950973511e-01
-8.271723985671997070e-01 1.195280700922012329e-01 5.093229189515113831e-02
-8.140705227851867676e-01 1.395302116870880127e-01 4.498008638620376587e-02
-8.149294853210449219e-01 1.221570447087287903e-01 6.997703760862350464e-02
-8.025460839271545410e-01 1.435328125953674316e-01 6.411073356866836548e-02
6.647198796272277832e-01 -8.433830738067626953e-02 2.541994452476501465e-01
6.785010099411010742e-01 -6.928561627864837646e-02 2.516672909259796143e-01
6.626366972923278809e-01 -6.522122770547866821e-02 2.730978727340698242e-01
6.746208071708679199e-01 -4.952879995107650757e-02 2.711432278156280518e-01
-1.818001270294189453e-01 -5.872883200645446777e-01 2.271790951490402222e-01
-1.966957598924636841e-01 -5.665271878242492676e-01 2.340254187583923340e-01
-1.657623499631881714e-01 -5.886110067367553711e-01 2.445959448814392090e-01
-1.808779984712600708e-01 -5.685074925422668457e-01 2.501404285430908203e-01
-1.611582934856414795e-01 -3.698236346244812012e-01 4.671304225921630859e-01
-1.734766811132431030e-01 -3.506270945072174072e-01 4.750297367572784424e-01
-1.463482528924942017e-01 -3.749743402004241943e-01 4.764477014541625977e-01
-1.547981947660446167e-01 -3.572905063629150391e-01 4.878678321838378906e-01
-1.054685264825820923e-01 3.035732507705688477e-01 -5.917314291000366211e-01
-8.716073632240295410e-02 3.192269206047058105e-01 -5.917177796363830566e-01
-1.122695431113243103e-01 3.246611356735229492e-01 -5.668935775756835938e-01
-9.096465259790420532e-02 3.414545655250549316e-01 -5.668386220932006836e-01
1.239978242665529251e-03 7.649308443069458008e-01 2.261054813861846924e-01
-1.384699717164039612e-04 7.753033638000488281e-01 2.165156304836273193e-01
1.743537560105323792e-02 7.574833035469055176e-01 2.347378283739089966e-01
1.385446451604366302e-02 7.672650814056396484e-01 2.257236987352371216e-01
-6.988094449043273926e-01 2.657887712121009827e-02 -2.687805593013763428e-01
-6.966744661331176758e-01 4.319160059094429016e-02 -2.643723487854003906e-01
-7.051092386245727539e-01 4.157749563455581665e-02 -2.510164380073547363e-01
-7.029384970664978027e-01 5.830108746886253357e-02 -2.464445829391479492e-01
-4.492288231849670410e-01 1.717012822628021240e-01 -3.795216381549835205e-01
-4.286019802093505859e-01 1.928482800722122192e-01 -3.819731473922729492e-01
-4.500514864921569824e-01 1.930396705865859985e-01 -3.575384318828582764e-01
-4.293321669101715088e-01 2.143025994300842285e-01 -3.599471747875213623e-01
-6.756178736686706543e-01 -1.949119418859481812e-01 -1.238080859184265137e-01
-6.937351226806640625e-01 -1.831480115652084351e-01 -1.221058517694473267e-01
-6.733545064926147461e-01 -2.166236490011215210e-01 -1.108786761760711670e-01
-6.926995515823364258e-01 -2.043179422616958618e-01 -1.070181280374526978e-01
2.096591293811798096e-01 1.582582741975784302e-01 6.367155909538269043e-01
1.931825876235961914e-01 1.676599979400634766e-01 6.417595744132995605e-01
2.091446667909622192e-01 1.437032669782638550e-01 6.522927880287170410e-01
1.922271996736526489e-01 1.528360098600387573e-01 6.579980254173278809e-01
1.219858527183532715e-01 3.576967716217041016e-01 -5.215270519256591797e-01
1.064321920275688171e-01 3.766118586063385010e-01 -5.173902511596679688e-01
1.407329738140106201e-01 3.560700714588165283e-01 -5.043519735336303711e-01
1.256465911865234375e-01 3.743698894977569580e-01 -5.004499554634094238e-01
-1.115582510828971863e-01 -5.678479075431823730e-01 -3.180671930313110352e-01
-1.283121258020401001e-01 -5.580831170082092285e-01 -3.138156533241271973e-01
-1.108623296022415161e-01 -5.805883407592773438e-01 -3.089741170406341553e-01
-1.275223791599273682e-01 -5.712261199951171875e-01 -3.045594394207000732e-01
-1.965825855731964111e-01 7.171589136123657227e-01 7.925614714622497559e-02
-1.865062117576599121e-01 7.370115518569946289e-01 7.289627939462661743e-02
-1.771005988121032715e-01 7.280184030532836914e-01 9.564603120088577271e-02
-1.660656929016113281e-01 7.487935423851013184e-01 8.993989229202270508e-02
-2.203919142484664917e-01 -4.986577630043029785e-01 -2.783529162406921387e-01
-2.422713637351989746e-01 -4.888751208782196045e-01 -2.699673771858215332e-01
-2.226283699274063110e-01 -5.163480043411254883e-01 -2.594829499721527100e-01
-2.447008192539215088e-01 -5.062802433967590332e-01 -2.515566051006317139e-01
-1.686522513628005981e-01 6.839631795883178711e-01 1.482703536748886108e-01
-1.614268571138381958e-01 7.050927877426147461e-01 1.370570957660675049e-01
-1.515913754701614380e-01 6.894282698631286621e-01 1.615896970033645630e-01
-1.445629745721817017e-01 7.110952138900756836e-01 1.498579233884811401e-01
6.009244918823242188e-01 3.742493689060211182e-01 -4.195029661059379578e-02
5.840122103691101074e-01 3.888265192508697510e-01 -3.934380039572715759e-02
6.042889356613159180e-01 3.674426972866058350e-01 -2.780965715646743774e-02
5.886701941490173340e-01 3.799633085727691650e-01 -2.279923856258392334e-02
4.709838330745697021e-01 3.550807833671569824e-01 -1.769916117191314697e-01
4.596941173076629639e-01 3.711128234863281250e-01 -1.682144552469253540e-01
4.863860905170440674e-01 3.581873476505279541e-01 -1.607390791177749634e-01
4.740626513957977295e-01 3.757293820381164551e-01 -1.520161181688308716e-01
2.786126136779785156e-01 6.780219078063964844e-02 -6.529904007911682129e-01
2.749956250190734863e-01 8.167651295661926270e-02 -6.420295238494873047e-01
2.953347563743591309e-01 7.204093784093856812e-02 -6.342950463294982910e-01
2.885378599166870117e-01 8.700557053089141846e-02 -6.249046325683593750e-01
4.460240304470062256e-01 -1.711229830980300903e-01 -3.813302814960479736e-01
4.558832943439483643e-01 -1.464848518371582031e-01 -4.004863500595092773e-01
4.632409811019897461e-01 -1.597458720207214355e-01 -3.716122210025787354e-01
4.723910987377166748e-01 -1.352410018444061279e-01 -3.907718062400817871e-01
-4.418623745441436768e-01 -5.104668736457824707e-01 4.260718077421188354e-02
-4.587483704090118408e-01 -4.962558448314666748e-01 4.872022569179534912e-02
-4.299367666244506836e-01 -5.172656178474426270e-01 5.475507304072380066e-02
-4.464335441589355469e-01 -5.012720227241516113e-01 6.234651803970336914e-02
-3.286695778369903564e-01 -1.284700483083724976e-01 -5.443267822265625000e-01
-3.467763662338256836e-01 -1.189755648374557495e-01 -5.382349491119384766e-01
-3.273328244686126709e-01 -1.422141939401626587e-01 -5.321692824363708496e-01
-3.451722860336303711e-01 -1.328407824039459229e-01 -5.257423520088195801e-01
9.188202768564224243e-02 -2.022858262062072754e-01 -7.124850749969482422e-01
9.729766100645065308e-02 -1.836914420127868652e-01 -7.185480594635009766e-01
1.056889817118644714e-01 -1.963496506214141846e-01 -6.988179087638854980e-01
1.105420812964439392e-01 -1.769371032714843750e-01 -7.053664326667785645e-01
4.836294054985046387e-01 4.642775952816009521e-01 4.932056739926338196e-02
4.666471481323242188e-01 4.732967317104339600e-01 5.686262249946594238e-02
4.892757236957550049e-01 4.560048580169677734e-01 6.976786255836486816e-02
4.725409150123596191e-01 4.656307399272918701e-01 7.670582830905914307e-02
6.527115702629089355e-01 1.280866265296936035e-01 -2.142799496650695801e-01
6.240698099136352539e-01 1.563562750816345215e-01 -2.192199826240539551e-01
6.794649362564086914e-01 1.205448806285858154e-01 -1.999517679214477539e-01
6.518710851669311523e-01 1.475165933370590210e-01 -2.056090384721755981e-01
3.731325268745422363e-01 2.994797229766845703e-01 -3.248082101345062256e-01
3.600205481052398682e-01 3.148549199104309082e-01 -3.250502645969390869e-01
3.897928297519683838e-01 2.970367074012756348e-01 -3.141614198684692383e-01
3.778802454471588135e-01 3.125344216823577881e-01 -3.110076189041137695e-01
6.320286393165588379e-01 -3.646776974201202393e-01 -2.555046975612640381e-02
6.427243947982788086e-01 -3.488430976867675781e-01 -2.227926999330520630e-02
6.376003623008728027e-01 -3.512815237045288086e-01 -5.957644432783126831e-03
6.481040716171264648e-01 -3.356876075267791748e-01 -2.641669241711497307e-03
1.857412457466125488e-01 -2.539257109165191650e-01 -5.613219141960144043e-01
1.949311345815658569e-01 -2.319843173027038574e-01 -5.714256763458251953e-01
1.988428980112075806e-01 -2.507986426353454590e-01 -5.469594597816467285e-01
2.074627727270126343e-01 -2.288409024477005005e-01 -5.571065545082092285e-01
-1.264551728963851929e-01 5.504714697599411011e-02 8.143882751464843750e-01
-1.147364526987075806e-01 7.718324661254882812e-02 8.055321574211120605e-01
-1.123616471886634827e-01 5.767514556646347046e-02 8.296661972999572754e-01
-1.017823964357376099e-01 7.947769761085510254e-02 8.217707872390747070e-01
-2.789929807186126709e-01 -3.555846214294433594e-01 -3.631995618343353271e-01
-3.004541099071502686e-01 -3.442393839359283447e-01 -3.586869537830352783e-01
-2.751493155956268311e-01 -3.759185671806335449e-01 -3.478981852531433105e-01
-2.968054711818695068e-01 -3.650057911872863770e-01 -3.421348333358764648e-01
3.576901555061340332e-01 6.433037519454956055e-01 -2.601056173443794250e-02
3.401814997196197510e-01 6.553410887718200684e-01 -2.679482661187648773e-02
3.578692376613616943e-01 6.278634071350097656e-01 -9.206955321133136749e-03
3.404368758201599121e-01 6.398787498474121094e-01 -1.007326133549213409e-02
8.319157361984252930e-01 -5.691208690404891968e-02 -1.299708336591720581e-01
8.317514657974243164e-01 -3.285815939307212830e-02 -1.361128240823745728e-01
8.449209332466125488e-01 -4.830583930015563965e-02 -1.125815510749816895e-01
8.444163799285888672e-01 -2.201539650559425354e-02 -1.168147400021553040e-01
1.453696098178625107e-02 6.843677163124084473e-01 -2.874192595481872559e-01
3.594878129661083221e-03 7.022657990455627441e-01 -2.784357368946075439e-01
3.548537194728851318e-02 6.895024180412292480e-01 -2.803435623645782471e-01
2.443183213472366333e-02 7.076131701469421387e-01 -2.717596292495727539e-01
1.340815573930740356e-01 2.161034345626831055e-01 -6.499693989753723145e-01
1.313424706459045410e-01 2.332409024238586426e-01 -6.343659162521362305e-01
1.479999125003814697e-01 2.220727503299713135e-01 -6.333783268928527832e-01
1.459448933601379395e-01 2.391917556524276733e-01 -6.169673800468444824e-01
3.524822294712066650e-01 1.574035137891769409e-01 4.973667860031127930e-01
3.330459296703338623e-01 1.665811389684677124e-01 5.015617012977600098e-01
3.513064980506896973e-01 1.392766982316970825e-01 5.149136781692504883e-01
3.319028019905090332e-01 1.486512422561645508e-01 5.188226699829101562e-01
1.910331100225448608e-01 -5.031201839447021484e-01 3.058122992515563965e-01
2.125686705112457275e-01 -4.847218692302703857e-01 3.033518195152282715e-01
1.896929889917373657e-01 -4.834989309310913086e-01 3.265781104564666748e-01
2.103729993104934692e-01 -4.651794135570526123e-01 3.246023654937744141e-01
5.111370682716369629e-01 1.529959738254547119e-01 3.380163908004760742e-01
4.877036809921264648e-01 1.627654135227203369e-01 3.479888141155242920e-01
5.111099481582641602e-01 1.385490000247955322e-01 3.497631847858428955e-01
4.887870550155639648e-01 1.483687609434127808e-01 3.591146469116210938e-01
-4.796094819903373718e-02 -6.796789169311523438e-01 2.748783826828002930e-01
-5.310980603098869324e-02 -6.603633761405944824e-01 2.935143709182739258e-01
-2.920009195804595947e-02 -6.693555712699890137e-01 2.872134447097778320e-01
-3.456185013055801392e-02 -6.511669158935546875e-01 3.056837320327758789e-01
-6.835376471281051636e-02 5.931792259216308594e-01 -3.437788486480712891e-01
-8.075666427612304688e-02 6.092113852500915527e-01 -3.213006258010864258e-01
-5.527614057064056396e-02 6.099364757537841797e-01 -3.297215700149536133e-01
-6.714725494384765625e-02 6.259573101997375488e-01 -3.076104521751403809e-01
-3.572940230369567871e-01 2.849650755524635315e-02 6.071001887321472168e-01
-3.535936474800109863e-01 5.259932577610015869e-02 5.968647599220275879e-01
-3.387788832187652588e-01 3.442762792110443115e-02 6.229199767112731934e-01
-3.350155055522918701e-01 5.948629975318908691e-02 6.119018793106079102e-01
-5.506355762481689453e-01 -1.929825991392135620e-01 2.537067234516143799e-01
-5.706966519355773926e-01 -1.709434092044830322e-01 2.574439942836761475e-01
-5.337476134300231934e-01 -1.962013244628906250e-01 2.670453190803527832e-01
-5.499813556671142578e-01 -1.761336028575897217e-01 2.734910547733306885e-01
-8.641517907381057739e-02 -7.729372978210449219e-01 1.402659267187118530e-01
-9.386429190635681152e-02 -7.526265382766723633e-01 1.610193848609924316e-01
-7.304436713457107544e-02 -7.660923600196838379e-01 1.545991152524948120e-01
-7.924293726682662964e-02 -7.459858655929565430e-01 1.759546846151351929e-01
6.719375252723693848e-01 1.294013112783432007e-01 -1.949194520711898804e-01
6.434490084648132324e-01 1.577010601758956909e-01 -1.998710334300994873e-01
6.938830018043518066e-01 1.225448548793792725e-01 -1.840727478265762329e-01
6.690592765808105469e-01 1.483047604560852051e-01 -1.863008588552474976e-01
5.321472510695457458e-02 -6.092608571052551270e-01 -3.361540436744689941e-01
6.796206533908843994e-02 -5.906123518943786621e-01 -3.430864214897155762e-01
7.476492226123809814e-02 -6.036965250968933105e-01 -3.218301236629486084e-01
8.969007432460784912e-02 -5.834311842918395996e-01 -3.283483088016510010e-01
-8.495719432830810547e-01 1.463802307844161987e-01 1.986405113711953163e-03
-8.343259096145629883e-01 1.640226542949676514e-01 -7.114397827535867691e-03
-8.377962708473205566e-01 1.486963331699371338e-01 1.899786852300167084e-02
-8.225914835929870605e-01 1.687409430742263794e-01 9.610403329133987427e-03
4.198106005787849426e-03 1.258135139942169189e-01 -8.745289444923400879e-01
-6.913266144692897797e-03 1.392910331487655640e-01 -8.526148796081542969e-01
1.273555122315883636e-02 1.395907849073410034e-01 -8.609189987182617188e-01
1.479410100728273392e-03 1.530888825654983521e-01 -8.390213847160339355e-01
-4.076402485370635986e-01 -4.541800916194915771e-01 -1.379573941230773926e-01
-4.251720905303955078e-01 -4.457022845745086670e-01 -1.329444497823715210e-01
-4.083132743835449219e-01 -4.677171409130096436e-01 -1.225384175777435303e-01
-4.259915947914123535e-01 -4.588900506496429443e-01 -1.176026314496994019e-01
-3.891381025314331055e-01 3.763804733753204346e-01 -2.316769659519195557e-01
-3.775328993797302246e-01 3.899292051792144775e-01 -2.322704195976257324e-01
-3.891806304454803467e-01 3.926904499530792236e-01 -2.161248028278350830e-01
-3.768837749958038330e-01 4.070441722869873047e-01 -2.165701836347579956e-01
-1.089977249503135681e-01 1.105252653360366821e-01 7.751224040985107422e-01
-9.541127085685729980e-02 1.319728791713714600e-01 7.688460946083068848e-01
-9.414672851562500000e-02 1.164181306958198547e-01 7.919120192527770996e-01
-8.123396337032318115e-02 1.370790898799896240e-01 7.844163775444030762e-01
6.630485057830810547e-01 -2.921683788299560547e-01 4.336196184158325195e-02
6.792167425155639648e-01 -2.785542309284210205e-01 4.263633862137794495e-02
6.668230295181274414e-01 -2.804220318794250488e-01 6.181571260094642639e-02
6.823009252548217773e-01 -2.665039002895355225e-01 6.210839003324508667e-02
-5.499249696731567383e-01 -3.607979714870452881e-01 8.601564168930053711e-02
-5.679694414138793945e-01 -3.379345536231994629e-01 9.534746408462524414e-02
-5.345944166183471680e-01 -3.620835542678833008e-01 1.019025444984436035e-01
-5.525086522102355957e-01 -3.402127623558044434e-01 1.090325713157653809e-01
6.315925717353820801e-01 -1.731234192848205566e-01 1.962800323963165283e-01
6.507130861282348633e-01 -1.567949652671813965e-01 1.922242641448974609e-01
6.325077414512634277e-01 -1.533046066761016846e-01 2.125031501054763794e-01
6.497423648834228516e-01 -1.380890905857086182e-01 2.101044505834579468e-01
-2.325934171676635742e-01 -2.751975059509277344e-01 4.918809235095977783e-01
-2.474082708358764648e-01 -2.517406344413757324e-01 5.012683272361755371e-01
-2.127991169691085815e-01 -2.765035927295684814e-01 5.092110633850097656e-01
-2.264046072959899902e-01 -2.537499070167541504e-01 5.192172527313232422e-01
-4.965750575065612793e-01 1.217173337936401367e-01 -3.820898830890655518e-01
-4.770832955837249756e-01 1.390789449214935303e-01 -3.832880854606628418e-01
-4.992844164371490479e-01 1.430325955152511597e-01 -3.599357008934020996e-01
-4.780083298683166504e-01 1.603703349828720093e-01 -3.632540702819824219e-01
-2.314683049917221069e-01 1.161370798945426941e-01 6.452060341835021973e-01
-2.231468856334686279e-01 1.397552043199539185e-01 6.380020976066589355e-01
-2.132561653852462769e-01 1.216913014650344849e-01 6.659400463104248047e-01
-2.046258151531219482e-01 1.441697627305984497e-01 6.595399379730224609e-01
4.748173654079437256e-01 5.419799312949180603e-02 4.696212112903594971e-01
4.589479863643646240e-01 6.209640949964523315e-02 4.744135439395904541e-01
4.716057181358337402e-01 4.340045526623725891e-02 4.829830229282379150e-01
4.557957649230957031e-01 5.228483304381370544e-02 4.887016415596008301e-01
4.451390802860260010e-01 1.026284992694854736e-01 -4.492839574813842773e-01
4.300330579280853271e-01 1.176252812147140503e-01 -4.463824033737182617e-01
4.620625078678131104e-01 1.021984890103340149e-01 -4.338847398757934570e-01
4.463967084884643555e-01 1.177905648946762085e-01 -4.317544996738433838e-01
-4.774851724505424500e-02 1.064932644367218018e-01 8.476169705390930176e-01
-3.707721456885337830e-02 1.232556179165840149e-01 8.384602665901184082e-01
-3.582695871591567993e-02 1.064086928963661194e-01 8.594041466712951660e-01
-2.535193227231502533e-02 1.225935220718383789e-01 8.504087328910827637e-01
2.741025388240814209e-01 6.828638315200805664e-01 -5.201997235417366028e-02
2.600199580192565918e-01 6.980221271514892578e-01 -4.883849620819091797e-02
2.869063019752502441e-01 6.732128262519836426e-01 -4.091234132647514343e-02
2.720271646976470947e-01 6.879530549049377441e-01 -3.864451497793197632e-02
2.064338326454162598e-01 4.569833278656005859e-01 3.428865671157836914e-01
1.833243370056152344e-01 4.693153202533721924e-01 3.485487997531890869e-01
2.088398188352584839e-01 4.378619790077209473e-01 3.587173223495483398e-01
1.858282089233398438e-01 4.502274990081787109e-01 3.643925786018371582e-01
-5.685134232044219971e-02 -1.448295265436172485e-01 7.970384955406188965e-01
-6.283845752477645874e-02 -1.296285688877105713e-01 8.068493008613586426e-01
-3.709938377141952515e-02 -1.455912441015243530e-01 8.094051480293273926e-01
-4.698438569903373718e-02 -1.294060349464416504e-01 8.183847665786743164e-01
-6.392281055450439453e-01 3.139509260654449463e-01 4.343665018677711487e-02
-6.307302117347717285e-01 3.315796852111816406e-01 3.351392596960067749e-02
-6.254861950874328613e-01 3.213097155094146729e-01 5.590208992362022400e-02
-6.171883940696716309e-01 3.395692110061645508e-01 4.535234719514846802e-02
2.820874154567718506e-01 -2.283821403980255127e-01 4.884812831878662109e-01
2.985088527202606201e-01 -2.119004428386688232e-01 4.857498705387115479e-01
2.803938090801239014e-01 -2.097699791193008423e-01 5.102283358573913574e-01
2.971004545688629150e-01 -1.924041062593460083e-01 5.068137645721435547e-01
1.554844528436660767e-01 -6.316576153039932251e-02 7.867270708084106445e-01
1.716594845056533813e-01 -4.858741164207458496e-02 7.807441949844360352e-01
1.518599390983581543e-01 -4.664653539657592773e-02 8.040407896041870117e-01
1.645770221948623657e-01 -3.121841698884963989e-02 8.007709383964538574e-01
-2.936940491199493408e-01 -5.123412609100341797e-01 -1.919166147708892822e-01
-3.138589859008789062e-01 -5.014135241508483887e-01 -1.854970753192901611e-01
-2.913362085819244385e-01 -5.279792547225952148e-01 -1.791575253009796143e-01
-3.116195499897003174e-01 -5.177843570709228516e-01 -1.721756607294082642e-01
-1.004243865609169006e-01 -1.261529773473739624e-01 -7.687697410583496094e-01
-1.155811622738838196e-01 -1.184678003191947937e-01 -7.668948173522949219e-01
-9.848650544881820679e-02 -1.436797380447387695e-01 -7.562202215194702148e-01
-1.136204898357391357e-01 -1.354345083236694336e-01 -7.542627453804016113e-01
-2.750897407531738281e-01 -4.450174868106842041e-01 2.864677608013153076e-01
-2.951495647430419922e-01 -4.207001030445098877e-01 2.896171510219573975e-01
-2.584109604358673096e-01 -4.385892152786254883e-01 3.025494515895843506e-01
-2.780283689498901367e-01 -4.147756993770599365e-01 3.061345219612121582e-01
-2.287473529577255249e-03 -4.032900929450988770e-02 -9.540326595306396484e-01
1.117910631000995636e-02 -2.128876000642776489e-02 -9.684091210365295410e-01
1.728898286819458008e-02 -3.862963616847991943e-02 -9.459708929061889648e-01
3.220088034868240356e-02 -2.030145376920700073e-02 -9.600451588630676270e-01
2.981393970549106598e-02 -6.033169031143188477e-01 3.689619302749633789e-01
2.270510420203208923e-02 -5.866123437881469727e-01 3.886913657188415527e-01
6.017644330859184265e-02 -5.901066660881042480e-01 3.690128922462463379e-01
5.171096697449684143e-02 -5.748164057731628418e-01 3.886883556842803955e-01
5.496156215667724609e-01 -1.488140225410461426e-01 3.032280206680297852e-01
5.674799680709838867e-01 -1.327228546142578125e-01 2.990288138389587402e-01
5.505986809730529785e-01 -1.296431273221969604e-01 3.209385275840759277e-01
5.686928033828735352e-01 -1.140685230493545532e-01 3.166135251522064209e-01
-3.901342302560806274e-02 -1.171321943402290344e-01 8.411600589752197266e-01
-5.283366888761520386e-02 -1.009558737277984619e-01 8.496707677841186523e-01
-1.794772595167160034e-02 -1.173685193061828613e-01 8.567937612533569336e-01
-3.028347156941890717e-02 -1.001770198345184326e-01 8.650171756744384766e-01
-5.517950654029846191e-01 2.792225480079650879e-01 -1.733984202146530151e-01
-5.333865880966186523e-01 2.935646772384643555e-01 -1.769746392965316772e-01
-5.505310297012329102e-01 2.955386340618133545e-01 -1.543966978788375854e-01
-5.363717675209045410e-01 3.105334937572479248e-01 -1.556977480649948120e-01
-2.236649841070175171e-01 7.078184932470321655e-02 6.939264535903930664e-01
-2.168853133916854858e-01 9.552295506000518799e-02 6.879755854606628418e-01
-2.040091753005981445e-01 8.077867329120635986e-02 7.119095921516418457e-01
-1.962251663208007812e-01 1.058973222970962524e-01 7.056937813758850098e-01
-2.195264548063278198e-01 6.988185048103332520e-01 7.370621711015701294e-02
-2.094134688377380371e-01 7.177752256393432617e-01 6.704751402139663696e-02
-2.018731087446212769e-01 7.074863910675048828e-01 9.084332734346389771e-02
-1.904798150062561035e-01 7.269166707992553711e-01 8.536811172962188721e-02
4.883954823017120361e-01 3.564169630408287048e-02 -4.742877483367919922e-01
4.791142344474792480e-01 5.633627250790596008e-02 -4.749430418014526367e-01
4.969934225082397461e-01 3.693027049303054810e-02 -4.596683382987976074e-01
4.880909621715545654e-01 5.809585005044937134e-02 -4.603864252567291260e-01
-4.774607717990875244e-01 -1.299254894256591797e-01 3.935197591781616211e-01
-4.783800840377807617e-01 -1.144103184342384338e-01 4.084166586399078369e-01
-4.577912092208862305e-01 -1.256904453039169312e-01 4.121925830841064453e-01
-4.583312571048736572e-01 -1.102770417928695679e-01 4.273043572902679443e-01
-2.531832456588745117e-01 -7.081125378608703613e-01 -6.496401876211166382e-02
-2.748633921146392822e-01 -6.934866905212402344e-01 -5.874621123075485229e-02
-2.380488663911819458e-01 -7.136644721031188965e-01 -4.608473926782608032e-02
-2.596166729927062988e-01 -6.991626024246215820e-01 -4.031833633780479431e-02
-2.825362682342529297e-01 -4.409485459327697754e-01 -2.724589705467224121e-01
-3.021447360515594482e-01 -4.319307506084442139e-01 -2.664996385574340820e-01
-2.842581868171691895e-01 -4.582772552967071533e-01 -2.567018568515777588e-01
-3.035804629325866699e-01 -4.495558738708496094e-01 -2.512044310569763184e-01
-4.934911429882049561e-01 -4.551598131656646729e-01 -5.535014718770980835e-02
-5.075930953025817871e-01 -4.433515071868896484e-01 -5.077983811497688293e-02
-4.923500716686248779e-01 -4.662125110626220703e-01 -3.966496139764785767e-02
-5.063674449920654297e-01 -4.545318484306335449e-01 -3.442107141017913818e-02
-4.828113019466400146e-01 -5.080069303512573242e-01 -9.625552222132682800e-03
-4.988848865032196045e-01 -4.960796535015106201e-01 -1.820561941713094711e-03
-4.746286571025848389e-01 -5.189018249511718750e-01 2.700113225728273392e-03
-4.915658533573150635e-01 -5.064377784729003906e-01 9.712900966405868530e-03
-3.686268031597137451e-01 3.512412309646606445e-01 -2.808383703231811523e-01
-3.545891344547271729e-01 3.650405704975128174e-01 -2.803126871585845947e-01
-3.695110380649566650e-01 3.684111535549163818e-01 -2.643468379974365234e-01
-3.557563424110412598e-01 3.819919824600219727e-01 -2.640903294086456299e-01
-4.062341153621673584e-01 5.094210617244243622e-03 5.777452588081359863e-01
-4.041234254837036133e-01 2.724552154541015625e-02 5.707696676254272461e-01
-3.925121724605560303e-01 1.709160953760147095e-02 5.897843241691589355e-01
-3.900615274906158447e-01 3.897562995553016663e-02 5.833118557929992676e-01
-1.121885795146226883e-02 8.617073297500610352e-01 1.355138868093490601e-01
-9.978141635656356812e-03 8.692170381546020508e-01 1.244796961545944214e-01
1.040918938815593719e-02 8.526706099510192871e-01 1.427455693483352661e-01
8.973294869065284729e-03 8.609278202056884766e-01 1.320826262235641479e-01
-1.174275055527687073e-01 -4.308492243289947510e-01 -4.501456320285797119e-01
-1.353011578321456909e-01 -4.185220301151275635e-01 -4.449087381362915039e-01
-1.202994883060455322e-01 -4.454767107963562012e-01 -4.331393539905548096e-01
-1.383757144212722778e-01 -4.329358935356140137e-01 -4.282330274581909180e-01
-1.035571768879890442e-01 8.210351467132568359e-01 6.374193727970123291e-02
-9.197176247835159302e-02 8.391231298446655273e-01 6.435956805944442749e-02
-8.943459391593933105e-02 8.306609988212585449e-01 8.493856340646743774e-02
-7.801584154367446899e-02 8.468531966209411621e-01 8.277861773967742920e-02
1.425888389348983765e-01 -6.094916462898254395e-01 -2.517903447151184082e-01
1.550161838531494141e-01 -5.901960730552673340e-01 -2.596592605113983154e-01
1.588453948497772217e-01 -5.985773205757141113e-01 -2.398771941661834717e-01
1.688701510429382324e-01 -5.801345705986022949e-01 -2.495667785406112671e-01
-7.947074174880981445e-01 -1.065910831093788147e-01 -9.490311145782470703e-02
-8.121461868286132812e-01 -9.655372053384780884e-02 -9.163112193346023560e-02
-7.954881191253662109e-01 -1.267295628786087036e-01 -7.843481004238128662e-02
-8.119783401489257812e-01 -1.167606338858604431e-01 -7.671944051980972290e-02
8.892451524734497070e-01 -5.638863891363143921e-02 5.450253188610076904e-02
8.975977897644042969e-01 -4.228466004133224487e-02 5.416946113109588623e-02
8.826849460601806641e-01 -5.167409405112266541e-02 7.053920626640319824e-02
8.876315951347351074e-01 -3.712129965424537659e-02 7.139714062213897705e-02
-4.795386493206024170e-01 -3.450511693954467773e-01 1.780193597078323364e-01
-4.917436838150024414e-01 -3.292175531387329102e-01 1.823782324790954590e-01
-4.640844464302062988e-01 -3.426768183708190918e-01 1.929273456335067749e-01
-4.742333889007568359e-01 -3.271287977695465088e-01 1.980954557657241821e-01
-7.564682960510253906e-01 -3.180647268891334534e-02 2.182732969522476196e-01
-7.630549073219299316e-01 -1.339280791580677032e-02 2.206558883190155029e-01
-7.405884265899658203e-01 -3.247583657503128052e-02 2.318464070558547974e-01
-7.466498613357543945e-01 -1.433269027620553970e-02 2.348081767559051514e-01
2.016049772500991821e-01 2.186472713947296143e-01 -5.777373909950256348e-01
1.895753592252731323e-01 2.361906021833419800e-01 -5.724844932556152344e-01
2.170990854501724243e-01 2.212432771921157837e-01 -5.595180392265319824e-01
2.002399414777755737e-01 2.400884330272674561e-01 -5.584667921066284180e-01
-1.626551523804664612e-02 -1.543172895908355713e-01 -8.210245370864868164e-01
-3.371036052703857422e-02 -1.482653468847274780e-01 -8.188830614089965820e-01
-1.141721010208129883e-02 -1.715273261070251465e-01 -8.109369874000549316e-01
-2.729256637394428253e-02 -1.650836020708084106e-01 -8.097247481346130371e-01
2.735634744167327881e-01 -6.105284094810485840e-01 -1.195126175880432129e-01
2.819548845291137695e-01 -5.926846861839294434e-01 -1.259002834558486938e-01
2.875934243202209473e-01 -6.100074648857116699e-01 -1.025542467832565308e-01
2.962333559989929199e-01 -5.921202898025512695e-01 -1.085583567619323730e-01
2.266796827316284180e-01 7.241469025611877441e-01 5.092433467507362366e-02
2.130482047796249390e-01 7.320366501808166504e-01 5.526340007781982422e-02
2.266011089086532593e-01 7.111048698425292969e-01 6.376488506793975830e-02
2.124999463558197021e-01 7.187079787254333496e-01 6.817097216844558716e-02
3.147481381893157959e-01 4.739592075347900391e-01 2.113577127456665039e-01
2.981403172016143799e-01 4.819250702857971191e-01 2.171392589807510376e-01
3.138444721698760986e-01 4.579209387302398682e-01 2.266875058412551880e-01
2.966130673885345459e-01 4.659790396690368652e-01 2.329984754323959351e-01
3.946010470390319824e-01 6.126813888549804688e-01 -1.724073290824890137e-02
3.766889572143554688e-01 6.245930194854736328e-01 -1.638734340667724609e-02
3.951677381992340088e-01 5.953726172447204590e-01 -1.611444167792797089e-05
3.779181838035583496e-01 6.064922213554382324e-01 1.485738088376820087e-03
1.353764683008193970e-01 2.026289105415344238e-01 6.667723655700683594e-01
1.133309751749038696e-01 2.112307101488113403e-01 6.756498217582702637e-01
1.304034143686294556e-01 1.885644495487213135e-01 6.869502067565917969e-01
1.083430200815200806e-01 1.971798688173294067e-01 6.954581141471862793e-01
-1.976828724145889282e-01 -4.697166085243225098e-01 -3.324384689331054688e-01
-2.206267565488815308e-01 -4.586115181446075439e-01 -3.230111300945281982e-01
-1.982934474945068359e-01 -4.871354401111602783e-01 -3.143086731433868408e-01
-2.210104316473007202e-01 -4.764354228973388672e-01 -3.051418364048004150e-01
-1.390243023633956909e-01 -8.371891379356384277e-01 2.207565307617187500e-02
-1.514458060264587402e-01 -8.197268843650817871e-01 2.397282794117927551e-02
-1.157943308353424072e-01 -8.384031653404235840e-01 3.988329693675041199e-02
-1.268854588270187378e-01 -8.212179541587829590e-01 4.259837418794631958e-02
-1.176066994667053223e-01 8.287369012832641602e-01 -5.330657958984375000e-02
-1.021786183118820190e-01 8.437483310699462891e-01 -5.596520751714706421e-02
-1.133933141827583313e-01 8.427169919013977051e-01 -3.887199610471725464e-02
-9.902364015579223633e-02 8.584661483764648438e-01 -4.236474633216857910e-02
4.739698469638824463e-01 2.869120240211486816e-01 2.442733943462371826e-01
4.546191692352294922e-01 2.952401936054229736e-01 2.501102387905120850e-01
4.736832976341247559e-01 2.746687233448028564e-01 2.573873698711395264e-01
4.529733061790466309e-01 2.831113636493682861e-01 2.644287347793579102e-01
8.206173777580261230e-02 8.863303065299987793e-01 3.280651941895484924e-02
6.959349662065505981e-02 8.943518400192260742e-01 3.785443305969238281e-02
8.307082951068878174e-02 8.754644989967346191e-01 4.965969920158386230e-02
7.093527168035507202e-02 8.831894397735595703e-01 5.244752764701843262e-02
-3.216045796871185303e-01 2.321839332580566406e-01 -4.444167315959930420e-01
-3.051602244377136230e-01 2.508621811866760254e-01 -4.450555741786956787e-01
-3.195075392723083496e-01 2.549409568309783936e-01 -4.249871969223022461e-01
-3.009406626224517822e-01 2.734388113021850586e-01 -4.265054464340209961e-01
-7.478135228157043457e-01 7.422669231891632080e-02 1.700598597526550293e-01
-7.436314225196838379e-01 9.572635591030120850e-02 1.612688452005386353e-01
-7.313055992126464844e-01 7.569009065628051758e-02 1.877550929784774780e-01
-7.265122532844543457e-01 9.707681834697723389e-02 1.765276491641998291e-01
3.838019073009490967e-01 5.169537067413330078e-01 -1.008611172437667847e-01
3.757622838020324707e-01 5.357388854026794434e-01 -8.965092897415161133e-02
4.001788496971130371e-01 5.162112116813659668e-01 -8.148642629384994507e-02
3.894338905811309814e-01 5.342087149620056152e-01 -7.216650247573852539e-02
-1.540690958499908447e-01 4.613210856914520264e-01 3.854020237922668457e-01
-1.443050950765609741e-01 4.789177477359771729e-01 3.797598779201507568e-01
-1.418633460998535156e-01 4.566692411899566650e-01 4.049263298511505127e-01
-1.296161711215972900e-01 4.733145534992218018e-01 3.996461629867553711e-01
7.407324910163879395e-01 -2.329171150922775269e-01 2.479641698300838470e-02
7.551355957984924316e-01 -2.188504189252853394e-01 2.175888605415821075e-02
7.450331449508666992e-01 -2.221531122922897339e-01 4.044274613261222839e-02
7.597714662551879883e-01 -2.088946104049682617e-01 3.789067640900611877e-02
1.863061785697937012e-01 -6.762615442276000977e-01 -1.463354080915451050e-01
1.949332058429718018e-01 -6.588700413703918457e-01 -1.494640409946441650e-01
2.002959102392196655e-01 -6.676599383354187012e-01 -1.311600655317306519e-01
2.084413468837738037e-01 -6.502528190612792969e-01 -1.349601894617080688e-01
-8.227133154869079590e-01 -5.766105279326438904e-02 -1.155333146452903748e-01
-8.411525487899780273e-01 -4.485279321670532227e-02 -1.103085577487945557e-01
-8.237195611000061035e-01 -7.494343817234039307e-02 -9.985680133104324341e-02
-8.432049751281738281e-01 -6.303344666957855225e-02 -9.556891024112701416e-02
2.807164788246154785e-01 2.268855571746826172e-01 -4.892629981040954590e-01
2.687959671020507812e-01 2.429018467664718628e-01 -4.854050576686859131e-01
2.969397306442260742e-01 2.293905019760131836e-01 -4.749778807163238525e-01
2.858183979988098145e-01 2.454546988010406494e-01 -4.704608023166656494e-01
-2.354276832193136215e-03 8.323824405670166016e-01 1.586646437644958496e-01
-9.225944522768259048e-04 8.424167633056640625e-01 1.492938250303268433e-01
1.958309486508369446e-02 8.264801502227783203e-01 1.680690199136734009e-01
1.839378848671913147e-02 8.360977172851562500e-01 1.588197499513626099e-01
4.095057547092437744e-01 4.519397914409637451e-01 1.404851973056793213e-01
3.903415203094482422e-01 4.608385860919952393e-01 1.480656713247299194e-01
4.075907170772552490e-01 4.351205229759216309e-01 1.553728133440017700e-01
3.876537084579467773e-01 4.450910091400146484e-01 1.623588055372238159e-01
-3.652362897992134094e-02 -5.425556302070617676e-01 -4.172247648239135742e-01
-5.652064830064773560e-02 -5.361249446868896484e-01 -4.109466075897216797e-01
-2.593512274324893951e-02 -5.619525909423828125e-01 -4.090670645236968994e-01
-4.586884006857872009e-02 -5.551937222480773926e-01 -4.031754136085510254e-01
-2.033700607717037201e-02 -5.082278847694396973e-01 -4.828168451786041260e-01
-1.639184355735778809e-02 -4.929778873920440674e-01 -4.900998175144195557e-01
-1.756424317136406898e-03 -5.174168348312377930e-01 -4.807498753070831299e-01
5.447195144370198250e-04 -5.029201507568359375e-01 -4.873054921627044678e-01
-1.841105967760086060e-01 -1.038141697645187378e-01 -7.088219523429870605e-01
-2.061886936426162720e-01 -9.313770383596420288e-02 -7.006568312644958496e-01
-1.825890094041824341e-01 -1.220768690109252930e-01 -6.926641464233398438e-01
-2.053140997886657715e-01 -1.116327494382858276e-01 -6.838647723197937012e-01
