-1.048544645309448242e-01 -1.849958300590515137e-01 -3.836807906627655029e-01
2.004028856754302979e-01 -1.662125065922737122e-02 -5.245264619588851929e-02
1.980446875095367432e-01 -3.873641137033700943e-03 -5.051174014806747437e-02
2.055776864290237427e-01 -1.843038946390151978e-02 -4.303548485040664673e-02
2.034335434436798096e-01 -5.531013943254947662e-03 -4.139449447393417358e-02
-1.586307585239410400e-02 2.668473124504089355e-01 -5.033971071243286133e-01
-2.389694005250930786e-02 2.671137750148773193e-01 -4.900496602058410645e-01
9.403629228472709656e-04 2.706088721752166748e-01 -4.893225431442260742e-01
-9.831339120864868164e-03 2.716889083385467529e-01 -4.772311151027679443e-01
8.967756479978561401e-02 1.914125382900238037e-01 -6.772634387016296387e-02
7.896905392408370972e-02 1.948761045932769775e-01 -6.142827123403549194e-02
1.011025533080101013e-01 1.861892193555831909e-01 -6.015401706099510193e-02
9.113147854804992676e-02 1.896631270647048950e-01 -5.402214452624320984e-02
2.023666650056838989e-01 -2.057708650827407837e-01 -5.869838222861289978e-02
2.050238102674484253e-01 -1.911815851926803589e-01 -6.228924915194511414e-02
2.094461619853973389e-01 -2.050775140523910522e-01 -4.714659228920936584e-02
2.131282091140747070e-01 -1.905784159898757935e-01 -4.980608075857162476e-02
2.013735175132751465e-01 -7.727838307619094849e-02 -5.123773962259292603e-02
2.004117816686630249e-01 -5.877105891704559326e-02 -5.444465950131416321e-02
2.125063985586166382e-01 -7.667345553636550903e-02 -4.035766795277595520e-02
2.114939391613006592e-01 -5.812595784664154053e-02 -4.346230626106262207e-02
4.313020408153533936e-02 -3.385618329048156738e-01 -1.361000239849090576e-01
5.069753900170326233e-02 -3.306566476821899414e-01 -1.473127007484436035e-01
5.601689964532852173e-02 -3.376707136631011963e-01 -1.253756880760192871e-01
6.249647960066795349e-02 -3.279728293418884277e-01 -1.346415728330612183e-01
-5.308913439512252808e-02 1.883627623319625854e-01 1.975529044866561890e-01
-3.328457474708557129e-02 1.947824209928512573e-01 1.845353990793228149e-01
-4.002433270215988159e-02 1.938006579875946045e-01 2.109508067369461060e-01
-2.074669487774372101e-02 1.991912871599197388e-01 1.998489350080490112e-01
2.813293933868408203e-01 -4.356710612773895264e-02 7.313610315322875977e-01
2.766266167163848877e-01 -2.821882069110870361e-02 7.347756624221801758e-01
2.758930623531341553e-01 -4.548892378807067871e-02 7.480894923210144043e-01
2.709695398807525635e-01 -2.965995669364929199e-02 7.514706850051879883e-01
2.345316261053085327e-01 2.120673060417175293e-01 -3.811523616313934326e-01
2.245788276195526123e-01 2.186717092990875244e-01 -3.778000473976135254e-01
2.409286350011825562e-01 2.063555568456649780e-01 -3.688631057739257812e-01
2.321396321058273315e-01 2.139823585748672485e-01 -3.651869297027587891e-01
4.051965475082397461e-01 -1.251604557037353516e-01 -4.566625952720642090e-01
4.122299849987030029e-01 -1.197628974914550781e-01 -4.577553570270538330e-01
4.135660231113433838e-01 -1.231798082590103149e-01 -4.476716220378875732e-01
4.205999672412872314e-01 -1.177380606532096863e-01 -4.488247036933898926e-01
1.603633910417556763e-02 -2.971020936965942383e-01 9.551645517349243164e-01
1.325688790529966354e-02 -2.817807793617248535e-01 9.588040709495544434e-01
3.362227231264114380e-02 -2.950749695301055908e-01 9.551631212234497070e-01
3.094441071152687073e-02 -2.791303694248199463e-01 9.581216573715209961e-01
-2.865357100963592529e-01 -1.112840771675109863e-01 7.554765343666076660e-01
-2.852784991264343262e-01 -1.000219583511352539e-01 7.547247409820556641e-01
-2.818453013896942139e-01 -1.131561771035194397e-01 7.697416543960571289e-01
-2.813373208045959473e-01 -1.011860147118568420e-01 7.687385678291320801e-01
1.864012777805328369e-01 2.297720462083816528e-01 -2.869541347026824951e-01
1.691656261682510376e-01 2.341985255479812622e-01 -2.859445214271545410e-01
1.957006305456161499e-01 2.199529111385345459e-01 -2.742985188961029053e-01
1.790788620710372925e-01 2.245994806289672852e-01 -2.733374536037445068e-01
1.398475170135498047e-01 -3.791041970252990723e-01 1.690912544727325439e-01
1.505399644374847412e-01 -3.650152087211608887e-01 1.685794889926910400e-01
1.487854123115539551e-01 -3.704916834831237793e-01 1.819070130586624146e-01
1.584468334913253784e-01 -3.568432629108428955e-01 1.820797026157379150e-01
-2.878997623920440674e-01 6.709405034780502319e-02 5.849399566650390625e-01
-2.858520448207855225e-01 8.525015413761138916e-02 5.859041810035705566e-01
-2.863500416278839111e-01 7.780563831329345703e-02 5.975636839866638184e-01
-2.847523391246795654e-01 9.549252688884735107e-02 5.990346670150756836e-01
-2.589110136032104492e-01 -1.465476006269454956e-01 1.353988423943519592e-02
-2.635987102985382080e-01 -1.322747915983200073e-01 1.594239845871925354e-02
-2.671889662742614746e-01 -1.445274055004119873e-01 3.008807450532913208e-02
-2.716466486454010010e-01 -1.296726614236831665e-01 3.191171586513519287e-02
-4.290640354156494141e-03 1.019208356738090515e-01 7.021235227584838867e-01
4.232787992805242538e-03 1.101711466908454895e-01 6.899620294570922852e-01
1.229133736342191696e-02 1.007254794239997864e-01 7.085303068161010742e-01
2.036375924944877625e-02 1.094870194792747498e-01 6.958677172660827637e-01
3.075880110263824463e-01 -1.230733022093772888e-01 5.648108124732971191e-01
3.080357611179351807e-01 -1.125580668449401855e-01 5.669101476669311523e-01
3.101340234279632568e-01 -1.192886456847190857e-01 5.778495669364929199e-01
3.103370070457458496e-01 -1.086299419403076172e-01 5.795230865478515625e-01
1.534783691167831421e-01 2.544156014919281006e-01 -3.386213183403015137e-01
1.347941309213638306e-01 2.584938406944274902e-01 -3.305018544197082520e-01
1.647412478923797607e-01 2.497577369213104248e-01 -3.256914913654327393e-01
1.470464617013931274e-01 2.538579702377319336e-01 -3.196336627006530762e-01
-2.540037035942077637e-01 -1.519592106342315674e-01 2.783837020397186279e-01
-2.531567811965942383e-01 -1.325015127658843994e-01 2.773950695991516113e-01
-2.530840039253234863e-01 -1.500755846500396729e-01 2.932735979557037354e-01
-2.521428763866424561e-01 -1.310447007417678833e-01 2.924893796443939209e-01
-1.477832496166229248e-01 -3.997935354709625244e-01 3.365615308284759521e-01
-1.587425023317337036e-01 -3.910694420337677002e-01 3.419207930564880371e-01
-1.403012126684188843e-01 -4.050572216510772705e-01 3.496439158916473389e-01
-1.519593298435211182e-01 -3.970449566841125488e-01 3.551732003688812256e-01
-2.705174125730991364e-02 5.340449512004852295e-02 7.872012853622436523e-01
-2.186096087098121643e-02 6.189254298806190491e-02 7.742474675178527832e-01
-1.038283109664916992e-02 4.678980633616447449e-02 7.916569709777832031e-01
-5.388667341321706772e-03 5.507163703441619873e-02 7.795456647872924805e-01
2.304431796073913574e-01 -5.957898497581481934e-02 -2.258396148681640625e-01
2.351195514202117920e-01 -4.700937122106552124e-02 -2.263681143522262573e-01
2.276657223701477051e-01 -5.192259326577186584e-02 -2.140606641769409180e-01
2.322510480880737305e-01 -3.968918696045875549e-02 -2.146282792091369629e-01
9.624678641557693481e-02 -4.379962384700775146e-01 3.697319626808166504e-01
1.056309193372726440e-01 -4.295293092727661133e-01 3.636600077152252197e-01
1.056969761848449707e-01 -4.343210160732269287e-01 3.786879777908325195e-01
1.151902377605438232e-01 -4.243079721927642822e-01 3.731917142868041992e-01
-5.135332792997360229e-02 -3.170201554894447327e-02 8.867762684822082520e-01
-4.440119490027427673e-02 -2.145367860794067383e-02 8.750064969062805176e-01
-3.329543024301528931e-02 -3.688716515898704529e-02 8.899544477462768555e-01
-2.528648823499679565e-02 -2.724811434745788574e-02 8.810310959815979004e-01
-1.472583413124084473e-01 -4.215753078460693359e-01 4.422201514244079590e-01
-1.603358685970306396e-01 -4.142396450042724609e-01 4.485973119735717773e-01
-1.389001160860061646e-01 -4.265285432338714600e-01 4.538924396038055420e-01
-1.523145735263824463e-01 -4.194298684597015381e-01 4.599498510360717773e-01
1.661669462919235229e-01 2.166199237108230591e-01 -4.920296072959899902e-01
1.563760489225387573e-01 2.248542159795761108e-01 -4.889342188835144043e-01
1.739206314086914062e-01 2.168346345424652100e-01 -4.832309484481811523e-01
1.639987826347351074e-01 2.250332832336425781e-01 -4.804645776748657227e-01
5.958603322505950928e-02 1.654893010854721069e-01 4.744904637336730957e-01
5.107272043824195862e-02 1.672380417585372925e-01 4.922572672367095947e-01
7.082448154687881470e-02 1.672200113534927368e-01 4.872561097145080566e-01
6.456112861633300781e-02 1.683729887008666992e-01 5.030508041381835938e-01
1.222834810614585876e-01 -4.260092377662658691e-01 3.590215444564819336e-01
1.328609138727188110e-01 -4.156086146831512451e-01 3.538193702697753906e-01
1.315093338489532471e-01 -4.204184114933013916e-01 3.696829080581665039e-01
1.414202451705932617e-01 -4.073152542114257812e-01 3.657281994819641113e-01
2.669689953327178955e-01 -2.535795569419860840e-01 4.808624386787414551e-01
2.719795703887939453e-01 -2.374972254037857056e-01 4.798763394355773926e-01
2.713897526264190674e-01 -2.500776052474975586e-01 4.992873966693878174e-01
2.764471769332885742e-01 -2.336321324110031128e-01 4.982970356941223145e-01
-2.576545476913452148e-01 -4.835405200719833374e-02 2.046190202236175537e-01
-2.548640668392181396e-01 -3.183724358677864075e-02 2.039474695920944214e-01
-2.524721324443817139e-01 -3.878077864646911621e-02 2.209931612014770508e-01
-2.501372396945953369e-01 -2.185764163732528687e-02 2.197564840316772461e-01
2.277317047119140625e-01 -2.517870068550109863e-01 2.193936109542846680e-01
2.339406907558441162e-01 -2.385544776916503906e-01 2.217208743095397949e-01
2.341472953557968140e-01 -2.421356588602066040e-01 2.324549704790115356e-01
2.399837672710418701e-01 -2.290631383657455444e-01 2.341807484626770020e-01
9.721934050321578979e-02 -4.451894164085388184e-01 4.063691794872283936e-01
1.072343215346336365e-01 -4.355256259441375732e-01 4.012225866317749023e-01
1.060995683073997498e-01 -4.404362440109252930e-01 4.169998168945312500e-01
1.176254004240036011e-01 -4.289391040802001953e-01 4.123312532901763916e-01
3.968071192502975464e-02 1.504769623279571533e-01 5.795076489448547363e-01
5.895707011222839355e-02 1.559604853391647339e-01 5.662238001823425293e-01
5.363235622644424438e-02 1.484823077917098999e-01 5.920487046241760254e-01
6.853273510932922363e-02 1.551207751035690308e-01 5.806943774223327637e-01
-8.055000007152557373e-02 -4.115779697895050049e-01 1.685635447502136230e-01
-1.009723320603370667e-01 -4.047674834728240967e-01 1.709115952253341675e-01
-6.442765146493911743e-02 -4.169253110885620117e-01 1.769142597913742065e-01
-8.428943902254104614e-02 -4.115146696567535400e-01 1.800753623247146606e-01
2.176791876554489136e-01 -2.109723687171936035e-01 -2.777148038148880005e-02
2.218878269195556641e-01 -1.971731930971145630e-01 -2.913634479045867920e-02
2.234008163213729858e-01 -2.086544930934906006e-01 -1.339388638734817505e-02
2.277075648307800293e-01 -1.954607665538787842e-01 -1.449235528707504272e-02
2.484476268291473389e-01 -2.052046507596969604e-01 4.156498312950134277e-01
2.520066201686859131e-01 -1.886049360036849976e-01 4.100092947483062744e-01
2.519143223762512207e-01 -2.015736252069473267e-01 4.284568727016448975e-01
2.540033757686614990e-01 -1.845740675926208496e-01 4.219040870666503906e-01
-2.575274705886840820e-01 5.636306479573249817e-02 5.015653967857360840e-01
-2.653603255748748779e-01 6.781254708766937256e-02 5.065856575965881348e-01
-2.667706012725830078e-01 5.619732290506362915e-02 5.124761462211608887e-01
-2.718420624732971191e-01 6.827231496572494507e-02 5.172545313835144043e-01
1.623512059450149536e-01 1.732489466667175293e-01 4.031384289264678955e-01
1.576031446456909180e-01 1.862381547689437866e-01 4.062555432319641113e-01
1.750987321138381958e-01 1.788762211799621582e-01 4.045707285404205322e-01
1.720477938652038574e-01 1.925643533468246460e-01 4.042375981807708740e-01
-4.320777021348476410e-03 -4.706324934959411621e-01 4.423408210277557373e-01
1.037041097879409790e-02 -4.679208099842071533e-01 4.358212053775787354e-01
7.284979335963726044e-03 -4.709525406360626221e-01 4.554196894168853760e-01
2.475835010409355164e-02 -4.669965505599975586e-01 4.482639431953430176e-01
-1.975928097963333130e-01 -3.926261961460113525e-01 5.671700835227966309e-01
-2.080204039812088013e-01 -3.830847144126892090e-01 5.721820592880249023e-01
-1.911741197109222412e-01 -3.963407278060913086e-01 5.792858600616455078e-01
-2.010648548603057861e-01 -3.874613642692565918e-01 5.849855542182922363e-01
9.443265944719314575e-02 -4.169941246509552002e-01 2.377261519432067871e-01
1.026381030678749084e-01 -4.073652029037475586e-01 2.313774973154067993e-01
1.014180779457092285e-01 -4.143527150154113770e-01 2.482105642557144165e-01
1.093058586120605469e-01 -4.045083820819854736e-01 2.425889819860458374e-01
-2.020796537399291992e-01 -3.410685360431671143e-01 3.832820653915405273e-01
-2.068470865488052368e-01 -3.252458572387695312e-01 3.860699236392974854e-01
-2.014658898115158081e-01 -3.412654101848602295e-01 3.969571292400360107e-01
-2.064246535301208496e-01 -3.253129720687866211e-01 4.003416597843170166e-01
2.282521724700927734e-01 -3.534500896930694580e-01 6.505216956138610840e-01
2.364824414253234863e-01 -3.422639369964599609e-01 6.489120721817016602e-01
2.334414422512054443e-01 -3.461970388889312744e-01 6.609194874763488770e-01
2.415709048509597778e-01 -3.352491557598114014e-01 6.588050127029418945e-01
1.665852516889572144e-01 -2.637520432472229004e-01 8.945277333259582520e-01
1.779321134090423584e-01 -2.478954046964645386e-01 8.935451507568359375e-01
1.614008247852325439e-01 -2.499444037675857544e-01 9.041862487792968750e-01
1.720653474330902100e-01 -2.347079217433929443e-01 9.032713174819946289e-01
-3.007432222366333008e-01 -1.287979334592819214e-01 5.390408039093017578e-01
-2.981147766113281250e-01 -1.137058362364768982e-01 5.392087101936340332e-01
-3.047342002391815186e-01 -1.253790110349655151e-01 5.525237321853637695e-01
-3.020763993263244629e-01 -1.102808415889739990e-01 5.525061488151550293e-01
9.115454554557800293e-02 -3.794581890106201172e-01 1.201445423066616058e-02
1.019251346588134766e-01 -3.688693344593048096e-01 9.374306537210941315e-03
1.009588316082954407e-01 -3.748977780342102051e-01 2.430668845772743225e-02
1.113753095269203186e-01 -3.624140620231628418e-01 2.063924632966518402e-02
2.544866502285003662e-01 -1.460213959217071533e-01 3.960728049278259277e-01
2.549515664577484131e-01 -1.320267319679260254e-01 3.999919295310974121e-01
2.543536424636840820e-01 -1.400195062160491943e-01 4.138041436672210693e-01
2.548585534095764160e-01 -1.258498579263687134e-01 4.156088531017303467e-01
1.179673671722412109e-01 2.094835937023162842e-01 -1.782228648662567139e-01
9.593842178583145142e-02 2.112329453229904175e-01 -1.713431924581527710e-01
1.256249397993087769e-01 2.028426975011825562e-01 -1.630867570638656616e-01
1.082837879657745361e-01 2.075251042842864990e-01 -1.580281257629394531e-01
-2.570496201515197754e-01 1.400867700576782227e-01 1.278519630432128906e-01
-2.518649399280548096e-01 1.561863273382186890e-01 1.279484182596206665e-01
-2.456896603107452393e-01 1.453626155853271484e-01 1.404010057449340820e-01
-2.405582815408706665e-01 1.613356322050094604e-01 1.399438232183456421e-01
-2.797431312501430511e-02 3.816520422697067261e-02 8.069266080856323242e-01
-2.184243872761726379e-02 4.691435396671295166e-02 7.938538193702697754e-01
-1.119144912809133530e-02 3.326425328850746155e-02 8.098322153091430664e-01
-5.561687983572483063e-03 4.139363765716552734e-02 7.986182570457458496e-01
1.948816478252410889e-01 6.928344070911407471e-02 3.408103287220001221e-01
1.865200400352478027e-01 8.316205441951751709e-02 3.448064327239990234e-01
1.974809169769287109e-01 6.415827572345733643e-02 3.551554381847381592e-01
1.888141334056854248e-01 7.784917205572128296e-02 3.596984148025512695e-01
-2.833370566368103027e-01 -7.017686963081359863e-02 5.094269514083862305e-01
-2.780655026435852051e-01 -5.517484992742538452e-02 5.099995136260986328e-01
-2.883999943733215332e-01 -6.369256228208541870e-02 5.249087810516357422e-01
-2.827140986919403076e-01 -4.899927601218223572e-02 5.249514579772949219e-01
2.420768141746520996e-01 -2.350348830223083496e-01 4.106139838695526123e-01
2.456920892000198364e-01 -2.184768617153167725e-01 4.058291614055633545e-01
2.435525804758071899e-01 -2.314449548721313477e-01 4.238880872726440430e-01
2.470966577529907227e-01 -2.147282510995864868e-01 4.185354411602020264e-01
2.196899056434631348e-01 4.989635571837425232e-02 2.577523589134216309e-01
2.148815542459487915e-01 5.982114374637603760e-02 2.612712085247039795e-01
2.165260314941406250e-01 4.857321083545684814e-02 2.703924179077148438e-01
2.117868065834045410e-01 5.836392566561698914e-02 2.739827632904052734e-01
-1.323097795248031616e-01 -2.921965122222900391e-01 9.106991291046142578e-01
-1.358979344367980957e-01 -2.767283022403717041e-01 9.123476743698120117e-01
-1.214717105031013489e-01 -2.920697033405303955e-01 9.161875247955322266e-01
-1.235807389020919800e-01 -2.765415310859680176e-01 9.184589385986328125e-01
-2.589948661625385284e-02 1.746782511472702026e-01 4.803516268730163574e-01
-4.479986056685447693e-02 1.725067347288131714e-01 4.973759055137634277e-01
-1.435751281678676605e-02 1.741530895233154297e-01 4.939666986465454102e-01
-3.286779671907424927e-02 1.715123802423477173e-01 5.107449889183044434e-01
-9.166961535811424255e-03 2.678321897983551025e-01 -3.313055336475372314e-01
-1.972514204680919647e-02 2.657066285610198975e-01 -3.191626369953155518e-01
1.914113527163863182e-03 2.685575485229492188e-01 -3.195270597934722900e-01
-1.046653650701045990e-02 2.657500207424163818e-01 -3.064154088497161865e-01
-1.928903311491012573e-01 8.975784480571746826e-02 2.782590091228485107e-01
-1.862622350454330444e-01 1.032304912805557251e-01 2.715720534324645996e-01
-1.840330958366394043e-01 9.375943243503570557e-02 2.940930724143981934e-01
-1.773639470338821411e-01 1.069815456867218018e-01 2.872406244277954102e-01
-1.823969036340713501e-01 1.572512239217758179e-01 4.059765934944152832e-01
-1.789418458938598633e-01 1.727040559053421021e-01 3.990932404994964600e-01
-1.686099320650100708e-01 1.617541909217834473e-01 4.113861024379730225e-01
-1.647701859474182129e-01 1.756702512502670288e-01 4.062885940074920654e-01
1.791482120752334595e-01 -3.036249279975891113e-01 1.344115287065505981e-02
1.857565194368362427e-01 -2.924556136131286621e-01 9.819117374718189240e-03
1.848278343677520752e-01 -2.999695539474487305e-01 2.410008944571018219e-02
1.921752691268920898e-01 -2.878515720367431641e-01 2.061779052019119263e-02
1.139154657721519470e-01 -3.344329297542572021e-01 -5.751444771885871887e-02
1.189204454421997070e-01 -3.237905502319335938e-01 -6.192281469702720642e-02
1.206197738647460938e-01 -3.321576118469238281e-01 -4.723698273301124573e-02
1.256560981273651123e-01 -3.217597305774688721e-01 -5.149387940764427185e-02
-1.023869737982749939e-01 -4.524705111980438232e-01 6.075563430786132812e-01
-1.173017323017120361e-01 -4.464614093303680420e-01 6.131181716918945312e-01
-9.092877805233001709e-02 -4.574053585529327393e-01 6.183434128761291504e-01
-1.055358573794364929e-01 -4.517699778079986572e-01 6.247323751449584961e-01
-7.072839140892028809e-02 2.060103565454483032e-01 -1.086282283067703247e-01
-6.153349205851554871e-02 2.153566181659698486e-01 -1.175350323319435120e-01
-6.433039903640747070e-02 2.087963670492172241e-01 -9.513272345066070557e-02
-5.430374294519424438e-02 2.175670713186264038e-01 -1.042286604642868042e-01
-8.117767423391342163e-02 -4.059085249900817871e-01 1.255567222833633423e-01
-1.016915738582611084e-01 -3.976626098155975342e-01 1.287729144096374512e-01
-6.443086266517639160e-02 -4.121073782444000244e-01 1.368120014667510986e-01
-8.391013741493225098e-02 -4.050479233264923096e-01 1.398644149303436279e-01
-1.493891049176454544e-02 -1.445767097175121307e-02 -5.145527124404907227e-01
-1.137023326009511948e-02 -6.895102560520172119e-04 -5.153524279594421387e-01
5.790370050817728043e-04 -1.547567453235387802e-02 -5.149204730987548828e-01
4.476852249354124069e-03 -1.393968705087900162e-03 -5.160129666328430176e-01
2.432892620563507080e-01 -2.253196686506271362e-01 4.032244682312011719e-01
2.468187063932418823e-01 -2.087442725896835327e-01 3.985683023929595947e-01
2.455575317144393921e-01 -2.200357913970947266e-01 4.163908958435058594e-01
2.487509250640869141e-01 -2.035614103078842163e-01 4.112032055854797363e-01
7.740695029497146606e-02 1.986410468816757202e-01 -5.908123031258583069e-02
6.639567017555236816e-02 2.011420130729675293e-01 -5.208788812160491943e-02
8.915080875158309937e-02 1.933880597352981567e-01 -5.055230483412742615e-02
7.930421084165573120e-02 1.966903209686279297e-01 -4.353239759802818298e-02
-2.884601354598999023e-01 -2.185312807559967041e-01 7.183553576469421387e-01
-2.896338701248168945e-01 -2.024906575679779053e-01 7.218635678291320801e-01
-2.861874699592590332e-01 -2.192396968603134155e-01 7.302038073539733887e-01
-2.868053019046783447e-01 -2.016739398241043091e-01 7.352740764617919922e-01
9.018252789974212646e-02 2.262746691703796387e-01 -1.916919201612472534e-01
6.818437576293945312e-02 2.259377241134643555e-01 -1.843306571245193481e-01
1.031494885683059692e-01 2.206895202398300171e-01 -1.790252476930618286e-01
7.970348000526428223e-02 2.209845185279846191e-01 -1.713476926088333130e-01
-3.483518958091735840e-01 -1.085220873355865479e-01 -4.661743342876434326e-01
-3.575240969657897949e-01 -1.070196330547332764e-01 -4.498911201953887939e-01
-3.404137790203094482e-01 -1.021894216537475586e-01 -4.534912705421447754e-01
-3.418967723846435547e-01 -1.009606420993804932e-01 -4.421251714229583740e-01
-3.064127862453460693e-01 -1.074444055557250977e-01 5.656563639640808105e-01
-3.038222491741180420e-01 -9.195373952388763428e-02 5.638818144798278809e-01
-3.081992864608764648e-01 -1.053906306624412537e-01 5.809687376022338867e-01
-3.057284653186798096e-01 -8.953658491373062134e-02 5.783481597900390625e-01
1.879199147224426270e-01 -1.521571874618530273e-01 -2.493514418601989746e-01
1.963819265365600586e-01 -1.406029909849166870e-01 -2.494732439517974854e-01
1.897995024919509888e-01 -1.462234705686569214e-01 -2.352864742279052734e-01
1.977917402982711792e-01 -1.346005350351333618e-01 -2.354800552129745483e-01
2.862311601638793945e-01 -1.580571979284286499e-01 -3.484608232975006104e-01
2.810450792312622070e-01 -1.533503830432891846e-01 -3.348300457000732422e-01
2.981449961662292480e-01 -1.463208943605422974e-01 -3.428264260292053223e-01
2.938136756420135498e-01 -1.413038522005081177e-01 -3.306069970130920410e-01
2.298001497983932495e-01 -2.449572682380676270e-01 1.875055581331253052e-01
2.376227378845214844e-01 -2.309603840112686157e-01 1.898629069328308105e-01
2.363458871841430664e-01 -2.352900058031082153e-01 2.017867714166641235e-01
2.436750680208206177e-01 -2.217151075601577759e-01 2.043796479701995850e-01
2.785687148571014404e-01 6.363412365317344666e-03 6.158970296382904053e-02
2.826774716377258301e-01 2.358421310782432556e-02 5.834521353244781494e-02
2.798193693161010742e-01 4.214758984744548798e-03 7.505803555250167847e-02
2.838387191295623779e-01 2.130700275301933289e-02 7.234475761651992798e-02
7.005726546049118042e-02 2.551378011703491211e-01 -5.284301638603210449e-01
5.869917571544647217e-02 2.632884681224822998e-01 -5.202438235282897949e-01
8.116894960403442383e-02 2.553280591964721680e-01 -5.177352428436279297e-01
6.889127939939498901e-02 2.630000710487365723e-01 -5.099226236343383789e-01
-3.048037886619567871e-01 -7.299884408712387085e-02 6.721042990684509277e-01
-3.020427525043487549e-01 -5.919625610113143921e-02 6.735819578170776367e-01
-3.016598224639892578e-01 -7.167457044124603271e-02 6.868165731430053711e-01
-2.976054549217224121e-01 -5.820697173476219177e-02 6.879754066467285156e-01
-2.205686867237091064e-01 -1.298360824584960938e-01 8.664299249649047852e-01
-2.211317569017410278e-01 -1.119591072201728821e-01 8.620388507843017578e-01
-2.079246491193771362e-01 -1.264750212430953979e-01 8.779806494712829590e-01
-2.085810601711273193e-01 -1.081003993749618530e-01 8.734650611877441406e-01
1.848737597465515137e-01 1.031318232417106628e-01 2.559688985347747803e-01
1.743600666522979736e-01 1.112322136759757996e-01 2.610291540622711182e-01
1.906775385141372681e-01 9.976956993341445923e-02 2.684707343578338623e-01
1.818507015705108643e-01 1.086456254124641418e-01 2.727802991867065430e-01
1.951354444026947021e-01 2.208203971385955811e-01 -4.559329450130462646e-01
1.854604780673980713e-01 2.302283495664596558e-01 -4.527004659175872803e-01
2.032090425491333008e-01 2.211101204156875610e-01 -4.456088542938232422e-01
1.940811574459075928e-01 2.303641140460968018e-01 -4.418932497501373291e-01
7.029889523983001709e-02 1.945208162069320679e-01 7.562486082315444946e-02
5.797294527292251587e-02 1.942738443613052368e-01 8.663818985223770142e-02
8.162265270948410034e-02 1.955875456333160400e-01 8.528526872396469116e-02
6.882946193218231201e-02 1.952660977840423584e-01 9.592656791210174561e-02
-2.487673014402389526e-01 6.428940594196319580e-02 1.798497587442398071e-01
-2.438526600599288940e-01 7.882229983806610107e-02 1.795294433832168579e-01
-2.390444278717041016e-01 7.457627356052398682e-02 1.908075362443923950e-01
-2.335334420204162598e-01 8.906354010105133057e-02 1.900489330291748047e-01
-2.233395725488662720e-01 9.583409875631332397e-03 7.868146300315856934e-01
-2.137773334980010986e-01 2.212814986705780029e-02 7.860175371170043945e-01
-2.098592966794967651e-01 1.503171119838953018e-02 8.004463315010070801e-01
-2.013867497444152832e-01 2.649171650409698486e-02 7.973745465278625488e-01
-1.365700066089630127e-01 1.772651821374893188e-01 -1.441008150577545166e-01
-1.294185370206832886e-01 1.881402432918548584e-01 -1.477496773004531860e-01
-1.267827749252319336e-01 1.845613121986389160e-01 -1.360446363687515259e-01
-1.199320256710052490e-01 1.957490444183349609e-01 -1.393355876207351685e-01
2.677201330661773682e-01 -7.715015858411788940e-02 2.441378682851791382e-02
2.694971561431884766e-01 -6.333201378583908081e-02 2.332227490842342377e-02
2.739866077899932861e-01 -7.567791640758514404e-02 3.729451447725296021e-02
2.759788334369659424e-01 -6.056964397430419922e-02 3.540737554430961609e-02
1.516525447368621826e-01 1.762841194868087769e-01 6.291160583496093750e-01
1.592351347208023071e-01 1.858629435300827026e-01 6.236066222190856934e-01
1.635896712541580200e-01 1.768414527177810669e-01 6.393859386444091797e-01
1.710574030876159668e-01 1.862200200557708740e-01 6.338942646980285645e-01
-2.589107751846313477e-01 -1.523294895887374878e-01 -3.254055380821228027e-01
-2.663327753543853760e-01 -1.422210335731506348e-01 -3.162350058555603027e-01
-2.478177845478057861e-01 -1.507312059402465820e-01 -3.193376064300537109e-01
-2.552693784236907959e-01 -1.409018784761428833e-01 -3.107542395591735840e-01
2.549436092376708984e-01 -1.490051448345184326e-01 2.736077010631561279e-01
2.552231550216674805e-01 -1.361717581748962402e-01 2.763716876506805420e-01
2.538677155971527100e-01 -1.470862776041030884e-01 2.868066728115081787e-01
2.544602751731872559e-01 -1.352603286504745483e-01 2.901613414287567139e-01
-2.940912842750549316e-01 -1.248501427471637726e-02 -3.136807978153228760e-01
-2.858324944972991943e-01 2.014715224504470825e-03 -3.186491727828979492e-01
-2.879905998706817627e-01 -9.045531041920185089e-03 -3.030392825603485107e-01
-2.805826365947723389e-01 5.254371091723442078e-03 -3.077199161052703857e-01
1.390958726406097412e-01 -2.856076359748840332e-01 -1.049231216311454773e-01
1.463452726602554321e-01 -2.726730704307556152e-01 -1.097611039876937866e-01
1.444618701934814453e-01 -2.821697294712066650e-01 -9.303965419530868530e-02
1.517724394798278809e-01 -2.692462801933288574e-01 -9.707685559988021851e-02
-1.853140592575073242e-01 -1.443564742803573608e-01 -1.382784098386764526e-01
-1.876929998397827148e-01 -1.294389814138412476e-01 -1.349902004003524780e-01
-1.891976147890090942e-01 -1.397090107202529907e-01 -1.245144456624984741e-01
-1.917825937271118164e-01 -1.253093034029006958e-01 -1.204280406236648560e-01
-4.315292090177536011e-02 -3.982159495353698730e-01 1.059528812766075134e-02
-5.780605971813201904e-02 -3.978050947189331055e-01 1.952989771962165833e-02
-3.170343860983848572e-02 -4.023104608058929443e-01 2.225377410650253296e-02
-4.542689770460128784e-02 -4.020619392395019531e-01 3.072420135140419006e-02
-2.907780706882476807e-01 1.285772323608398438e-01 4.882166385650634766e-01
-2.932925820350646973e-01 1.430686414241790771e-01 4.901879727840423584e-01
-2.949649989604949951e-01 1.302864998579025269e-01 5.027766823768615723e-01
-2.962053418159484863e-01 1.457686871290206909e-01 5.042603015899658203e-01
1.128276959061622620e-01 9.394558519124984741e-02 -4.938068389892578125e-01
1.165844649076461792e-01 1.101073399186134338e-01 -5.034962892532348633e-01
1.286715269088745117e-01 9.481615573167800903e-02 -4.869582653045654297e-01
1.323309093713760376e-01 1.102002337574958801e-01 -4.965912401676177979e-01
2.809722125530242920e-01 2.111108228564262390e-02 5.689948201179504395e-01
2.840906679630279541e-01 3.880237787961959839e-02 5.680067539215087891e-01
2.820045948028564453e-01 2.272328734397888184e-02 5.831099152565002441e-01
2.842873632907867432e-01 4.012715443968772888e-02 5.841370224952697754e-01
4.245271086692810059e-01 -1.415795236825942993e-01 -3.566185832023620605e-01
4.224908053874969482e-01 -1.311273425817489624e-01 -3.512797653675079346e-01
4.238758981227874756e-01 -1.406492888927459717e-01 -3.449887633323669434e-01
4.219754338264465332e-01 -1.303933262825012207e-01 -3.395941257476806641e-01
-2.109212428331375122e-01 -3.134885132312774658e-01 3.181699812412261963e-01
-2.139281332492828369e-01 -2.969864904880523682e-01 3.187332451343536377e-01
-2.103072255849838257e-01 -3.116323649883270264e-01 3.315519392490386963e-01
-2.131415456533432007e-01 -2.941140830516815186e-01 3.314193487167358398e-01
2.299100458621978760e-01 -2.345083504915237427e-01 2.400231547653675079e-02
2.368548959493637085e-01 -2.207780182361602783e-01 1.851668208837509155e-02
2.345266789197921753e-01 -2.327852845191955566e-01 3.694733977317810059e-02
2.417433261871337891e-01 -2.189430892467498779e-01 3.146421909332275391e-02
2.952473163604736328e-01 -2.571010589599609375e-02 5.967980623245239258e-01
2.943485379219055176e-01 -1.004948653280735016e-02 5.965107083320617676e-01
2.964070141315460205e-01 -2.231538109481334686e-02 6.124962568283081055e-01
2.958256006240844727e-01 -6.503969430923461914e-03 6.128364801406860352e-01
2.480016350746154785e-01 -3.168082833290100098e-01 5.153017044067382812e-01
2.575091421604156494e-01 -3.021248877048492432e-01 5.144219398498535156e-01
2.518349587917327881e-01 -3.124408721923828125e-01 5.294286608695983887e-01
2.609546482563018799e-01 -2.983013987541198730e-01 5.288866162300109863e-01
1.996223628520965576e-01 5.549342557787895203e-02 -1.215096414089202881e-01
1.991408765316009521e-01 6.447029113769531250e-02 -1.201970353722572327e-01
1.956853717565536499e-01 5.846411362290382385e-02 -1.135211363434791565e-01
1.950178444385528564e-01 6.708984076976776123e-02 -1.117368191480636597e-01
-2.092824578285217285e-01 1.605144441127777100e-01 3.962100446224212646e-01
-2.069404870271682739e-01 1.763843297958374023e-01 3.862933516502380371e-01
-1.968670189380645752e-01 1.596010327339172363e-01 4.009261727333068848e-01
-1.934326440095901489e-01 1.745246946811676025e-01 3.928323686122894287e-01
-1.776899993419647217e-01 -5.438550189137458801e-02 -4.564992487430572510e-01
-1.819536685943603516e-01 -3.983745723962783813e-02 -4.550597369670867920e-01
-1.835273504257202148e-01 -5.729490146040916443e-02 -4.471437335014343262e-01
-1.878349930047988892e-01 -4.295011982321739197e-02 -4.452606737613677979e-01
2.561207413673400879e-01 3.129095584154129028e-02 9.852065704762935638e-05
2.593469619750976562e-01 4.557869583368301392e-02 -6.906534545123577118e-04
2.670241594314575195e-01 3.281855210661888123e-02 1.250319182872772217e-02
2.709895968437194824e-01 4.730614274740219116e-02 1.068811584264039993e-02
9.075140953063964844e-02 1.516624987125396729e-01 -5.711293816566467285e-01
9.512199461460113525e-02 1.670281887054443359e-01 -5.734521746635437012e-01
9.999964386224746704e-02 1.544575691223144531e-01 -5.590284466743469238e-01
1.038292497396469116e-01 1.699765771627426147e-01 -5.601895451545715332e-01
1.699217557907104492e-01 -2.652471363544464111e-01 -6.868300586938858032e-02
1.745881587266921997e-01 -2.524791061878204346e-01 -7.099550962448120117e-02
1.782725602388381958e-01 -2.561937272548675537e-01 -5.709384381771087646e-02
1.827935576438903809e-01 -2.433189302682876587e-01 -5.993582308292388916e-02
1.717031747102737427e-01 -3.309431076049804688e-01 1.237057745456695557e-01
1.812203526496887207e-01 -3.164842724800109863e-01 1.235138475894927979e-01
1.774097234010696411e-01 -3.240303099155426025e-01 1.391866207122802734e-01
1.862950026988983154e-01 -3.103380501270294189e-01 1.400016397237777710e-01
1.903698965907096863e-02 -4.715015590190887451e-01 4.563708007335662842e-01
3.621587529778480530e-02 -4.674146473407745361e-01 4.493259191513061523e-01
3.280268609523773193e-02 -4.693360924720764160e-01 4.686324000358581543e-01
4.951354488730430603e-02 -4.653063416481018066e-01 4.612086117267608643e-01
2.586850523948669434e-01 -1.274239122867584229e-01 2.370209544897079468e-01
2.590345442295074463e-01 -1.124136298894882202e-01 2.393626421689987183e-01
2.550232410430908203e-01 -1.225563734769821167e-01 2.552751302719116211e-01
2.557541131973266602e-01 -1.075753495097160339e-01 2.555103600025177002e-01
2.442000955343246460e-01 -4.722313955426216125e-02 -3.862458467483520508e-01
2.431620806455612183e-01 -3.111696988344192505e-02 -3.859475553035736084e-01
2.551712095737457275e-01 -4.298578947782516479e-02 -3.779122531414031982e-01
2.548545002937316895e-01 -2.715944126248359680e-02 -3.779968619346618652e-01
-3.905329480767250061e-02 1.657575368881225586e-01 5.511480569839477539e-01
-4.465357586741447449e-02 1.691499054431915283e-01 5.464895963668823242e-01
-3.145716711878776550e-02 1.646823137998580933e-01 5.668147802352905273e-01
-2.229370176792144775e-02 1.661940515041351318e-01 5.539602041244506836e-01
-1.251887381076812744e-01 -1.919315904378890991e-01 -3.507852852344512939e-01
-1.420990228652954102e-01 -1.901783049106597900e-01 -3.466377854347229004e-01
-1.130446493625640869e-01 -1.981608420610427856e-01 -3.421565592288970947e-01
-1.294888705015182495e-01 -1.952421814203262329e-01 -3.374444246292114258e-01
-2.994116246700286865e-01 -5.309988185763359070e-02 6.734480261802673340e-01
-2.963985502719879150e-01 -3.936670720577239990e-02 6.745885610580444336e-01
-2.964275777339935303e-01 -5.220828205347061157e-02 6.875564455986022949e-01
-2.935118675231933594e-01 -3.841801732778549194e-02 6.889517307281494141e-01
2.261817753314971924e-01 -7.634625770151615143e-03 -2.490776591002941132e-02
2.263393700122833252e-01 6.944616325199604034e-03 -2.432023175060749054e-02
2.360446304082870483e-01 -3.893614280968904495e-03 -1.537798531353473663e-02
2.369070649147033691e-01 1.053721085190773010e-02 -1.511893700808286667e-02
9.116946905851364136e-02 1.927508860826492310e-01 -7.863587699830532074e-03
8.904322981834411621e-02 1.931803077459335327e-01 1.320049166679382324e-03
9.843985736370086670e-02 1.975444108247756958e-01 6.498318165540695190e-03
1.024730578064918518e-01 1.990495026111602783e-01 1.213819999247789383e-02
1.910649240016937256e-01 1.190662756562232971e-01 -4.806490838527679443e-01
1.970342099666595459e-01 1.361172795295715332e-01 -4.848504364490509033e-01
2.021523714065551758e-01 1.222446113824844360e-01 -4.714650511741638184e-01
2.074039578437805176e-01 1.396173685789108276e-01 -4.749242961406707764e-01
-1.334302723407745361e-01 -3.167473077774047852e-01 -5.846254527568817139e-02
-1.474526226520538330e-01 -3.068342804908752441e-01 -5.518896132707595825e-02
-1.286967098712921143e-01 -3.244474828243255615e-01 -4.671134054660797119e-02
-1.424358785152435303e-01 -3.143660426139831543e-01 -4.354211688041687012e-02
2.711665444076061249e-02 -1.505514830350875854e-01 -4.686158001422882080e-01
3.493780270218849182e-02 -1.405520737171173096e-01 -4.763545393943786621e-01
4.119185358285903931e-02 -1.497997194528579712e-01 -4.626957774162292480e-01
4.787397757172584534e-02 -1.391946375370025635e-01 -4.711207747459411621e-01
-1.708924919366836548e-01 -4.066595733165740967e-01 6.602517962455749512e-01
-1.847751289606094360e-01 -3.943407833576202393e-01 6.640923023223876953e-01
-1.602273881435394287e-01 -4.095506966114044189e-01 6.698182821273803711e-01
-1.745818108320236206e-01 -3.982824683189392090e-01 6.731889843940734863e-01
2.045038789510726929e-01 5.433369427919387817e-02 -1.406161636114120483e-01
2.043531090021133423e-01 6.432754546403884888e-02 -1.399961411952972412e-01
2.011488974094390869e-01 5.657096207141876221e-02 -1.327809542417526245e-01
2.009692192077636719e-01 6.628550589084625244e-02 -1.322344839572906494e-01
7.821330800652503967e-03 -4.513945579528808594e-01 3.499489128589630127e-01
1.806905493140220642e-02 -4.473655819892883301e-01 3.402411341667175293e-01
1.747656241059303284e-02 -4.514535367488861084e-01 3.586030900478363037e-01
2.782049402594566345e-02 -4.471915364265441895e-01 3.495335280895233154e-01
2.280396968126296997e-01 1.209473889321088791e-02 3.209258317947387695e-01
2.241541594266891479e-01 2.807789295911788940e-02 3.194057047367095947e-01
2.254854738712310791e-01 1.355769019573926926e-02 3.359075784683227539e-01
2.215472906827926636e-01 2.973339706659317017e-02 3.344836831092834473e-01
-3.485739976167678833e-02 -3.354716598987579346e-01 9.316624999046325684e-01
-3.911163285374641418e-02 -3.243572413921356201e-01 9.382854104042053223e-01
-2.112510055303573608e-02 -3.326302468776702881e-01 9.327826499938964844e-01
-2.428100630640983582e-02 -3.207919001579284668e-01 9.399737715721130371e-01
-9.785681962966918945e-02 2.609373629093170166e-01 -4.175960123538970947e-01
-7.975280284881591797e-02 2.639461159706115723e-01 -4.226713776588439941e-01
-8.701383322477340698e-02 2.649004161357879639e-01 -4.051555991172790527e-01
-6.927801668643951416e-02 2.673552334308624268e-01 -4.097729623317718506e-01
-9.902632236480712891e-02 2.630971670150756836e-01 -3.755504190921783447e-01
-8.335770666599273682e-02 2.655978202819824219e-01 -3.797493278980255127e-01
-8.598254621028900146e-02 2.669419050216674805e-01 -3.631549179553985596e-01
-6.859045475721359253e-02 2.696377038955688477e-01 -3.680669963359832764e-01
3.195814415812492371e-02 -1.586011797189712524e-02 -5.166661143302917480e-01
3.529436513781547546e-02 -1.387707190588116646e-03 -5.180863738059997559e-01
4.933121427893638611e-02 -1.874458417296409607e-02 -5.155180692672729492e-01
5.234291031956672668e-02 -3.359721973538398743e-03 -5.167940855026245117e-01
-2.791205942630767822e-01 -1.630640774965286255e-01 -4.525758326053619385e-01
-2.935523092746734619e-01 -1.660008430480957031e-01 -4.400496780872344971e-01
-2.683279514312744141e-01 -1.644157916307449341e-01 -4.448696374893188477e-01
-2.829325497150421143e-01 -1.673886179924011230e-01 -4.323193728923797607e-01
1.245095729827880859e-01 -2.736574709415435791e-01 9.175802469253540039e-01
1.355685889720916748e-01 -2.564185559749603271e-01 9.184190034866333008e-01
1.318192631006240845e-01 -2.580152451992034912e-01 9.230911731719970703e-01
1.413785666227340698e-01 -2.399532496929168701e-01 9.246684312820434570e-01
2.157725095748901367e-01 -1.607423424720764160e-01 -4.477266371250152588e-01
2.228559553623199463e-01 -1.546529978513717651e-01 -4.577768146991729736e-01
2.273677140474319458e-01 -1.645273715257644653e-01 -4.461879134178161621e-01
2.354834526777267456e-01 -1.595322638750076294e-01 -4.559836685657501221e-01
2.992566525936126709e-01 -2.330071330070495605e-01 6.266657114028930664e-01
3.020497858524322510e-01 -2.200514525175094604e-01 6.248213052749633789e-01
2.998840510845184326e-01 -2.286694496870040894e-01 6.384294629096984863e-01
3.028375506401062012e-01 -2.166780084371566772e-01 6.370446085929870605e-01
-1.933006942272186279e-02 1.826282590627670288e-01 -6.171213388442993164e-01
-1.899692416191101074e-02 1.958137154579162598e-01 -6.149634122848510742e-01
-2.868016716092824936e-03 1.845347881317138672e-01 -6.175577044486999512e-01
-2.436025999486446381e-03 1.970232576131820679e-01 -6.157738566398620605e-01
-3.085922896862030029e-01 -1.891640871763229370e-01 6.099019050598144531e-01
-3.103826344013214111e-01 -1.769694983959197998e-01 6.146483421325683594e-01
-3.078751564025878906e-01 -1.870497912168502808e-01 6.254387497901916504e-01
-3.094812929630279541e-01 -1.756678074598312378e-01 6.303851604461669922e-01
2.097967118024826050e-01 6.641387939453125000e-02 2.613532543182373047e-01
2.046806514263153076e-01 7.726898044347763062e-02 2.646605670452117920e-01
2.079939097166061401e-01 6.447709351778030396e-02 2.759949564933776855e-01
2.029381096363067627e-01 7.610682398080825806e-02 2.780278921127319336e-01
7.022475451231002808e-02 1.884737014770507812e-01 1.759165078401565552e-01
5.385041236877441406e-02 1.904955059289932251e-01 1.835364848375320435e-01
8.226124942302703857e-02 1.829697042703628540e-01 1.878186911344528198e-01
6.631108373403549194e-02 1.866934597492218018e-01 1.959773898124694824e-01
1.574428975582122803e-01 2.260160297155380249e-01 -2.464278638362884521e-01
1.416896730661392212e-01 2.291579246520996094e-01 -2.416207790374755859e-01
1.668192893266677856e-01 2.168941050767898560e-01 -2.331758141517639160e-01
1.513131856918334961e-01 2.202544212341308594e-01 -2.286203354597091675e-01
-1.526190061122179031e-02 -4.800112247467041016e-01 6.326297521591186523e-01
-2.399152331054210663e-02 -4.782721102237701416e-01 6.444230675697326660e-01
-3.942371811717748642e-03 -4.783855676651000977e-01 6.419538259506225586e-01
-1.256141252815723419e-02 -4.768500626087188721e-01 6.534034609794616699e-01
2.624116837978363037e-01 1.740335375070571899e-01 -3.501650691032409668e-01
2.569894790649414062e-01 1.852955073118209839e-01 -3.438270986080169678e-01
2.608654201030731201e-01 1.736369431018829346e-01 -3.328166604042053223e-01
2.548972368240356445e-01 1.848937124013900757e-01 -3.262715339660644531e-01
1.272062510251998901e-01 2.082661390304565430e-01 5.142574012279510498e-02
1.183378994464874268e-01 2.102240175008773804e-01 6.286526471376419067e-02
1.330119520425796509e-01 2.124717831611633301e-01 6.358981877565383911e-02
1.210430264472961426e-01 2.137782573699951172e-01 7.607179880142211914e-02
-3.152355849742889404e-01 -3.326880186796188354e-02 -3.464524745941162109e-01
-3.126176595687866211e-01 -2.025366574525833130e-02 -3.446015715599060059e-01
-3.102852106094360352e-01 -2.860378846526145935e-02 -3.343706429004669189e-01
-3.055675327777862549e-01 -1.556151267141103745e-02 -3.360278606414794922e-01
-1.977424770593643188e-01 -3.919699415564537048e-02 -4.374527633190155029e-01
-2.019009441137313843e-01 -2.439845912158489227e-02 -4.351527690887451172e-01
-2.067013084888458252e-01 -4.132003709673881531e-02 -4.287873208522796631e-01
-2.104934751987457275e-01 -2.648258209228515625e-02 -4.263068735599517822e-01
1.373910307884216309e-01 -3.617341518402099609e-01 4.886297509074211121e-02
1.460999697446823120e-01 -3.465304970741271973e-01 4.383302479982376099e-02
1.465554535388946533e-01 -3.539583384990692139e-01 6.171043589711189270e-02
1.545803546905517578e-01 -3.385709822177886963e-01 5.652454122900962830e-02
-5.118229426443576813e-03 -4.641725122928619385e-01 7.206439971923828125e-01
-1.206498313695192337e-02 -4.624928832054138184e-01 7.322905659675598145e-01
5.467440001666545868e-03 -4.622938036918640137e-01 7.258377671241760254e-01
2.020645188167691231e-04 -4.597113132476806641e-01 7.388067841529846191e-01
-3.941755294799804688e-01 -1.060511991381645203e-01 -3.394691646099090576e-01
-3.851961493492126465e-01 -9.323731064796447754e-02 -3.456906080245971680e-01
-3.863164782524108887e-01 -1.022633910179138184e-01 -3.290477991104125977e-01
-3.773673474788665771e-01 -8.935926109552383423e-02 -3.353048264980316162e-01
-2.315931469202041626e-01 -1.953656375408172607e-01 8.491037487983703613e-01
-2.323864102363586426e-01 -1.815091222524642944e-01 8.480734825134277344e-01
-2.187880575656890869e-01 -1.946254670619964600e-01 8.616196513175964355e-01
-2.200638353824615479e-01 -1.802636981010437012e-01 8.610188364982604980e-01
2.129906415939331055e-01 -3.198002576828002930e-01 4.163133800029754639e-01
2.229432761669158936e-01 -3.069071471691131592e-01 4.170669019222259521e-01
2.226319462060928345e-01 -3.143752813339233398e-01 4.351036846637725830e-01
2.322742938995361328e-01 -3.007734417915344238e-01 4.361867308616638184e-01
-1.732394993305206299e-01 2.449929416179656982e-01 -3.978655934333801270e-01
-1.574397087097167969e-01 2.510195672512054443e-01 -4.029096662998199463e-01
-1.606749296188354492e-01 2.511292695999145508e-01 -3.857463598251342773e-01
-1.454361826181411743e-01 2.571778595447540283e-01 -3.904194831848144531e-01
2.211452722549438477e-01 -1.525232344865798950e-01 -3.002581894397735596e-01
2.290568053722381592e-01 -1.440211832523345947e-01 -2.968526482582092285e-01
2.200043797492980957e-01 -1.415339261293411255e-01 -2.846195101737976074e-01
2.343575060367584229e-01 -1.305231600999832153e-01 -2.882506847381591797e-01
-3.149054050445556641e-01 -1.322685778141021729e-01 6.316741704940795898e-01
-3.138476610183715820e-01 -1.157905161380767822e-01 6.329326033592224121e-01
-3.143454492092132568e-01 -1.267298907041549683e-01 6.489691138267517090e-01
-3.128944039344787598e-01 -1.100178435444831848e-01 6.497001051902770996e-01
2.532351315021514893e-01 -7.853226363658905029e-02 8.194833397865295410e-01
2.444303035736083984e-01 -6.683031469583511353e-02 8.237503170967102051e-01
2.467550635337829590e-01 -8.966959267854690552e-02 8.327696919441223145e-01
2.383060157299041748e-01 -7.785526663064956665e-02 8.365651965141296387e-01
-2.812495231628417969e-01 4.340356588363647461e-02 5.613833069801330566e-01
-2.808003425598144531e-01 5.924755334854125977e-02 5.640037059783935547e-01
-2.842969596385955811e-01 4.655563086271286011e-02 5.781304836273193359e-01
-2.826158106327056885e-01 6.424112617969512939e-02 5.791159868240356445e-01
1.844264864921569824e-01 -2.569315433502197266e-01 8.750215768814086914e-01
1.957509517669677734e-01 -2.408418804407119751e-01 8.740908503532409668e-01
1.795510649681091309e-01 -2.423312515020370483e-01 8.852275609970092773e-01
1.898478269577026367e-01 -2.271052747964859009e-01 8.844403028488159180e-01
2.406230382621288300e-02 1.970505118370056152e-01 2.125596404075622559e-01
2.735616639256477356e-03 1.971668303012847900e-01 2.237264811992645264e-01
3.892521187663078308e-02 1.970274448394775391e-01 2.287406325340270996e-01
1.819482818245887756e-02 1.973946690559387207e-01 2.404102087020874023e-01
2.003196924924850464e-01 2.014098018407821655e-01 -4.809224605560302734e-01
1.920093894004821777e-01 2.113697230815887451e-01 -4.794845581054687500e-01
2.088985145092010498e-01 2.009113729000091553e-01 -4.730348587036132812e-01
1.991370916366577148e-01 2.099703550338745117e-01 -4.702093899250030518e-01
2.752010524272918701e-01 1.071783900260925293e-01 4.813598990440368652e-01
2.816815078258514404e-01 1.240357831120491028e-01 4.773006141185760498e-01
2.823192179203033447e-01 1.123796477913856506e-01 4.937393665313720703e-01
2.881688177585601807e-01 1.300304532051086426e-01 4.898113012313842773e-01
4.323378205299377441e-01 -1.395974159240722656e-01 -3.720488250255584717e-01
4.292842447757720947e-01 -1.302717775106430054e-01 -3.670083582401275635e-01
4.313277602195739746e-01 -1.403841376304626465e-01 -3.603342771530151367e-01
4.291793704032897949e-01 -1.301740407943725586e-01 -3.549202084541320801e-01
1.538407355546951294e-01 1.592038273811340332e-01 4.143499433994293213e-01
1.492127031087875366e-01 1.713014692068099976e-01 4.184086322784423828e-01
1.664850264787673950e-01 1.650969982147216797e-01 4.131620228290557861e-01
