-1.027696803212165833e-01 3.199647665023803711e-01 2.046885341405868530e-01
4.311056435108184814e-01 -2.178402096033096313e-01 -3.239923119544982910e-01
4.306318163871765137e-01 -2.052759975194931030e-01 -3.223108947277069092e-01
4.432138800621032715e-01 -2.152558565139770508e-01 -3.196298182010650635e-01
4.425621032714843750e-01 -2.028644084930419922e-01 -3.180347084999084473e-01
3.648383319377899170e-01 -1.908266097307205200e-01 8.145198225975036621e-04
3.644249737262725830e-01 -1.774101257324218750e-01 9.479863569140434265e-03
3.827793300151824951e-01 -1.849857419729232788e-01 -1.357214292511343956e-03
3.818637430667877197e-01 -1.717307120561599731e-01 7.674482651054859161e-03
1.837071478366851807e-01 -3.391654491424560547e-01 -1.342927813529968262e-01
1.881743818521499634e-01 -3.219934105873107910e-01 -1.332181394100189209e-01
1.888792216777801514e-01 -3.361667692661285400e-01 -1.180699989199638367e-01
1.925115585327148438e-01 -3.197184503078460693e-01 -1.164848580956459045e-01
9.093616902828216553e-02 6.119497418403625488e-01 2.549649477005004883e-01
9.054554998874664307e-02 6.291158795356750488e-01 2.629700601100921631e-01
1.089411079883575439e-01 6.173930764198303223e-01 2.589818239212036133e-01
1.105926483869552612e-01 6.338132619857788086e-01 2.650026679039001465e-01
-3.206645548343658447e-01 -4.711797237396240234e-01 -2.827203571796417236e-01
-3.221129775047302246e-01 -4.587574899196624756e-01 -2.829069793224334717e-01
-3.191574811935424805e-01 -4.729833304882049561e-01 -2.696671485900878906e-01
-3.198547661304473877e-01 -4.606003463268280029e-01 -2.691712975502014160e-01
-3.841332197189331055e-01 -2.753025293350219727e-01 -2.129798233509063721e-01
-3.859139978885650635e-01 -2.590095996856689453e-01 -2.051313817501068115e-01
-3.753496408462524414e-01 -2.673883140087127686e-01 -2.122202217578887939e-01
-3.781044185161590576e-01 -2.510260641574859619e-01 -2.020333856344223022e-01
2.701177895069122314e-01 -5.276533365249633789e-01 -2.336308211088180542e-01
2.789837419986724854e-01 -5.132157802581787109e-01 -2.363921105861663818e-01
2.770393490791320801e-01 -5.236932039260864258e-01 -2.185194343328475952e-01
2.825182974338531494e-01 -5.102140307426452637e-01 -2.210568338632583618e-01
2.843009233474731445e-01 -3.720890879631042480e-01 -3.732050955295562744e-01
2.855040132999420166e-01 -3.580169677734375000e-01 -3.673615455627441406e-01
2.953976094722747803e-01 -3.688981831073760986e-01 -3.764327168464660645e-01
2.967625856399536133e-01 -3.541456758975982666e-01 -3.700614869594573975e-01
-1.002699434757232666e-01 7.530534267425537109e-01 4.152017831802368164e-01
-9.869027882814407349e-02 7.680007815361022949e-01 4.183164238929748535e-01
-1.077776774764060974e-01 7.637923359870910645e-01 4.279935657978057861e-01
-1.069931909441947937e-01 7.791219949722290039e-01 4.314066767692565918e-01
1.277409046888351440e-01 -2.322765067219734192e-05 -1.946770548820495605e-01
1.276105493307113647e-01 1.560999453067779541e-02 -1.912960857152938843e-01
1.414344608783721924e-01 1.001675613224506378e-03 -1.974559277296066284e-01
1.416607499122619629e-01 1.470799371600151062e-02 -1.933933347463607788e-01
-4.124055206775665283e-01 4.163083434104919434e-02 4.753519594669342041e-02
-4.001440107822418213e-01 5.374675244092941284e-02 4.470074549317359924e-02
-4.048514664173126221e-01 4.481016471982002258e-02 5.825424939393997192e-02
-3.934267759323120117e-01 5.623212084174156189e-02 5.561527609825134277e-02
-4.356576502323150635e-02 4.577891528606414795e-01 3.340171277523040771e-02
-4.258013889193534851e-02 4.713282883167266846e-01 4.043264687061309814e-02
-2.969262562692165375e-02 4.671637713909149170e-01 3.457197919487953186e-02
-2.858058363199234009e-02 4.802483022212982178e-01 4.179492965340614319e-02
-2.072370946407318115e-01 -2.223937511444091797e-01 9.201490879058837891e-02
-2.107486873865127563e-01 -2.083555757999420166e-01 1.009306982159614563e-01
-1.896277815103530884e-01 -2.197568565607070923e-01 8.966103196144104004e-02
-1.934661120176315308e-01 -2.051890790462493896e-01 9.865374118089675903e-02
-1.134512759745121002e-02 -2.450777441263198853e-01 -6.081619113683700562e-02
2.664109226316213608e-03 -2.372169643640518188e-01 -7.064013928174972534e-02
6.070337723940610886e-03 -2.440689504146575928e-01 -5.411010235548019409e-02
2.006412670016288757e-02 -2.360036075115203857e-01 -6.417234241962432861e-02
1.527886390686035156e-01 -1.186388581991195679e-01 -2.229322791099548340e-01
1.445125043392181396e-01 -1.068059280514717102e-01 -2.117346972227096558e-01
1.654368042945861816e-01 -1.184920147061347961e-01 -2.212641239166259766e-01
1.578997373580932617e-01 -1.060280129313468933e-01 -2.120908945798873901e-01
-1.589171737432479858e-01 3.244802951812744141e-01 2.783076465129852295e-01
-1.534278243780136108e-01 3.361931443214416504e-01 2.771236598491668701e-01
-1.647663563489913940e-01 3.335667848587036133e-01 2.881141304969787598e-01
-1.586245149374008179e-01 3.447734117507934570e-01 2.869006693363189697e-01
-2.031472623348236084e-01 1.748818457126617432e-01 1.099094301462173462e-01
-1.981892734766006470e-01 1.928703635931015015e-01 1.141649633646011353e-01
-2.072719633579254150e-01 1.830055564641952515e-01 1.272081732749938965e-01
-2.028059065341949463e-01 2.034224271774291992e-01 1.326837539672851562e-01
2.657234072685241699e-01 -5.026740431785583496e-01 -4.252542853355407715e-01
2.625944912433624268e-01 -4.892945587635040283e-01 -4.168783128261566162e-01
2.776865363121032715e-01 -4.987238347530364990e-01 -4.243562519550323486e-01
2.749739587306976318e-01 -4.850113391876220703e-01 -4.160687029361724854e-01
6.344150006771087646e-02 7.633960247039794922e-01 1.462364941835403442e-01
5.981373786926269531e-02 7.802302837371826172e-01 1.502083688974380493e-01
7.610601931810379028e-02 7.688294649124145508e-01 1.488592177629470825e-01
7.189534604549407959e-02 7.854617834091186523e-01 1.531020253896713257e-01
3.546535074710845947e-01 -6.388781070709228516e-01 -4.336073696613311768e-01
3.629339039325714111e-01 -6.313767433166503906e-01 -4.446459710597991943e-01
3.693808615207672119e-01 -6.397061347961425781e-01 -4.268497228622436523e-01
3.778481185436248779e-01 -6.358783841133117676e-01 -4.348983466625213623e-01
3.652538061141967773e-01 1.070119813084602356e-01 -2.025896757841110229e-01
3.616125583648681641e-01 1.170431151986122131e-01 -1.952943652868270874e-01
3.836660385131835938e-01 1.100407987833023071e-01 -2.013660371303558350e-01
3.769581615924835205e-01 1.162605136632919312e-01 -1.932279467582702637e-01
4.441716969013214111e-01 -4.552427232265472412e-01 -4.137571454048156738e-01
4.430731832981109619e-01 -4.390909969806671143e-01 -4.115635156631469727e-01
4.527695477008819580e-01 -4.559158980846405029e-01 -4.071854054927825928e-01
4.524522423744201660e-01 -4.398884773254394531e-01 -4.048697650432586670e-01
6.876669358462095261e-03 8.103163838386535645e-01 3.327960073947906494e-01
3.168333787471055984e-03 8.275941610336303711e-01 3.372308909893035889e-01
2.418735809624195099e-02 8.165531158447265625e-01 3.282119631767272949e-01
1.996559090912342072e-02 8.331466317176818848e-01 3.328219056129455566e-01
1.458424031734466553e-01 6.701204776763916016e-01 2.891009151935577393e-01
1.479843705892562866e-01 6.855900287628173828e-01 2.939709722995758057e-01
1.579295396804809570e-01 6.729689836502075195e-01 2.930235564708709717e-01
1.586523205041885376e-01 6.888163685798645020e-01 2.983627617359161377e-01
-2.497380375862121582e-01 6.342615187168121338e-02 2.582509815692901611e-01
-2.474624514579772949e-01 7.879408448934555054e-02 2.577630579471588135e-01
-2.540406882762908936e-01 7.165357470512390137e-02 2.726684212684631348e-01
-2.518694698810577393e-01 8.732686936855316162e-02 2.716459929943084717e-01
1.546607315540313721e-01 2.614831626415252686e-01 -6.695413962006568909e-03
1.513776332139968872e-01 2.751251459121704102e-01 -3.866605460643768311e-03
1.675261855125427246e-01 2.656306326389312744e-01 2.930148912128061056e-04
1.639069765806198120e-01 2.793061137199401855e-01 3.070843871682882309e-03
6.590777635574340820e-02 9.502196907997131348e-01 2.389474064111709595e-01
5.560665205121040344e-02 9.586862921714782715e-01 2.473504543304443359e-01
7.521559298038482666e-02 9.503744840621948242e-01 2.495545148849487305e-01
6.506769359111785889e-02 9.591099619865417480e-01 2.572869956493377686e-01
2.520285844802856445e-01 6.434589624404907227e-02 1.002807170152664185e-01
2.515751421451568604e-01 7.915320247411727905e-02 1.021797060966491699e-01
2.626937329769134521e-01 6.649319827556610107e-02 1.017308309674263000e-01
2.617060840129852295e-01 8.119010925292968750e-02 1.030925959348678589e-01
6.226409971714019775e-02 1.813473850488662720e-01 7.998619973659515381e-02
6.314703077077865601e-02 1.970761418342590332e-01 8.581585437059402466e-02
7.773894071578979492e-02 1.838758736848831177e-01 7.822233438491821289e-02
7.722174376249313354e-02 1.990976482629776001e-01 8.327816426753997803e-02
-2.420967668294906616e-01 -4.396786168217658997e-02 1.778755187988281250e-01
-2.443718016147613525e-01 -3.330940753221511841e-02 1.865822821855545044e-01
-2.301735579967498779e-01 -4.123691469430923462e-02 1.777563542127609253e-01
-2.325230091810226440e-01 -3.056018240749835968e-02 1.860381811857223511e-01
3.326990902423858643e-01 8.103773742914199829e-02 -2.975185774266719818e-02
3.424951136112213135e-01 8.531999588012695312e-02 -3.888867422938346863e-02
3.467630147933959961e-01 7.861477881669998169e-02 -2.057020924985408783e-02
3.553978502750396729e-01 8.300117403268814087e-02 -2.933987788856029510e-02
1.967548765242099762e-02 -6.854264438152313232e-02 -1.772979348897933960e-01
2.346946112811565399e-02 -5.212083831429481506e-02 -1.685657948255538940e-01
3.447883948683738708e-02 -6.337463110685348511e-02 -1.749060600996017456e-01
3.735879436135292053e-02 -4.618675634264945984e-02 -1.674953401088714600e-01
-3.465752601623535156e-01 5.830353125929832458e-02 2.330748923122882843e-02
-3.298171162605285645e-01 6.738172471523284912e-02 2.058989554643630981e-02
-3.336573541164398193e-01 6.501153856515884399e-02 3.402514383196830750e-02
-3.174523115158081055e-01 7.466202229261398315e-02 3.114344924688339233e-02
-2.101715654134750366e-01 2.055213451385498047e-01 1.580836176872253418e-01
-2.065376937389373779e-01 2.274395972490310669e-01 1.637811809778213501e-01
-2.160519659519195557e-01 2.164193987846374512e-01 1.768666207790374756e-01
-2.120528370141983032e-01 2.370010465383529663e-01 1.810142397880554199e-01
2.362866699695587158e-01 -6.789564490318298340e-01 -2.491775006055831909e-01
2.252520024776458740e-01 -6.628621816635131836e-01 -2.430895715951919556e-01
2.451884895563125610e-01 -6.883031725883483887e-01 -2.386662364006042480e-01
2.340572774410247803e-01 -6.722540259361267090e-01 -2.318927794694900513e-01
-3.366274237632751465e-01 4.618518054485321045e-02 -9.401485323905944824e-02
-3.404133915901184082e-01 5.790619552135467529e-02 -8.479284495115280151e-02
-3.249523341655731201e-01 5.009279400110244751e-02 -9.321928769350051880e-02
-3.292754590511322021e-01 6.146164610981941223e-02 -8.322940021753311157e-02
-1.923850625753402710e-01 6.535110473632812500e-01 3.909851312637329102e-01
-1.899649947881698608e-01 6.664437651634216309e-01 3.916425704956054688e-01
-1.942331790924072266e-01 6.598299145698547363e-01 4.025189876556396484e-01
-1.916275471448898315e-01 6.729335188865661621e-01 4.027560055255889893e-01
-6.813031435012817383e-02 4.323188364505767822e-01 3.853650018572807312e-02
-6.653247028589248657e-02 4.460577666759490967e-01 4.479588940739631653e-02
-5.927565321326255798e-02 4.426474571228027344e-01 4.018799215555191040e-02
-5.871158838272094727e-02 4.555535912513732910e-01 4.719460755586624146e-02
-8.606994152069091797e-02 -2.643709778785705566e-01 -1.092560682445764542e-02
-7.420194894075393677e-02 -2.570377588272094727e-01 -2.351439185440540314e-02
-7.100843638181686401e-02 -2.660291492938995361e-01 -8.374294266104698181e-04
-5.836054310202598572e-02 -2.589410841464996338e-01 -1.336343958973884583e-02
-1.191197633743286133e-01 6.787540912628173828e-01 2.036063969135284424e-01
-1.134719029068946838e-01 6.938654184341430664e-01 2.045660018920898438e-01
-1.246517971158027649e-01 6.899960637092590332e-01 2.156663537025451660e-01
-1.189382821321487427e-01 7.049161195755004883e-01 2.167003750801086426e-01
-4.008265957236289978e-02 2.620013058185577393e-01 -5.584987252950668335e-02
-4.532132297754287720e-02 2.768233418464660645e-01 -4.410389065742492676e-02
-2.346781082451343536e-02 2.705250084400177002e-01 -5.687768012285232544e-02
-2.691800519824028015e-02 2.855104207992553711e-01 -4.693590104579925537e-02
-2.667147517204284668e-01 -5.422282218933105469e-01 -3.409254252910614014e-01
-2.688070535659790039e-01 -5.294367074966430664e-01 -3.366118371486663818e-01
-2.603316307067871094e-01 -5.398029088973999023e-01 -3.295004069805145264e-01
-2.618574798107147217e-01 -5.273769497871398926e-01 -3.254937529563903809e-01
3.505489528179168701e-01 5.380080640316009521e-02 4.202659428119659424e-02
3.571366667747497559e-01 5.860672146081924438e-02 3.090371191501617432e-02
3.646289110183715820e-01 4.906924813985824585e-02 5.037166550755500793e-02
3.710772991180419922e-01 5.494565889239311218e-02 3.840778023004531860e-02
-3.869143128395080566e-01 2.288288623094558716e-02 1.422835886478424072e-01
-3.844564855098724365e-01 3.484485298395156860e-02 1.408762484788894653e-01
-3.849192857742309570e-01 2.426703460514545441e-02 1.559325009584426880e-01
-3.826745152473449707e-01 3.651145473122596741e-02 1.543355137109756470e-01
-3.979007303714752197e-01 -6.950128078460693359e-01 -2.840915918350219727e-01
-4.070268571376800537e-01 -6.913304328918457031e-01 -2.829873263835906982e-01
-3.870907425880432129e-01 -7.029659748077392578e-01 -2.755762934684753418e-01
-3.999144732952117920e-01 -6.992573142051696777e-01 -2.716305255889892578e-01
-9.546773880720138550e-02 3.450047969818115234e-01 2.250814996659755707e-02
-8.751131594181060791e-02 3.612391948699951172e-01 2.293207310140132904e-02
-1.027145683765411377e-01 3.608050048351287842e-01 3.563784807920455933e-02
-9.488097578287124634e-02 3.765822350978851318e-01 3.632254898548126221e-02
-1.826710700988769531e-01 5.166293978691101074e-01 4.120047390460968018e-01
-1.781025230884552002e-01 5.290164351463317871e-01 4.080439209938049316e-01
-1.856743544340133667e-01 5.222491025924682617e-01 4.260599613189697266e-01
-1.808751523494720459e-01 5.342678427696228027e-01 4.213869571685791016e-01
-8.476407080888748169e-02 9.031808972358703613e-01 3.945505917072296143e-01
-8.234003931283950806e-02 9.146409630775451660e-01 3.865044414997100830e-01
-7.265100628137588501e-02 9.001045823097229004e-01 3.968868255615234375e-01
-6.970348209142684937e-02 9.109973311424255371e-01 3.871610462665557861e-01
2.596164643764495850e-01 2.776724398136138916e-01 1.504157036542892456e-01
2.595861256122589111e-01 2.926791608333587646e-01 1.519395262002944946e-01
2.632761895656585693e-01 2.808684706687927246e-01 1.593122035264968872e-01
2.646489143371582031e-01 2.951845228672027588e-01 1.618439406156539917e-01
-2.683397382497787476e-02 -2.745800316333770752e-01 9.346481412649154663e-03
-3.018751740455627441e-02 -2.742561995983123779e-01 2.039071545004844666e-02
-1.219565048813819885e-02 -2.727180421352386475e-01 1.396109722554683685e-02
-1.782191731035709381e-02 -2.724144756793975830e-01 2.749818749725818634e-02
-1.467665582895278931e-01 -2.713852822780609131e-01 -1.337888091802597046e-02
-1.342144757509231567e-01 -2.635960578918457031e-01 -2.132287621498107910e-02
-1.296550631523132324e-01 -2.684036493301391602e-01 -1.777512021362781525e-03
-1.169271394610404968e-01 -2.607941627502441406e-01 -1.078499294817447662e-02
2.713395357131958008e-01 -4.999822080135345459e-01 -2.656252086162567139e-01
2.746666669845581055e-01 -4.850505590438842773e-01 -2.647274136543273926e-01
2.728392481803894043e-01 -4.945050477981567383e-01 -2.523388266563415527e-01
2.745280265808105469e-01 -4.809010922908782959e-01 -2.512170672416687012e-01
1.704875230789184570e-01 -3.668214380741119385e-01 -3.410267531871795654e-01
1.590922176837921143e-01 -3.552651405334472656e-01 -3.389179706573486328e-01
1.870417743921279907e-01 -3.746666312217712402e-01 -3.390309214591979980e-01
1.765862852334976196e-01 -3.614488542079925537e-01 -3.375734090805053711e-01
1.271379292011260986e-01 -3.886707723140716553e-01 -1.568122655153274536e-01
1.267029792070388794e-01 -3.765333294868469238e-01 -1.558625847101211548e-01
1.289331614971160889e-01 -3.880118131637573242e-01 -1.433750689029693604e-01
1.297931075096130371e-01 -3.746463954448699951e-01 -1.433070898056030273e-01
5.125918984413146973e-02 3.976379334926605225e-01 1.679486334323883057e-01
5.362937971949577332e-02 4.137083888053894043e-01 1.755101382732391357e-01
6.457184255123138428e-02 4.055984020233154297e-01 1.681959331035614014e-01
6.593650579452514648e-02 4.204410910606384277e-01 1.750253289937973022e-01
1.887846738100051880e-01 -3.672581911087036133e-01 -3.464326560497283936e-01
1.800082623958587646e-01 -3.529526889324188232e-01 -3.450042903423309326e-01
2.062842994928359985e-01 -3.723335564136505127e-01 -3.476121127605438232e-01
1.972182542085647583e-01 -3.577129840850830078e-01 -3.454200625419616699e-01
1.933054924011230469e-01 1.204279661178588867e-01 -1.006298586726188660e-01
1.843965798616409302e-01 1.234493032097816467e-01 -9.125306457281112671e-02
2.045729011297225952e-01 1.205881461501121521e-01 -9.012849628925323486e-02
1.955762058496475220e-01 1.236541867256164551e-01 -8.068858087062835693e-02
3.790955543518066406e-01 -6.430716514587402344e-01 -4.163473844528198242e-01
3.873524069786071777e-01 -6.394104361534118652e-01 -4.240744709968566895e-01
3.914428949356079102e-01 -6.460123062133789062e-01 -4.082806110382080078e-01
3.993673920631408691e-01 -6.418321728706359863e-01 -4.154806137084960938e-01
2.725048661231994629e-01 -4.839387536048889160e-01 -2.273253500461578369e-01
2.739217877388000488e-01 -4.711292088031768799e-01 -2.261742651462554932e-01
2.774329185485839844e-01 -4.792445898056030273e-01 -2.154532670974731445e-01
2.761547267436981201e-01 -4.685845077037811279e-01 -2.136219143867492676e-01
4.521835446357727051e-01 -4.663162678480148315e-02 -2.260674834251403809e-01
4.525221884250640869e-01 -3.416754305362701416e-02 -2.244832366704940796e-01
4.593775868415832520e-01 -4.388650506734848022e-02 -2.148146629333496094e-01
4.593781828880310059e-01 -2.988287433981895447e-02 -2.139930129051208496e-01
-1.966419965028762817e-01 6.059803962707519531e-01 3.747582733631134033e-01
-1.953954994678497314e-01 6.179707646369934082e-01 3.775410354137420654e-01
-1.981620341539382935e-01 6.125921010971069336e-01 3.865719437599182129e-01
-1.968068331480026245e-01 6.244410276412963867e-01 3.891331851482391357e-01
-3.520627021789550781e-01 -7.222396731376647949e-01 -2.272339165210723877e-01
-3.508456349372863770e-01 -7.180911898612976074e-01 -2.337027490139007568e-01
-3.434518277645111084e-01 -7.261242270469665527e-01 -2.158828079700469971e-01
-3.382960259914398193e-01 -7.226028442382812500e-01 -2.259972840547561646e-01
-4.134988784790039062e-01 -4.086545109748840332e-01 -2.613228261470794678e-01
-4.076197445392608643e-01 -3.922818303108215332e-01 -2.649020850658416748e-01
-4.152999818325042725e-01 -4.051590561866760254e-01 -2.519102096557617188e-01
-4.094080328941345215e-01 -3.890881240367889404e-01 -2.549872994422912598e-01
1.245290488004684448e-01 -3.683299422264099121e-01 -1.527323573827743530e-01
1.288986206054687500e-01 -3.559829294681549072e-01 -1.519074738025665283e-01
1.276117265224456787e-01 -3.631851077079772949e-01 -1.391571909189224243e-01
1.338704228401184082e-01 -3.502931892871856689e-01 -1.387965828180313110e-01
1.918461918830871582e-01 3.972814679145812988e-01 9.750671684741973877e-02
1.879928559064865112e-01 4.146763384342193604e-01 9.439793974161148071e-02
2.038676291704177856e-01 4.000177681446075439e-01 1.108186841011047363e-01
2.013680338859558105e-01 4.163612127304077148e-01 1.079881861805915833e-01
-1.221052836626768112e-02 5.807875990867614746e-01 7.370747625827789307e-02
-1.080481149256229401e-02 5.967469811439514160e-01 8.082813024520874023e-02
2.359627978876233101e-03 5.880244374275207520e-01 7.488128542900085449e-02
3.467103932052850723e-03 6.030805110931396484e-01 8.166389167308807373e-02
1.335171908140182495e-01 2.447715252637863159e-01 1.141399219632148743e-01
1.314928531646728516e-01 2.569028735160827637e-01 1.173525750637054443e-01
1.474592834711074829e-01 2.451905012130737305e-01 1.156528666615486145e-01
1.456164419651031494e-01 2.570497691631317139e-01 1.191895306110382080e-01
1.823597848415374756e-01 5.306181311607360840e-02 -1.848676651716232300e-01
1.843280643224716187e-01 6.454414874315261841e-02 -1.803648918867111206e-01
1.971985846757888794e-01 5.977198854088783264e-02 -1.857511252164840698e-01
1.984355002641677856e-01 7.083327323198318481e-02 -1.808606684207916260e-01
-1.178646460175514221e-01 9.144949316978454590e-01 3.437870442867279053e-01
-1.111562177538871765e-01 9.249892830848693848e-01 3.419528305530548096e-01
-1.100425049662590027e-01 9.175182580947875977e-01 3.591272532939910889e-01
-1.042122095823287964e-01 9.282063245773315430e-01 3.556703031063079834e-01
-1.619191318750381470e-01 2.655662298202514648e-01 2.488162219524383545e-01
-1.574482470750808716e-01 2.784628570079803467e-01 2.494895309209823608e-01
-1.660975515842437744e-01 2.760747373104095459e-01 2.598252296447753906e-01
-1.614360064268112183e-01 2.889329195022583008e-01 2.600279748439788818e-01
2.545360922813415527e-01 1.571457386016845703e-01 1.331995725631713867e-01
2.530096471309661865e-01 1.745965480804443359e-01 1.370352953672409058e-01
2.658368647098541260e-01 1.564575880765914917e-01 1.406414508819580078e-01
2.643672525882720947e-01 1.743367016315460205e-01 1.440587937831878662e-01
3.946075215935707092e-02 3.327136337757110596e-01 -3.535436838865280151e-02
3.806512057781219482e-02 3.461506068706512451e-01 -2.987863868474960327e-02
5.359364673495292664e-02 3.329369127750396729e-01 -3.338351100683212280e-02
5.137144774198532104e-02 3.454006612300872803e-01 -2.851745672523975372e-02
-1.542324721813201904e-01 -1.089679151773452759e-01 -1.913863420486450195e-01
-1.545253694057464600e-01 -9.528872370719909668e-02 -1.819377392530441284e-01
-1.381795555353164673e-01 -1.010206490755081177e-01 -1.911241710186004639e-01
-1.386318206787109375e-01 -8.693818747997283936e-02 -1.806517690420150757e-01
2.558885812759399414e-01 3.521836400032043457e-01 2.035839110612869263e-01
2.543283104896545410e-01 3.664684891700744629e-01 2.073257416486740112e-01
2.679724395275115967e-01 3.551113009452819824e-01 2.042619287967681885e-01
2.664048969745635986e-01 3.694139122962951660e-01 2.080385088920593262e-01
-1.984187364578247070e-01 3.462822735309600830e-01 3.485437631607055664e-01
-1.926883161067962646e-01 3.574509024620056152e-01 3.466776311397552490e-01
-2.017856538295745850e-01 3.521124124526977539e-01 3.612734675407409668e-01
-1.958042979240417480e-01 3.637096285820007324e-01 3.593504428863525391e-01
4.332691729068756104e-01 -4.061887562274932861e-01 -4.218743741512298584e-01
4.319166839122772217e-01 -3.897831737995147705e-01 -4.179944694042205811e-01
4.416699409484863281e-01 -4.062760472297668457e-01 -4.115639925003051758e-01
4.408149719238281250e-01 -3.902331292629241943e-01 -4.094125032424926758e-01
3.727483004331588745e-02 2.159021198749542236e-01 9.538767486810684204e-02
4.092903062701225281e-02 2.315110713243484497e-01 1.012009382247924805e-01
5.219018459320068359e-02 2.226819843053817749e-01 9.425964951515197754e-02
5.544130876660346985e-02 2.382977604866027832e-01 1.002122536301612854e-01
3.452569991350173950e-02 -1.105168610811233521e-01 9.568014740943908691e-02
3.117783926427364349e-02 -1.012010797858238220e-01 1.051143258810043335e-01
4.657413810491561890e-02 -1.070887967944145203e-01 9.911302477121353149e-02
4.318497329950332642e-02 -9.764429181814193726e-02 1.086189821362495422e-01
2.437328249216079712e-01 -2.778603732585906982e-01 -3.299224972724914551e-01
2.444628477096557617e-01 -2.640956044197082520e-01 -3.225094974040985107e-01
2.582718431949615479e-01 -2.729537487030029297e-01 -3.302805721759796143e-01
2.590357959270477295e-01 -2.593684494495391846e-01 -3.228849768638610840e-01
-3.656028509140014648e-01 1.504231058061122894e-02 -9.752400964498519897e-02
-3.660751879215240479e-01 2.665629051625728607e-02 -9.244444966316223145e-02
-3.531626164913177490e-01 1.918008923530578613e-02 -9.838303178548812866e-02
-3.542686104774475098e-01 3.086008690297603607e-02 -9.204062819480895996e-02
-1.464265882968902588e-01 6.651172041893005371e-01 2.425969690084457397e-01
-1.425040662288665771e-01 6.780935525894165039e-01 2.448434680700302124e-01
-1.505572497844696045e-01 6.734904646873474121e-01 2.573718130588531494e-01
-1.462994962930679321e-01 6.861424446105957031e-01 2.591095566749572754e-01
3.498974144458770752e-01 -6.267326474189758301e-01 -1.967670470476150513e-01
3.489332497119903564e-01 -6.139553189277648926e-01 -1.886629164218902588e-01
3.664804399013519287e-01 -6.202638745307922363e-01 -1.966339051723480225e-01
3.643516898155212402e-01 -6.073161363601684570e-01 -1.878533661365509033e-01
1.042721047997474670e-01 -1.883078813552856445e-01 -1.964656114578247070e-01
9.184531867504119873e-02 -1.857849359512329102e-01 -1.995348930358886719e-01
1.153798997402191162e-01 -1.950066536664962769e-01 -1.913232356309890747e-01
9.974401444196701050e-02 -1.920153349637985229e-01 -1.922761350870132446e-01
-1.559326052665710449e-01 5.303285717964172363e-01 1.978510767221450806e-01
-1.508207172155380249e-01 5.470913648605346680e-01 1.954886913299560547e-01
-1.577187776565551758e-01 5.404818654060363770e-01 2.082765698432922363e-01
-1.523514688014984131e-01 5.572485923767089844e-01 2.054020911455154419e-01
-2.399654686450958252e-02 -7.739838957786560059e-02 -1.761776059865951538e-01
-2.136291936039924622e-02 -6.152872368693351746e-02 -1.659174710512161255e-01
-8.156979456543922424e-03 -7.163284718990325928e-02 -1.747606247663497925e-01
-4.761284217238426208e-03 -5.541705340147018433e-02 -1.653636693954467773e-01
-2.195735275745391846e-01 3.290036618709564209e-01 2.971430420875549316e-01
-2.162425220012664795e-01 3.426093459129333496e-01 2.986667454242706299e-01
-2.254428863525390625e-01 3.363772332668304443e-01 3.104989230632781982e-01
-2.220612764358520508e-01 3.496191203594207764e-01 3.116509020328521729e-01
-8.849941939115524292e-02 -2.533790469169616699e-01 -4.238237440586090088e-02
-7.770062237977981567e-02 -2.463671118021011353e-01 -5.380283296108245850e-02
-7.372228056192398071e-02 -2.543614506721496582e-01 -3.346484899520874023e-02
-6.275776028633117676e-02 -2.473739385604858398e-01 -4.468725249171257019e-02
-1.579019278287887573e-01 5.286055803298950195e-01 2.020580023527145386e-01
-1.527321636676788330e-01 5.452284812927246094e-01 1.996662765741348267e-01
-1.601764708757400513e-01 5.384290218353271484e-01 2.121386080980300903e-01
-1.547621786594390869e-01 5.550683736801147461e-01 2.093373388051986694e-01
-2.973464429378509521e-01 -4.627949893474578857e-01 2.362407278269529343e-03
-2.971311807632446289e-01 -4.470852017402648926e-01 1.075114682316780090e-02
-2.827948331832885742e-01 -4.594296216964721680e-01 -3.886385820806026459e-05
-2.816196084022521973e-01 -4.428514242172241211e-01 8.533199317753314972e-03
1.945313215255737305e-01 -5.422876477241516113e-01 -3.757086396217346191e-01
2.025203406810760498e-01 -5.267442464828491211e-01 -3.752263784408569336e-01
1.946698427200317383e-01 -5.322403311729431152e-01 -3.638969957828521729e-01
2.008646726608276367e-01 -5.170224905014038086e-01 -3.620629012584686279e-01
2.568848244845867157e-02 7.086697220802307129e-01 1.211434006690979004e-01
2.254781313240528107e-02 7.263249754905700684e-01 1.242866888642311096e-01
4.312518611550331116e-02 7.102741003036499023e-01 1.222015619277954102e-01
4.034069180488586426e-02 7.275561690330505371e-01 1.255773007869720459e-01
3.491715192794799805e-01 -6.184198856353759766e-01 -4.733856618404388428e-01
3.502403199672698975e-01 -6.031470298767089844e-01 -4.744702875614166260e-01
3.686569929122924805e-01 -6.125452518463134766e-01 -4.800813198089599609e-01
3.661097288131713867e-01 -5.974684357643127441e-01 -4.765583574771881104e-01
-3.836925625801086426e-01 -1.298161298036575317e-01 1.271086931228637695e-01
-3.884083926677703857e-01 -1.186488121747970581e-01 1.328976452350616455e-01
-3.771812021732330322e-01 -1.310493648052215576e-01 1.357276141643524170e-01
-3.813247680664062500e-01 -1.201333850622177124e-01 1.424876004457473755e-01
2.693158388137817383e-01 1.919032335281372070e-01 1.405074894428253174e-01
2.682524025440216064e-01 2.121113687753677368e-01 1.418365836143493652e-01
2.774505615234375000e-01 1.938149929046630859e-01 1.490458101034164429e-01
2.763871252536773682e-01 2.140231430530548096e-01 1.503749042749404907e-01
-2.429822385311126709e-01 -5.905318856239318848e-01 -2.471872568130493164e-01
-2.451992034912109375e-01 -5.785771012306213379e-01 -2.458758056163787842e-01
-2.415785789489746094e-01 -5.847245454788208008e-01 -2.348738312721252441e-01
-2.461717873811721802e-01 -5.750344991683959961e-01 -2.318102121353149414e-01
-1.729988455772399902e-01 1.657821834087371826e-01 2.124674767255783081e-01
-1.665858179330825806e-01 1.795367300510406494e-01 2.123684436082839966e-01
-1.759839206933975220e-01 1.772964298725128174e-01 2.227267622947692871e-01
-1.698231995105743408e-01 1.898596435785293579e-01 2.228251993656158447e-01
2.341387420892715454e-01 7.124587297439575195e-01 3.155809342861175537e-01
2.326097935438156128e-01 7.306621670722961426e-01 3.240477144718170166e-01
2.459218055009841919e-01 7.174130678176879883e-01 3.163273334503173828e-01
2.442718148231506348e-01 7.356442213058471680e-01 3.244990706443786621e-01
-1.318739503622055054e-01 2.464211881160736084e-01 2.010226994752883911e-01
-1.268750131130218506e-01 2.625044286251068115e-01 2.033880949020385742e-01
-1.382260620594024658e-01 2.590141892433166504e-01 2.129045724868774414e-01
-1.339893490076065063e-01 2.733494639396667480e-01 2.155264616012573242e-01
1.717613637447357178e-02 4.685669839382171631e-01 2.616872824728488922e-02
1.698521710932254791e-02 4.832637906074523926e-01 3.453889861702919006e-02
3.023254871368408203e-02 4.776167273521423340e-01 2.812813781201839447e-02
2.910553850233554840e-02 4.920202195644378662e-01 3.619102761149406433e-02
-2.187553495168685913e-01 -3.258654177188873291e-01 -1.877483874559402466e-01
-2.216244041919708252e-01 -3.132931292057037354e-01 -1.859000921249389648e-01
-2.170139849185943604e-01 -3.267045915126800537e-01 -1.758014410734176636e-01
-2.179454565048217773e-01 -3.135659694671630859e-01 -1.730116754770278931e-01
-3.925504535436630249e-02 3.612058162689208984e-01 1.792396605014801025e-01
-3.868441283702850342e-02 3.804984092712402344e-01 1.896501630544662476e-01
-2.496342919766902924e-02 3.713138103485107422e-01 1.785269826650619507e-01
-2.303801663219928741e-02 3.910852372646331787e-01 1.886921823024749756e-01
2.052838355302810669e-01 1.697331815958023071e-01 1.123986467719078064e-01
1.990654468536376953e-01 1.837100386619567871e-01 1.149493902921676636e-01
2.223487496376037598e-01 1.716475784778594971e-01 1.181652694940567017e-01
2.166457176208496094e-01 1.859301924705505371e-01 1.207624003291130066e-01
4.584089517593383789e-01 -5.823591947555541992e-01 -3.834581971168518066e-01
4.584092199802398682e-01 -5.683848857879638672e-01 -3.858668804168701172e-01
4.612235724925994873e-01 -5.834694504737854004e-01 -3.682532012462615967e-01
4.615102112293243408e-01 -5.694273114204406738e-01 -3.706833720207214355e-01
4.750587940216064453e-01 -3.571440875530242920e-01 -2.014790773391723633e-01
4.759764373302459717e-01 -3.419012725353240967e-01 -1.992688030004501343e-01
4.768091738224029541e-01 -3.514374494552612305e-01 -1.833935230970382690e-01
4.773179888725280762e-01 -3.369895815849304199e-01 -1.810433715581893921e-01
2.031530588865280151e-01 -2.047539055347442627e-01 -3.842962905764579773e-05
2.024764567613601685e-01 -1.895586401224136353e-01 1.016735099256038666e-02
2.208240032196044922e-01 -1.982167512178421021e-01 -5.924226716160774231e-04
2.206591069698333740e-01 -1.828421950340270996e-01 9.935582056641578674e-03
2.545954287052154541e-01 1.791880279779434204e-01 1.424228101968765259e-01
2.538591623306274414e-01 1.989889889955520630e-01 1.437541097402572632e-01
2.640053927898406982e-01 1.796138882637023926e-01 1.491614431142807007e-01
2.637833952903747559e-01 1.992097049951553345e-01 1.511514484882354736e-01
-4.141842126846313477e-01 -2.665680646896362305e-01 -1.170023381710052490e-01
-4.120520055294036865e-01 -2.510472536087036133e-01 -1.145490258932113647e-01
-4.139449596405029297e-01 -2.649144232273101807e-01 -1.048845723271369934e-01
-4.119566977024078369e-01 -2.492732256650924683e-01 -1.022438853979110718e-01
-4.158556461334228516e-01 -6.165665388107299805e-01 -2.588297724723815918e-01
-4.136395156383514404e-01 -5.928731560707092285e-01 -2.605248093605041504e-01
-4.125587344169616699e-01 -6.072375178337097168e-01 -2.449522465467453003e-01
-4.112821519374847412e-01 -5.846232175827026367e-01 -2.483711540699005127e-01
-1.291786134243011475e-01 9.025625139474868774e-02 1.269946098327636719e-01
-1.348657757043838501e-01 1.048402786254882812e-01 1.320141106843948364e-01
-1.403107941150665283e-01 9.515743702650070190e-02 1.380108743906021118e-01
-1.458598673343658447e-01 1.095687299966812134e-01 1.434553712606430054e-01
1.932450383901596069e-01 -5.278325080871582031e-01 -3.785759508609771729e-01
2.012707591056823730e-01 -5.124382376670837402e-01 -3.776081204414367676e-01
1.929829865694046021e-01 -5.169392228126525879e-01 -3.682137429714202881e-01
2.011560797691345215e-01 -5.020130872726440430e-01 -3.673634827136993408e-01
-3.889286220073699951e-01 -6.252980232238769531e-01 -1.153309121727943420e-01
-3.896148800849914551e-01 -6.096636652946472168e-01 -1.164655908942222595e-01
-3.869416713714599609e-01 -6.212731003761291504e-01 -1.007421016693115234e-01
-3.885365426540374756e-01 -6.064242124557495117e-01 -1.002208366990089417e-01
-4.250681698322296143e-01 -3.964185416698455811e-01 -2.423897832632064819e-01
-4.193860292434692383e-01 -3.807116150856018066e-01 -2.434653192758560181e-01
-4.279918968677520752e-01 -3.910128176212310791e-01 -2.321250438690185547e-01
-4.228788316249847412e-01 -3.749107122421264648e-01 -2.328382879495620728e-01
-3.761377930641174316e-01 -5.640130043029785156e-01 -3.320835828781127930e-01
-3.806243240833282471e-01 -5.530911087989807129e-01 -3.220375180244445801e-01
-3.620109856128692627e-01 -5.541784763336181641e-01 -3.296737074851989746e-01
-3.671455085277557373e-01 -5.435556173324584961e-01 -3.196538686752319336e-01
3.761523067951202393e-01 -4.386530518531799316e-01 -4.154841005802154541e-01
3.767789602279663086e-01 -4.250928461551666260e-01 -4.088796377182006836e-01
3.894889652729034424e-01 -4.362072646617889404e-01 -4.191069006919860840e-01
3.895822763442993164e-01 -4.220769703388214111e-01 -4.127624928951263428e-01
2.729079425334930420e-01 -4.221833646297454834e-01 -9.124521166086196899e-02
2.734034955501556396e-01 -4.098760783672332764e-01 -8.338488638401031494e-02
2.900717258453369141e-01 -4.198653101921081543e-01 -9.282228350639343262e-02
2.901474237442016602e-01 -4.074770808219909668e-01 -8.532941341400146484e-02
-1.626517772674560547e-01 2.869383990764617920e-01 2.601844072341918945e-01
-1.580047309398651123e-01 2.997125089168548584e-01 2.602318525314331055e-01
-1.663472205400466919e-01 2.966559231281280518e-01 2.704996168613433838e-01
-1.613350808620452881e-01 3.096603453159332275e-01 2.696828842163085938e-01
-3.483250737190246582e-01 -7.483785152435302734e-01 -1.656790673732757568e-01
-3.574826717376708984e-01 -7.477911710739135742e-01 -1.558843255043029785e-01
-3.368096649646759033e-01 -7.480458617210388184e-01 -1.561912000179290771e-01
-3.473407030105590820e-01 -7.472550272941589355e-01 -1.445729583501815796e-01
-1.552868783473968506e-01 6.066887974739074707e-01 2.362053841352462769e-01
-1.508382558822631836e-01 6.199316382408142090e-01 2.367756664752960205e-01
-1.606586575508117676e-01 6.125993132591247559e-01 2.504647076129913330e-01
-1.569413989782333374e-01 6.257001757621765137e-01 2.514813542366027832e-01
-4.178588688373565674e-01 -1.287765502929687500e-01 -1.061153039336204529e-01
-4.133430123329162598e-01 -1.071401089429855347e-01 -1.042369902133941650e-01
-4.195714294910430908e-01 -1.240587979555130005e-01 -9.214653819799423218e-02
-4.162266552448272705e-01 -1.024214029312133789e-01 -8.996900916099548340e-02
4.617976844310760498e-01 -1.849262267351150513e-01 -2.303895056247711182e-01
4.634816646575927734e-01 -1.649892032146453857e-01 -2.257841825485229492e-01
4.627798795700073242e-01 -1.751506626605987549e-01 -2.115549594163894653e-01
4.643867313861846924e-01 -1.552911251783370972e-01 -2.065240144729614258e-01
-1.801564991474151611e-01 6.507869362831115723e-01 4.925684928894042969e-01
-1.759223192930221558e-01 6.629157662391662598e-01 4.919108450412750244e-01
-1.818879842758178711e-01 6.580890417098999023e-01 5.042591094970703125e-01
-1.780604571104049683e-01 6.698060035705566406e-01 5.039717555046081543e-01
3.151575922966003418e-01 -5.722657442092895508e-01 -4.570266604423522949e-01
3.163191080093383789e-01 -5.545974373817443848e-01 -4.515071511268615723e-01
3.304044604301452637e-01 -5.684228539466857910e-01 -4.605753123760223389e-01
3.317385911941528320e-01 -5.509181022644042969e-01 -4.550932645797729492e-01
1.776970326900482178e-01 9.656542539596557617e-02 -1.674282103776931763e-01
1.769902855157852173e-01 1.059218719601631165e-01 -1.619652062654495239e-01
1.921700835227966309e-01 1.033532097935676575e-01 -1.687330603599548340e-01
1.893298625946044922e-01 1.115374937653541565e-01 -1.624603420495986938e-01
-3.088164627552032471e-01 7.928774505853652954e-02 -9.011881798505783081e-02
-3.123314380645751953e-01 8.805835247039794922e-02 -8.130182325839996338e-02
-2.988157868385314941e-01 8.539380133152008057e-02 -8.350492268800735474e-02
-2.954856157302856445e-01 9.355664998292922974e-02 -8.057229965925216675e-02
-4.255274236202239990e-01 -6.430504918098449707e-01 -3.434017300605773926e-01
-4.335952401161193848e-01 -6.285826563835144043e-01 -3.342620134353637695e-01
-4.119101166725158691e-01 -6.341224908828735352e-01 -3.444396257400512695e-01
-4.201008677482604980e-01 -6.200956106185913086e-01 -3.344958722591400146e-01
1.806107610464096069e-01 -3.353954255580902100e-01 -1.498928517103195190e-01
1.855370551347732544e-01 -3.180849850177764893e-01 -1.489015221595764160e-01
1.872747540473937988e-01 -3.340023159980773926e-01 -1.329668164253234863e-01
1.918155252933502197e-01 -3.169212639331817627e-01 -1.320033222436904907e-01
1.950320601463317871e-01 2.881552577018737793e-01 4.629517346620559692e-02
1.893730163574218750e-01 3.041160404682159424e-01 4.494216665625572205e-02
2.069230526685714722e-01 2.869523167610168457e-01 6.099255383014678955e-02
2.013882547616958618e-01 3.034155070781707764e-01 5.920350551605224609e-02
-4.053639471530914307e-01 4.777946043759584427e-03 7.151877135038375854e-02
-4.027920365333557129e-01 1.730761490762233734e-02 6.989780813455581665e-02
-4.020617306232452393e-01 4.572128411382436752e-03 8.332175016403198242e-02
-3.992104828357696533e-01 1.623886451125144958e-02 8.261954784393310547e-02
-3.480056822299957275e-01 -7.135736346244812012e-01 -1.061926782131195068e-01
-3.540327250957489014e-01 -7.025012373924255371e-01 -1.011601090431213379e-01
-3.375607728958129883e-01 -7.161350250244140625e-01 -1.040610298514366150e-01
-3.420598506927490234e-01 -7.053214907646179199e-01 -9.766747802495956421e-02
-2.492563426494598389e-01 -4.397117495536804199e-01 -1.737203150987625122e-01
-2.372703403234481812e-01 -4.270564019680023193e-01 -1.826488077640533447e-01
-2.372144460678100586e-01 -4.404241144657135010e-01 -1.604804694652557373e-01
-2.249585837125778198e-01 -4.283757209777832031e-01 -1.696104705333709717e-01
-1.328537613153457642e-01 7.664572000503540039e-01 4.679731130599975586e-01
-1.403767019510269165e-01 7.775372266769409180e-01 4.708902835845947266e-01
-1.360795348882675171e-01 7.641473412513732910e-01 4.837617278099060059e-01
-1.456581354141235352e-01 7.748467326164245605e-01 4.872302114963531494e-01
-3.109384775161743164e-01 -4.731858968734741211e-01 -1.945486068725585938e-01
-3.081220984458923340e-01 -4.562717378139495850e-01 -1.941342353820800781e-01
-3.056423366069793701e-01 -4.748597741127014160e-01 -1.788696348667144775e-01
-3.026067018508911133e-01 -4.578995108604431152e-01 -1.786068230867385864e-01
3.117652535438537598e-01 -3.677113354206085205e-01 -3.772235810756683350e-01
3.128867149353027344e-01 -3.528285324573516846e-01 -3.703467547893524170e-01
3.256874382495880127e-01 -3.628989160060882568e-01 -3.791923522949218750e-01
3.271753489971160889e-01 -3.480266630649566650e-01 -3.721957504749298096e-01
-3.796488940715789795e-01 -1.968197226524353027e-01 -1.831942945718765259e-01
-3.804096281528472900e-01 -1.830144673585891724e-01 -1.756422370672225952e-01
-3.655550181865692139e-01 -1.904561221599578857e-01 -1.844219118356704712e-01
-3.660893738269805908e-01 -1.763210445642471313e-01 -1.771295964717864990e-01
-3.847723603248596191e-01 -1.640655845403671265e-01 -1.687054038047790527e-01
-3.838053345680236816e-01 -1.484922915697097778e-01 -1.590306758880615234e-01
-3.717462122440338135e-01 -1.555681824684143066e-01 -1.688506454229354858e-01
-3.714671730995178223e-01 -1.414192765951156616e-01 -1.588036119937896729e-01
4.382108151912689209e-01 -4.906336665153503418e-01 -4.474227726459503174e-01
4.374231994152069092e-01 -4.737227559089660645e-01 -4.436204731464385986e-01
4.488547444343566895e-01 -4.910484552383422852e-01 -4.384302496910095215e-01
4.479836523532867432e-01 -4.741137027740478516e-01 -4.352346360683441162e-01
2.199974060058593750e-01 6.075676679611206055e-01 2.295723706483840942e-01
2.173335254192352295e-01 6.278915405273437500e-01 2.278436422348022461e-01
2.252126336097717285e-01 6.115482449531555176e-01 2.426552325487136841e-01
2.230175733566284180e-01 6.317512392997741699e-01 2.413202524185180664e-01
3.708422780036926270e-01 6.121141836047172546e-02 5.171570461243391037e-03
3.782608807086944580e-01 6.615053117275238037e-02 -3.901783842593431473e-03
3.842241168022155762e-01 6.047357618808746338e-02 1.686590909957885742e-02
3.916897773742675781e-01 6.551167368888854980e-02 7.243206724524497986e-03
8.779634535312652588e-02 3.819597363471984863e-01 2.815529471263289452e-03
8.394009619951248169e-02 3.924718201160430908e-01 5.429374985396862030e-03
1.038939282298088074e-01 3.839250504970550537e-01 6.630330346524715424e-03
9.963390976190567017e-02 3.950898051261901855e-01 9.222394786775112152e-03
-1.702640205621719360e-01 -3.568349182605743408e-01 -2.424112707376480103e-01
-1.676148176193237305e-01 -3.448413014411926270e-01 -2.411721944808959961e-01
-1.628363430500030518e-01 -3.530635535717010498e-01 -2.297822535037994385e-01
-1.606388986110687256e-01 -3.412376344203948975e-01 -2.290597707033157349e-01
4.055401086807250977e-01 -6.729745864868164062e-02 4.861381277441978455e-02
4.097552597522735596e-01 -5.052813142538070679e-02 5.767913162708282471e-02
4.220471382141113281e-01 -6.136462837457656860e-02 4.776914790272712708e-02
4.259105622768402100e-01 -4.489386826753616333e-02 5.666364356875419617e-02
-1.921440511941909790e-01 3.123160898685455322e-01 3.239999711513519287e-01
-1.854443252086639404e-01 3.219998180866241455e-01 3.210582435131072998e-01
-1.971272528171539307e-01 3.180769085884094238e-01 3.355833292007446289e-01
-1.913671344518661499e-01 3.276618421077728271e-01 3.331152796745300293e-01
-3.463706970214843750e-01 7.885332405567169189e-02 -2.526905015110969543e-02
-3.306327462196350098e-01 8.513294160366058350e-02 -3.040854074060916901e-02
-3.341041207313537598e-01 8.323624730110168457e-02 -1.482330262660980225e-02
-3.187355101108551025e-01 9.015781432390213013e-02 -2.041009999811649323e-02
-2.358495742082595825e-01 2.987166345119476318e-01 3.896979391574859619e-01
-2.348985075950622559e-01 3.130799531936645508e-01 3.938429951667785645e-01
-2.322711199522018433e-01 3.002264201641082764e-01 4.026093482971191406e-01
-2.313048392534255981e-01 3.146501481533050537e-01 4.067022204399108887e-01
-9.363520145416259766e-02 2.748295366764068604e-01 1.780726909637451172e-01
-8.586552739143371582e-02 2.925695478916168213e-01 1.788632571697235107e-01
-1.004753410816192627e-01 2.891319394111633301e-01 1.892613917589187622e-01
-9.309379011392593384e-02 3.073752224445343018e-01 1.907449662685394287e-01
1.748965978622436523e-01 4.380300343036651611e-01 9.157628566026687622e-02
1.742996424436569214e-01 4.530573487281799316e-01 9.592583030462265015e-02
1.844701766967773438e-01 4.466098248958587646e-01 1.051857024431228638e-01
1.840190738439559937e-01 4.615523815155029297e-01 1.091851294040679932e-01
-3.361750543117523193e-01 -2.690899968147277832e-01 9.682376682758331299e-02
-3.381534814834594727e-01 -2.544895708560943604e-01 1.043537482619285583e-01
-3.219136595726013184e-01 -2.622112035751342773e-01 9.590538591146469116e-02
-3.235003054141998291e-01 -2.475316226482391357e-01 1.037437021732330322e-01
-2.582629919052124023e-01 -4.429123699665069580e-01 -1.680926829576492310e-01
-2.460441440343856812e-01 -4.305310845375061035e-01 -1.769144982099533081e-01
-2.485745549201965332e-01 -4.433204531669616699e-01 -1.556772291660308838e-01
-2.362071424722671509e-01 -4.310316741466522217e-01 -1.650546044111251831e-01
1.416551768779754639e-01 1.328187584877014160e-01 -1.294911950826644897e-01
1.344363987445831299e-01 1.398178339004516602e-01 -1.170353889465332031e-01
1.518653333187103271e-01 1.391906887292861938e-01 -1.225842684507369995e-01
1.439534723758697510e-01 1.454931646585464478e-01 -1.096075698733329773e-01
-1.887985616922378540e-01 1.608338505029678345e-01 2.346192598342895508e-01
-1.820828020572662354e-01 1.730180680751800537e-01 2.337446957826614380e-01
-1.926375925540924072e-01 1.690960377454757690e-01 2.452133148908615112e-01
-1.859690248966217041e-01 1.816415786743164062e-01 2.444951087236404419e-01
-1.281417310237884521e-01 1.350237876176834106e-01 1.445129513740539551e-01
-1.251191943883895874e-01 1.508617848157882690e-01 1.477303653955459595e-01
-1.370127648115158081e-01 1.483124047517776489e-01 1.582745611667633057e-01
-1.327101588249206543e-01 1.646531969308853149e-01 1.612590402364730835e-01
-2.890600860118865967e-01 -4.777041077613830566e-01 -1.181929856538772583e-01
-2.792995870113372803e-01 -4.664542078971862793e-01 -1.229161843657493591e-01
-2.821549475193023682e-01 -4.767153561115264893e-01 -1.069706007838249207e-01
-2.719889581203460693e-01 -4.655955433845520020e-01 -1.119673326611518860e-01
1.842300742864608765e-01 4.401328265666961670e-01 1.047315970063209534e-01
1.839306950569152832e-01 4.553548097610473633e-01 1.088219434022903442e-01
1.947698295116424561e-01 4.462637603282928467e-01 1.193793490529060364e-01
1.937688589096069336e-01 4.610893130302429199e-01 1.216118857264518738e-01
-3.415198624134063721e-01 -3.468283414840698242e-01 5.860104411840438843e-02
-3.461011350154876709e-01 -3.327758312225341797e-01 6.165565550327301025e-02
-3.291045725345611572e-01 -3.506642878055572510e-01 6.273435056209564209e-02
-3.337418735027313232e-01 -3.377663493156433105e-01 6.668394058942794800e-02
4.878689050674438477e-01 -2.101287692785263062e-01 -2.946307137608528137e-02
4.857470095157623291e-01 -1.933834701776504517e-01 -2.758769504725933075e-02
4.915779531002044678e-01 -2.038256376981735229e-01 -2.264177240431308746e-02
4.895456433296203613e-01 -1.871080696582794189e-01 -2.137351594865322113e-02
4.611909091472625732e-01 -3.957380056381225586e-01 -3.043195009231567383e-01
4.610615670680999756e-01 -3.796242177486419678e-01 -3.040992021560668945e-01
4.618511199951171875e-01 -3.973651528358459473e-01 -2.871757149696350098e-01
4.625795483589172363e-01 -3.813497424125671387e-01 -2.853056192398071289e-01
-3.889851570129394531e-01 -1.889385096728801727e-02 1.333172172307968140e-01
-3.876825869083404541e-01 -6.419157609343528748e-03 1.352129876613616943e-01
