9.141479134559631348e-01 2.683812379837036133e-01 -2.830232083797454834e-01
9.010520577430725098e-01 2.990711629390716553e-01 -2.916796505451202393e-01
-2.430689334869384766e-01 9.203580021858215332e-01 1.298983544111251831e-01
-2.298887968063354492e-01 9.333248138427734375e-01 1.259369850158691406e-01
-2.314363867044448853e-01 9.282130002975463867e-01 1.512342840433120728e-01
-2.178094238042831421e-01 9.402209520339965820e-01 1.460636705160140991e-01
-3.548795580863952637e-01 1.755912303924560547e-01 -5.298320055007934570e-01
-3.323662877082824707e-01 1.930214613676071167e-01 -5.372588634490966797e-01
-3.411601185798645020e-01 1.882613897323608398e-01 -5.120556950569152832e-01
-3.174283206462860107e-01 2.057888805866241455e-01 -5.202543735504150391e-01
5.262544155120849609e-01 -3.358955979347229004e-01 7.378420233726501465e-02
5.407973527908325195e-01 -3.138958811759948730e-01 7.342392206192016602e-02
5.328686237335205078e-01 -3.263573050498962402e-01 9.680460393428802490e-02
5.479191541671752930e-01 -3.039359450340270996e-01 9.797418862581253052e-02
2.423162758350372314e-01 8.182219862937927246e-01 3.104276359081268311e-01
2.230670601129531860e-01 8.383960127830505371e-01 3.197916746139526367e-01
2.210747152566909790e-01 8.183882236480712891e-01 3.416388034820556641e-01
2.007607221603393555e-01 8.392050266265869141e-01 3.501962125301361084e-01
-2.772311270236968994e-01 -2.355549037456512451e-01 -9.274304509162902832e-01
-3.023902773857116699e-01 -2.207757979631423950e-01 -9.012152552604675293e-01
-2.383695542812347412e-01 -2.324187606573104858e-01 -9.219144582748413086e-01
-2.659854888916015625e-01 -2.206507325172424316e-01 -8.940190672874450684e-01
6.126372218132019043e-01 2.713595703244209290e-02 8.740345388650894165e-02
6.111246347427368164e-01 5.385727807879447937e-02 9.042503684759140015e-02
6.236276626586914062e-01 3.343880549073219299e-02 1.111084967851638794e-01
6.226233243942260742e-01 6.026470661163330078e-02 1.137685701251029968e-01
-7.187640294432640076e-04 6.835565567016601562e-01 6.956998109817504883e-01
4.868723452091217041e-03 6.986669301986694336e-01 6.779097318649291992e-01
2.503120340406894684e-02 6.751304268836975098e-01 7.020160555839538574e-01
3.188639879226684570e-02 6.900188326835632324e-01 6.847391724586486816e-01
-6.924040317535400391e-01 -2.870413959026336670e-01 6.316384077072143555e-01
-6.996275782585144043e-01 -2.562397420406341553e-01 6.274928450584411621e-01
-6.719812154769897461e-01 -2.815608978271484375e-01 6.495631337165832520e-01
-6.770304441452026367e-01 -2.503188550472259521e-01 6.471630334854125977e-01
7.313386201858520508e-01 -2.695856988430023193e-01 -2.768624126911163330e-01
7.418237328529357910e-01 -2.530039548873901367e-01 -2.965852916240692139e-01
7.672209739685058594e-01 -2.741200327873229980e-01 -2.734032571315765381e-01
7.802662253379821777e-01 -2.582136094570159912e-01 -2.903214693069458008e-01
-8.025510609149932861e-02 6.759026646614074707e-01 -6.904592514038085938e-01
-8.645661920309066772e-02 6.941104531288146973e-01 -6.764592528343200684e-01
-5.494610965251922607e-02 6.874236464500427246e-01 -6.872635483741760254e-01
-6.464238464832305908e-02 7.041140794754028320e-01 -6.658311486244201660e-01
-2.616750597953796387e-01 2.457069456577301025e-01 6.414536833763122559e-01
-2.395541965961456299e-01 2.726468443870544434e-01 6.351335644721984863e-01
-2.518139779567718506e-01 2.643948495388031006e-01 6.695439219474792480e-01
-2.300056219100952148e-01 2.931487560272216797e-01 6.638852953910827637e-01
6.320393681526184082e-01 -7.721194624900817871e-01 5.957628786563873291e-02
6.525883078575134277e-01 -7.533982992172241211e-01 5.224587395787239075e-02
6.415598988533020020e-01 -7.562184929847717285e-01 7.572079449892044067e-02
6.634354591369628906e-01 -7.365292906761169434e-01 6.798751652240753174e-02
-2.221956700086593628e-01 8.906173110008239746e-01 1.579455584287643433e-01
-2.084238529205322266e-01 9.029833078384399414e-01 1.535128653049468994e-01
-2.137796133756637573e-01 8.941910266876220703e-01 1.762236952781677246e-01
-1.989909559488296509e-01 9.049821496009826660e-01 1.704770177602767944e-01
9.173084497451782227e-01 -3.707941174507141113e-01 1.495582312345504761e-01
9.294446110725402832e-01 -3.467830419540405273e-01 1.470896154642105103e-01
9.162123203277587891e-01 -3.558929860591888428e-01 1.704455316066741943e-01
9.291287064552307129e-01 -3.307047784328460693e-01 1.681716293096542358e-01
-3.835698366165161133e-01 1.555183231830596924e-01 -8.244540095329284668e-01
-3.540104031562805176e-01 1.782358884811401367e-01 -8.359923958778381348e-01
-3.735725283622741699e-01 1.711352914571762085e-01 -7.979744672775268555e-01
-3.429400622844696045e-01 1.937943547964096069e-01 -8.103035092353820801e-01
2.188190519809722900e-01 -3.003529310226440430e-01 8.809604048728942871e-01
2.242173701524734497e-01 -2.652619779109954834e-01 8.830060958862304688e-01
2.227995246648788452e-01 -2.925440669059753418e-01 9.055137634277343750e-01
2.281834185123443604e-01 -2.567645609378814697e-01 9.075002074241638184e-01
5.989676117897033691e-01 2.492156475782394409e-01 1.126646399497985840e-01
5.942044854164123535e-01 2.790321409702301025e-01 1.202525794506072998e-01
6.164072155952453613e-01 2.557964026927947998e-01 1.332242041826248169e-01
6.109841465950012207e-01 2.871518731117248535e-01 1.405539363622665405e-01
-3.685885965824127197e-01 1.629335805773735046e-03 4.754694700241088867e-01
-3.682256937026977539e-01 2.990894205868244171e-02 4.816538393497467041e-01
-3.459012806415557861e-01 7.085341028869152069e-03 4.938975274562835693e-01
-3.467208445072174072e-01 3.553376719355583191e-02 4.975425899028778076e-01
-2.406403124332427979e-01 -1.594891101121902466e-01 -7.898335456848144531e-01
-2.593917846679687500e-01 -1.537421941757202148e-01 -7.603023648262023926e-01
-2.137487828731536865e-01 -1.573790311813354492e-01 -7.702337503433227539e-01
-2.334993481636047363e-01 -1.516189426183700562e-01 -7.375662922859191895e-01
9.569857120513916016e-01 -2.399100363254547119e-01 -1.167187914252281189e-01
9.728155136108398438e-01 -1.982873231172561646e-01 -1.198197901248931885e-01
9.622058272361755371e-01 -2.349412441253662109e-01 -8.759188652038574219e-02
9.764092564582824707e-01 -1.936328560113906860e-01 -8.950009196996688843e-02
1.760389059782028198e-01 -6.054809093475341797e-01 -9.498651325702667236e-02
2.019812017679214478e-01 -5.920590162277221680e-01 -9.284522384405136108e-02
1.928895115852355957e-01 -5.914508700370788574e-01 -7.276260107755661011e-02
2.222922295331954956e-01 -5.781146883964538574e-01 -7.162436842918395996e-02
1.567577272653579712e-01 7.687806487083435059e-01 5.050157904624938965e-01
1.464354097843170166e-01 7.896462082862854004e-01 5.008408427238464355e-01
1.486037522554397583e-01 7.645043730735778809e-01 5.306719541549682617e-01
1.394280195236206055e-01 7.851861119270324707e-01 5.254097580909729004e-01
3.858936727046966553e-01 8.942860960960388184e-01 2.020573243498802185e-02
3.533249199390411377e-01 9.066397547721862793e-01 1.863251812756061554e-02
4.200047850608825684e-01 8.817570805549621582e-01 3.874886780977249146e-02
3.880283832550048828e-01 8.956971764564514160e-01 3.753834217786788940e-02
-4.154427349567413330e-01 9.012683480978012085e-02 -8.845528960227966309e-01
-4.072029292583465576e-01 1.187121421098709106e-01 -8.768292069435119629e-01
-3.913662433624267578e-01 1.026350855827331543e-01 -8.859074711799621582e-01
-3.830847740173339844e-01 1.328901201486587524e-01 -8.781065940856933594e-01
-5.797070860862731934e-01 1.155151724815368652e-01 -2.282127887010574341e-01
-5.983372330665588379e-01 1.371522843837738037e-01 -2.255235910415649414e-01
-5.775797367095947266e-01 1.027946919202804565e-01 -2.053197324275970459e-01
-5.952351689338684082e-01 1.252585649490356445e-01 -2.038818746805191040e-01
3.914699554443359375e-01 -9.281473755836486816e-01 7.823503017425537109e-02
4.243788421154022217e-01 -9.054239988327026367e-01 7.131323963403701782e-02
4.028975665569305420e-01 -9.031754732131958008e-01 1.038716211915016174e-01
4.338805973529815674e-01 -8.786478042602539062e-01 9.688077121973037720e-02
-7.005430459976196289e-01 -6.060519814491271973e-01 3.216564655303955078e-01
-7.223417162895202637e-01 -5.758137106895446777e-01 3.285028040409088135e-01
-6.766934990882873535e-01 -6.161919236183166504e-01 3.503173887729644775e-01
-7.012829184532165527e-01 -5.867563486099243164e-01 3.525395095348358154e-01
8.188697695732116699e-01 -2.174487859010696411e-01 -3.486016392707824707e-01
8.342494368553161621e-01 -2.031360566616058350e-01 -3.668608367443084717e-01
8.435059189796447754e-01 -2.152380347251892090e-01 -3.388614654541015625e-01
8.589682579040527344e-01 -1.996336281299591064e-01 -3.559612333774566650e-01
-1.196593493223190308e-01 -9.651587605476379395e-01 -1.881832629442214966e-01
-1.400828212499618530e-01 -9.637232422828674316e-01 -1.709819138050079346e-01
-9.948977828025817871e-02 -9.711382389068603516e-01 -1.747560501098632812e-01
-1.169837266206741333e-01 -9.685796499252319336e-01 -1.610681414604187012e-01
1.028065383434295654e-02 -1.146443560719490051e-01 -6.120188236236572266e-01
1.442323625087738037e-02 -8.151798695325851440e-02 -6.089034080505371094e-01
3.850618377327919006e-02 -1.085690781474113464e-01 -6.140059232711791992e-01
4.271609708666801453e-02 -7.620778679847717285e-02 -6.108728647232055664e-01
-5.216088891029357910e-01 -1.974789351224899292e-01 8.057760596275329590e-01
-5.250135064125061035e-01 -1.614903807640075684e-01 8.078038692474365234e-01
-4.872586131095886230e-01 -1.858261227607727051e-01 8.273615837097167969e-01
-4.920465946197509766e-01 -1.468149423599243164e-01 8.300324082374572754e-01
1.946947723627090454e-01 2.079864442348480225e-01 8.528009057044982910e-01
1.932734400033950806e-01 2.427492886781692505e-01 8.496840000152587891e-01
2.099270522594451904e-01 2.050977349281311035e-01 8.556119203567504883e-01
2.077716737985610962e-01 2.396951317787170410e-01 8.524745702743530273e-01
-4.111041873693466187e-02 -9.468829631805419922e-01 -2.490596771240234375e-01
-3.012907691299915314e-02 -9.382452964782714844e-01 -2.588569819927215576e-01
-1.856724172830581665e-02 -9.503346681594848633e-01 -2.407129555940628052e-01
-7.150558289140462875e-03 -9.410831928253173828e-01 -2.496766746044158936e-01
-8.426786661148071289e-01 -4.585717320442199707e-01 1.843951642513275146e-01
-8.555392026901245117e-01 -4.243243336677551270e-01 1.873513013124465942e-01
-8.285692930221557617e-01 -4.747597277164459229e-01 2.210369408130645752e-01
-8.405652642250061035e-01 -4.406351149082183838e-01 2.236573696136474609e-01
6.420848965644836426e-01 5.374804139137268066e-01 1.263974606990814209e-01
6.423324942588806152e-01 5.682765245437622070e-01 1.233033686876296997e-01
6.754823327064514160e-01 5.279023647308349609e-01 1.273846924304962158e-01
6.739856004714965820e-01 5.594381690025329590e-01 1.246090084314346313e-01
9.683975577354431152e-01 -5.931796878576278687e-02 -2.225239127874374390e-01
9.738671183586120605e-01 -2.455409057438373566e-02 -2.192036658525466919e-01
9.711591601371765137e-01 -4.747816547751426697e-02 -1.938058584928512573e-01
9.772673249244689941e-01 -1.031343545764684677e-02 -1.888329535722732544e-01
1.918513625860214233e-01 9.583123326301574707e-01 -6.910889595746994019e-02
1.621585190296173096e-01 9.615322947502136230e-01 -5.374059081077575684e-02
2.162605673074722290e-01 9.531357288360595703e-01 -4.672319442033767700e-02
1.845830380916595459e-01 9.570930600166320801e-01 -3.437693044543266296e-02
6.820904612541198730e-01 -4.523880034685134888e-02 -7.157519459724426270e-01
6.865624785423278809e-01 -1.932745240628719330e-02 -7.219389081001281738e-01
6.984487175941467285e-01 -4.632912576198577881e-02 -6.932259798049926758e-01
7.048878073692321777e-01 -2.036618627607822418e-02 -6.994419693946838379e-01
-1.599343568086624146e-01 -1.480271369218826294e-01 -6.270212531089782715e-01
-1.665298044681549072e-01 -1.393598318099975586e-01 -6.117031574249267578e-01
-1.391635090112686157e-01 -1.374754011631011963e-01 -6.287768483161926270e-01
-1.455679386854171753e-01 -1.263018697500228882e-01 -6.153420209884643555e-01
5.226405262947082520e-01 -3.510647714138031006e-01 -2.831504680216312408e-04
5.396088957786560059e-01 -3.268874287605285645e-01 -9.112628176808357239e-03
5.284880399703979492e-01 -3.422971665859222412e-01 2.355832606554031372e-02
5.445823073387145996e-01 -3.198891282081604004e-01 1.878723129630088806e-02
-2.448249012231826782e-01 2.596220076084136963e-01 -4.854994416236877441e-01
-2.312671095132827759e-01 2.810969352722167969e-01 -4.951409399509429932e-01
-2.365455180406570435e-01 2.662031352519989014e-01 -4.615355432033538818e-01
-2.237006425857543945e-01 2.877774238586425781e-01 -4.703247845172882080e-01
-6.978769898414611816e-01 -6.917948722839355469e-01 -2.018472924828529358e-02
-7.204484939575195312e-01 -6.694428920745849609e-01 -2.217627130448818207e-03
-6.857274770736694336e-01 -6.988404393196105957e-01 1.153302844613790512e-02
-7.077419161796569824e-01 -6.742609143257141113e-01 2.939479425549507141e-02
4.980216035619378090e-04 -1.918908655643463135e-01 -8.500447273254394531e-01
-9.995209984481334686e-03 -1.833424568176269531e-01 -8.296108245849609375e-01
3.011913783848285675e-02 -1.777766793966293335e-01 -8.317209482192993164e-01
1.958874240517616272e-02 -1.685550510883331299e-01 -8.116275072097778320e-01
-2.550086379051208496e-02 -6.216635107994079590e-01 5.041640624403953552e-02
-4.112996160984039307e-02 -6.193523406982421875e-01 7.306132465600967407e-02
9.849346242845058441e-04 -6.188174486160278320e-01 7.047860324382781982e-02
-1.043784338980913162e-02 -6.138090491294860840e-01 9.411988407373428345e-02
9.555845856666564941e-01 -2.015027962625026703e-02 2.420369386672973633e-01
9.494111537933349609e-01 6.628199014812707901e-03 2.451997697353363037e-01
9.694777727127075195e-01 -1.656160876154899597e-02 2.512263059616088867e-01
9.632684588432312012e-01 1.024051383137702942e-02 2.548560500144958496e-01
1.069131791591644287e-01 3.740980923175811768e-01 4.651208817958831787e-01
1.152247935533523560e-01 3.934475183486938477e-01 4.473621249198913574e-01
1.263458579778671265e-01 3.676480948925018311e-01 4.702900350093841553e-01
1.334001421928405762e-01 3.894662857055664062e-01 4.542819559574127197e-01
-1.984837055206298828e-01 9.133174419403076172e-01 -2.095380574464797974e-01
-1.864371001720428467e-01 9.313157796859741211e-01 -1.969301551580429077e-01
-1.979555189609527588e-01 9.282285571098327637e-01 -1.795005947351455688e-01
-1.733989566564559937e-01 9.445621371269226074e-01 -1.738392263650894165e-01
4.319097995758056641e-01 8.762747049331665039e-01 1.218053549528121948e-01
3.987624645233154297e-01 8.919924497604370117e-01 1.305958628654479980e-01
4.455250203609466553e-01 8.489944934844970703e-01 1.384050697088241577e-01
4.133585393428802490e-01 8.645661473274230957e-01 1.492700427770614624e-01
-2.438628673553466797e-02 1.743339560925960541e-02 -6.107013821601867676e-01
-2.256307378411293030e-02 5.170406401157379150e-02 -6.076484322547912598e-01
1.131149940192699432e-02 3.014691919088363647e-02 -6.132011413574218750e-01
1.413840055465698242e-02 6.313170492649078369e-02 -6.091557145118713379e-01
-3.710085153579711914e-01 -1.865547597408294678e-01 -8.453761339187622070e-01
-3.893649578094482422e-01 -1.799954622983932495e-01 -8.245437741279602051e-01
-3.453817367553710938e-01 -1.824601441621780396e-01 -8.369225263595581055e-01
-3.644023239612579346e-01 -1.780468076467514038e-01 -8.145805001258850098e-01
-5.818986892700195312e-01 4.782623052597045898e-02 -7.943111062049865723e-01
-5.596362948417663574e-01 6.935684382915496826e-02 -7.953930497169494629e-01
-5.799388289451599121e-01 7.318206131458282471e-02 -7.795993685722351074e-01
-5.571117997169494629e-01 9.422106295824050903e-02 -7.800693511962890625e-01
-2.400507926940917969e-01 -6.254167854785919189e-02 -5.685831904411315918e-01
-2.438288480043411255e-01 -4.578122496604919434e-02 -5.568117499351501465e-01
-2.181619554758071899e-01 -5.342373251914978027e-02 -5.664473772048950195e-01
-2.219866812229156494e-01 -3.699517995119094849e-02 -5.545178651809692383e-01
-1.003701165318489075e-01 4.115368723869323730e-01 -3.920044600963592529e-01
-9.179505705833435059e-02 4.438813328742980957e-01 -3.883158862590789795e-01
-9.920781850814819336e-02 4.318733215332031250e-01 -3.578144907951354980e-01
-9.203398227691650391e-02 4.624855518341064453e-01 -3.534800112247467041e-01
7.420922517776489258e-01 -1.507775187492370605e-01 -6.027168035507202148e-01
7.641487717628479004e-01 -1.314839124679565430e-01 -6.157532334327697754e-01
7.513746023178100586e-01 -1.443098485469818115e-01 -5.848177671432495117e-01
7.732755541801452637e-01 -1.255198717117309570e-01 -5.987847447395324707e-01
2.017300948500633240e-02 6.642451882362365723e-01 7.143924236297607422e-01
2.752217277884483337e-02 6.790367364883422852e-01 6.977548599243164062e-01
4.374191164970397949e-02 6.569553017616271973e-01 7.202658057212829590e-01
5.406345427036285400e-02 6.720950007438659668e-01 7.042066454887390137e-01
-5.601550340652465820e-01 -2.201271206140518188e-01 7.268635183572769165e-02
-5.663880109786987305e-01 -2.005799561738967896e-01 7.135321944952011108e-02
-5.506955385208129883e-01 -2.275487631559371948e-01 9.963053464889526367e-02
-5.566627979278564453e-01 -2.070178538560867310e-01 9.774760156869888306e-02
-8.484429121017456055e-02 4.729534089565277100e-01 -8.490236997604370117e-01
-8.406403660774230957e-02 4.928068220615386963e-01 -8.342374563217163086e-01
-6.875344365835189819e-02 4.931490123271942139e-01 -8.396584987640380859e-01
-6.973870098590850830e-02 5.133295059204101562e-01 -8.231301903724670410e-01
-1.863182336091995239e-02 -1.055714860558509827e-01 -9.776492118835449219e-01
-1.309931091964244843e-02 -6.761634349822998047e-02 -9.795610904693603516e-01
1.815380528569221497e-02 -1.030657440423965454e-01 -9.812653660774230957e-01
2.396684326231479645e-02 -6.703799962997436523e-02 -9.831555485725402832e-01
-1.356878131628036499e-01 7.372999787330627441e-01 -4.164006710052490234e-01
-1.349989324808120728e-01 7.698035240173339844e-01 -4.129791259765625000e-01
-1.382588595151901245e-01 7.503464818000793457e-01 -3.909964561462402344e-01
-1.389566957950592041e-01 7.823899984359741211e-01 -3.873651623725891113e-01
-9.399538040161132812e-01 8.854383230209350586e-02 1.813719868659973145e-01
-9.411673545837402344e-01 1.184335947036743164e-01 1.854208260774612427e-01
-9.358415603637695312e-01 9.322611987590789795e-02 2.206198871135711670e-01
-9.372423887252807617e-01 1.231574714183807373e-01 2.221015989780426025e-01
-9.207290410995483398e-01 -2.300047129392623901e-01 2.116894870996475220e-01
-9.290221929550170898e-01 -1.843518167734146118e-01 2.014480233192443848e-01
-9.139100313186645508e-01 -2.342764139175415039e-01 2.463963925838470459e-01
-9.210383296012878418e-01 -1.901484727859497070e-01 2.364504784345626831e-01
4.085350334644317627e-01 1.276968419551849365e-01 -4.430671334266662598e-01
4.022246599197387695e-01 1.569022685289382935e-01 -4.395147264003753662e-01
4.332672059535980225e-01 1.353803575038909912e-01 -4.224734902381896973e-01
4.277416169643402100e-01 1.639011651277542114e-01 -4.192517995834350586e-01
-5.251600146293640137e-01 -3.002360761165618896e-01 -2.541723549365997314e-01
-5.140933990478515625e-01 -2.824161052703857422e-01 -2.639886140823364258e-01
-5.046570301055908203e-01 -3.010357022285461426e-01 -2.473513036966323853e-01
-4.930932521820068359e-01 -2.830308377742767334e-01 -2.566021978855133057e-01
5.525672435760498047e-01 3.059950843453407288e-02 -2.821199595928192139e-01
5.547446608543395996e-01 5.628584325313568115e-02 -2.854156196117401123e-01
5.640017390251159668e-01 3.394851833581924438e-02 -2.600927054882049561e-01
5.647018551826477051e-01 5.908931419253349304e-02 -2.653148174285888672e-01
2.897500395774841309e-01 5.753125548362731934e-01 2.551643848419189453e-01
2.950991690158843994e-01 6.052682399749755859e-01 2.537479996681213379e-01
2.709161639213562012e-01 5.781908035278320312e-01 2.728345096111297607e-01
2.761597335338592529e-01 6.096982955932617188e-01 2.733896374702453613e-01
-8.949226737022399902e-01 1.641843765974044800e-01 -3.478251695632934570e-01
-8.828431367874145508e-01 1.872270107269287109e-01 -3.373679816722869873e-01
-8.887586593627929688e-01 1.744595617055892944e-01 -3.228434920310974121e-01
-8.775650858879089355e-01 1.972992867231369019e-01 -3.098272383213043213e-01
-5.114232003688812256e-02 9.692399501800537109e-01 2.098692022264003754e-02
-1.772109791636466980e-02 9.687299132347106934e-01 2.160865813493728638e-02
-2.310601063072681427e-02 9.718675613403320312e-01 5.617417022585868835e-02
1.231566071510314941e-02 9.704802632331848145e-01 5.652956664562225342e-02
1.321203410625457764e-01 -1.427687406539916992e-01 6.236778497695922852e-01
1.319374591112136841e-01 -1.103291288018226624e-01 6.283470988273620605e-01
1.435743123292922974e-01 -1.275834143161773682e-01 6.442719101905822754e-01
1.439390331506729126e-01 -9.443299472332000732e-02 6.480541825294494629e-01
2.393570244312286377e-01 8.956118822097778320e-01 -3.130205571651458740e-01
2.200920432806015015e-01 9.039354324340820312e-01 -2.947790920734405518e-01
2.733783721923828125e-01 8.964159488677978516e-01 -2.904624640941619873e-01
2.520253360271453857e-01 9.056401848793029785e-01 -2.746457457542419434e-01
3.868771493434906006e-01 -7.123243212699890137e-01 1.818886548280715942e-01
3.679013848304748535e-01 -6.808309555053710938e-01 1.965705901384353638e-01
3.998674750328063965e-01 -7.005532979965209961e-01 1.794171482324600220e-01
3.757689595222473145e-01 -6.712856292724609375e-01 1.949389874935150146e-01
-2.724095582962036133e-01 -4.491801932454109192e-02 9.380205869674682617e-01
-2.655479013919830322e-01 -1.806741952896118164e-02 9.414122104644775391e-01
-2.458262443542480469e-01 -4.491955041885375977e-02 9.438279867172241211e-01
-2.389048635959625244e-01 -1.865718141198158264e-02 9.469022750854492188e-01
6.131205558776855469e-01 5.446251630783081055e-01 1.240596398711204529e-01
6.147303581237792969e-01 5.771678686141967773e-01 1.238648369908332825e-01
6.476672291755676270e-01 5.334950685501098633e-01 1.258193254470825195e-01
6.487688422203063965e-01 5.648692250251770020e-01 1.236240118741989136e-01
7.576431334018707275e-02 -1.048767268657684326e-01 -9.775825738906860352e-01
8.476412296295166016e-02 -7.112097740173339844e-02 -9.786293506622314453e-01
1.172599717974662781e-01 -1.042174920439720154e-01 -9.740933775901794434e-01
1.274732798337936401e-01 -7.296568900346755981e-02 -9.747278690338134766e-01
1.026059240102767944e-01 -9.857226610183715820e-01 -1.109483242034912109e-01
1.422774344682693481e-01 -9.727905392646789551e-01 -1.343919336795806885e-01
1.241840943694114685e-01 -9.819223880767822266e-01 -7.933402061462402344e-02
1.657319366931915283e-01 -9.680101275444030762e-01 -1.066302359104156494e-01
6.901141405105590820e-01 -3.384197950363159180e-01 1.280014812946319580e-01
6.971929669380187988e-01 -3.137402832508087158e-01 1.282025277614593506e-01
7.226108312606811523e-01 -3.402329683303833008e-01 1.300331503152847290e-01
7.288838624954223633e-01 -3.142570853233337402e-01 1.290034949779510498e-01
-6.740602254867553711e-01 1.315150782465934753e-02 7.069696187973022461e-01
-6.647278070449829102e-01 3.401523828506469727e-02 6.999171376228332520e-01
-6.452040076255798340e-01 2.061384171247482300e-02 7.367945909500122070e-01
-6.313819289207458496e-01 3.825480118393898010e-02 7.278934717178344727e-01
-1.341242194175720215e-01 4.759367108345031738e-01 8.052508234977722168e-01
-1.262097805738449097e-01 5.030388236045837402e-01 8.075361847877502441e-01
-1.235188320279121399e-01 4.841126203536987305e-01 8.361657261848449707e-01
-1.140850931406021118e-01 5.098576545715332031e-01 8.323805928230285645e-01
9.530274271965026855e-01 6.736173480749130249e-02 -2.632128298282623291e-01
9.528899192810058594e-01 1.049197465181350708e-01 -2.668362855911254883e-01
9.626243710517883301e-01 8.286160230636596680e-02 -2.372152507305145264e-01
9.628655910491943359e-01 1.199540495872497559e-01 -2.392631471157073975e-01
-4.021479189395904541e-01 -8.994696140289306641e-01 -1.898696273565292358e-02
-4.344982504844665527e-01 -8.873018622398376465e-01 2.635851502418518066e-03
-3.771858513355255127e-01 -9.056994318962097168e-01 6.312782876193523407e-03
-4.093219935894012451e-01 -8.937479853630065918e-01 2.770362794399261475e-02
9.868404865264892578e-01 -2.858672291040420532e-02 -9.250681847333908081e-02
9.926850795745849609e-01 7.024533115327358246e-03 -9.046252071857452393e-02
9.888817667961120605e-01 -1.358659379184246063e-02 -7.105086743831634521e-02
9.934867620468139648e-01 2.167301625013351440e-02 -6.979050487279891968e-02
-8.026590347290039062e-01 -4.931898117065429688e-01 2.692621350288391113e-01
-8.153740167617797852e-01 -4.608410596847534180e-01 2.704049050807952881e-01
-7.890527248382568359e-01 -4.984965920448303223e-01 3.024246692657470703e-01
-8.022666573524475098e-01 -4.678298234939575195e-01 3.037536144256591797e-01
-4.362791478633880615e-01 -4.243095815181732178e-01 7.702931165695190430e-01
-4.443794786930084229e-01 -3.910028934478759766e-01 7.813546657562255859e-01
-4.108976721763610840e-01 -4.204963445663452148e-01 7.799186706542968750e-01
-4.187940359115600586e-01 -3.869217038154602051e-01 7.915466427803039551e-01
5.276634097099304199e-01 2.294386625289916992e-01 -7.996321916580200195e-01
5.274613499641418457e-01 2.524442970752716064e-01 -7.933719158172607422e-01
5.503702759742736816e-01 2.295787930488586426e-01 -7.872561812400817871e-01
5.496599078178405762e-01 2.530219256877899170e-01 -7.823358774185180664e-01
1.568899154663085938e-01 -9.836732745170593262e-01 -7.674665749073028564e-02
1.976737678050994873e-01 -9.690951704978942871e-01 -1.054597645998001099e-01
1.825817674398422241e-01 -9.784236550331115723e-01 -4.495479166507720947e-02
2.252560555934906006e-01 -9.650364518165588379e-01 -7.236348092555999756e-02
-8.229323625564575195e-01 2.912361919879913330e-02 -5.185672044754028320e-01
-8.264465928077697754e-01 5.889713019132614136e-02 -5.012018084526062012e-01
-8.353438973426818848e-01 5.165424942970275879e-02 -4.885050058364868164e-01
-8.370469808578491211e-01 8.058887720108032227e-02 -4.724823832511901855e-01
-2.793228626251220703e-01 2.310556471347808838e-01 6.633642911911010742e-01
-2.567943334579467773e-01 2.571712434291839600e-01 6.574923396110534668e-01
-2.679110765457153320e-01 2.474517673254013062e-01 6.928268074989318848e-01
-2.453292012214660645e-01 2.758519053459167480e-01 6.856035590171813965e-01
7.245295047760009766e-01 -6.894093751907348633e-01 -5.073950812220573425e-02
7.418574094772338867e-01 -6.666056513786315918e-01 -5.523708835244178772e-02
7.333106994628906250e-01 -6.826696395874023438e-01 -2.678036503493785858e-02
7.506770491600036621e-01 -6.595833897590637207e-01 -3.286951035261154175e-02
-8.073146939277648926e-01 -5.193232297897338867e-01 1.773422807455062866e-01
-8.288319110870361328e-01 -4.870180487632751465e-01 1.782438904047012329e-01
-7.900987863540649414e-01 -5.372587442398071289e-01 2.126408815383911133e-01
-8.126509785652160645e-01 -5.042364001274108887e-01 2.116569280624389648e-01
-8.608355522155761719e-01 6.243957951664924622e-02 4.486168324947357178e-01
-8.577768206596374512e-01 8.871491998434066772e-02 4.486433863639831543e-01
-8.411024808883666992e-01 6.758201122283935547e-02 4.737299084663391113e-01
-8.366495370864868164e-01 9.457127004861831665e-02 4.730338752269744873e-01
-3.282446265220642090e-01 1.926231533288955688e-01 5.844414234161376953e-01
-3.039298951625823975e-01 2.097194790840148926e-01 5.835620760917663574e-01
-3.174324929714202881e-01 2.060496062040328979e-01 6.090415120124816895e-01
-2.937453985214233398e-01 2.239660471677780151e-01 6.079899668693542480e-01
6.739047914743423462e-02 7.863770723342895508e-01 5.733234882354736328e-01
7.993940263986587524e-02 7.965454459190368652e-01 5.506328940391540527e-01
9.314233809709548950e-02 7.762724757194519043e-01 5.826018452644348145e-01
1.056950837373733521e-01 7.866439819335937500e-01 5.596209764480590820e-01
-8.722714185714721680e-01 1.861068010330200195e-01 -1.093882396817207336e-01
-8.862976431846618652e-01 1.954146474599838257e-01 -8.739970624446868896e-02
-8.666629791259765625e-01 1.917365491390228271e-01 -7.961053401231765747e-02
-8.806135058403015137e-01 2.015400528907775879e-01 -5.905701220035552979e-02
-6.095560789108276367e-01 -6.726615428924560547e-01 3.745572865009307861e-01
-6.351844668388366699e-01 -6.447322368621826172e-01 3.753209114074707031e-01
-5.839653611183166504e-01 -6.792477369308471680e-01 4.010247588157653809e-01
-6.090222001075744629e-01 -6.518925428390502930e-01 4.022160470485687256e-01
4.313662946224212646e-01 5.936649441719055176e-01 -6.538932323455810547e-01
4.139236807823181152e-01 6.174243688583374023e-01 -6.386976838111877441e-01
4.598471522331237793e-01 5.946580171585083008e-01 -6.354269385337829590e-01
4.425560534000396729e-01 6.186690330505371094e-01 -6.204009652137756348e-01
-1.568701416254043579e-01 -4.471617341041564941e-01 8.712035417556762695e-01
-1.728334277868270874e-01 -4.187241196632385254e-01 8.802682161331176758e-01
-1.242395341396331787e-01 -4.407691657543182373e-01 8.721209764480590820e-01
-1.393808871507644653e-01 -4.127817153930664062e-01 8.808555603027343750e-01
5.705224722623825073e-02 -9.751653075218200684e-01 -2.240636497735977173e-01
7.542896270751953125e-02 -9.567194581031799316e-01 -2.272553890943527222e-01
8.874469995498657227e-02 -9.694191813468933105e-01 -2.111108750104904175e-01
1.070446372032165527e-01 -9.482330679893493652e-01 -2.105334699153900146e-01
-8.244903087615966797e-01 -4.615008831024169922e-01 -1.619163155555725098e-01
-8.509693741798400879e-01 -4.396902322769165039e-01 -1.554565578699111938e-01
-8.123297691345214844e-01 -4.829877912998199463e-01 -1.459628492593765259e-01
-8.361952304840087891e-01 -4.579000174999237061e-01 -1.422093510627746582e-01
9.440948069095611572e-02 -6.247451305389404297e-01 -1.381480395793914795e-01
9.005770832300186157e-02 -6.108774542808532715e-01 -1.175135672092437744e-01
1.133878529071807861e-01 -6.145297288894653320e-01 -1.222795918583869934e-01
1.187263056635856628e-01 -6.024723649024963379e-01 -1.075114384293556213e-01
2.385065108537673950e-01 -5.770522952079772949e-01 4.429122805595397949e-02
2.634887397289276123e-01 -5.660147666931152344e-01 4.104487597942352295e-02
2.490861713886260986e-01 -5.703511238098144531e-01 7.539702206850051880e-02
2.755917310714721680e-01 -5.566173791885375977e-01 6.324247270822525024e-02
-5.310332030057907104e-02 3.183752894401550293e-01 5.125070810317993164e-01
-4.083501920104026794e-02 3.414485454559326172e-01 4.968854188919067383e-01
-2.036003768444061279e-02 3.142697215080261230e-01 5.200272798538208008e-01
-9.062460623681545258e-03 3.364188075065612793e-01 5.041245222091674805e-01
2.834334671497344971e-01 2.885251939296722412e-01 -8.973369002342224121e-01
2.877250313758850098e-01 3.210449814796447754e-01 -8.819981217384338379e-01
3.038902580738067627e-01 2.936914265155792236e-01 -8.876686692237854004e-01
3.094869256019592285e-01 3.259824216365814209e-01 -8.723923563957214355e-01
9.182057976722717285e-01 -3.694440722465515137e-01 1.478189527988433838e-01
9.303419589996337891e-01 -3.454329967498779297e-01 1.453503370285034180e-01
9.170798063278198242e-01 -3.544950485229492188e-01 1.687442064285278320e-01
9.299961924552917480e-01 -3.293068408966064453e-01 1.664703041315078735e-01
-7.686385512351989746e-01 5.887392908334732056e-02 -5.997906327247619629e-01
-7.833508849143981934e-01 7.547662407159805298e-02 -5.751891732215881348e-01
-7.777800559997558594e-01 7.180328667163848877e-02 -5.740036964416503906e-01
-7.910161614418029785e-01 8.816859126091003418e-02 -5.502722859382629395e-01
4.975585639476776123e-01 -6.684020161628723145e-01 1.376830339431762695e-01
4.973214864730834961e-01 -6.364248394966125488e-01 1.396173387765884399e-01
5.223227143287658691e-01 -6.592230796813964844e-01 1.326441168785095215e-01
5.220644474029541016e-01 -6.277410984039306641e-01 1.350557804107666016e-01
1.993621885776519775e-01 5.567181110382080078e-01 1.393501460552215576e-01
1.642016172409057617e-01 5.647197961807250977e-01 1.512714028358459473e-01
2.160022556781768799e-01 5.450806021690368652e-01 1.696913391351699829e-01
1.810549795627593994e-01 5.529999732971191406e-01 1.807094067335128784e-01
4.988958537578582764e-01 3.477444350719451904e-01 4.501828551292419434e-02
4.861215949058532715e-01 3.678162992000579834e-01 6.185929104685783386e-02
5.076227784156799316e-01 3.473995625972747803e-01 6.729611009359359741e-02
4.950410127639770508e-01 3.690581619739532471e-01 8.503393828868865967e-02
9.888253360986709595e-02 4.897717535495758057e-01 -3.499321341514587402e-01
6.936932355165481567e-02 5.090820789337158203e-01 -3.319343030452728271e-01
1.320392191410064697e-01 4.964451193809509277e-01 -3.323045969009399414e-01
1.029145196080207825e-01 5.151243209838867188e-01 -3.147254288196563721e-01
-9.430682659149169922e-02 -7.630328536033630371e-01 6.263018250465393066e-01
-1.045448929071426392e-01 -7.403467297554016113e-01 6.494197249412536621e-01
-5.913463234901428223e-02 -7.469497323036193848e-01 6.405535936355590820e-01
-7.059657573699951172e-02 -7.243110537528991699e-01 6.637721657752990723e-01
7.567897439002990723e-01 2.442018389701843262e-01 1.429202705621719360e-01
7.604500651359558105e-01 2.790603041648864746e-01 1.454640179872512817e-01
7.847222089767456055e-01 2.611806690692901611e-01 1.442022621631622314e-01
7.884733676910400391e-01 2.976431250572204590e-01 1.452340036630630493e-01
6.634820103645324707e-01 -2.195165455341339111e-01 1.220814287662506104e-01
6.650788187980651855e-01 -1.929904967546463013e-01 1.197083964943885803e-01
6.974465847015380859e-01 -2.201325595378875732e-01 1.284566968679428101e-01
6.991679668426513672e-01 -1.934219300746917725e-01 1.286473721265792847e-01
3.649591803550720215e-01 -9.227826595306396484e-01 1.832410395145416260e-01
3.811305165290832520e-01 -8.974214792251586914e-01 1.823700666427612305e-01
3.531156182289123535e-01 -8.995466232299804688e-01 2.095343917608261108e-01
3.625872433185577393e-01 -8.706768751144409180e-01 2.110479325056076050e-01
-2.658748626708984375e-01 -7.018083333969116211e-01 6.391051411628723145e-01
-2.936195135116577148e-01 -6.802235841751098633e-01 6.490535140037536621e-01
-2.363869845867156982e-01 -7.037613987922668457e-01 6.447265148162841797e-01
-2.605865597724914551e-01 -6.829403042793273926e-01 6.579727530479431152e-01
-4.808456003665924072e-01 1.269436180591583252e-01 -4.698380231857299805e-01
-4.652780294418334961e-01 1.361018121242523193e-01 -4.799170792102813721e-01
-4.604812264442443848e-01 1.208823844790458679e-01 -4.505181312561035156e-01
-4.656408131122589111e-01 1.287856400012969971e-01 -4.512574076652526855e-01
9.309098124504089355e-01 -3.361443281173706055e-01 -1.284947991371154785e-01
9.381853342056274414e-01 -3.010851442813873291e-01 -1.436432749032974243e-01
9.451867341995239258e-01 -3.234316408634185791e-01 -1.042364984750747681e-01
9.531146883964538574e-01 -2.879655659198760986e-01 -1.194508299231529236e-01
-1.475026905536651611e-01 4.092313647270202637e-01 7.787702679634094238e-01
-1.381170004606246948e-01 4.368197917938232422e-01 7.792493700981140137e-01
-1.426533609628677368e-01 4.236726164817810059e-01 8.084972500801086426e-01
-1.338531970977783203e-01 4.511384069919586182e-01 8.092433810234069824e-01
-4.205726981163024902e-01 -6.217426061630249023e-01 -1.246993318200111389e-01
-4.226882755756378174e-01 -5.916225314140319824e-01 -1.245109736919403076e-01
-3.901294767856597900e-01 -6.213696002960205078e-01 -1.239003166556358337e-01
-3.909010291099548340e-01 -5.907943844795227051e-01 -1.244790256023406982e-01
-8.965787887573242188e-01 -3.786284029483795166e-01 -5.375681817531585693e-02
-9.075604081153869629e-01 -3.456919193267822266e-01 -5.246967077255249023e-02
-9.005599021911621094e-01 -3.775620460510253906e-01 -2.315351180732250214e-02
-9.126666784286499023e-01 -3.435832262039184570e-01 -2.029577642679214478e-02
4.419924616813659668e-01 -7.504551112651824951e-02 -4.345370829105377197e-01
4.437663853168487549e-01 -4.825321957468986511e-02 -4.360718727111816406e-01
4.650177657604217529e-01 -6.554026901721954346e-02 -4.103305339813232422e-01
4.650508463382720947e-01 -3.745533525943756104e-02 -4.130995571613311768e-01
-4.428290426731109619e-01 1.371297836303710938e-01 -5.074235200881958008e-01
-4.146859645843505859e-01 1.484570354223251343e-01 -5.175371170043945312e-01
-4.209691286087036133e-01 1.450813710689544678e-01 -4.868830442428588867e-01
-4.047952294349670410e-01 1.556195616722106934e-01 -4.946569800376892090e-01
8.121891021728515625e-01 2.793578505516052246e-01 -4.866509735584259033e-01
8.117340207099914551e-01 3.034141659736633301e-01 -4.779289066791534424e-01
8.274700641632080078e-01 2.924190163612365723e-01 -4.596742391586303711e-01
8.267986178398132324e-01 3.171375989913940430e-01 -4.517450928688049316e-01
-9.102586507797241211e-01 1.843715757131576538e-01 2.278737872838973999e-01
-9.217557907104492188e-01 2.016472220420837402e-01 2.393846064805984497e-01
-8.992518782615661621e-01 1.836641877889633179e-01 2.601284682750701904e-01
-9.122744798660278320e-01 1.993526220321655273e-01 2.729019522666931152e-01
9.715600609779357910e-01 1.141059845685958862e-01 -1.242827996611595154e-01
9.748576283454895020e-01 1.457652598619461060e-01 -1.226869449019432068e-01
9.786586761474609375e-01 1.272152960300445557e-01 -9.440936893224716187e-02
9.821410775184631348e-01 1.590600609779357910e-01 -9.311302006244659424e-02
-9.638028144836425781e-01 8.279615640640258789e-02 -3.118153847754001617e-02
-9.592630267143249512e-01 1.170425638556480408e-01 -2.948399819433689117e-02
-9.660745263099670410e-01 9.224650263786315918e-02 -3.502966836094856262e-03
-9.632469415664672852e-01 1.267725080251693726e-01 -8.704693755134940147e-04
4.260955452919006348e-01 -1.998476982116699219e-01 -8.330866098403930664e-01
4.395271539688110352e-01 -1.839489489793777466e-01 -8.397712707519531250e-01
4.553310275077819824e-01 -1.947284936904907227e-01 -8.253409862518310547e-01
4.688269197940826416e-01 -1.779610663652420044e-01 -8.311256766319274902e-01
7.409744262695312500e-01 -6.452088952064514160e-01 1.049288883805274963e-01
7.614888548851013184e-01 -6.236404776573181152e-01 9.596437960863113403e-02
7.533353567123413086e-01 -6.337165236473083496e-01 1.252704560756683350e-01
7.716645002365112305e-01 -6.127496361732482910e-01 1.180354133248329163e-01
4.638549089431762695e-01 7.074255347251892090e-01 -5.044348239898681641e-01
4.405603408813476562e-01 7.287402153015136719e-01 -4.912384450435638428e-01
4.971072971820831299e-01 6.962988972663879395e-01 -4.846218526363372803e-01
4.691919982433319092e-01 7.197243571281433105e-01 -4.745504856109619141e-01
-4.789062738418579102e-01 -4.416991770267486572e-02 -3.733440339565277100e-01
-4.831103980541229248e-01 -1.112934201955795288e-02 -3.664020895957946777e-01
-4.988636672496795654e-01 -4.322004318237304688e-02 -3.417831659317016602e-01
-5.031757950782775879e-01 -1.179021224379539490e-02 -3.341094851493835449e-01
-7.048821449279785156e-01 1.230172514915466309e-01 2.281479835510253906e-01
-7.384960651397705078e-01 1.279039233922958374e-01 2.480290681123733521e-01
-6.796734333038330078e-01 1.194968074560165405e-01 2.447135597467422485e-01
-7.128624916076660156e-01 1.229792311787605286e-01 2.656079232692718506e-01
-7.360666990280151367e-01 1.160987019538879395e-01 5.122687816619873047e-01
-7.399501800537109375e-01 1.306013315916061401e-01 5.132675766944885254e-01
-7.131179571151733398e-01 1.208636611700057983e-01 5.357892513275146484e-01
-7.149990797042846680e-01 1.325138211250305176e-01 5.386303663253784180e-01
5.711936205625534058e-02 5.173077583312988281e-01 -8.282306790351867676e-01
5.187666788697242737e-02 5.441769957542419434e-01 -8.083714842796325684e-01
8.832664042711257935e-02 5.238168239593505859e-01 -8.210315704345703125e-01
7.904067635536193848e-02 5.493803620338439941e-01 -8.014466762542724609e-01
2.326874285936355591e-01 6.831844449043273926e-01 -6.600695848464965820e-01
2.217675745487213135e-01 7.015898227691650391e-01 -6.412018537521362305e-01
2.523621916770935059e-01 6.892779469490051270e-01 -6.491299271583557129e-01
2.400388717651367188e-01 7.054229378700256348e-01 -6.321485042572021484e-01
8.044339418411254883e-01 -1.207873821258544922e-01 -5.617861151695251465e-01
8.155971169471740723e-01 -9.828646481037139893e-02 -5.739392638206481934e-01
8.196818232536315918e-01 -1.219637319445610046e-01 -5.390711426734924316e-01
8.274495601654052734e-01 -9.871458262205123901e-02 -5.499547719955444336e-01
-1.594473421573638916e-01 7.329990267753601074e-01 5.823242068290710449e-01
-1.484448611736297607e-01 7.600075602531433105e-01 5.569730401039123535e-01
-1.308528035879135132e-01 7.227343320846557617e-01 6.138146519660949707e-01
-1.201608180999755859e-01 7.475524544715881348e-01 5.873928070068359375e-01
5.828272700309753418e-01 -2.351630032062530518e-01 -1.799862086772918701e-02
5.941761732101440430e-01 -2.092302590608596802e-01 -1.254654955118894577e-02
5.884604454040527344e-01 -2.209903746843338013e-01 1.016430091112852097e-02
6.002014279365539551e-01 -1.960628479719161987e-01 1.561319269239902496e-02
2.342723757028579712e-01 7.748316526412963867e-01 -5.494133234024047852e-01
2.168335467576980591e-01 7.926957607269287109e-01 -5.316709280014038086e-01
2.589988410472869873e-01 7.822293639183044434e-01 -5.351896882057189941e-01
2.424364387989044189e-01 8.000668287277221680e-01 -5.205783843994140625e-01
2.512397617101669312e-02 -5.539937615394592285e-01 8.199203014373779297e-01
2.549504488706588745e-02 -5.267449021339416504e-01 8.372124433517456055e-01
5.940767377614974976e-02 -5.425637364387512207e-01 8.224266171455383301e-01
5.627166479825973511e-02 -5.160287618637084961e-01 8.404530286788940430e-01
-8.549373149871826172e-01 -3.906542062759399414e-01 -1.935292929410934448e-01
-8.857808709144592285e-01 -3.773944377899169922e-01 -1.818573474884033203e-01
-8.475960493087768555e-01 -4.107609689235687256e-01 -1.787065118551254272e-01
-8.782206773757934570e-01 -3.974941372871398926e-01 -1.671795397996902466e-01
8.253935575485229492e-01 5.422140955924987793e-01 3.647246211767196655e-02
8.117271661758422852e-01 5.622981190681457520e-01 4.538673162460327148e-02
8.284255266189575195e-01 5.319272875785827637e-01 6.751497834920883179e-02
8.134464621543884277e-01 5.526103973388671875e-01 7.498218864202499390e-02
8.519183397293090820e-01 -5.153719782829284668e-01 9.610787779092788696e-02
8.698487877845764160e-01 -4.878167808055877686e-01 8.558008819818496704e-02
8.632142543792724609e-01 -5.018398165702819824e-01 1.134178414940834045e-01
8.744647502899169922e-01 -4.733648598194122314e-01 1.109104901552200317e-01
-6.459270715713500977e-01 -3.177145421504974365e-01 6.645680069923400879e-01
-6.436448693275451660e-01 -2.845425307750701904e-01 6.692361235618591309e-01
-6.238994002342224121e-01 -3.089091181755065918e-01 6.839417815208435059e-01
-6.205989718437194824e-01 -2.757873535156250000e-01 6.896077394485473633e-01
-2.047902792692184448e-01 8.751095533370971680e-01 3.203988075256347656e-01
-1.887804567813873291e-01 8.939408063888549805e-01 3.123533725738525391e-01
-1.959851533174514771e-01 8.846069574356079102e-01 3.459823429584503174e-01
-1.812363415956497192e-01 9.052808880805969238e-01 3.391139507293701172e-01
-1.915428191423416138e-01 3.186947703361511230e-01 7.946217656135559082e-01
-1.787542104721069336e-01 3.498747348785400391e-01 7.892712354660034180e-01
-1.855674982070922852e-01 3.321659564971923828e-01 8.304987549781799316e-01
-1.752131879329681396e-01 3.615114390850067139e-01 8.244099617004394531e-01
7.693552374839782715e-01 -2.974931001663208008e-01 1.451776772737503052e-01
7.754933834075927734e-01 -2.688163816928863525e-01 1.460584849119186401e-01
8.009012341499328613e-01 -2.975994348526000977e-01 1.535605341196060181e-01
8.063917160034179688e-01 -2.677263617515563965e-01 1.538299769163131714e-01
3.266810774803161621e-01 5.807710886001586914e-01 -7.190967798233032227e-01
3.190473616123199463e-01 6.091923117637634277e-01 -6.972241401672363281e-01
3.482129275798797607e-01 5.904428362846374512e-01 -7.055872082710266113e-01
3.386298120021820068e-01 6.187949776649475098e-01 -6.847383975982666016e-01
-1.487215049564838409e-02 -8.701457977294921875e-01 -1.931951940059661865e-01
-7.370214909315109253e-03 -8.457822799682617188e-01 -1.843235045671463013e-01
1.550007145851850510e-02 -8.751382827758789062e-01 -1.916083395481109619e-01
2.348505519330501556e-02 -8.482950925827026367e-01 -1.814147531986236572e-01
-6.640536189079284668e-01 1.178136765956878662e-01 2.557510733604431152e-01
-6.970918774604797363e-01 1.217178329825401306e-01 2.761999070644378662e-01
-6.394541859626770020e-01 1.150973588228225708e-01 2.734554708003997803e-01
-6.680330634117126465e-01 1.171731725335121155e-01 2.951840162277221680e-01
1.122594922780990601e-01 2.487858086824417114e-01 5.377467274665832520e-01
1.219834387302398682e-01 2.768869102001190186e-01 5.294283032417297363e-01
1.294217109680175781e-01 2.491007894277572632e-01 5.519438385963439941e-01
1.377396732568740845e-01 2.791984379291534424e-01 5.476976633071899414e-01
-1.782747805118560791e-01 8.520987033843994141e-01 -3.162406086921691895e-01
-1.948845237493515015e-01 8.716157078742980957e-01 -2.874431014060974121e-01
-1.858360767364501953e-01 8.708639144897460938e-01 -2.870764136314392090e-01
-2.018415629863739014e-01 8.905414938926696777e-01 -2.585004866123199463e-01
7.427712678909301758e-01 5.283757671713829041e-02 -6.505548954010009766e-01
7.471108436584472656e-01 7.650856673717498779e-02 -6.512221097946166992e-01
7.645969986915588379e-01 5.561768636107444763e-02 -6.282201409339904785e-01
7.665563821792602539e-01 8.057971298694610596e-02 -6.309363245964050293e-01
1.445869952440261841e-01 -5.532947182655334473e-01 2.443509399890899658e-01
1.254009306430816650e-01 -5.446579456329345703e-01 2.711149156093597412e-01
1.694515794515609741e-01 -5.525583028793334961e-01 2.577571272850036621e-01
1.489471048116683960e-01 -5.407487750053405762e-01 2.820917963981628418e-01
-2.795234322547912598e-01 -3.275200128555297852e-01 8.883514404296875000e-01
-2.787288427352905273e-01 -2.963343560695648193e-01 8.940612673759460449e-01
-2.474288195371627808e-01 -3.248161077499389648e-01 8.936430811882019043e-01
-2.477275431156158447e-01 -2.942146658897399902e-01 8.991063237190246582e-01
1.656132191419601440e-01 -1.490771770477294922e-01 -6.018399000167846680e-01
1.570882201194763184e-01 -1.340841948986053467e-01 -5.849469900131225586e-01
1.901870816946029663e-01 -1.333042979240417480e-01 -5.948203802108764648e-01
1.804242879152297974e-01 -1.203762516379356384e-01 -5.762016177177429199e-01
1.227568462491035461e-01 8.092401027679443359e-01 -5.254476666450500488e-01
9.681568294763565063e-02 8.298470377922058105e-01 -4.983158707618713379e-01
1.529095768928527832e-01 8.189519047737121582e-01 -5.062130689620971680e-01
1.265446990728378296e-01 8.397603631019592285e-01 -4.794413447380065918e-01
9.379178881645202637e-01 -3.357275575399398804e-02 2.286752164363861084e-01
9.309424161911010742e-01 -7.556370459496974945e-03 2.347246855497360229e-01
9.511034488677978516e-01 -2.865280956029891968e-02 2.368992865085601807e-01
9.442186355590820312e-01 -2.461345866322517395e-03 2.422373741865158081e-01
2.646650671958923340e-01 9.367690682411193848e-01 -3.454338759183883667e-02
2.331506162881851196e-01 9.414395093917846680e-01 -2.286433242261409760e-02
2.902356982231140137e-01 9.323911070823669434e-01 -1.566610671579837799e-02
2.587643861770629883e-01 9.373682737350463867e-01 -5.206913221627473831e-03
-1.269669681787490845e-01 7.117822766304016113e-01 -4.457539916038513184e-01
-1.259574741125106812e-01 7.425203323364257812e-01 -4.439273774623870850e-01
-1.270591616630554199e-01 7.194931507110595703e-01 -4.200995862483978271e-01
-1.299135088920593262e-01 7.526900768280029297e-01 -4.157241582870483398e-01
-9.585710167884826660e-01 -3.404433839023113251e-03 -1.546833515167236328e-01
