1.096475198864936829e-01 -1.216797530651092529e-01 7.102870382368564606e-03
7.186839729547500610e-02 -3.480280935764312744e-01 1.828442793339490891e-03
6.924393028020858765e-02 -3.359310030937194824e-01 3.421390661969780922e-03
6.781379878520965576e-02 -3.460279405117034912e-01 9.443658404052257538e-03
6.518933176994323730e-02 -3.339308500289916992e-01 1.103660650551319122e-02
-6.988749653100967407e-02 4.390682280063629150e-01 -7.605845481157302856e-02
-7.057215273380279541e-02 4.452802836894989014e-01 -8.232704550027847290e-02
-6.782951951026916504e-02 4.291242957115173340e-01 -6.289588660001754761e-02
-7.020197063684463501e-02 4.339658319950103760e-01 -7.004790008068084717e-02
-8.621788024902343750e-02 -2.427867949008941650e-01 -6.476309299468994141e-01
-8.745189756155014038e-02 -2.263025045394897461e-01 -6.505911350250244141e-01
-8.886046707630157471e-02 -2.438947260379791260e-01 -6.331455707550048828e-01
-9.137465059757232666e-02 -2.280355691909790039e-01 -6.355920433998107910e-01
1.083484366536140442e-01 3.469975292682647705e-01 7.146596908569335938e-02
1.013969630002975464e-01 3.577994108200073242e-01 7.129060477018356323e-02
1.074148342013359070e-01 3.455267548561096191e-01 8.521460741758346558e-02
9.999151527881622314e-02 3.578259348869323730e-01 8.231230080127716064e-02
-9.290485084056854248e-02 -1.538800001144409180e-01 -7.561977952718734741e-03
-9.570845216512680054e-02 -1.417924612760543823e-01 -4.247325472533702850e-03
-1.034315675497055054e-01 -1.541161835193634033e-01 -2.313761739060282707e-03
-1.048014163970947266e-01 -1.414074152708053589e-01 1.116772880777716637e-03
3.835338354110717773e-02 -1.997134387493133545e-01 -6.189509034156799316e-01
3.393842279911041260e-02 -1.898044198751449585e-01 -6.249603629112243652e-01
4.217113554477691650e-02 -1.985615044832229614e-01 -6.067199110984802246e-01
3.699204325675964355e-02 -1.888746619224548340e-01 -6.132473349571228027e-01
1.041553262621164322e-02 3.126939758658409119e-02 -6.609249114990234375e-01
4.793409723788499832e-03 5.822190642356872559e-02 -6.598687767982482910e-01
-2.555998740717768669e-03 2.864638343453407288e-02 -6.505174636840820312e-01
-7.945226505398750305e-03 5.585800856351852417e-02 -6.487621068954467773e-01
-4.737855121493339539e-02 7.098752260208129883e-02 -4.754302799701690674e-01
-4.156892001628875732e-02 8.295787125825881958e-02 -4.763602912425994873e-01
-5.469672381877899170e-02 6.764898449182510376e-02 -4.609840810298919678e-01
-4.984593018889427185e-02 7.967453449964523315e-02 -4.611835479736328125e-01
1.570548266172409058e-01 2.827054262161254883e-01 -4.634514153003692627e-01
1.477226018905639648e-01 2.932296693325042725e-01 -4.695982038974761963e-01
1.630256772041320801e-01 2.821218073368072510e-01 -4.446257948875427246e-01
1.545334607362747192e-01 2.928875088691711426e-01 -4.518916308879852295e-01
-3.064532950520515442e-02 1.028694733977317810e-01 -4.385899305343627930e-01
-3.537630289793014526e-02 1.078332215547561646e-01 -4.483071267604827881e-01
-4.021834582090377808e-02 9.299255907535552979e-02 -4.252186715602874756e-01
-4.396323114633560181e-02 9.826262295246124268e-02 -4.351901412010192871e-01
4.018760845065116882e-02 -2.011676579713821411e-01 -6.157903671264648438e-01
3.555794805288314819e-02 -1.914511322975158691e-01 -6.218051910400390625e-01
4.594259336590766907e-02 -2.010061293840408325e-01 -6.016978621482849121e-01
4.031566902995109558e-02 -1.915347427129745483e-01 -6.081409454345703125e-01
1.290040910243988037e-01 3.257817029953002930e-02 -4.154327213764190674e-01
1.241463273763656616e-01 4.534074291586875916e-02 -4.101915955543518066e-01
1.261201947927474976e-01 3.701631724834442139e-02 -4.060893654823303223e-01
1.213889643549919128e-01 4.961027950048446655e-02 -3.994587063789367676e-01
-1.116507500410079956e-01 -7.188910245895385742e-01 -5.565731525421142578e-01
-1.219338253140449524e-01 -7.153709530830383301e-01 -5.625584125518798828e-01
-1.124547421932220459e-01 -7.221338152885437012e-01 -5.411905646324157715e-01
-1.232906132936477661e-01 -7.187098264694213867e-01 -5.469638109207153320e-01
-2.143561094999313354e-01 1.607038825750350952e-01 -1.128963232040405273e-01
-2.156730741262435913e-01 1.777739077806472778e-01 -1.160968616604804993e-01
-2.098008245229721069e-01 1.561705470085144043e-01 -9.292007982730865479e-02
-2.111300230026245117e-01 1.738837808370590210e-01 -9.660927951335906982e-02
1.743303686380386353e-01 1.045530885457992554e-01 -5.216385126113891602e-01
1.704486012458801270e-01 1.208198517560958862e-01 -5.321998596191406250e-01
1.798945963382720947e-01 1.042531207203865051e-01 -5.027573704719543457e-01
1.761570423841476440e-01 1.205082386732101440e-01 -5.131289958953857422e-01
4.148108884692192078e-02 4.774463921785354614e-02 -4.957130551338195801e-01
3.637066483497619629e-02 6.012359261512756348e-02 -5.013064742088317871e-01
4.928926751017570496e-02 4.712907224893569946e-02 -4.830308258533477783e-01
4.276159778237342834e-02 5.963572487235069275e-02 -4.895213842391967773e-01
-7.215547561645507812e-02 -7.136623263359069824e-01 -6.456636190414428711e-01
-7.699128985404968262e-02 -7.062860727310180664e-01 -6.447712182998657227e-01
-7.199473679065704346e-02 -7.153812050819396973e-01 -6.371839046478271484e-01
-7.673180848360061646e-02 -7.077610492706298828e-01 -6.363207101821899414e-01
2.370928600430488586e-02 1.495250910520553589e-01 -6.135070323944091797e-01
2.142359688878059387e-02 1.632001250982284546e-01 -6.099011301994323730e-01
2.093158289790153503e-02 1.471964269876480103e-01 -6.108538508415222168e-01
1.906462758779525757e-02 1.603779941797256470e-01 -6.072111725807189941e-01
1.025500968098640442e-01 3.238055109977722168e-01 -4.959373772144317627e-01
8.929424732923507690e-02 3.304004669189453125e-01 -4.969364702701568604e-01
1.089970543980598450e-01 3.276974260807037354e-01 -4.831745326519012451e-01
9.661317616701126099e-02 3.341681063175201416e-01 -4.837101101875305176e-01
1.701043248176574707e-01 4.227337613701820374e-02 -4.377925992012023926e-01
1.737458407878875732e-01 5.648805946111679077e-02 -4.403977394104003906e-01
1.617890745401382446e-01 3.910849615931510925e-02 -4.241489171981811523e-01
1.658865660429000854e-01 5.318510532379150391e-02 -4.284135103225708008e-01
5.217739194631576538e-02 -6.064538955688476562e-01 -6.305440068244934082e-01
4.061746597290039062e-02 -6.008608341217041016e-01 -6.341447234153747559e-01
4.990968853235244751e-02 -6.140802502632141113e-01 -6.274846792221069336e-01
3.832730278372764587e-02 -6.084205508232116699e-01 -6.312063336372375488e-01
1.401349306106567383e-01 -1.096101626753807068e-01 -5.583542585372924805e-01
1.427278071641921997e-01 -9.704149514436721802e-02 -5.618848800659179688e-01
1.423158049583435059e-01 -1.092910841107368469e-01 -5.472462773323059082e-01
1.457868516445159912e-01 -9.694632887840270996e-02 -5.483970642089843750e-01
-2.063812613487243652e-01 2.543686032295227051e-01 -1.418171375989913940e-01
-2.028079032897949219e-01 2.675693333148956299e-01 -1.467968523502349854e-01
-2.048505544662475586e-01 2.506272494792938232e-01 -1.252086460590362549e-01
-2.012377977371215820e-01 2.645197808742523193e-01 -1.296167224645614624e-01
1.663161814212799072e-01 2.965261340141296387e-01 -2.916163802146911621e-01
1.609034538269042969e-01 3.067074418067932129e-01 -2.951513826847076416e-01
1.682321131229400635e-01 2.988044321537017822e-01 -2.780067026615142822e-01
1.624711900949478149e-01 3.098829388618469238e-01 -2.812911570072174072e-01
4.486603662371635437e-02 1.567456126213073730e-01 3.693185150623321533e-01
5.012801662087440491e-02 1.666265577077865601e-01 3.736191987991333008e-01
4.161186143755912781e-02 1.618538349866867065e-01 3.838117420673370361e-01
3.984862193465232849e-02 1.680174916982650757e-01 3.867911696434020996e-01
-1.655240207910537720e-01 1.485939621925354004e-01 -3.575804233551025391e-01
-1.701593250036239624e-01 1.604131162166595459e-01 -3.628668487071990967e-01
-1.647828221321105957e-01 1.476010382175445557e-01 -3.402077853679656982e-01
-1.693866699934005737e-01 1.602533757686614990e-01 -3.465369641780853271e-01
-8.113464713096618652e-02 -7.458255887031555176e-01 1.028377339243888855e-01
-9.160583466291427612e-02 -7.455800771713256836e-01 1.003575846552848816e-01
-8.534748852252960205e-02 -7.454178929328918457e-01 1.164544448256492615e-01
-9.584933519363403320e-02 -7.450039386749267578e-01 1.143738105893135071e-01
-1.447963714599609375e-01 2.666893005371093750e-01 1.539999991655349731e-01
-1.398382633924484253e-01 2.795505523681640625e-01 1.506016403436660767e-01
-1.391620934009552002e-01 2.601805031299591064e-01 1.684651821851730347e-01
-1.351984888315200806e-01 2.736199498176574707e-01 1.645321398973464966e-01
1.336904019117355347e-01 3.675356805324554443e-01 -2.831960320472717285e-01
1.253524571657180786e-01 3.802322447299957275e-01 -2.878189682960510254e-01
1.422869414091110229e-01 3.681062757968902588e-01 -2.662866711616516113e-01
1.340144127607345581e-01 3.808737397193908691e-01 -2.709193527698516846e-01
4.575458914041519165e-02 -2.876487374305725098e-01 -2.465697750449180603e-02
5.078138783574104309e-02 -2.711324691772460938e-01 -2.590437233448028564e-02
4.531165212392807007e-02 -2.909899353981018066e-01 -1.029054168611764908e-02
5.045992881059646606e-02 -2.744121253490447998e-01 -1.160454656928777695e-02
3.758019208908081055e-02 4.731481671333312988e-01 -3.417964279651641846e-01
2.532537654042243958e-02 4.782270193099975586e-01 -3.422745764255523682e-01
3.924285992980003357e-02 4.849171042442321777e-01 -3.322229981422424316e-01
2.766054496169090271e-02 4.903398156166076660e-01 -3.329016268253326416e-01
2.238290198147296906e-02 3.913401067256927490e-01 1.610074788331985474e-01
1.161068491637706757e-02 4.044290482997894287e-01 1.499738693237304688e-01
1.882558502256870270e-02 3.800311982631683350e-01 1.724072843790054321e-01
7.879116572439670563e-03 3.924009203910827637e-01 1.620139330625534058e-01
1.187931597232818604e-01 -1.906468532979488373e-02 -1.716900467872619629e-01
1.071932464838027954e-01 -2.605104260146617889e-02 -1.797558814287185669e-01
1.169865205883979797e-01 -2.237127907574176788e-02 -1.581499129533767700e-01
1.046165674924850464e-01 -3.060023300349712372e-02 -1.666894108057022095e-01
-8.311881124973297119e-02 -7.161528468132019043e-01 -5.497663617134094238e-01
-9.190960973501205444e-02 -7.098017930984497070e-01 -5.556467175483703613e-01
-8.926104754209518433e-02 -7.221318483352661133e-01 -5.360867381095886230e-01
-9.919671714305877686e-02 -7.164023518562316895e-01 -5.428705215454101562e-01
2.721060626208782196e-02 5.408934503793716431e-02 -3.867071568965911865e-01
1.338105276226997375e-02 5.893755331635475159e-02 -3.919583559036254883e-01
2.196266874670982361e-02 4.233753681182861328e-02 -3.770798742771148682e-01
1.121887937188148499e-02 4.869708418846130371e-02 -3.833378851413726807e-01
-1.141749694943428040e-01 -6.635189652442932129e-01 4.440541937947273254e-02
-1.153049767017364502e-01 -6.433864235877990723e-01 4.110356420278549194e-02
-1.163203641772270203e-01 -6.794632673263549805e-01 5.249750986695289612e-02
-1.208029389381408691e-01 -6.602388024330139160e-01 4.793750122189521790e-02
-8.551390469074249268e-02 -1.850486844778060913e-01 -1.332606747746467590e-02
-8.781315386295318604e-02 -1.723123937845230103e-01 -1.191156450659036636e-02
-8.611340820789337158e-02 -1.884150952100753784e-01 -7.974915206432342529e-03
-8.816814422607421875e-02 -1.756962984800338745e-01 -6.868788506835699081e-03
1.385649293661117554e-01 -7.379618883132934570e-01 8.548690378665924072e-02
1.216970682144165039e-01 -7.410316467285156250e-01 7.831858098506927490e-02
1.386263221502304077e-01 -7.420859932899475098e-01 1.014363467693328857e-01
1.243219524621963501e-01 -7.429614067077636719e-01 9.506794810295104980e-02
-5.796317756175994873e-02 -1.645036190748214722e-01 -5.549604296684265137e-01
-6.431797146797180176e-02 -1.597071886062622070e-01 -5.499868392944335938e-01
-6.223682686686515808e-02 -1.567516475915908813e-01 -5.467128753662109375e-01
-6.975515186786651611e-02 -1.524507850408554077e-01 -5.408441424369812012e-01
1.349705904722213745e-01 3.780046999454498291e-01 -2.755032777786254883e-01
1.270616650581359863e-01 3.906235098838806152e-01 -2.800003588199615479e-01
1.424994468688964844e-01 3.766153156757354736e-01 -2.600966691970825195e-01
1.349088996648788452e-01 3.896896243095397949e-01 -2.642824351787567139e-01
-1.792829930782318115e-01 6.713423132896423340e-02 -4.750582873821258545e-01
-1.816709637641906738e-01 8.095665276050567627e-02 -4.823762178421020508e-01
-1.780118644237518311e-01 6.578335165977478027e-02 -4.575381875038146973e-01
-1.803937852382659912e-01 7.966592907905578613e-02 -4.649971425533294678e-01
-6.946178525686264038e-02 -3.920278251171112061e-01 -6.971907019615173340e-01
-6.999805569648742676e-02 -3.773209452629089355e-01 -6.976523995399475098e-01
-7.429670542478561401e-02 -3.965415060520172119e-01 -6.909847855567932129e-01
-7.515361905097961426e-02 -3.804844915866851807e-01 -6.910622119903564453e-01
-1.745306551456451416e-01 1.601803004741668701e-01 -1.302576623857021332e-02
-1.760428845882415771e-01 1.743459701538085938e-01 -1.686664670705795288e-02
-1.738359779119491577e-01 1.613995730876922607e-01 2.536531537771224976e-04
-1.742658913135528564e-01 1.741481870412826538e-01 -5.259985569864511490e-03
1.102715134620666504e-01 -6.629164218902587891e-01 1.656864210963249207e-02
9.792902320623397827e-02 -6.538549661636352539e-01 1.224434003233909607e-02
1.127776131033897400e-01 -6.710932254791259766e-01 2.351049333810806274e-02
9.989685565233230591e-02 -6.631569862365722656e-01 1.895835064351558685e-02
1.652737855911254883e-01 1.231216937303543091e-01 -3.169619143009185791e-01
1.679857969284057617e-01 1.362910717725753784e-01 -3.201241493225097656e-01
1.684976965188980103e-01 1.203688681125640869e-01 -3.033274114131927490e-01
1.712844669818878174e-01 1.336315125226974487e-01 -3.058406710624694824e-01
5.299084633588790894e-02 -1.580098830163478851e-02 1.484507769346237183e-01
5.517924576997756958e-02 -4.093611612915992737e-03 1.587205827236175537e-01
4.658171534538269043e-02 -9.115310385823249817e-03 1.576706469058990479e-01
4.326389729976654053e-02 -9.996043518185615540e-04 1.659103035926818848e-01
1.485630124807357788e-01 2.457979470491409302e-01 -5.234366059303283691e-01
1.380140930414199829e-01 2.566067576408386230e-01 -5.265924334526062012e-01
1.572625637054443359e-01 2.494254708290100098e-01 -5.064377784729003906e-01
1.481171250343322754e-01 2.616084516048431396e-01 -5.092567205429077148e-01
-1.791297197341918945e-01 1.012146472930908203e-01 -2.850876450538635254e-01
-1.821121424436569214e-01 1.181465238332748413e-01 -2.856494486331939697e-01
-1.799007654190063477e-01 9.956927597522735596e-02 -2.724305689334869385e-01
-1.845420598983764648e-01 1.159916371107101440e-01 -2.745753228664398193e-01
5.332355946302413940e-02 -4.202021360397338867e-01 -3.138200938701629639e-02
5.058909952640533447e-02 -4.035610258579254150e-01 -2.981066517531871796e-02
5.677085742354393005e-02 -4.236536324024200439e-01 -2.379635348916053772e-02
5.514865741133689880e-02 -4.058456420898437500e-01 -2.180540934205055237e-02
-6.369294971227645874e-02 -1.805195659399032593e-01 -8.578892797231674194e-03
-6.665388494729995728e-02 -1.669980734586715698e-01 -7.453490514308214188e-03
-5.926134437322616577e-02 -1.823707669973373413e-01 -3.054076805710792542e-03
-6.228483468294143677e-02 -1.688044518232345581e-01 -1.786127802915871143e-03
1.150591373443603516e-01 -1.256168633699417114e-01 -6.021148562431335449e-01
1.195733845233917236e-01 -1.096768528223037720e-01 -5.969125628471374512e-01
1.201852485537528992e-01 -1.287499964237213135e-01 -5.906294584274291992e-01
1.247712448239326477e-01 -1.128697916865348816e-01 -5.849507451057434082e-01
3.684721142053604126e-02 -1.404568254947662354e-01 -5.817344784736633301e-01
3.504541888833045959e-02 -1.299637258052825928e-01 -5.842601656913757324e-01
4.180286452174186707e-02 -1.349122822284698486e-01 -5.713867545127868652e-01
3.921007364988327026e-02 -1.254108995199203491e-01 -5.742837786674499512e-01
1.973308920860290527e-01 1.341848224401473999e-01 -5.892138183116912842e-02
2.015870362520217896e-01 1.470861881971359253e-01 -6.287841498851776123e-02
1.916794478893280029e-01 1.288601458072662354e-01 -4.596038162708282471e-02
1.952049583196640015e-01 1.418731361627578735e-01 -4.965314641594886780e-02
6.402037292718887329e-02 5.092070102691650391e-01 4.909858107566833496e-01
7.010828703641891479e-02 5.238971114158630371e-01 4.891689121723175049e-01
5.644978955388069153e-02 5.068916082382202148e-01 5.014690160751342773e-01
6.292934715747833252e-02 5.219182372093200684e-01 5.048384666442871094e-01
-4.856089875102043152e-02 1.984776556491851807e-01 4.116896688938140869e-01
-5.984311178326606750e-02 2.084011435508728027e-01 4.055069983005523682e-01
-4.050302505493164062e-02 2.025851905345916748e-01 4.249166846275329590e-01
-5.396031588315963745e-02 2.114359587430953979e-01 4.169090688228607178e-01
-9.159687161445617676e-02 -6.036205291748046875e-01 -6.755007505416870117e-01
-9.736859053373336792e-02 -5.939425230026245117e-01 -6.791607737541198730e-01
-9.375111013650894165e-02 -6.126913428306579590e-01 -6.688966751098632812e-01
-9.916266053915023804e-02 -6.039522290229797363e-01 -6.721913218498229980e-01
-9.916733205318450928e-02 -3.021752275526523590e-02 -1.493379920721054077e-01
-1.095978021621704102e-01 -2.551748789846897125e-02 -1.597831100225448608e-01
-9.831672161817550659e-02 -3.071032464504241943e-02 -1.313408762216567993e-01
-1.088214442133903503e-01 -2.616813965141773224e-02 -1.409992724657058716e-01
-1.117337495088577271e-01 -1.445166468620300293e-01 -5.357280969619750977e-01
-1.205834150314331055e-01 -1.376103162765502930e-01 -5.378418564796447754e-01
-1.106264144182205200e-01 -1.381975859403610229e-01 -5.260273814201354980e-01
-1.194803193211555481e-01 -1.315093785524368286e-01 -5.271585583686828613e-01
1.523413509130477905e-01 1.411949545145034790e-01 1.638814508914947510e-01
1.559564173221588135e-01 1.514770984649658203e-01 1.593666672706604004e-01
1.470254212617874146e-01 1.383515298366546631e-01 1.764382570981979370e-01
1.502165049314498901e-01 1.489597707986831665e-01 1.723200678825378418e-01
-1.044322848320007324e-01 6.372338533401489258e-02 -3.664979934692382812e-01
-1.080266833305358887e-01 7.430007308721542358e-02 -3.685787320137023926e-01
-1.107420623302459717e-01 6.213395670056343079e-02 -3.591663539409637451e-01
-1.133995950222015381e-01 7.262121886014938354e-02 -3.618247509002685547e-01
1.220545247197151184e-01 2.748108506202697754e-01 -5.333391427993774414e-01
1.079090759158134460e-01 2.833499312400817871e-01 -5.384805798530578613e-01
1.297853440046310425e-01 2.782737016677856445e-01 -5.168047547340393066e-01
1.171673536300659180e-01 2.877407073974609375e-01 -5.205326676368713379e-01
1.735752373933792114e-01 1.603529974818229675e-02 -4.682698845863342285e-01
1.754995435476303101e-01 3.458797931671142578e-02 -4.660832285881042480e-01
1.705262213945388794e-01 1.216988731175661087e-02 -4.558187127113342285e-01
1.729469001293182373e-01 2.966142073273658752e-02 -4.539751410484313965e-01
-9.494239091873168945e-02 -1.310902535915374756e-01 -6.329006552696228027e-01
-9.551831334829330444e-02 -1.174503043293952942e-01 -6.311489939689636230e-01
-1.064525395631790161e-01 -1.306896507740020752e-01 -6.228592395782470703e-01
-1.069967076182365417e-01 -1.169745102524757385e-01 -6.211339235305786133e-01
1.143373847007751465e-01 3.328141570091247559e-01 7.675072550773620605e-02
1.073808595538139343e-01 3.442828357219696045e-01 7.490645349025726318e-02
1.152676343917846680e-01 3.297135829925537109e-01 9.181979298591613770e-02
1.080452278256416321e-01 3.422386944293975830e-01 8.685863763093948364e-02
-2.022576034069061279e-01 1.950590461492538452e-01 -5.966965854167938232e-02
-2.009914815425872803e-01 2.140062004327774048e-01 -6.490864604711532593e-02
-1.946810930967330933e-01 1.907917559146881104e-01 -4.250220954418182373e-02
-1.938659995794296265e-01 2.087716758251190186e-01 -4.783507063984870911e-02
1.329373866319656372e-01 3.439785242080688477e-01 -3.125201165676116943e-01
1.264733821153640747e-01 3.524999320507049561e-01 -3.178472518920898438e-01
1.381112933158874512e-01 3.443701863288879395e-01 -2.968102395534515381e-01
1.314807087182998657e-01 3.537759184837341309e-01 -3.021164238452911377e-01
1.090772077441215515e-01 -7.482899427413940430e-01 -5.814087986946105957e-01
1.000959277153015137e-01 -7.439877986907958984e-01 -5.849833488464355469e-01
1.117697060108184814e-01 -7.467806339263916016e-01 -5.702475309371948242e-01
1.023614183068275452e-01 -7.422203421592712402e-01 -5.729601383209228516e-01
1.295642852783203125e-01 -7.456749677658081055e-01 -5.701095461845397949e-01
1.185779199004173279e-01 -7.434929013252258301e-01 -5.748198628425598145e-01
1.346349269151687622e-01 -7.462691068649291992e-01 -5.599719285964965820e-01
1.238668337464332581e-01 -7.427594661712646484e-01 -5.630099177360534668e-01
-4.752032458782196045e-02 -5.455064773559570312e-01 -6.518884897232055664e-01
-4.771654680371284485e-02 -5.252050757408142090e-01 -6.517543196678161621e-01
-5.130529776215553284e-02 -5.499688982963562012e-01 -6.387959718704223633e-01
-5.357799306511878967e-02 -5.321342349052429199e-01 -6.383526921272277832e-01
8.159618079662322998e-02 3.574012219905853271e-01 1.303750574588775635e-01
7.650998234748840332e-02 3.694347441196441650e-01 1.227492988109588623e-01
7.743275910615921021e-02 3.514546751976013184e-01 1.457398235797882080e-01
7.301329821348190308e-02 3.630925714969635010e-01 1.379273831844329834e-01
1.467425003647804260e-02 3.253330290317535400e-01 5.026453733444213867e-01
7.870982401072978973e-03 3.419005572795867920e-01 5.035756826400756836e-01
9.362792596220970154e-03 3.212981820106506348e-01 5.036742091178894043e-01
4.710976500064134598e-04 3.353618979454040527e-01 5.044939517974853516e-01
1.677092015743255615e-01 2.434550970792770386e-01 1.049298122525215149e-01
1.644283384084701538e-01 2.557343840599060059e-01 1.044680923223495483e-01
1.631379574537277222e-01 2.462897747755050659e-01 1.216081827878952026e-01
1.601074486970901489e-01 2.592861652374267578e-01 1.221115291118621826e-01
1.256055235862731934e-01 6.087496504187583923e-02 -3.400809764862060547e-01
1.291797906160354614e-01 7.324458658695220947e-02 -3.457894921302795410e-01
1.362579762935638428e-01 5.398607999086380005e-02 -3.217470049858093262e-01
1.421281546354293823e-01 6.762339174747467041e-02 -3.282778859138488770e-01
-6.813903152942657471e-02 -2.156965881586074829e-01 6.597461551427841187e-02
-7.259470969438552856e-02 -2.014721781015396118e-01 7.029811292886734009e-02
-7.906363159418106079e-02 -2.142705470323562622e-01 6.840100884437561035e-02
-8.407503366470336914e-02 -2.005447447299957275e-01 7.277802377939224243e-02
4.301168769598007202e-02 4.313201606273651123e-01 3.411805257201194763e-02
3.113568760454654694e-02 4.353745281696319580e-01 2.988547272980213165e-02
3.875710070133209229e-02 4.317794144153594971e-01 5.056470632553100586e-02
2.847469411790370941e-02 4.362482130527496338e-01 4.686867073178291321e-02
-1.372984796762466431e-01 -7.168307900428771973e-02 -4.843287765979766846e-01
-1.503990888595581055e-01 -6.249449774622917175e-02 -4.849013090133666992e-01
-1.352257877588272095e-01 -6.423745304346084595e-02 -4.695666432380676270e-01
-1.477936357259750366e-01 -5.425123870372772217e-02 -4.697132408618927002e-01
4.621714726090431213e-02 3.256548941135406494e-01 3.634724617004394531e-01
4.240139573812484741e-02 3.360249400138854980e-01 3.573463857173919678e-01
5.379223451018333435e-02 3.251471519470214844e-01 3.749623000621795654e-01
4.975162819027900696e-02 3.355961143970489502e-01 3.687350749969482422e-01
1.679981313645839691e-02 6.238405108451843262e-01 3.459242880344390869e-01
1.826571766287088394e-03 6.237318515777587891e-01 3.535642921924591064e-01
7.613230030983686447e-03 6.345050930976867676e-01 3.618783354759216309e-01
-8.535143919289112091e-03 6.336643695831298828e-01 3.688602149486541748e-01
-5.861552059650421143e-02 5.473706871271133423e-02 -4.586276113986968994e-01
-5.473026633262634277e-02 6.717206537723541260e-02 -4.581820964813232422e-01
-6.510312110185623169e-02 5.235008895397186279e-02 -4.461119174957275391e-01
-6.228044629096984863e-02 6.520239263772964478e-02 -4.430465400218963623e-01
1.031084209680557251e-01 -1.892794519662857056e-01 8.672879193909466267e-04
1.032503545284271240e-01 -1.790785193443298340e-01 1.225498155690729618e-03
1.131799593567848206e-01 -1.897296011447906494e-01 9.617658331990242004e-03
1.136673614382743835e-01 -1.788606494665145874e-01 1.036229636520147324e-02
7.563208788633346558e-02 -3.748207688331604004e-01 -7.010129094123840332e-01
7.407389581203460693e-02 -3.612243533134460449e-01 -7.043949365615844727e-01
7.684255391359329224e-02 -3.767661452293395996e-01 -6.903068423271179199e-01
7.533628493547439575e-02 -3.634177446365356445e-01 -6.940972208976745605e-01
-9.408853948116302490e-02 -7.027711272239685059e-01 3.124934807419776917e-02
-1.046777516603469849e-01 -6.918016672134399414e-01 2.306693233549594879e-02
-9.938858449459075928e-02 -7.147918343544006348e-01 4.083684086799621582e-02
-1.098031997680664062e-01 -7.056457400321960449e-01 3.361732512712478638e-02
-9.385377168655395508e-02 -5.684508085250854492e-01 -6.767741441726684570e-01
-9.327188134193420410e-02 -5.508141517639160156e-01 -6.783564686775207520e-01
-9.616290032863616943e-02 -5.772964954376220703e-01 -6.669764518737792969e-01
-9.664957225322723389e-02 -5.615747570991516113e-01 -6.695372462272644043e-01
-6.820807605981826782e-02 -5.507814288139343262e-01 -1.301328651607036591e-02
-6.487160176038742065e-02 -5.341035127639770508e-01 -1.364286243915557861e-02
-6.120978295803070068e-02 -5.535037517547607422e-01 -7.845379295758903027e-04
-5.787331610918045044e-02 -5.368258357048034668e-01 -1.414114143699407578e-03
2.095789313316345215e-01 2.433532625436782837e-01 -1.849913746118545532e-01
2.041854858398437500e-01 2.563594281673431396e-01 -1.903343051671981812e-01
2.096535712480545044e-01 2.423249781131744385e-01 -1.699775159358978271e-01
2.052813619375228882e-01 2.557366788387298584e-01 -1.747629642486572266e-01
5.888454243540763855e-02 -2.638754546642303467e-01 5.298681929707527161e-02
6.017013639211654663e-02 -2.493549436330795288e-01 5.547448620200157166e-02
4.850319772958755493e-02 -2.651506960391998291e-01 5.962432548403739929e-02
4.953387007117271423e-02 -2.489360719919204712e-01 6.160176172852516174e-02
-1.570718884468078613e-01 2.343276143074035645e-02 8.366492390632629395e-02
-1.650869548320770264e-01 3.632313013076782227e-02 7.975490391254425049e-02
-1.539616733789443970e-01 2.645373716950416565e-02 9.701751917600631714e-02
-1.616599112749099731e-01 3.883785754442214966e-02 9.358701854944229126e-02
-1.238137111067771912e-01 -1.069532707333564758e-01 -5.979183912277221680e-01
-1.216584518551826477e-01 -9.250808507204055786e-02 -5.997650027275085449e-01
-1.290007084608078003e-01 -1.085054054856300354e-01 -5.857506990432739258e-01
-1.271546930074691772e-01 -9.372713416814804077e-02 -5.882874727249145508e-01
-5.513301864266395569e-02 3.704852163791656494e-01 4.754227399826049805e-01
-5.519637465476989746e-02 3.857609629631042480e-01 4.710243642330169678e-01
-4.654910787940025330e-02 3.707369267940521240e-01 4.873467087745666504e-01
-4.705908522009849548e-02 3.862414360046386719e-01 4.828314483165740967e-01
-1.926185376942157745e-02 4.035636186599731445e-01 -4.012236893177032471e-01
-2.246448770165443420e-02 4.057439267635345459e-01 -3.961476087570190430e-01
-2.005905658006668091e-02 4.067118763923645020e-01 -3.924158811569213867e-01
-2.171796187758445740e-02 4.111404716968536377e-01 -3.862633407115936279e-01
1.107667386531829834e-01 -1.377815455198287964e-01 -6.058148145675659180e-01
1.153264492750167847e-01 -1.217414662241935730e-01 -6.001965403556823730e-01
1.157930865883827209e-01 -1.418713033199310303e-01 -5.950944423675537109e-01
1.203744262456893921e-01 -1.255500018596649170e-01 -5.891538262367248535e-01
2.071933001279830933e-01 2.300639003515243530e-01 -2.271103709936141968e-01
2.042163312435150146e-01 2.401947528123855591e-01 -2.327873855829238892e-01
2.113924622535705566e-01 2.304390221834182739e-01 -2.137619256973266602e-01
2.090709954500198364e-01 2.410318106412887573e-01 -2.188721299171447754e-01
-2.086829394102096558e-02 -7.436360418796539307e-02 -6.047199368476867676e-01
-1.891381293535232544e-02 -5.898462608456611633e-02 -6.032209396362304688e-01
-1.622936315834522247e-02 -7.471987605094909668e-02 -5.957886576652526855e-01
-1.453020982444286346e-02 -5.945627391338348389e-02 -5.949179530143737793e-01
-8.773671835660934448e-02 -5.920165181159973145e-01 4.551270511001348495e-03
-8.405914157629013062e-02 -5.777797102928161621e-01 1.667646225541830063e-03
-8.513516187667846680e-02 -5.968074798583984375e-01 1.716251112520694733e-02
-8.140882849693298340e-02 -5.823951363563537598e-01 1.401943527162075043e-02
-4.683260992169380188e-02 -6.347542405128479004e-01 -6.192197799682617188e-01
-4.444298520684242249e-02 -6.205469965934753418e-01 -6.182539463043212891e-01
-5.060473456978797913e-02 -6.385402083396911621e-01 -6.100775003433227539e-01
-4.782480746507644653e-02 -6.242480874061584473e-01 -6.087480783462524414e-01
-9.752003848552703857e-02 2.305761426687240601e-01 2.384083271026611328e-01
-9.270926564931869507e-02 2.474750727415084839e-01 2.387899905443191528e-01
-9.290668368339538574e-02 2.268146276473999023e-01 2.502219676971435547e-01
-8.802597224712371826e-02 2.444861084222793579e-01 2.505991756916046143e-01
1.156058982014656067e-01 -1.994127593934535980e-02 -9.567338228225708008e-02
1.000166162848472595e-01 -2.928909286856651306e-02 -1.068778783082962036e-01
1.080925017595291138e-01 -2.300075255334377289e-02 -7.788578420877456665e-02
9.417236596345901489e-02 -3.085883706808090210e-02 -8.882281929254531860e-02
1.467528939247131348e-02 4.336139559745788574e-01 -1.799288019537925720e-02
-1.305432990193367004e-03 4.368913471698760986e-01 -2.276803553104400635e-02
1.298431586474180222e-02 4.332006573677062988e-01 -5.776457954198122025e-03
-3.603364340960979462e-03 4.363870322704315186e-01 -1.101310364902019501e-02
1.905127167701721191e-01 2.881880998611450195e-01 -1.710475683212280273e-01
1.845603138208389282e-01 3.008098304271697998e-01 -1.765508800745010376e-01
1.916310936212539673e-01 2.860399484634399414e-01 -1.557607203722000122e-01
1.863668859004974365e-01 2.981948852539062500e-01 -1.607435494661331177e-01
-2.029306739568710327e-01 2.619716525077819824e-01 -2.223080843687057495e-01
-1.967906355857849121e-01 2.753729224205017090e-01 -2.291284948587417603e-01
-2.071433812379837036e-01 2.591339051723480225e-01 -2.024725079536437988e-01
-2.013374418020248413e-01 2.723774313926696777e-01 -2.094953507184982300e-01
1.011612415313720703e-01 -1.924825012683868408e-01 6.943025439977645874e-02
1.009947955608367920e-01 -1.793525815010070801e-01 7.281264662742614746e-02
9.619026631116867065e-02 -1.912590712308883667e-01 7.465979456901550293e-02
9.377874433994293213e-02 -1.785365194082260132e-01 7.792564481496810913e-02
-6.169432401657104492e-02 -5.820120573043823242e-01 -6.292139887809753418e-01
-7.155738770961761475e-02 -5.711042881011962891e-01 -6.357425451278686523e-01
-6.817489862442016602e-02 -5.928733944892883301e-01 -6.233896017074584961e-01
-7.771339267492294312e-02 -5.823014974594116211e-01 -6.294772624969482422e-01
1.043932959437370300e-01 -1.719700172543525696e-03 -2.775409519672393799e-01
9.690608084201812744e-02 -1.581489457748830318e-03 -2.881966531276702881e-01
9.858101606369018555e-02 -9.310373105108737946e-03 -2.626465559005737305e-01
9.027134627103805542e-02 -1.139847654849290848e-02 -2.718799114227294922e-01
-2.474530041217803955e-02 1.448927633464336395e-02 2.000627517700195312e-01
-3.837021812796592712e-02 2.198670059442520142e-02 2.009214460849761963e-01
-2.484270930290222168e-02 2.693651616573333740e-02 2.090381383895874023e-01
-3.872205317020416260e-02 3.491244092583656311e-02 2.101370990276336670e-01
-1.019352972507476807e-01 4.509199261665344238e-01 -1.489238440990447998e-01
-9.771478921175003052e-02 4.643166959285736084e-01 -1.568433195352554321e-01
-1.016656756401062012e-01 4.447045922279357910e-01 -1.361742615699768066e-01
-9.667515009641647339e-02 4.597772359848022461e-01 -1.458444297313690186e-01
4.178076609969139099e-02 -6.730422973632812500e-01 2.336555905640125275e-02
3.865238651633262634e-02 -6.602559685707092285e-01 2.120823413133621216e-02
4.185140505433082581e-02 -6.754657626152038574e-01 3.312669694423675537e-02
3.951057046651840210e-02 -6.627553701400756836e-01 3.054911643266677856e-02
8.155352622270584106e-02 -5.813780426979064941e-01 3.168046101927757263e-02
7.468958199024200439e-02 -5.685203671455383301e-01 2.788953110575675964e-02
7.428596913814544678e-02 -5.890725851058959961e-01 3.755767270922660828e-02
6.709107011556625366e-02 -5.771566033363342285e-01 3.300997614860534668e-02
-1.922333538532257080e-01 6.030900776386260986e-02 -1.514721065759658813e-01
-1.985046118497848511e-01 7.432115823030471802e-02 -1.552517265081405640e-01
-1.935043334960937500e-01 6.420803815126419067e-02 -1.304078847169876099e-01
-1.993297487497329712e-01 7.847609370946884155e-02 -1.342996507883071899e-01
-1.131833270192146301e-01 3.905490636825561523e-01 -3.085564970970153809e-01
-1.058056876063346863e-01 4.032871425151824951e-01 -3.088309764862060547e-01
-1.223886311054229736e-01 3.909967541694641113e-01 -2.904731333255767822e-01
-1.159007623791694641e-01 4.050095677375793457e-01 -2.893722355365753174e-01
1.170997880399227142e-02 1.075296625494956970e-01 -6.778302788734436035e-01
-1.097994856536388397e-02 1.149018928408622742e-01 -6.855414509773254395e-01
4.603206180036067963e-03 1.090156883001327515e-01 -6.681156158447265625e-01
-1.856756396591663361e-02 1.159804761409759521e-01 -6.760185360908508301e-01
7.811785489320755005e-02 5.539233088493347168e-01 4.288011193275451660e-01
7.787534594535827637e-02 5.666007995605468750e-01 4.235089421272277832e-01
8.039436489343643188e-02 5.503457784652709961e-01 4.433063864707946777e-01
8.029160648584365845e-02 5.635927319526672363e-01 4.382890164852142334e-01
-1.578786224126815796e-01 6.582667678594589233e-02 1.191508695483207703e-01
-1.634083539247512817e-01 7.485954463481903076e-02 1.152933761477470398e-01
-1.509606093168258667e-01 7.257129251956939697e-02 1.332023292779922485e-01
-1.563708931207656860e-01 8.120908588171005249e-02 1.296647638082504272e-01
-2.811259962618350983e-02 5.837554931640625000e-01 3.589561283588409424e-01
-4.568813741207122803e-02 5.948839187622070312e-01 3.582148849964141846e-01
-3.698112815618515015e-02 5.791552662849426270e-01 3.699350953102111816e-01
-5.519465357065200806e-02 5.905666947364807129e-01 3.692588806152343750e-01
8.548460900783538818e-02 -5.193942189216613770e-01 -6.820198297500610352e-01
8.212179690599441528e-02 -4.946631789207458496e-01 -6.799148321151733398e-01
8.503641933202743530e-02 -5.247278809547424316e-01 -6.696869134902954102e-01
8.180505782365798950e-02 -5.015431046485900879e-01 -6.683039069175720215e-01
9.280502796173095703e-03 -3.299544155597686768e-01 -6.718465089797973633e-01
1.177430711686611176e-02 -3.171583712100982666e-01 -6.703005433082580566e-01
3.108976874500513077e-03 -3.295758366584777832e-01 -6.600251793861389160e-01
5.390658508986234665e-03 -3.159033656120300293e-01 -6.593169569969177246e-01
5.848429724574089050e-02 -7.475290894508361816e-01 1.195084378123283386e-01
4.804134368896484375e-02 -7.430949211120605469e-01 1.151052340865135193e-01
6.330353021621704102e-02 -7.447440624237060547e-01 1.343418657779693604e-01
4.865912348031997681e-02 -7.417466044425964355e-01 1.287835389375686646e-01
1.505125164985656738e-01 1.101662069559097290e-01 -3.812372684478759766e-01
1.553853899240493774e-01 1.239808350801467896e-01 -3.806289732456207275e-01
1.469205170869827271e-01 1.085835397243499756e-01 -3.692068159580230713e-01
1.511817425489425659e-01 1.221006736159324646e-01 -3.703531920909881592e-01
-2.462042868137359619e-02 -3.389035537838935852e-02 -2.644257545471191406e-01
-3.536810725927352905e-02 -3.009689599275588989e-02 -2.702759802341461182e-01
-2.551914379000663757e-02 -3.898799046874046326e-02 -2.476596385240554810e-01
-3.827601298689842224e-02 -3.531176596879959106e-02 -2.523516416549682617e-01
1.408216506242752075e-01 -4.367693327367305756e-03 -9.210661053657531738e-02
1.315451264381408691e-01 -1.008883956819772720e-02 -1.015285924077033997e-01
1.321475654840469360e-01 -7.370188832283020020e-03 -7.671682536602020264e-02
1.306586563587188721e-01 -8.452318608760833740e-03 -8.440012484788894653e-02
-1.401100903749465942e-01 1.174766048789024353e-01 -3.614678382873535156e-01
-1.468487232923507690e-01 1.264978945255279541e-01 -3.653951287269592285e-01
-1.401825696229934692e-01 1.164502203464508057e-01 -3.461491465568542480e-01
-1.464025080204010010e-01 1.267976760864257812e-01 -3.502881824970245361e-01
-3.805855289101600647e-02 -2.036145627498626709e-01 -6.149832606315612793e-01
-3.721868619322776794e-02 -1.888777464628219604e-01 -6.182875633239746094e-01
-4.526162892580032349e-02 -2.095879316329956055e-01 -6.016062498092651367e-01
-4.416829347610473633e-02 -1.951706260442733765e-01 -6.053069233894348145e-01
1.264881491661071777e-01 -6.698853373527526855e-01 -6.481231451034545898e-01
1.266861110925674438e-01 -6.579189300537109375e-01 -6.543605327606201172e-01
1.281716674566268921e-01 -6.765538454055786133e-01 -6.374140381813049316e-01
1.281721591949462891e-01 -6.650239825248718262e-01 -6.437229514122009277e-01
1.326774060726165771e-01 -1.335441414266824722e-02 -1.522803902626037598e-01
1.217172592878341675e-01 -2.038251981139183044e-02 -1.606184989213943481e-01
1.306103020906448364e-01 -1.483559887856245041e-02 -1.396333426237106323e-01
1.177287474274635315e-01 -2.400807291269302368e-02 -1.480517387390136719e-01
-2.322210371494293213e-02 -8.917611837387084961e-02 -6.112851500511169434e-01
-2.099813148379325867e-02 -7.376486808061599731e-02 -6.100360751152038574e-01
-1.849365420639514923e-02 -8.984364569187164307e-02 -6.019372344017028809e-01
-1.607156731188297272e-02 -7.469488680362701416e-02 -6.012073755264282227e-01
-6.128709390759468079e-02 -2.338556349277496338e-01 6.014203280210494995e-02
-6.184664368629455566e-02 -2.198822945356369019e-01 6.396092474460601807e-02
-7.478256523609161377e-02 -2.344939857721328735e-01 6.244532018899917603e-02
-7.587438821792602539e-02 -2.200311571359634399e-01 6.667327135801315308e-02
1.139016672968864441e-01 -7.134885191917419434e-01 3.358332067728042603e-02
1.104098707437515259e-01 -7.028912305831909180e-01 3.161429613828659058e-02
1.224307715892791748e-01 -7.173780798912048340e-01 4.634330049157142639e-02
1.192285344004631042e-01 -7.073556780815124512e-01 4.306982085108757019e-02
1.070771515369415283e-01 -2.207790166139602661e-01 4.722204804420471191e-02
1.095702648162841797e-01 -2.083446234464645386e-01 4.992078989744186401e-02
9.803611040115356445e-02 -2.228808701038360596e-01 5.520461127161979675e-02
1.000986173748970032e-01 -2.103969752788543701e-01 5.834492295980453491e-02
5.115399882197380066e-02 1.152743473649024963e-01 -6.245177984237670898e-01
4.001063108444213867e-02 1.260298043489456177e-01 -6.230794191360473633e-01
4.790929332375526428e-02 1.161516904830932617e-01 -6.221347451210021973e-01
3.850918263196945190e-02 1.274392604827880859e-01 -6.202918887138366699e-01
-5.784793570637702942e-02 9.872481226921081543e-02 2.500746548175811768e-01
-6.553386896848678589e-02 1.091881096363067627e-01 2.505573034286499023e-01
-5.403005331754684448e-02 1.033936291933059692e-01 2.616135776042938232e-01
-6.245419383049011230e-02 1.132567450404167175e-01 2.617772817611694336e-01
-8.298081904649734497e-02 3.807595670223236084e-01 -3.633161783218383789e-01
-8.521050214767456055e-02 3.795253932476043701e-01 -3.643335103988647461e-01
-9.474190324544906616e-02 3.766240477561950684e-01 -3.521605730056762695e-01
-9.028354287147521973e-02 3.810005784034729004e-01 -3.506823480129241943e-01
-4.441418685019016266e-03 4.347954988479614258e-01 1.152866035699844360e-01
-1.560102775692939758e-02 4.349187314510345459e-01 1.047377809882164001e-01
-1.385177671909332275e-02 4.248556196689605713e-01 1.288962513208389282e-01
-2.513051219284534454e-02 4.243824779987335205e-01 1.175839006900787354e-01
1.933093667030334473e-01 2.590793073177337646e-01 -9.273991733789443970e-02
1.881138831377029419e-01 2.688116431236267090e-01 -9.489741921424865723e-02
1.908998936414718628e-01 2.547726631164550781e-01 -7.885473221540451050e-02
1.859706938266754150e-01 2.643279135227203369e-01 -8.036105334758758545e-02
5.596292018890380859e-02 8.176228404045104980e-02 -4.527429938316345215e-01
4.804535582661628723e-02 9.047037363052368164e-02 -4.596780240535736084e-01
5.939296633005142212e-02 8.303295075893402100e-02 -4.425363242626190186e-01
5.264741927385330200e-02 9.079094976186752319e-02 -4.473509192466735840e-01
-3.939656913280487061e-02 5.042073726654052734e-01 3.776136338710784912e-01
-4.812588542699813843e-02 5.186640620231628418e-01 3.770390152931213379e-01
-5.074976384639739990e-02 5.009665489196777344e-01 3.838074803352355957e-01
-5.583983287215232849e-02 5.145934224128723145e-01 3.828044831752777100e-01
-8.593342453241348267e-02 -3.605552390217781067e-02 -9.489954262971878052e-02
-1.006493121385574341e-01 -2.805742807686328888e-02 -9.530909359455108643e-02
-9.003924578428268433e-02 -3.299425169825553894e-02 -7.845000922679901123e-02
-1.039422228932380676e-01 -2.615524455904960632e-02 -7.910505682229995728e-02
-1.160085126757621765e-01 -1.607899367809295654e-01 -5.928984880447387695e-01
-1.205320730805397034e-01 -1.513684540987014771e-01 -5.958348512649536133e-01
-1.164877489209175110e-01 -1.586730331182479858e-01 -5.799343585968017578e-01
-1.217293888330459595e-01 -1.497957259416580200e-01 -5.829969048500061035e-01
4.771716892719268799e-02 4.296258985996246338e-01 5.264911428093910217e-02
3.816227614879608154e-02 4.347033202648162842e-01 4.920917749404907227e-02
4.312047734856605530e-02 4.304125308990478516e-01 7.176972180604934692e-02
3.437016904354095459e-02 4.361439645290374756e-01 6.796313822269439697e-02
-9.141402691602706909e-02 -1.748115718364715576e-01 -6.332507729530334473e-01
-9.093426167964935303e-02 -1.619626283645629883e-01 -6.339445710182189941e-01
-9.780655056238174438e-02 -1.705919206142425537e-01 -6.194859147071838379e-01
-9.923487156629562378e-02 -1.588731110095977783e-01 -6.209450364112854004e-01
-5.145580694079399109e-02 -5.816147923469543457e-01 -6.308216452598571777e-01
-6.135708838701248169e-02 -5.705672502517700195e-01 -6.366391181945800781e-01
-5.737767368555068970e-02 -5.909907221794128418e-01 -6.239581108093261719e-01
-6.728432327508926392e-02 -5.804113745689392090e-01 -6.306969523429870605e-01
2.292201481759548187e-02 4.550664126873016357e-01 4.946831762790679932e-01
2.252835780382156372e-02 4.727862775325775146e-01 4.971868693828582764e-01
1.063786912709474564e-02 4.534477889537811279e-01 4.990779161453247070e-01
1.016895752400159836e-02 4.720661640167236328e-01 5.023726820945739746e-01
1.281285583972930908e-01 -1.556538641452789307e-01 3.516182303428649902e-02
1.297565847635269165e-01 -1.419029682874679565e-01 3.450881317257881165e-02
1.303617060184478760e-01 -1.577787846326828003e-01 4.663106426596641541e-02
1.327363997697830200e-01 -1.435570120811462402e-01 4.650557786226272583e-02
5.779730528593063354e-02 2.787768244743347168e-01 4.518572390079498291e-01
6.125110760331153870e-02 2.919944524765014648e-01 4.530475735664367676e-01
4.830405488610267639e-02 2.780698537826538086e-01 4.634260535240173340e-01
5.171323940157890320e-02 2.909471094608306885e-01 4.646574556827545166e-01
-2.042747139930725098e-01 1.074254289269447327e-01 -2.133564800024032593e-01
-2.108790427446365356e-01 1.247810646891593933e-01 -2.150399237871170044e-01
-2.060994952917098999e-01 1.072749644517898560e-01 -1.978334486484527588e-01
-2.119012624025344849e-01 1.238386407494544983e-01 -2.002377361059188843e-01
-1.695256084203720093e-01 2.004486024379730225e-01 -4.773906897753477097e-03
-1.680316030979156494e-01 2.139222919940948486e-01 -8.286915719509124756e-03
-1.663622856140136719e-01 1.987816095352172852e-01 1.166836917400360107e-02
-1.647755354642868042e-01 2.114697992801666260e-01 7.869799621403217316e-03
1.225516870617866516e-01 4.201699793338775635e-01 -1.650449037551879883e-01
1.171487197279930115e-01 4.330607652664184570e-01 -1.732440292835235596e-01
1.209229752421379089e-01 4.163852334022521973e-01 -1.475778520107269287e-01
1.154137253761291504e-01 4.294994175434112549e-01 -1.557410955429077148e-01
5.991279147565364838e-03 2.840537130832672119e-01 4.955345094203948975e-01
-4.751567263156175613e-03 2.927119433879852295e-01 4.956261813640594482e-01
5.013603717088699341e-03 2.893235981464385986e-01 4.970755577087402344e-01
-5.729243159294128418e-03 2.979818284511566162e-01 4.971672296524047852e-01
1.513576209545135498e-01 2.016481012105941772e-02 8.854443579912185669e-02
1.585691422224044800e-01 3.586874157190322876e-02 8.551191538572311401e-02
1.429999172687530518e-01 1.593240723013877869e-02 1.032501757144927979e-01
1.516155898571014404e-01 3.162388503551483154e-02 1.005569174885749817e-01
-1.270082890987396240e-01 -1.209228187799453735e-01 -5.891533493995666504e-01
-1.265549659729003906e-01 -1.074119806289672852e-01 -5.915253758430480957e-01
-1.312192827463150024e-01 -1.217765212059020996e-01 -5.755464434623718262e-01
-1.310908049345016479e-01 -1.080974340438842773e-01 -5.781498551368713379e-01
-1.020140871405601501e-01 2.131993621587753296e-01 -5.877932906150817871e-01
-9.939012676477432251e-02 2.228335589170455933e-01 -5.824626088142395020e-01
-1.127137318253517151e-01 2.103788256645202637e-01 -5.759788155555725098e-01
-1.104775965213775635e-01 2.185921072959899902e-01 -5.700233578681945801e-01
4.272355511784553528e-02 -1.066420227289199829e-01 5.052199587225914001e-02
4.052637889981269836e-02 -9.453473985195159912e-02 5.137605220079421997e-02
4.263927415013313293e-02 -1.090961396694183350e-01 5.935683846473693848e-02
3.922694548964500427e-02 -9.686917066574096680e-02 5.937125906348228455e-02
-1.384464651346206665e-01 8.964605629444122314e-02 -3.478139638900756836e-01
-1.412075608968734741e-01 9.901779890060424805e-02 -3.509452939033508301e-01
-1.438373178243637085e-01 8.840686827898025513e-02 -3.355757296085357666e-01
-1.460193544626235962e-01 9.835071861743927002e-02 -3.391154110431671143e-01
-1.028390973806381226e-01 3.618183732032775879e-01 -3.715418577194213867e-01
-1.042638942599296570e-01 3.614793419837951660e-01 -3.735563755035400391e-01
-1.082157120108604431e-01 3.620296716690063477e-01 -3.567348718643188477e-01
-1.024659723043441772e-01 3.663330078125000000e-01 -3.560884594917297363e-01
-7.327552884817123413e-02 -4.218687713146209717e-01 -6.849694252014160156e-01
-7.083179056644439697e-02 -4.097962081432342529e-01 -6.869831085205078125e-01
-7.912174612283706665e-02 -4.287962317466735840e-01 -6.784601807594299316e-01
-7.711897045373916626e-02 -4.166971743106842041e-01 -6.803805828094482422e-01
1.766629070043563843e-01 2.844657301902770996e-01 -2.790997028350830078e-01
1.707028299570083618e-01 2.955525815486907959e-01 -2.823917567729949951e-01
1.792710274457931519e-01 2.845041453838348389e-01 -2.649994194507598877e-01
1.733503341674804688e-01 2.960863113403320312e-01 -2.684107720851898193e-01
-1.861905679106712341e-02 -1.209843438118696213e-02 -6.032689213752746582e-01
-2.399537526071071625e-02 -1.115531194955110550e-03 -6.040690541267395020e-01
-1.404879614710807800e-02 -1.262056268751621246e-02 -5.930629968643188477e-01
-1.851082034409046173e-02 -1.530942507088184357e-03 -5.948268175125122070e-01
1.682388782501220703e-01 8.594175428152084351e-02 1.122504770755767822e-01
1.711573004722595215e-01 9.904667735099792480e-02 1.095729470252990723e-01
1.618622094392776489e-01 8.653587102890014648e-02 1.273132264614105225e-01
1.651320904493331909e-01 9.943132847547531128e-02 1.251221150159835815e-01
9.696558117866516113e-02 5.009499788284301758e-01 -2.134673148393630981e-01
