-4.342465698719024658e-01 -2.121785581111907959e-01 3.635809719562530518e-01
-1.386397778987884521e-01 8.416491746902465820e-02 1.851047128438949585e-01
-1.509010642766952515e-01 8.768559247255325317e-02 1.782092452049255371e-01
-1.464548707008361816e-01 7.787171006202697754e-02 1.952057182788848877e-01
-1.588474065065383911e-01 8.125630021095275879e-02 1.885305047035217285e-01
2.760843336582183838e-01 -1.328505426645278931e-01 -2.967529296875000000e-01
2.605882883071899414e-01 -1.184708029031753540e-01 -2.971909344196319580e-01
2.649205625057220459e-01 -1.382554471492767334e-01 -2.886091768741607666e-01
2.494305968284606934e-01 -1.230359598994255066e-01 -2.887178957462310791e-01
6.138544678688049316e-01 -1.955064982175827026e-01 -4.003452360630035400e-01
5.966337323188781738e-01 -1.775891333818435669e-01 -4.091274142265319824e-01
6.115263104438781738e-01 -1.979054659605026245e-01 -3.793829977512359619e-01
5.928259491920471191e-01 -1.810998767614364624e-01 -3.857186138629913330e-01
1.390879228711128235e-02 7.999798655509948730e-02 -8.756019920110702515e-02
-8.740182034671306610e-03 8.316896110773086548e-02 -8.736679702997207642e-02
6.993567571043968201e-03 8.509245514869689941e-02 -6.626196950674057007e-02
-1.423301920294761658e-02 8.870348334312438965e-02 -7.090978324413299561e-02
-5.468498468399047852e-01 1.213823258876800537e-01 -5.927864462137222290e-02
-5.653137564659118652e-01 1.184766814112663269e-01 -6.684762984514236450e-02
-5.510326027870178223e-01 1.191120296716690063e-01 -3.797045350074768066e-02
-5.700920224189758301e-01 1.182420477271080017e-01 -4.445808380842208862e-02
-4.952538013458251953e-01 -2.028970606625080109e-02 -3.526633679866790771e-01
-4.921928048133850098e-01 -1.277380622923374176e-03 -3.518405854701995850e-01
-5.082466006278991699e-01 -2.053641155362129211e-02 -3.343511819839477539e-01
-5.046731829643249512e-01 -5.788397975265979767e-04 -3.347876071929931641e-01
2.084814198315143585e-02 -2.101445049047470093e-01 -4.394495189189910889e-01
-1.293508335947990417e-03 -2.068355232477188110e-01 -4.426924586296081543e-01
1.763561367988586426e-02 -2.009158283472061157e-01 -4.235208332538604736e-01
-4.496200010180473328e-03 -1.972521245479583740e-01 -4.266732037067413330e-01
5.935301780700683594e-01 -1.095053553581237793e-01 3.626791238784790039e-01
5.752618908882141113e-01 -1.014847308397293091e-01 3.595182001590728760e-01
5.904601216316223145e-01 -1.166092753410339355e-01 3.722152113914489746e-01
5.696291923522949219e-01 -1.092556864023208618e-01 3.710179924964904785e-01
-5.943902134895324707e-01 -1.376194953918457031e-01 3.183874189853668213e-01
-6.182184815406799316e-01 -1.427724659442901611e-01 3.026950955390930176e-01
-5.916224122047424316e-01 -1.405139565467834473e-01 3.422166705131530762e-01
-6.158353090286254883e-01 -1.449575275182723999e-01 3.255832791328430176e-01
7.040758728981018066e-01 -5.343666300177574158e-03 -1.318949908018112183e-01
6.877560615539550781e-01 1.052456535398960114e-02 -1.400807350873947144e-01
7.003864645957946777e-01 -7.858134806156158447e-03 -1.036287173628807068e-01
6.858879327774047852e-01 8.423248305916786194e-03 -1.116579994559288025e-01
6.588307768106460571e-02 8.125329762697219849e-02 -3.106954097747802734e-01
4.109746217727661133e-02 8.355112373828887939e-02 -3.114359676837921143e-01
4.822970926761627197e-02 8.772534877061843872e-02 -2.992765307426452637e-01
2.174552530050277710e-02 8.861368149518966675e-02 -2.985299825668334961e-01
-5.805685520172119141e-01 -1.112972199916839600e-01 -1.423630118370056152e-01
-5.798301100730895996e-01 -9.149863570928573608e-02 -1.416121423244476318e-01
-5.855441093444824219e-01 -1.174717172980308533e-01 -1.287044733762741089e-01
-5.837420821189880371e-01 -9.761185199022293091e-02 -1.292871236801147461e-01
3.846841752529144287e-01 -1.058011353015899658e-01 5.032796859741210938e-01
3.614965379238128662e-01 -1.039982661604881287e-01 4.932966232299804688e-01
3.776840269565582275e-01 -1.139129921793937683e-01 5.193723440170288086e-01
3.545240759849548340e-01 -1.109415367245674133e-01 5.092546343803405762e-01
6.249740719795227051e-01 -1.717068552970886230e-01 -6.396754980087280273e-01
6.074790954589843750e-01 -1.533199846744537354e-01 -6.403717994689941406e-01
6.146448254585266113e-01 -1.760782301425933838e-01 -6.245169043540954590e-01
5.969570875167846680e-01 -1.570301949977874756e-01 -6.255035996437072754e-01
2.485463172197341919e-01 1.115332990884780884e-01 6.865417584776878357e-03
2.237538546323776245e-01 1.148261278867721558e-01 4.979420453310012817e-03
2.391171753406524658e-01 1.153526604175567627e-01 3.060087002813816071e-02
2.154844850301742554e-01 1.187977865338325500e-01 3.017691522836685181e-02
-2.713573575019836426e-01 9.708924591541290283e-02 -3.374773263931274414e-01
-3.001500964164733887e-01 9.854590892791748047e-02 -3.389935791492462158e-01
-2.830896377563476562e-01 9.383571892976760864e-02 -3.179669380187988281e-01
-3.122745156288146973e-01 9.659203141927719116e-02 -3.192493319511413574e-01
8.345112800598144531e-01 -2.136817276477813721e-01 2.536823451519012451e-01
8.212565779685974121e-01 -2.007359862327575684e-01 2.519771456718444824e-01
8.322849869728088379e-01 -2.114962339401245117e-01 2.739182412624359131e-01
8.177809715270996094e-01 -1.982101500034332275e-01 2.722754478454589844e-01
5.457101464271545410e-01 8.161902427673339844e-02 -1.184386089444160461e-01
5.312786102294921875e-01 8.722538501024246216e-02 -1.277978122234344482e-01
5.321986079216003418e-01 8.331678807735443115e-02 -9.591319411993026733e-02
5.182175636291503906e-01 8.961913734674453735e-02 -1.066896468400955200e-01
5.957199335098266602e-01 6.049268692731857300e-02 8.831852674484252930e-02
5.833478569984436035e-01 6.810674816370010376e-02 7.621075212955474854e-02
5.950294137001037598e-01 6.177547574043273926e-02 1.128815114498138428e-01
5.817318558692932129e-01 6.945452839136123657e-02 1.003456711769104004e-01
7.620111107826232910e-01 -1.572869122028350830e-01 3.673112988471984863e-01
7.463945746421813965e-01 -1.561282128095626831e-01 3.640957772731781006e-01
7.520105242729187012e-01 -1.555654406547546387e-01 3.881044983863830566e-01
7.345470190048217773e-01 -1.528604477643966675e-01 3.876323997974395752e-01
-8.217321038246154785e-01 -1.654249876737594604e-01 -4.320864751935005188e-02
-8.388173580169677734e-01 -1.623398065567016602e-01 -6.212645024061203003e-02
-8.244238495826721191e-01 -1.591779589653015137e-01 -9.518723003566265106e-03
-8.428292274475097656e-01 -1.580007225275039673e-01 -2.786991372704505920e-02
-5.884686708450317383e-01 1.113057881593704224e-01 1.030785366892814636e-01
-5.839887261390686035e-01 1.245421990752220154e-01 8.746629953384399414e-02
-5.887058973312377930e-01 1.075103655457496643e-01 1.252481341361999512e-01
-5.826327800750732422e-01 1.232457384467124939e-01 1.101585254073143005e-01
-4.878002107143402100e-01 -7.374040037393569946e-02 -3.123831450939178467e-01
-4.877669811248779297e-01 -5.645819008350372314e-02 -3.129060566425323486e-01
-5.083606243133544922e-01 -7.416242361068725586e-02 -2.868284285068511963e-01
-5.076723098754882812e-01 -5.687120556831359863e-02 -2.894318997859954834e-01
-2.331846654415130615e-01 1.359590888023376465e-01 1.579583436250686646e-01
-2.472139894962310791e-01 1.461915671825408936e-01 1.527429521083831787e-01
-2.372427582740783691e-01 1.188382357358932495e-01 1.590681374073028564e-01
-2.500821053981781006e-01 1.274579018354415894e-01 1.530890166759490967e-01
-3.175106048583984375e-01 -2.072296142578125000e-01 -5.074345469474792480e-01
-3.356942534446716309e-01 -2.062624543905258179e-01 -5.149671435356140137e-01
-3.170006275177001953e-01 -2.078882753849029541e-01 -4.852233231067657471e-01
-3.331890106201171875e-01 -2.059363126754760742e-01 -4.928610920906066895e-01
5.331237316131591797e-01 -1.186285391449928284e-01 4.952124655246734619e-01
5.200717449188232422e-01 -1.025568321347236633e-01 4.905547499656677246e-01
5.174773335456848145e-01 -1.215238049626350403e-01 5.063749551773071289e-01
5.041636824607849121e-01 -1.048233658075332642e-01 5.009109973907470703e-01
-5.253567695617675781e-01 -1.472564339637756348e-01 -3.388674259185791016e-01
-5.331137180328369141e-01 -1.365452259778976440e-01 -3.331288993358612061e-01
-5.365939140319824219e-01 -1.438950449228286743e-01 -3.207474052906036377e-01
-5.423071384429931641e-01 -1.331068873405456543e-01 -3.126313388347625732e-01
4.457179903984069824e-01 -1.245309934020042419e-01 4.601890742778778076e-01
4.310693740844726562e-01 -1.139518171548843384e-01 4.553774893283843994e-01
4.385320842266082764e-01 -1.403912752866744995e-01 4.656623005867004395e-01
4.254414141178131104e-01 -1.292917877435684204e-01 4.611324369907379150e-01
4.900608658790588379e-01 4.423537477850914001e-02 -2.966616749763488770e-01
4.676539599895477295e-01 5.193186923861503601e-02 -2.994895875453948975e-01
4.728640317916870117e-01 4.983861371874809265e-02 -2.885364890098571777e-01
4.498407840728759766e-01 5.683967471122741699e-02 -2.914589345455169678e-01
2.693972885608673096e-01 -3.467629663646221161e-03 2.944219112396240234e-01
2.596618831157684326e-01 1.416001934558153152e-02 2.970155179500579834e-01
2.452373206615447998e-01 -1.032861229032278061e-02 2.961156070232391357e-01
2.353993654251098633e-01 7.783133536577224731e-03 2.992563247680664062e-01
-7.264436483383178711e-01 -2.059735655784606934e-01 2.775043547153472900e-01
-7.480889558792114258e-01 -2.035164386034011841e-01 2.608695328235626221e-01
-7.280473113059997559e-01 -2.030700743198394775e-01 3.082647919654846191e-01
-7.483465671539306641e-01 -2.018232941627502441e-01 2.879952192306518555e-01
6.846376657485961914e-01 -2.371761575341224670e-02 5.160289630293846130e-02
6.770301461219787598e-01 -1.184811256825923920e-02 4.567721113562583923e-02
6.820957064628601074e-01 -2.609049156308174133e-02 7.119443267583847046e-02
6.731163859367370605e-01 -1.315367221832275391e-02 6.648713350296020508e-02
1.854270994663238525e-01 -2.140478193759918213e-01 -3.385365605354309082e-01
1.605424880981445312e-01 -2.134565263986587524e-01 -3.475267291069030762e-01
1.930489093065261841e-01 -2.024117261171340942e-01 -3.179740011692047119e-01
1.664401292800903320e-01 -2.021702826023101807e-01 -3.280652463436126709e-01
-1.343603879213333130e-01 -1.960176080465316772e-01 -4.616143107414245605e-01
-1.573623418807983398e-01 -1.897926628589630127e-01 -4.607740044593811035e-01
-1.491052210330963135e-01 -1.949063241481781006e-01 -4.568800330162048340e-01
-1.728684604167938232e-01 -1.887337416410446167e-01 -4.561096727848052979e-01
-3.211247920989990234e-02 8.352438360452651978e-02 6.839170306921005249e-02
-5.532108619809150696e-02 8.047706633806228638e-02 5.614856630563735962e-02
-3.054375760257244110e-02 8.094951510429382324e-02 8.978407084941864014e-02
-5.240321904420852661e-02 7.811655104160308838e-02 8.150117844343185425e-02
9.072458371520042419e-03 8.252435922622680664e-02 -1.368505209684371948e-01
-1.784294471144676208e-02 8.594907075166702271e-02 -1.339877843856811523e-01
2.430659718811511993e-03 8.382727950811386108e-02 -1.219428256154060364e-01
-2.391306310892105103e-02 8.729119598865509033e-02 -1.176605075597763062e-01
-6.244927644729614258e-01 -1.496148407459259033e-01 -2.204675227403640747e-01
-6.172804832458496094e-01 -1.333727538585662842e-01 -2.197730541229248047e-01
-6.292025446891784668e-01 -1.509423106908798218e-01 -1.974833607673645020e-01
-6.271623373031616211e-01 -1.377907246351242065e-01 -1.971636414527893066e-01
3.818686306476593018e-01 -8.256576210260391235e-02 -6.373737454414367676e-01
3.606436550617218018e-01 -8.382740616798400879e-02 -6.526938080787658691e-01
3.718328773975372314e-01 -8.390147238969802856e-02 -6.212050914764404297e-01
3.513857424259185791e-01 -8.586160838603973389e-02 -6.366106271743774414e-01
-4.878163933753967285e-01 -1.454692184925079346e-01 5.646823048591613770e-01
-5.139358043670654297e-01 -1.427252292633056641e-01 5.555740594863891602e-01
-4.840033352375030518e-01 -1.447872519493103027e-01 5.842056274414062500e-01
-5.118770003318786621e-01 -1.418612003326416016e-01 5.744663476943969727e-01
8.017426133155822754e-01 -1.483078449964523315e-01 5.522636324167251587e-02
7.865927815437316895e-01 -1.396270543336868286e-01 4.139020293951034546e-02
8.074673414230346680e-01 -1.497541815042495728e-01 8.751486241817474365e-02
7.918379306793212891e-01 -1.404741555452346802e-01 7.143754512071609497e-02
-5.591826438903808594e-01 -1.565528959035873413e-01 -5.126556158065795898e-01
-5.711169838905334473e-01 -1.524529904127120972e-01 -5.198714733123779297e-01
-5.676816105842590332e-01 -1.524804681539535522e-01 -4.832816123962402344e-01
-5.835083723068237305e-01 -1.489019095897674561e-01 -4.887564480304718018e-01
4.970504343509674072e-01 8.419904857873916626e-02 2.767581343650817871e-01
4.788593053817749023e-01 9.543503820896148682e-02 2.601620852947235107e-01
4.945130944252014160e-01 7.334326207637786865e-02 2.987547516822814941e-01
4.775687158107757568e-01 8.464194089174270630e-02 2.829356789588928223e-01
6.010037660598754883e-01 -1.914341449737548828e-01 4.251435995101928711e-01
5.906484723091125488e-01 -1.852376908063888550e-01 4.154570102691650391e-01
6.018794178962707520e-01 -1.903461515903472900e-01 4.474004507064819336e-01
5.871778726577758789e-01 -1.869126260280609131e-01 4.363495409488677979e-01
-5.952919125556945801e-01 1.773127540946006775e-02 2.141799628734588623e-01
-6.007109880447387695e-01 3.941787406802177429e-02 2.089610695838928223e-01
-5.835238099098205566e-01 1.372302882373332977e-02 2.345753759145736694e-01
-5.888996124267578125e-01 3.523707389831542969e-02 2.282675206661224365e-01
4.504784941673278809e-01 -1.416857391595840454e-01 5.469655990600585938e-01
4.276626110076904297e-01 -1.389132738113403320e-01 5.436317324638366699e-01
4.385738074779510498e-01 -1.511327624320983887e-01 5.601539611816406250e-01
4.160374402999877930e-01 -1.492557078599929810e-01 5.577764511108398438e-01
-3.279357552528381348e-01 2.881244421005249023e-01 1.211629435420036316e-01
-3.290413618087768555e-01 3.061955273151397705e-01 1.136653870344161987e-01
-3.138146102428436279e-01 2.819853127002716064e-01 1.468974798917770386e-01
-3.168557286262512207e-01 2.994603514671325684e-01 1.389919519424438477e-01
6.627109646797180176e-01 2.680010721087455750e-02 1.126325875520706177e-01
6.472789645195007324e-01 4.366504400968551636e-02 1.071550250053405762e-01
6.594120860099792480e-01 2.842289209365844727e-02 1.406619101762771606e-01
6.438415646553039551e-01 4.692500084638595581e-02 1.366558074951171875e-01
-2.580959498882293701e-01 7.738751918077468872e-02 -4.393804073333740234e-01
-2.824071645736694336e-01 7.668175548315048218e-02 -4.376340806484222412e-01
-2.699173390865325928e-01 9.089272469282150269e-02 -4.195781350135803223e-01
-2.940009534358978271e-01 8.793623745441436768e-02 -4.192420840263366699e-01
2.093017697334289551e-01 8.482436835765838623e-02 -1.101025938987731934e-01
1.888634413480758667e-01 8.439388126134872437e-02 -1.126960068941116333e-01
2.029316872358322144e-01 8.736545592546463013e-02 -8.956866711378097534e-02
1.825773566961288452e-01 8.700850605964660645e-02 -9.351319074630737305e-02
-5.664497613906860352e-01 -2.049626260995864868e-01 -1.943605542182922363e-01
-5.809952616691589355e-01 -2.077396363019943237e-01 -1.996948271989822388e-01
-5.717457532882690430e-01 -2.042131870985031128e-01 -1.756461858749389648e-01
-5.796178579330444336e-01 -2.036256492137908936e-01 -1.808082908391952515e-01
5.464342832565307617e-01 -1.022398397326469421e-01 -5.256774425506591797e-01
5.267941951751708984e-01 -8.949536085128784180e-02 -5.345806479454040527e-01
5.514384508132934570e-01 -1.059086695313453674e-01 -5.018529891967773438e-01
5.339698791503906250e-01 -9.402946382761001587e-02 -5.113688111305236816e-01
-1.269296407699584961e-01 -9.272323921322822571e-03 -4.928498268127441406e-01
-1.384604573249816895e-01 1.094408147037029266e-02 -4.910432100296020508e-01
-1.484968960285186768e-01 -1.635021343827247620e-02 -4.918662905693054199e-01
-1.557438224554061890e-01 6.257351953536272049e-03 -4.910487830638885498e-01
-3.559525907039642334e-01 -1.966974735260009766e-01 4.790259003639221191e-01
-3.667136132717132568e-01 -1.998608857393264771e-01 4.689452052116394043e-01
-3.616115152835845947e-01 -1.986231505870819092e-01 5.020214319229125977e-01
-3.710807561874389648e-01 -2.021707892417907715e-01 4.913964271545410156e-01
8.587359189987182617e-01 -1.613888740539550781e-01 2.233572900295257568e-01
8.549051284790039062e-01 -1.507793515920639038e-01 2.193936258554458618e-01
8.543903827667236328e-01 -1.644499599933624268e-01 2.410413920879364014e-01
8.502715826034545898e-01 -1.537846475839614868e-01 2.372652590274810791e-01
-2.187688797712326050e-01 -1.350234895944595337e-01 -5.015435218811035156e-01
-2.380795627832412720e-01 -1.298944950103759766e-01 -4.969253242015838623e-01
-2.274444848299026489e-01 -1.222121343016624451e-01 -4.824492633342742920e-01
-2.456322014331817627e-01 -1.163488477468490601e-01 -4.775450825691223145e-01
7.438026666641235352e-01 -2.006043344736099243e-01 3.996164500713348389e-01
7.326678633689880371e-01 -2.001687288284301758e-01 3.916430175304412842e-01
7.376591563224792480e-01 -2.011914104223251343e-01 4.192940890789031982e-01
7.269228100776672363e-01 -2.007010132074356079e-01 4.133323729038238525e-01
-6.592935323715209961e-01 -1.438330709934234619e-01 1.449334472417831421e-01
-6.798315048217773438e-01 -1.438200026750564575e-01 1.397804170846939087e-01
-6.534315943717956543e-01 -1.366420984268188477e-01 1.679701209068298340e-01
-6.722376346588134766e-01 -1.384551674127578735e-01 1.613803058862686157e-01
3.556238710880279541e-01 1.323073357343673706e-01 -1.572433114051818848e-01
3.419613838195800781e-01 1.365397125482559204e-01 -1.645619869232177734e-01
3.478564023971557617e-01 1.332000792026519775e-01 -1.436417251825332642e-01
3.336359262466430664e-01 1.374371647834777832e-01 -1.510356515645980835e-01
6.653932332992553711e-01 -2.137118279933929443e-01 -3.684230744838714600e-01
6.391028761863708496e-01 -2.073960602283477783e-01 -3.678371906280517578e-01
6.590574383735656738e-01 -2.058498263359069824e-01 -3.475280404090881348e-01
6.329703330993652344e-01 -2.001014500856399536e-01 -3.468700945377349854e-01
6.158778667449951172e-01 -2.097883820533752441e-01 -3.814522624015808105e-01
5.965744853019714355e-01 -1.925833821296691895e-01 -3.876918554306030273e-01
6.146544814109802246e-01 -2.075460851192474365e-01 -3.615925908088684082e-01
5.955571532249450684e-01 -1.929420679807662964e-01 -3.653765320777893066e-01
1.838177144527435303e-01 1.866349428892135620e-01 -1.499228328466415405e-01
1.663242429494857788e-01 2.013564556837081909e-01 -1.547541767358779907e-01
1.691393405199050903e-01 1.733933240175247192e-01 -1.406294107437133789e-01
1.539463996887207031e-01 1.884716302156448364e-01 -1.441361606121063232e-01
6.404881477355957031e-01 -1.026012077927589417e-01 -6.069056987762451172e-01
6.209726333618164062e-01 -8.729251474142074585e-02 -6.076386570930480957e-01
6.308908462524414062e-01 -8.955467492341995239e-02 -5.836113095283508301e-01
6.108598113059997559e-01 -7.569073140621185303e-02 -5.859230756759643555e-01
7.827070355415344238e-01 -2.042872309684753418e-01 -4.465584754943847656e-01
7.641123533248901367e-01 -2.071279734373092651e-01 -4.614937603473663330e-01
7.869137525558471680e-01 -2.048772871494293213e-01 -4.217824339866638184e-01
7.682760357856750488e-01 -2.083598673343658447e-01 -4.362481236457824707e-01
-4.621918499469757080e-01 2.276928164064884186e-02 -3.744287788867950439e-01
-4.588678181171417236e-01 4.219499230384826660e-02 -3.716288506984710693e-01
-4.833120703697204590e-01 1.773979514837265015e-02 -3.607607781887054443e-01
-4.803900718688964844e-01 3.717152401804924011e-02 -3.585309088230133057e-01
-4.192080795764923096e-01 8.466332405805587769e-02 3.126621544361114502e-01
-4.398514032363891602e-01 8.177824318408966064e-02 3.040817081928253174e-01
-4.187988340854644775e-01 8.122699707746505737e-02 3.333935737609863281e-01
-4.394674301147460938e-01 8.083598315715789795e-02 3.247612714767456055e-01
-6.047243475914001465e-01 6.808345764875411987e-02 -1.875752061605453491e-01
-5.920273661613464355e-01 8.613776415586471558e-02 -1.926986426115036011e-01
-6.071500778198242188e-01 6.922924518585205078e-02 -1.704639941453933716e-01
-5.978999137878417969e-01 8.175193518400192261e-02 -1.744630783796310425e-01
8.724845051765441895e-01 -2.009476572275161743e-01 -2.473475635051727295e-01
8.583834767341613770e-01 -2.044867426156997681e-01 -2.625891566276550293e-01
8.666809201240539551e-01 -2.019345760345458984e-01 -2.185989171266555786e-01
8.498119115829467773e-01 -2.057022154331207275e-01 -2.351098954677581787e-01
5.664420872926712036e-02 1.533128768205642700e-01 -1.124631315469741821e-01
4.888073354959487915e-02 1.693740934133529663e-01 -1.167188733816146851e-01
6.306523829698562622e-02 1.477106362581253052e-01 -9.979951381683349609e-02
5.564761906862258911e-02 1.637879908084869385e-01 -1.042121872305870056e-01
7.868918180465698242e-01 -1.437358707189559937e-01 -3.665004670619964600e-01
7.667414546012878418e-01 -1.445134729146957397e-01 -3.705366849899291992e-01
7.909387350082397461e-01 -1.384656876325607300e-01 -3.428170084953308105e-01
7.703843712806701660e-01 -1.389563083648681641e-01 -3.461315929889678955e-01
-3.197510242462158203e-01 1.186347976326942444e-01 -1.834903508424758911e-01
-3.259812295436859131e-01 1.324772983789443970e-01 -1.670183092355728149e-01
-3.308286070823669434e-01 1.232194304466247559e-01 -1.668968051671981812e-01
-3.369659483432769775e-01 1.374507844448089600e-01 -1.509531289339065552e-01
-3.362877368927001953e-01 8.374390006065368652e-02 2.073123753070831299e-01
-3.534057438373565674e-01 8.450643718242645264e-02 2.011195868253707886e-01
-3.433831036090850830e-01 8.964662253856658936e-02 2.319589853286743164e-01
-3.614017963409423828e-01 8.892986923456192017e-02 2.278924286365509033e-01
-4.109129011631011963e-01 -2.040085345506668091e-01 4.748115539550781250e-01
-4.206960201263427734e-01 -2.084107249975204468e-01 4.643757939338684082e-01
-4.182557761669158936e-01 -2.032437175512313843e-01 4.917563498020172119e-01
-4.290690422058105469e-01 -2.073648273944854736e-01 4.813623726367950439e-01
-1.348688453435897827e-02 6.377764977514743805e-03 -4.531915187835693359e-01
-2.547068521380424500e-02 2.788296714425086975e-02 -4.550847709178924561e-01
-2.153026312589645386e-02 2.567894756793975830e-03 -4.531049430370330811e-01
-3.332509100437164307e-02 2.466484159231185913e-02 -4.547913670539855957e-01
7.704026997089385986e-02 -1.693425700068473816e-02 -4.428398013114929199e-01
5.510254576802253723e-02 -7.283173035830259323e-03 -4.487627446651458740e-01
9.092104434967041016e-02 -1.733760163187980652e-02 -4.343838095664978027e-01
7.007820159196853638e-02 -6.309802643954753876e-03 -4.399108588695526123e-01
-6.291683316230773926e-01 -6.439265608787536621e-02 7.209090515971183777e-03
-6.358768343925476074e-01 -3.966815024614334106e-02 -9.722844697535037994e-04
-6.288893222808837891e-01 -6.525266170501708984e-02 3.534560278058052063e-02
-6.372054815292358398e-01 -4.228195920586585999e-02 2.540930174291133881e-02
-2.013235390186309814e-01 -2.030173242092132568e-01 -4.520821273326873779e-01
-2.281045913696289062e-01 -2.034324258565902710e-01 -4.546425640583038330e-01
-2.213466018438339233e-01 -1.991846561431884766e-01 -4.446196556091308594e-01
-2.469845414161682129e-01 -2.004157155752182007e-01 -4.473557770252227783e-01
1.217273697257041931e-01 -1.415258049964904785e-01 -5.812008976936340332e-01
1.032100692391395569e-01 -1.404106616973876953e-01 -5.955933928489685059e-01
1.216101497411727905e-01 -1.439146548509597778e-01 -5.644131302833557129e-01
1.027491465210914612e-01 -1.421851515769958496e-01 -5.786973237991333008e-01
-6.111887097358703613e-01 -5.943978950381278992e-02 -1.416476368904113770e-01
-6.128237247467041016e-01 -4.152385517954826355e-02 -1.412532180547714233e-01
-6.180776953697204590e-01 -6.363695859909057617e-02 -1.101465374231338501e-01
-6.189734339714050293e-01 -4.273491725325584412e-02 -1.146396920084953308e-01
2.805808186531066895e-02 1.755149662494659424e-01 -2.282279282808303833e-01
2.083043567836284637e-02 1.989252865314483643e-01 -2.242981642484664917e-01
-1.320329029113054276e-03 1.709889024496078491e-01 -2.295185774564743042e-01
-1.051923539489507675e-02 1.923466175794601440e-01 -2.266415655612945557e-01
8.307898640632629395e-01 -1.473690718412399292e-01 1.506685316562652588e-01
8.199270367622375488e-01 -1.432088762521743774e-01 1.429549455642700195e-01
8.338227272033691406e-01 -1.469140350818634033e-01 1.707518398761749268e-01
8.215145468711853027e-01 -1.423686891794204712e-01 1.628222763538360596e-01
3.881719410419464111e-01 7.655815035104751587e-02 2.634772956371307373e-01
3.761259913444519043e-01 7.996258139610290527e-02 2.585859000682830811e-01
3.754878938198089600e-01 6.724250316619873047e-02 2.767227590084075928e-01
3.636639118194580078e-01 7.053287327289581299e-02 2.725271880626678467e-01
-7.641428709030151367e-02 -2.082388848066329956e-01 -6.256272196769714355e-01
-9.293740987777709961e-02 -2.008439600467681885e-01 -6.301734447479248047e-01
-8.236221969127655029e-02 -2.126829773187637329e-01 -6.138713955879211426e-01
-9.889563918113708496e-02 -2.055163383483886719e-01 -6.183685064315795898e-01
4.073754251003265381e-01 -1.159635037183761597e-01 5.052226781845092773e-01
3.839871883392333984e-01 -1.146295666694641113e-01 4.936770498752593994e-01
4.045369923114776611e-01 -1.288229376077651978e-01 5.185660719871520996e-01
3.821780383586883545e-01 -1.256284117698669434e-01 5.095293521881103516e-01
-2.404915094375610352e-01 1.593231260776519775e-01 2.055234909057617188e-01
-2.561421394348144531e-01 1.697628498077392578e-01 2.021602988243103027e-01
-2.421799153089523315e-01 1.560741811990737915e-01 2.129234820604324341e-01
-2.584458887577056885e-01 1.626032292842864990e-01 2.072021663188934326e-01
-2.549616992473602295e-02 6.146718561649322510e-02 -4.747102260589599609e-01
-4.755661636590957642e-02 6.950027495622634888e-02 -4.778060317039489746e-01
-2.885671705007553101e-02 7.465909421443939209e-02 -4.656308293342590332e-01
-5.099617689847946167e-02 8.088584244251251221e-02 -4.688418209552764893e-01
4.911408126354217529e-01 -7.493970543146133423e-02 4.429826140403747559e-01
4.703226983547210693e-01 -6.676381826400756836e-02 4.382171332836151123e-01
4.799050092697143555e-01 -8.567264676094055176e-02 4.497668445110321045e-01
4.609280526638031006e-01 -7.724401354789733887e-02 4.445317387580871582e-01
-7.850253582000732422e-01 -2.062978446483612061e-01 2.007621079683303833e-01
-8.050240278244018555e-01 -2.026279717683792114e-01 1.840362697839736938e-01
-7.809022068977355957e-01 -2.033164948225021362e-01 2.277910858392715454e-01
-8.052744269371032715e-01 -2.007087916135787964e-01 2.131530493497848511e-01
5.339102745056152344e-01 8.034111559391021729e-02 -5.656152963638305664e-02
5.209764838218688965e-01 8.585746586322784424e-02 -6.564633548259735107e-02
5.395204424858093262e-01 8.199241757392883301e-02 -3.113904222846031189e-02
5.259968042373657227e-01 8.712987601757049561e-02 -3.891612216830253601e-02
-7.240462303161621094e-01 -1.864804178476333618e-01 3.501023948192596436e-01
-7.403076887130737305e-01 -1.797284483909606934e-01 3.311073184013366699e-01
-7.156121730804443359e-01 -1.879419088363647461e-01 3.803017139434814453e-01
-7.327656745910644531e-01 -1.814178377389907837e-01 3.645395636558532715e-01
-4.543961584568023682e-01 9.103870391845703125e-02 5.400622263550758362e-02
-4.795526266098022461e-01 9.260606765747070312e-02 3.622721880674362183e-02
-4.661847949028015137e-01 8.613380789756774902e-02 8.285354077816009521e-02
-4.913077652454376221e-01 8.895558863878250122e-02 6.502580642700195312e-02
-2.460992932319641113e-01 -1.622945070266723633e-01 -6.427002549171447754e-01
-2.680132687091827393e-01 -1.570921987295150757e-01 -6.464315056800842285e-01
-2.561756372451782227e-01 -1.624777913093566895e-01 -6.252364516258239746e-01
-2.781850099563598633e-01 -1.577823162078857422e-01 -6.299269199371337891e-01
-4.088830947875976562e-01 1.158644631505012512e-01 3.279229402542114258e-01
-4.316643476486206055e-01 1.134424358606338501e-01 3.188513815402984619e-01
-4.124990999698638916e-01 1.123852729797363281e-01 3.512693941593170166e-01
-4.359751343727111816e-01 1.115126758813858032e-01 3.420412242412567139e-01
-4.152123034000396729e-01 -2.037078440189361572e-01 3.703852593898773193e-01
-4.167976379394531250e-01 -1.916251778602600098e-01 3.629035949707031250e-01
-4.056640863418579102e-01 -2.052351385354995728e-01 3.864233493804931641e-01
-4.103298187255859375e-01 -1.962661743164062500e-01 3.770778775215148926e-01
9.821014851331710815e-02 -1.469111740589141846e-01 -5.104548335075378418e-01
8.174242079257965088e-02 -1.427149772644042969e-01 -5.171800851821899414e-01
9.968766570091247559e-02 -1.478424221277236938e-01 -4.920308291912078857e-01
8.265402913093566895e-02 -1.432649195194244385e-01 -4.983023405075073242e-01
-1.847986727952957153e-01 2.704573050141334534e-02 -4.578655958175659180e-01
-1.991644054651260376e-01 4.671620577573776245e-02 -4.575706422328948975e-01
-2.119369655847549438e-01 2.042989619076251984e-02 -4.550239443778991699e-01
-2.256590574979782104e-01 4.104242101311683655e-02 -4.559107422828674316e-01
1.810966581106185913e-01 9.222897142171859741e-02 -5.799778737127780914e-04
1.564894169569015503e-01 9.360045194625854492e-02 -8.575054816901683807e-03
1.712080091238021851e-01 9.298943728208541870e-02 1.272990647703409195e-02
1.500606387853622437e-01 9.555909037590026855e-02 9.554568678140640259e-03
2.348732650279998779e-01 -1.069465577602386475e-01 3.097152113914489746e-01
2.262784987688064575e-01 -8.792895078659057617e-02 3.117399811744689941e-01
2.107196748256683350e-01 -1.159005016088485718e-01 3.165476322174072266e-01
2.046914696693420410e-01 -9.368067234754562378e-02 3.205097913742065430e-01
-7.687112689018249512e-02 1.899644732475280762e-01 2.244851142168045044e-01
-8.740483969449996948e-02 2.084729820489883423e-01 2.219501137733459473e-01
-1.003050059080123901e-01 1.727771311998367310e-01 2.250432521104812622e-01
-1.107167080044746399e-01 1.899936795234680176e-01 2.232660502195358276e-01
-6.336151361465454102e-01 -2.045296579599380493e-01 -1.604391038417816162e-01
-6.510694026947021484e-01 -2.071756720542907715e-01 -1.620606184005737305e-01
-6.362478137016296387e-01 -1.967484652996063232e-01 -1.409508585929870605e-01
-6.551516652107238770e-01 -1.996223479509353638e-01 -1.425918340682983398e-01
-1.617734134197235107e-01 6.946146488189697266e-02 4.963810145854949951e-01
-1.825124174356460571e-01 7.665256410837173462e-02 4.905953407287597656e-01
-1.717765033245086670e-01 5.687659233808517456e-02 5.015996098518371582e-01
-1.926217526197433472e-01 6.413768231868743896e-02 4.957515895366668701e-01
2.708733379840850830e-01 -1.480442136526107788e-01 4.669228196144104004e-01
2.511301338672637939e-01 -1.489263921976089478e-01 4.593192636966705322e-01
2.606516182422637939e-01 -1.439576596021652222e-01 4.972304403781890869e-01
2.410459071397781372e-01 -1.446804106235504150e-01 4.896537661552429199e-01
-2.198743522167205811e-01 8.082012832164764404e-02 -2.301748245954513550e-01
-2.454498410224914551e-01 8.340826630592346191e-02 -2.341325283050537109e-01
-2.289500534534454346e-01 8.196920901536941528e-02 -2.188045531511306763e-01
-2.507483661174774170e-01 8.485692739486694336e-02 -2.226490229368209839e-01
1.243106462061405182e-02 4.645894840359687805e-02 -4.463531076908111572e-01
-7.980586960911750793e-03 5.715715512633323669e-02 -4.515846967697143555e-01
1.847779378294944763e-02 6.381507962942123413e-02 -4.267877340316772461e-01
-3.136495128273963928e-03 7.188460975885391235e-02 -4.325433373451232910e-01
5.819437503814697266e-01 -3.548186272382736206e-02 -3.608434498310089111e-01
5.587123036384582520e-01 -2.829696610569953918e-02 -3.746944367885589600e-01
5.847108960151672363e-01 -3.106589242815971375e-02 -3.412448465824127197e-01
5.608906149864196777e-01 -2.450948581099510193e-02 -3.523118197917938232e-01
-2.869904339313507080e-01 2.698284983634948730e-01 -1.219376772642135620e-01
-2.884389162063598633e-01 2.870911061763763428e-01 -1.231732293963432312e-01
-3.005817532539367676e-01 2.638366818428039551e-01 -9.721075743436813354e-02
-3.007434904575347900e-01 2.822646498680114746e-01 -1.000985577702522278e-01
-5.787364244461059570e-01 8.638206124305725098e-02 -2.908541075885295868e-02
-5.924232006072998047e-01 8.419223129749298096e-02 -4.200998693704605103e-02
-5.823387503623962402e-01 9.055452793836593628e-02 -9.982542134821414948e-03
-5.964000821113586426e-01 9.025598317384719849e-02 -2.224007435142993927e-02
6.776326894760131836e-01 2.440523728728294373e-02 -7.457563281059265137e-02
6.660626530647277832e-01 4.013412818312644958e-02 -8.500377833843231201e-02
6.757425665855407715e-01 2.249678038060665131e-02 -4.935046285390853882e-02
6.660758256912231445e-01 3.650354593992233276e-02 -5.961915105581283569e-02
-8.082593679428100586e-01 -1.796791255474090576e-01 6.978680193424224854e-02
-8.269113302230834961e-01 -1.800273060798645020e-01 5.435447394847869873e-02
-8.154133558273315430e-01 -1.814938485622406006e-01 1.012563556432723999e-01
-8.303940892219543457e-01 -1.836758255958557129e-01 8.451703190803527832e-02
-5.602523088455200195e-01 -1.480630785226821899e-01 -3.012078702449798584e-01
-5.555596947669982910e-01 -1.341231316328048706e-01 -2.912426590919494629e-01
-5.686209797859191895e-01 -1.506762206554412842e-01 -2.816469967365264893e-01
-5.560398697853088379e-01 -1.334009021520614624e-01 -2.734883427619934082e-01
-1.636123508214950562e-01 1.978606730699539185e-01 -2.149547040462493896e-01
-1.796132624149322510e-01 2.248106300830841064e-01 -2.073352932929992676e-01
-2.002141922712326050e-01 2.009476721286773682e-01 -2.074879854917526245e-01
-2.123503088951110840e-01 2.223001122474670410e-01 -1.969808191061019897e-01
-4.936024844646453857e-01 1.094111651182174683e-01 -2.531481683254241943e-01
-5.088289976119995117e-01 1.088588088750839233e-01 -2.595731914043426514e-01
-5.044611692428588867e-01 1.110772341489791870e-01 -2.234735488891601562e-01
-5.202075839042663574e-01 1.107067465782165527e-01 -2.318224459886550903e-01
-4.117227792739868164e-01 -1.094316244125366211e-01 -3.733997344970703125e-01
-4.081138074398040771e-01 -9.481538087129592896e-02 -3.695788979530334473e-01
-4.383676946163177490e-01 -1.079864650964736938e-01 -3.642860054969787598e-01
-4.352503418922424316e-01 -9.073658287525177002e-02 -3.607751727104187012e-01
6.369704008102416992e-01 5.773589760065078735e-02 1.668649464845657349e-01
6.239319443702697754e-01 7.150111347436904907e-02 1.608795225620269775e-01
6.386976838111877441e-01 5.910370126366615295e-02 1.953641921281814575e-01
6.279908418655395508e-01 7.148077338933944702e-02 1.853447556495666504e-01
-3.006929159164428711e-01 8.224640786647796631e-02 -1.031114310026168823e-01
-2.965109944343566895e-01 9.541651606559753418e-02 -9.681806713342666626e-02
-3.065128028392791748e-01 7.819511741399765015e-02 -8.563072979450225830e-02
-3.025733232498168945e-01 9.287472814321517944e-02 -7.870925962924957275e-02
-4.275743067264556885e-01 -1.956007331609725952e-01 3.612065315246582031e-01
-4.260981082916259766e-01 -1.804420799016952515e-01 3.565444052219390869e-01
-4.174512326717376709e-01 -1.999561637639999390e-01 3.775869607925415039e-01
-4.191244840621948242e-01 -1.879616975784301758e-01 3.700442612171173096e-01
4.185195565223693848e-01 1.241802647709846497e-01 1.630135029554367065e-01
4.021385908126831055e-01 1.287779510021209717e-01 1.582313179969787598e-01
4.188643097877502441e-01 1.220799684524536133e-01 1.835434883832931519e-01
4.003019332885742188e-01 1.273685842752456665e-01 1.795252263545989990e-01
2.759117633104324341e-02 -5.542186647653579712e-02 -4.614594578742980957e-01
7.580843754112720490e-03 -4.547761753201484680e-02 -4.662182033061981201e-01
2.371949702501296997e-02 -7.506869733333587646e-02 -4.589597284793853760e-01
4.527287557721138000e-03 -6.510031223297119141e-02 -4.634969532489776611e-01
-3.140252530574798584e-01 2.878834903240203857e-01 1.428218632936477661e-01
-3.170663714408874512e-01 3.053585290908813477e-01 1.349163353443145752e-01
-2.972849607467651367e-01 2.836658060550689697e-01 1.651985794305801392e-01
-3.033376336097717285e-01 2.992987334728240967e-01 1.576869636774063110e-01
-3.676991164684295654e-01 8.816493302583694458e-02 3.196005523204803467e-01
-3.918620049953460693e-01 8.195772022008895874e-02 3.067094087600708008e-01
-3.710622489452362061e-01 8.540207892656326294e-02 3.397217988967895508e-01
-3.935291171073913574e-01 7.950606942176818848e-02 3.278501033782958984e-01
2.400964051485061646e-01 1.355219930410385132e-01 -2.552342712879180908e-01
2.136000543832778931e-01 1.350551843643188477e-01 -2.586369514465332031e-01
2.392024397850036621e-01 1.444852948188781738e-01 -2.321788221597671509e-01
2.131325602531433105e-01 1.440442800521850586e-01 -2.369451373815536499e-01
2.987819314002990723e-01 -1.731173694133758545e-02 -3.296040296554565430e-01
2.929567694664001465e-01 2.465742640197277069e-03 -3.295695185661315918e-01
2.815870642662048340e-01 -3.161630779504776001e-02 -3.250080943107604980e-01
2.770079076290130615e-01 -1.152852922677993774e-02 -3.250532448291778564e-01
2.544209659099578857e-01 -1.332060694694519043e-01 -4.092028737068176270e-01
2.254261970520019531e-01 -1.485836952924728394e-01 -4.203713536262512207e-01
2.520209252834320068e-01 -1.347229331731796265e-01 -3.884856402873992920e-01
2.244236618280410767e-01 -1.469495147466659546e-01 -3.996794521808624268e-01
-9.594269096851348877e-02 3.075886964797973633e-01 -1.846212595701217651e-01
-1.101905927062034607e-01 3.242351710796356201e-01 -1.882807612419128418e-01
-1.080449074506759644e-01 2.953878939151763916e-01 -1.735020577907562256e-01
-1.222278103232383728e-01 3.118630945682525635e-01 -1.768987625837326050e-01
1.042224168777465820e-01 -1.357198953628540039e-01 5.053775906562805176e-01
7.818559557199478149e-02 -1.370807141065597534e-01 5.060663819313049316e-01
9.198641031980514526e-02 -1.381295025348663330e-01 5.244808793067932129e-01
6.626694649457931519e-02 -1.404098421335220337e-01 5.243910551071166992e-01
3.224887326359748840e-02 1.622783392667770386e-01 4.953411966562271118e-02
3.482399880886077881e-02 1.809682995080947876e-01 4.209661111235618591e-02
2.807570807635784149e-02 1.633093804121017456e-01 7.550296187400817871e-02
3.050992637872695923e-02 1.823574602603912354e-01 6.833719462156295776e-02
-7.441049814224243164e-02 -1.467804312705993652e-01 -5.939024686813354492e-01
-9.344411641359329224e-02 -1.432609707117080688e-01 -5.987036228179931641e-01
-8.328051865100860596e-02 -1.478276401758193970e-01 -5.783616304397583008e-01
-1.018788516521453857e-01 -1.435630917549133301e-01 -5.827044844627380371e-01
2.866579890251159668e-01 -2.001187503337860107e-01 -4.899975359439849854e-01
2.679488360881805420e-01 -2.055188119411468506e-01 -5.023722052574157715e-01
2.777876555919647217e-01 -1.998918205499649048e-01 -4.630934000015258789e-01
2.609924674034118652e-01 -2.052575796842575073e-01 -4.733339846134185791e-01
-1.718255281448364258e-01 1.145747676491737366e-01 -4.206470549106597900e-01
-1.917319297790527344e-01 1.150639876723289490e-01 -4.227547645568847656e-01
-1.800943315029144287e-01 1.156389191746711731e-01 -3.998261094093322754e-01
-2.012352347373962402e-01 1.163452267646789551e-01 -4.024541676044464111e-01
-9.492932260036468506e-02 1.414038687944412231e-01 1.949855387210845947e-01
-1.106764748692512512e-01 1.554218828678131104e-01 1.895976364612579346e-01
-1.022097170352935791e-01 1.264857351779937744e-01 1.954718381166458130e-01
-1.188454926013946533e-01 1.383176147937774658e-01 1.899470835924148560e-01
-1.946341693401336670e-01 8.116534352302551270e-02 -2.266152203083038330e-01
-2.203443646430969238e-01 8.347575366497039795e-02 -2.308918684720993042e-01
-2.053857147693634033e-01 8.104486763477325439e-02 -2.142460048198699951e-01
-2.285851985216140747e-01 8.339031785726547241e-02 -2.186020016670227051e-01
1.011897400021553040e-01 1.235965192317962646e-01 3.433280289173126221e-01
8.105076849460601807e-02 1.264668107032775879e-01 3.361021876335144043e-01
9.616200625896453857e-02 1.216917708516120911e-01 3.646865189075469971e-01
7.579550147056579590e-02 1.250334531068801880e-01 3.572571873664855957e-01
-3.435915410518646240e-01 9.205593913793563843e-02 3.070296049118041992e-01
-3.672696948051452637e-01 8.514550328254699707e-02 2.941876649856567383e-01
-3.479555845260620117e-01 8.816029876470565796e-02 3.254863917827606201e-01
-3.719051480293273926e-01 8.208500593900680542e-02 3.128300905227661133e-01
-2.772121131420135498e-01 3.130705356597900391e-01 1.234131753444671631e-01
-2.907464206218719482e-01 3.246685862541198730e-01 1.122044175863265991e-01
-2.618634104728698730e-01 3.105801641941070557e-01 1.453582495450973511e-01
-2.845952808856964111e-01 3.184785842895507812e-01 1.336412131786346436e-01
-3.231392502784729004e-01 -1.621586084365844727e-01 6.506105661392211914e-01
-3.502537310123443604e-01 -1.554871797561645508e-01 6.417731642723083496e-01
-3.173173367977142334e-01 -1.549133062362670898e-01 6.654121875762939453e-01
-3.443302810192108154e-01 -1.483723819255828857e-01 6.564834117889404297e-01
-5.929353833198547363e-01 -2.093974947929382324e-01 4.137629568576812744e-01
-6.146160364151000977e-01 -2.100299298763275146e-01 3.993106484413146973e-01
-5.859977602958679199e-01 -2.077907621860504150e-01 4.424945712089538574e-01
-6.084614992141723633e-01 -2.090115994215011597e-01 4.290109872817993164e-01
6.897841095924377441e-01 -3.158786520361900330e-02 -2.027047276496887207e-01
6.780841946601867676e-01 -1.451857201755046844e-02 -2.117646187543869019e-01
6.817392110824584961e-01 -3.439229726791381836e-02 -1.781386733055114746e-01
6.707301735877990723e-01 -1.818770542740821838e-02 -1.905328929424285889e-01
2.087023109197616577e-02 -1.755335479974746704e-01 -6.382221579551696777e-01
5.112462677061557770e-04 -1.733525246381759644e-01 -6.448821425437927246e-01
1.780277490615844727e-02 -1.711397469043731689e-01 -6.222752332687377930e-01
-5.026972852647304535e-03 -1.685395836830139160e-01 -6.295180320739746094e-01
5.377650856971740723e-01 -9.542705118656158447e-02 -4.652285575866699219e-01
5.233752727508544922e-01 -8.553881198167800903e-02 -4.750403761863708496e-01
5.361984968185424805e-01 -9.434229880571365356e-02 -4.392601549625396729e-01
5.217454433441162109e-01 -8.500680327415466309e-02 -4.517116844654083252e-01
6.849182844161987305e-01 -2.081473916769027710e-01 -4.892227351665496826e-01
6.622523069381713867e-01 -2.032889872789382935e-01 -4.983291625976562500e-01
6.808758378028869629e-01 -2.117149084806442261e-01 -4.676770567893981934e-01
6.580393910408020020e-01 -2.071381956338882446e-01 -4.768725931644439697e-01
-4.242608249187469482e-01 4.399366676807403564e-03 -3.707681298255920410e-01
-4.207977950572967529e-01 2.107775583863258362e-02 -3.704638183116912842e-01
-4.410431087017059326e-01 1.205397769808769226e-03 -3.641850054264068604e-01
-4.377279877662658691e-01 1.896075718104839325e-02 -3.621850311756134033e-01
-6.808373332023620605e-02 1.248986423015594482e-01 2.396780997514724731e-01
-8.327025920152664185e-02 1.332399845123291016e-01 2.354194223880767822e-01
-8.064761757850646973e-02 1.220315620303153992e-01 2.564960420131683350e-01
-9.898290038108825684e-02 1.263211965560913086e-01 2.535713911056518555e-01
-2.851995825767517090e-02 -1.383549124002456665e-01 4.951427578926086426e-01
-4.774653911590576172e-02 -1.347353011369705200e-01 4.905423223972320557e-01
-3.721987456083297729e-02 -1.407001763582229614e-01 5.107099413871765137e-01
-5.632149428129196167e-02 -1.384048610925674438e-01 5.048692226409912109e-01
2.008581012487411499e-01 -2.118857502937316895e-01 3.785196542739868164e-01
1.793783307075500488e-01 -2.036045789718627930e-01 3.733395040035247803e-01
1.897745579481124878e-01 -2.140033096075057983e-01 4.023312330245971680e-01
1.695769578218460083e-01 -2.038019597530364990e-01 3.973953425884246826e-01
7.028314471244812012e-01 -1.926404833793640137e-01 -6.293472647666931152e-01
6.807286143302917480e-01 -1.864773929119110107e-01 -6.417822837829589844e-01
7.027616500854492188e-01 -1.930035650730133057e-01 -6.085233688354492188e-01
6.805570721626281738e-01 -1.889173984527587891e-01 -6.220192909240722656e-01
-8.011712431907653809e-01 -1.985178440809249878e-01 1.523261815309524536e-01
-8.187551498413085938e-01 -1.951663345098495483e-01 1.340651214122772217e-01
-8.055490851402282715e-01 -1.943924874067306519e-01 1.794302463531494141e-01
-8.237109184265136719e-01 -1.905887424945831299e-01 1.621690243482589722e-01
2.725853621959686279e-01 8.163557946681976318e-02 -1.725494712591171265e-01
2.562253475189208984e-01 7.936812937259674072e-02 -1.786668300628662109e-01
2.664375305175781250e-01 8.287249505519866943e-02 -1.474490761756896973e-01
2.487400323152542114e-01 8.049371838569641113e-02 -1.525778919458389282e-01
-2.154504060745239258e-01 2.193670123815536499e-01 -2.042008936405181885e-01
-2.266420722007751465e-01 2.384213209152221680e-01 -1.947413235902786255e-01
-2.450685501098632812e-01 2.188625335693359375e-01 -1.963900774717330933e-01
-2.532095611095428467e-01 2.359898537397384644e-01 -1.884486228227615356e-01
-2.690423429012298584e-01 1.164231225848197937e-01 3.666924536228179932e-01
-2.844965159893035889e-01 1.175521761178970337e-01 3.516342043876647949e-01
-2.766076922416687012e-01 1.108606010675430298e-01 3.824869692325592041e-01
-2.919688522815704346e-01 1.128369048237800598e-01 3.664795458316802979e-01
1.522461771965026855e-01 8.860971033573150635e-02 -5.305906757712364197e-02
1.269713789224624634e-01 8.840309083461761475e-02 -5.155304074287414551e-02
1.436375528573989868e-01 9.036419540643692017e-02 -3.224691748619079590e-02
1.139005050063133240e-01 9.239663183689117432e-02 -2.800105512142181396e-02
-5.948429703712463379e-01 -1.361254304647445679e-01 4.557866752147674561e-01
-6.145468950271606445e-01 -1.397131234407424927e-01 4.440350830554962158e-01
-5.953828096389770508e-01 -1.453838795423507690e-01 4.736788570880889893e-01
-6.151797771453857422e-01 -1.489458084106445312e-01 4.619368314743041992e-01
1.919716894626617432e-01 -1.180506125092506409e-01 3.675673604011535645e-01
1.893429160118103027e-01 -9.480415284633636475e-02 3.690977692604064941e-01
1.751897335052490234e-01 -1.280198246240615845e-01 3.811860084533691406e-01
1.734673231840133667e-01 -1.090984269976615906e-01 3.825010657310485840e-01
-2.900025546550750732e-01 7.927705347537994385e-02 -2.603904902935028076e-01
-3.088882565498352051e-01 8.452851325273513794e-02 -2.608162462711334229e-01
-3.022018969058990479e-01 8.225803077220916748e-02 -2.328420579433441162e-01
-3.203094899654388428e-01 8.636654168367385864e-02 -2.320512086153030396e-01
-7.516697645187377930e-01 -2.092821449041366577e-01 -1.919023692607879639e-01
-7.649003863334655762e-01 -2.053896933794021606e-01 -1.987973749637603760e-01
-7.532802224159240723e-01 -2.096589058637619019e-01 -1.754110157489776611e-01
-7.669263482093811035e-01 -2.057190835475921631e-01 -1.824636906385421753e-01
5.459058284759521484e-01 -2.418643236160278320e-02 -4.293734133243560791e-01
5.252714157104492188e-01 -2.216578274965286255e-02 -4.436760842800140381e-01
5.462710857391357422e-01 -1.889690943062305450e-02 -4.019044339656829834e-01
5.258141756057739258e-01 -1.659218035638332367e-02 -4.166095554828643799e-01
-7.687256932258605957e-01 -1.425986438989639282e-01 -1.141872163861989975e-02
-7.891175746917724609e-01 -1.452733129262924194e-01 -2.569385990500450134e-02
-7.729268074035644531e-01 -1.406008750200271606e-01 1.821032911539077759e-02
-7.935274243354797363e-01 -1.439900547266006470e-01 5.353271029889583588e-03
6.753166913986206055e-01 -1.914391070604324341e-01 5.720480680465698242e-01
6.584545373916625977e-01 -1.868018805980682373e-01 5.744554996490478516e-01
6.612429618835449219e-01 -1.884375810623168945e-01 5.828899741172790527e-01
6.435156464576721191e-01 -1.826247721910476685e-01 5.843092799186706543e-01
-1.858679652214050293e-01 -7.763765752315521240e-02 4.673736095428466797e-01
