-1.151959374547004700e-01 1.346514672040939331e-01 7.855381369590759277e-01
-1.300380975008010864e-01 1.356343626976013184e-01 7.848581671714782715e-01
-4.710361063480377197e-01 -3.153434395790100098e-02 -6.260173320770263672e-01
-4.724310040473937988e-01 -1.641115546226501465e-02 -6.311948895454406738e-01
-4.687638878822326660e-01 -3.711628168821334839e-02 -6.125501394271850586e-01
-4.715730249881744385e-01 -2.124641835689544678e-02 -6.160886883735656738e-01
-4.439181089401245117e-01 -1.040631756186485291e-01 4.900002181529998779e-01
-4.539593458175659180e-01 -9.394253790378570557e-02 4.829978644847869873e-01
-4.425261914730072021e-01 -1.074030697345733643e-01 5.027669668197631836e-01
-4.528072774410247803e-01 -9.642204642295837402e-02 4.950807690620422363e-01
-3.158746361732482910e-01 8.254829049110412598e-02 -6.864017993211746216e-02
-3.048584461212158203e-01 9.729745239019393921e-02 -7.599118351936340332e-02
-3.146426677703857422e-01 7.825455814599990845e-02 -4.207162559032440186e-02
-3.036777675151824951e-01 9.292319416999816895e-02 -4.985105618834495544e-02
-8.519615978002548218e-02 1.501633673906326294e-01 -8.263733983039855957e-01
-9.927572309970855713e-02 1.518106460571289062e-01 -8.386123180389404297e-01
-8.958506584167480469e-02 1.441664099693298340e-01 -8.093470335006713867e-01
-1.021361425518989563e-01 1.483117192983627319e-01 -8.232318162918090820e-01
-1.674082428216934204e-01 -1.763381063938140869e-01 1.151607707142829895e-01
-1.822545826435089111e-01 -1.711031198501586914e-01 1.100332885980606079e-01
-1.709718853235244751e-01 -1.745272427797317505e-01 1.356335580348968506e-01
-1.863176971673965454e-01 -1.694287508726119995e-01 1.315858066082000732e-01
-1.268755737692117691e-02 -7.902918383479118347e-03 7.317284941673278809e-01
-2.323788031935691833e-02 6.139043718576431274e-03 7.322828769683837891e-01
-2.630085125565528870e-02 -1.906006038188934326e-02 7.297630906105041504e-01
-3.741737827658653259e-02 -6.140483543276786804e-03 7.298663854598999023e-01
2.435263693332672119e-01 -1.096667423844337463e-01 -6.184466481208801270e-01
2.316291183233261108e-01 -1.008366867899894714e-01 -6.255737543106079102e-01
2.469493895769119263e-01 -1.052110418677330017e-01 -5.935450792312622070e-01
2.378108799457550049e-01 -9.536573290824890137e-02 -5.978493690490722656e-01
-4.528029859066009521e-01 -2.525284327566623688e-02 -6.828240156173706055e-01
-4.500261843204498291e-01 -7.379932329058647156e-03 -6.890652775764465332e-01
-4.602431952953338623e-01 -2.327585220336914062e-02 -6.617916822433471680e-01
-4.589216411113739014e-01 -6.661411374807357788e-03 -6.702628731727600098e-01
-1.502525806427001953e-01 -1.439640671014785767e-01 7.823415398597717285e-01
-1.667538881301879883e-01 -1.429900974035263062e-01 7.694209218025207520e-01
-1.558367311954498291e-01 -1.458601504564285278e-01 8.009613752365112305e-01
-1.727941036224365234e-01 -1.452756524085998535e-01 7.887679338455200195e-01
-2.956793010234832764e-01 1.527664661407470703e-01 3.423870801925659180e-01
-3.094136118888854980e-01 1.545464545488357544e-01 3.341265618801116943e-01
-3.008974194526672363e-01 1.502408087253570557e-01 3.603800833225250244e-01
-3.143357336521148682e-01 1.521265357732772827e-01 3.525408208370208740e-01
-2.444809228181838989e-01 -1.087474822998046875e-01 3.982210755348205566e-01
-2.282453328371047974e-01 -9.584621340036392212e-02 4.050851762294769287e-01
-2.550232410430908203e-01 -1.115642860531806946e-01 4.168767929077148438e-01
-2.381049245595932007e-01 -9.791555255651473999e-02 4.236485064029693604e-01
3.593783080577850342e-01 -1.502927541732788086e-01 4.628793001174926758e-01
3.478755354881286621e-01 -1.534051299095153809e-01 4.513508081436157227e-01
3.552008271217346191e-01 -1.495526880025863647e-01 4.834122657775878906e-01
3.439605832099914551e-01 -1.515903174877166748e-01 4.725781381130218506e-01
4.542581737041473389e-02 -2.823273092508316040e-02 -7.368327379226684570e-01
2.883034572005271912e-02 -1.843584515154361725e-02 -7.424151897430419922e-01
5.336461588740348816e-02 -2.715055644512176514e-02 -7.299888730049133301e-01
3.704609721899032593e-02 -1.709571667015552521e-02 -7.354161739349365234e-01
-3.396832942962646484e-01 -1.484543532133102417e-01 6.956050992012023926e-01
-3.524455130100250244e-01 -1.458087116479873657e-01 6.878775954246520996e-01
-3.370650708675384521e-01 -1.462079286575317383e-01 7.125397920608520508e-01
-3.500446975231170654e-01 -1.433447897434234619e-01 7.047142386436462402e-01
4.554311931133270264e-01 -5.527025461196899414e-02 4.257051646709442139e-01
4.593619406223297119e-01 -3.664827346801757812e-02 4.189572632312774658e-01
4.587194025516510010e-01 -5.931224673986434937e-02 4.474312365055084229e-01
4.631212055683135986e-01 -4.203883185982704163e-02 4.407344758510589600e-01
2.366449087858200073e-01 7.214900851249694824e-02 -9.110774397850036621e-01
2.213378101587295532e-01 8.233930170536041260e-02 -9.169599413871765137e-01
2.458579987287521362e-01 8.810807019472122192e-02 -8.988952040672302246e-01
2.296154052019119263e-01 9.551203250885009766e-02 -9.063057899475097656e-01
-4.603683054447174072e-01 8.243839442729949951e-02 -4.716308414936065674e-01
-4.514677524566650391e-01 9.554615616798400879e-02 -4.788932204246520996e-01
-4.573947787284851074e-01 7.794673740863800049e-02 -4.465382993221282959e-01
-4.513644278049468994e-01 8.968117833137512207e-02 -4.554246366024017334e-01
-4.285782277584075928e-01 -8.920776098966598511e-02 3.784013092517852783e-01
-4.311006963253021240e-01 -7.533117383718490601e-02 3.673834204673767090e-01
-4.335414767265319824e-01 -9.512922167778015137e-02 3.986852467060089111e-01
-4.365213811397552490e-01 -7.948715239763259888e-02 3.866516649723052979e-01
2.302791923284530640e-02 -1.078433096408843994e-01 9.584618806838989258e-01
1.916266046464443207e-03 -1.164731383323669434e-01 9.541920423507690430e-01
1.547907479107379913e-02 -9.066778421401977539e-02 9.674555659294128418e-01
-7.185648661106824875e-03 -1.012616008520126343e-01 9.621655344963073730e-01
2.114101350307464600e-01 -3.007218614220619202e-02 -4.352289438247680664e-01
2.103708088397979736e-01 -1.592164859175682068e-02 -4.403123557567596436e-01
2.099261432886123657e-01 -3.835900872945785522e-02 -4.171178042888641357e-01
2.080282568931579590e-01 -2.435077354311943054e-02 -4.224867820739746094e-01
-3.895391523838043213e-01 1.399640887975692749e-01 -6.444916725158691406e-01
-4.030055999755859375e-01 1.310890316963195801e-01 -6.568229198455810547e-01
-3.941900730133056641e-01 1.410881429910659790e-01 -6.248177289962768555e-01
-4.005835354328155518e-01 1.378793567419052124e-01 -6.328036785125732422e-01
2.319427281618118286e-01 1.046722196042537689e-02 9.368084669113159180e-01
2.221903353929519653e-01 2.736705914139747620e-02 9.355949163436889648e-01
2.185947746038436890e-01 -3.715921193361282349e-04 9.456719756126403809e-01
2.086209207773208618e-01 1.670185290277004242e-02 9.446780085563659668e-01
-1.688319891691207886e-01 -1.477433145046234131e-01 -7.946053743362426758e-01
-1.889950931072235107e-01 -1.495725661516189575e-01 -8.054939508438110352e-01
-1.671635508537292480e-01 -1.439805924892425537e-01 -7.702888846397399902e-01
-1.895854771137237549e-01 -1.469358354806900024e-01 -7.806093692779541016e-01
-1.905766874551773071e-01 -7.992999255657196045e-02 6.614685058593750000e-01
-1.897180676460266113e-01 -6.594797223806381226e-02 6.572703123092651367e-01
-1.803381443023681641e-01 -8.812850713729858398e-02 6.800382137298583984e-01
-1.854548305273056030e-01 -8.224977552890777588e-02 6.731139421463012695e-01
2.112374454736709595e-01 1.492399871349334717e-01 -7.690824866294860840e-01
1.967014521360397339e-01 1.486129164695739746e-01 -7.771518826484680176e-01
2.072330415248870850e-01 1.450312584638595581e-01 -7.478756308555603027e-01
1.932231038808822632e-01 1.445351541042327881e-01 -7.576913237571716309e-01
2.984503842890262604e-02 1.558187603950500488e-01 1.934384405612945557e-01
1.838364824652671814e-02 1.617490351200103760e-01 1.827975958585739136e-01
2.193155698478221893e-02 1.460564881563186646e-01 2.082716375589370728e-01
1.042973063886165619e-02 1.518558114767074585e-01 1.973270773887634277e-01
3.512088656425476074e-01 4.563309624791145325e-02 1.099504902958869934e-01
3.414735198020935059e-01 5.985370278358459473e-02 1.001100167632102966e-01
3.588645160198211670e-01 4.724224284291267395e-02 1.358563154935836792e-01
3.501775860786437988e-01 6.109938770532608032e-02 1.275733262300491333e-01
4.060963392257690430e-01 1.201365068554878235e-01 3.863497674465179443e-01
3.937802016735076904e-01 1.291320770978927612e-01 3.793770372867584229e-01
4.103797674179077148e-01 1.201521977782249451e-01 4.057443737983703613e-01
3.987986445426940918e-01 1.289534866809844971e-01 3.977345228195190430e-01
3.378033041954040527e-01 -2.773064002394676208e-02 -8.589393496513366699e-01
3.368909358978271484e-01 -1.138140261173248291e-02 -8.621880412101745605e-01
3.528648018836975098e-01 -2.939009852707386017e-02 -8.448284864425659180e-01
3.512539267539978027e-01 -1.471363939344882965e-02 -8.496823906898498535e-01
3.267156481742858887e-01 1.512095779180526733e-01 -7.040592432022094727e-01
3.096589148044586182e-01 1.505049020051956177e-01 -7.146907448768615723e-01
3.243820667266845703e-01 1.509479284286499023e-01 -6.824920177459716797e-01
3.075808584690093994e-01 1.498550474643707275e-01 -6.945052146911621094e-01
8.208249695599079132e-03 -1.350373029708862305e-01 -9.229793548583984375e-01
-8.796977810561656952e-03 -1.312247365713119507e-01 -9.319207668304443359e-01
2.183653647080063820e-03 -1.437053382396697998e-01 -9.050537943840026855e-01
-1.351588498800992966e-02 -1.405631005764007568e-01 -9.162691831588745117e-01
-3.722958266735076904e-01 1.151637285947799683e-01 7.488870620727539062e-01
-3.872422575950622559e-01 1.064037829637527466e-01 7.380735278129577637e-01
-3.697776794433593750e-01 1.046247482299804688e-01 7.651274800300598145e-01
-3.835301995277404785e-01 9.724279493093490601e-02 7.545566558837890625e-01
3.691248893737792969e-01 1.411219034343957901e-02 8.239065408706665039e-01
3.585360050201416016e-01 3.217911720275878906e-02 8.318344950675964355e-01
3.604902029037475586e-01 7.534206844866275787e-03 8.363447785377502441e-01
3.487645387649536133e-01 2.851282060146331787e-02 8.479942083358764648e-01
-3.072139620780944824e-01 -1.401046514511108398e-01 4.639342725276947021e-01
-3.168376982212066650e-01 -1.422663033008575439e-01 4.543120861053466797e-01
-3.120538890361785889e-01 -1.420060098171234131e-01 4.847975969314575195e-01
-3.174038827419281006e-01 -1.415842175483703613e-01 4.742221236228942871e-01
4.668626934289932251e-02 -1.245210617780685425e-01 -2.322418689727783203e-01
3.178112208843231201e-02 -1.173753961920738220e-01 -2.387709021568298340e-01
4.305238276720046997e-02 -1.341490298509597778e-01 -2.219786942005157471e-01
2.766130119562149048e-02 -1.274986416101455688e-01 -2.286930084228515625e-01
3.135481476783752441e-01 1.996576320379972458e-03 -8.816325068473815918e-01
3.076543509960174561e-01 1.847340725362300873e-02 -8.855422735214233398e-01
3.284166455268859863e-01 -2.826841082423925400e-03 -8.691956400871276855e-01
3.244904875755310059e-01 1.282699313014745712e-02 -8.731663823127746582e-01
-9.251164644956588745e-02 -1.490264385938644409e-01 8.816839456558227539e-01
-1.045806854963302612e-01 -1.456162333488464355e-01 8.721544742584228516e-01
-8.999603241682052612e-02 -1.473530083894729614e-01 8.979395031929016113e-01
-1.021129488945007324e-01 -1.440297067165374756e-01 8.888363242149353027e-01
1.863487809896469116e-01 -9.574458003044128418e-03 6.340708136558532715e-01
1.911308020353317261e-01 5.225337576121091843e-03 6.309402585029602051e-01
1.799817085266113281e-01 -1.307275146245956421e-02 6.457287669181823730e-01
1.831842362880706787e-01 2.769629936665296555e-03 6.426677107810974121e-01
6.314643472433090210e-02 -1.067800372838973999e-01 9.540393948554992676e-01
5.024663358926773071e-02 -1.055053770542144775e-01 9.565821290016174316e-01
5.787813290953636169e-02 -8.770919591188430786e-02 9.651139378547668457e-01
4.212777689099311829e-02 -9.040027856826782227e-02 9.651957750320434570e-01
1.060520634055137634e-01 1.213202401995658875e-01 -7.645365595817565918e-01
9.051886945962905884e-02 1.237244158983230591e-01 -7.790349721908569336e-01
1.010827720165252686e-01 1.068443283438682556e-01 -7.534380555152893066e-01
8.536081016063690186e-02 1.097659766674041748e-01 -7.659080028533935547e-01
-1.161188110709190369e-01 1.939834207296371460e-01 -4.245792329311370850e-02
-1.349596977233886719e-01 1.901308745145797729e-01 -5.355387553572654724e-02
-1.230722218751907349e-01 1.931723505258560181e-01 -2.073253132402896881e-02
-1.411138325929641724e-01 1.887771785259246826e-01 -3.268560022115707397e-02
2.942045331001281738e-01 -1.449496448040008545e-01 -7.673582434654235840e-01
2.799176871776580811e-01 -1.472782492637634277e-01 -7.797144651412963867e-01
2.945571243762969971e-01 -1.484548300504684448e-01 -7.463771700859069824e-01
2.780557274818420410e-01 -1.520521342754364014e-01 -7.585417032241821289e-01
-3.671314120292663574e-01 1.358019411563873291e-01 7.061040997505187988e-01
-3.785565793514251709e-01 1.291861087083816528e-01 6.933163404464721680e-01
-3.656204640865325928e-01 1.300645321607589722e-01 7.215308547019958496e-01
-3.783417940139770508e-01 1.222736984491348267e-01 7.094932198524475098e-01
-3.663415089249610901e-02 2.042948305606842041e-01 2.496185153722763062e-02
-5.691616982221603394e-02 2.039806693792343140e-01 9.502626955509185791e-03
-3.535278514027595520e-02 2.028598785400390625e-01 4.685101285576820374e-02
-5.525421351194381714e-02 2.027589976787567139e-01 3.146222606301307678e-02
3.356543779373168945e-01 1.490233242511749268e-01 -3.805010914802551270e-01
3.224542438983917236e-01 1.516562849283218384e-01 -3.920166492462158203e-01
3.372995555400848389e-01 1.464114040136337280e-01 -3.609057664871215820e-01
3.235108256340026855e-01 1.483584195375442505e-01 -3.717377185821533203e-01
1.603183150291442871e-01 -1.580189168453216553e-01 -1.963483095169067383e-01
1.461454480886459351e-01 -1.559097170829772949e-01 -2.039250880479812622e-01
1.624974459409713745e-01 -1.616781055927276611e-01 -1.770153939723968506e-01
1.490401923656463623e-01 -1.609997302293777466e-01 -1.852296590805053711e-01
-4.140672087669372559e-01 1.130323261022567749e-01 6.459546089172363281e-01
-3.947003483772277832e-01 1.321918219327926636e-01 6.430432796478271484e-01
-4.122473001480102539e-01 1.109770387411117554e-01 6.689496636390686035e-01
-3.987295031547546387e-01 1.251624226570129395e-01 6.649000048637390137e-01
-8.469829708337783813e-02 1.584404557943344116e-01 1.969861537218093872e-01
-9.598231315612792969e-02 1.649903655052185059e-01 1.847577393054962158e-01
-8.526734262704849243e-02 1.514017432928085327e-01 2.103817909955978394e-01
-9.553121030330657959e-02 1.593597829341888428e-01 1.997742950916290283e-01
-3.550905883312225342e-01 1.120649650692939758e-01 7.779018282890319824e-01
-3.664948344230651855e-01 1.064257025718688965e-01 7.666693925857543945e-01
-3.529064953327178955e-01 9.921026229858398438e-02 7.932337522506713867e-01
-3.637287318706512451e-01 9.515724331140518188e-02 7.811774015426635742e-01
-2.432027459144592285e-01 1.478468775749206543e-01 3.040474355220794678e-01
-2.516760826110839844e-01 1.531329751014709473e-01 2.919179201126098633e-01
-2.487304210662841797e-01 1.450037956237792969e-01 3.227230310440063477e-01
-2.585044503211975098e-01 1.489819437265396118e-01 3.117185533046722412e-01
-1.740230061113834381e-02 1.445256769657135010e-01 -2.095008045434951782e-01
-3.412555903196334839e-02 1.457878947257995605e-01 -2.097630351781845093e-01
-1.336480677127838135e-02 1.571750640869140625e-01 -1.917740255594253540e-01
-3.144316747784614563e-02 1.579055637121200562e-01 -1.937171071767807007e-01
3.920675218105316162e-01 -1.255332827568054199e-01 6.639175415039062500e-01
4.072893857955932617e-01 -1.136958450078964233e-01 6.712390184402465820e-01
3.880573511123657227e-01 -1.247533932328224182e-01 6.836667060852050781e-01
3.975316584110260010e-01 -1.161755025386810303e-01 6.917777657508850098e-01
3.204891085624694824e-01 -1.053287237882614136e-01 -8.278867602348327637e-01
3.105648458003997803e-01 -1.033479645848274231e-01 -8.443081378936767578e-01
3.246154785156250000e-01 -1.162739172577857971e-01 -8.091113567352294922e-01
3.105905652046203613e-01 -1.176930963993072510e-01 -8.272587656974792480e-01
1.904888749122619629e-01 7.386481761932373047e-02 6.540405750274658203e-01
2.015191167593002319e-01 8.518967032432556152e-02 6.612004637718200684e-01
1.803690344095230103e-01 7.502525299787521362e-02 6.701530218124389648e-01
1.899778991937637329e-01 8.591040968894958496e-02 6.776670217514038086e-01
-2.392913699150085449e-01 -1.497091948986053467e-01 -3.900893777608871460e-02
-2.505958378314971924e-01 -1.426896899938583374e-01 -4.897969961166381836e-02
-2.407159805297851562e-01 -1.476799547672271729e-01 -2.503300458192825317e-02
-2.523109912872314453e-01 -1.400070339441299438e-01 -3.568030148744583130e-02
-1.310538053512573242e-01 -8.133472502231597900e-02 -3.053482770919799805e-01
-1.468207985162734985e-01 -8.232108503580093384e-02 -3.150160312652587891e-01
-1.351735740900039673e-01 -1.002615839242935181e-01 -2.932737469673156738e-01
-1.514530032873153687e-01 -1.022724583745002747e-01 -3.028786480426788330e-01
2.700020372867584229e-01 1.449567377567291260e-01 -3.577622771263122559e-01
2.638196051120758057e-01 1.445534378290176392e-01 -3.557637929916381836e-01
2.603030502796173096e-01 1.468548774719238281e-01 -3.359184563159942627e-01
2.483516186475753784e-01 1.433002501726150513e-01 -3.355519175529479980e-01
4.050531983375549316e-01 -1.303448230028152466e-01 6.170743703842163086e-01
4.229001402854919434e-01 -1.178301200270652771e-01 6.192902922630310059e-01
3.986744582653045654e-01 -1.316792368888854980e-01 6.352310180664062500e-01
4.170399904251098633e-01 -1.186773702502250671e-01 6.393447518348693848e-01
2.039645761251449585e-01 -5.680769681930541992e-04 4.208259582519531250e-01
2.077624052762985229e-01 2.090807259082794189e-02 4.197916984558105469e-01
2.090927213430404663e-01 -4.468727391213178635e-03 4.361808300018310547e-01
2.117175757884979248e-01 1.540626212954521179e-02 4.337402582168579102e-01
2.183115184307098389e-01 -2.662898413836956024e-02 4.540484547615051270e-01
2.196741104125976562e-01 -9.030989371240139008e-03 4.538677930831909180e-01
2.213853746652603149e-01 -2.598250471055507660e-02 4.730839133262634277e-01
2.210471034049987793e-01 -9.124097414314746857e-03 4.732093513011932373e-01
3.389388620853424072e-01 -8.675221353769302368e-02 -1.549378633499145508e-01
3.496264219284057617e-01 -7.428132742643356323e-02 -1.551044285297393799e-01
3.327088057994842529e-01 -8.492697775363922119e-02 -1.344754099845886230e-01
3.439266681671142578e-01 -7.415437698364257812e-02 -1.351641416549682617e-01
2.917721867561340332e-01 -1.413622349500656128e-01 -6.156145930290222168e-01
2.716343700885772705e-01 -1.351155638694763184e-01 -6.252690553665161133e-01
2.959932386875152588e-01 -1.408680230379104614e-01 -5.935271382331848145e-01
2.771802544593811035e-01 -1.348452270030975342e-01 -6.033374667167663574e-01
1.708855479955673218e-01 -1.767324656248092651e-01 -8.749958872795104980e-02
1.591885685920715332e-01 -1.782318800687789917e-01 -9.904411435127258301e-02
1.633051782846450806e-01 -1.815948933362960815e-01 -6.826749444007873535e-02
1.513351351022720337e-01 -1.831787824630737305e-01 -8.086592704057693481e-02
6.322837900370359421e-03 3.515252098441123962e-02 -9.938954114913940430e-01
-3.537802025675773621e-03 5.162602663040161133e-02 -9.852030873298645020e-01
-1.372644677758216858e-02 3.834229707717895508e-02 -9.949419498443603516e-01
-2.322379872202873230e-02 5.503123998641967773e-02 -9.858661890029907227e-01
-8.565146476030349731e-03 -5.990969389677047729e-02 -9.871466159820556641e-01
-1.804792508482933044e-02 -4.570579528808593750e-02 -9.918662905693054199e-01
-1.906964182853698730e-02 -7.660903781652450562e-02 -9.803930521011352539e-01
-3.023227490484714508e-02 -6.543521583080291748e-02 -9.858994483947753906e-01
3.329928219318389893e-01 -1.111482903361320496e-01 -1.841925084590911865e-01
3.140212297439575195e-01 -1.216062903404235840e-01 -1.914684921503067017e-01
3.232139348983764648e-01 -1.130644232034683228e-01 -1.658791005611419678e-01
3.103909194469451904e-01 -1.207809746265411377e-01 -1.729493588209152222e-01
-1.221324801445007324e-01 -6.692148000001907349e-02 9.672508239746093750e-01
-1.475961357355117798e-01 -6.257200241088867188e-02 9.623063206672668457e-01
-1.259704679250717163e-01 -5.020159482955932617e-02 9.699947237968444824e-01
-1.525652855634689331e-01 -4.428635165095329285e-02 9.658544659614562988e-01
7.169253379106521606e-02 -1.578031629323959351e-01 -8.715636134147644043e-01
5.462554842233657837e-02 -1.565174758434295654e-01 -8.803625702857971191e-01
7.126338779926300049e-02 -1.543626934289932251e-01 -8.520888090133666992e-01
5.373620241880416870e-02 -1.537140160799026489e-01 -8.606422543525695801e-01
-6.992994248867034912e-02 -1.054681465029716492e-01 -2.653630673885345459e-01
-8.305187523365020752e-02 -9.718526899814605713e-02 -2.748102545738220215e-01
-7.276486605405807495e-02 -1.212160140275955200e-01 -2.539298534393310547e-01
-8.725674450397491455e-02 -1.144509389996528625e-01 -2.627538740634918213e-01
2.717057168483734131e-01 -1.463456451892852783e-01 -6.784667372703552246e-01
2.525513470172882080e-01 -1.410814970731735229e-01 -6.818315982818603516e-01
2.664983272552490234e-01 -1.398615390062332153e-01 -6.557993888854980469e-01
2.466181367635726929e-01 -1.329855322837829590e-01 -6.602828502655029297e-01
-2.894752323627471924e-01 -1.499756276607513428e-01 -7.604794502258300781e-01
-3.023656606674194336e-01 -1.444057822227478027e-01 -7.644824385643005371e-01
-2.962484657764434814e-01 -1.527295112609863281e-01 -7.394944429397583008e-01
-3.096291720867156982e-01 -1.482116580009460449e-01 -7.431285381317138672e-01
3.042953610420227051e-01 -3.774298727512359619e-02 8.797156810760498047e-01
3.068041801452636719e-01 -1.932936906814575195e-02 8.872509002685546875e-01
2.804225087165832520e-01 -4.008784890174865723e-02 8.943203687667846680e-01
2.833722531795501709e-01 -2.165450528264045715e-02 9.016913175582885742e-01
-2.131759747862815857e-02 3.704763017594814301e-03 -2.935440540313720703e-01
-2.627943456172943115e-02 2.927068248391151428e-02 -2.876041233539581299e-01
-3.150745108723640442e-02 -2.656179480254650116e-03 -2.932619452476501465e-01
-3.680891543626785278e-02 2.243324927985668182e-02 -2.876548469066619873e-01
1.904254853725433350e-01 -7.317478209733963013e-02 6.624987125396728516e-01
1.855213046073913574e-01 -6.026982888579368591e-02 6.568961739540100098e-01
1.838956922292709351e-01 -8.027701079845428467e-02 6.763424873352050781e-01
1.791892200708389282e-01 -6.748782843351364136e-02 6.703383922576904297e-01
6.138388067483901978e-02 6.106935068964958191e-02 -2.830068171024322510e-01
5.969117581844329834e-02 7.623729109764099121e-02 -2.738680839538574219e-01
4.342490807175636292e-02 6.641632318496704102e-02 -2.797458767890930176e-01
3.645191714167594910e-02 8.229620009660720825e-02 -2.691482901573181152e-01
1.927239447832107544e-01 6.887836754322052002e-02 9.381858110427856445e-01
1.852190047502517700e-01 8.676476776599884033e-02 9.297938942909240723e-01
1.860160827636718750e-01 5.514814704656600952e-02 9.492787122726440430e-01
1.782718598842620850e-01 7.350114732980728149e-02 9.412595033645629883e-01
4.067046195268630981e-02 7.284497469663619995e-02 -2.750401198863983154e-01
3.340346366167068481e-02 8.706624805927276611e-02 -2.649157047271728516e-01
2.083444222807884216e-02 8.195322006940841675e-02 -2.691404819488525391e-01
9.572397917509078979e-03 9.362737834453582764e-02 -2.603332996368408203e-01
-4.255293011665344238e-01 6.123312748968601227e-03 -2.897219657897949219e-01
-4.243602752685546875e-01 2.515887841582298279e-02 -2.929806411266326904e-01
-4.212024211883544922e-01 5.573194939643144608e-03 -2.737211883068084717e-01
-4.186826050281524658e-01 2.442418783903121948e-02 -2.760680913925170898e-01
5.227525904774665833e-02 -1.331716477870941162e-01 -8.031070232391357422e-01
3.640764951705932617e-02 -1.331518590450286865e-01 -8.074892759323120117e-01
5.272428691387176514e-02 -1.229379922151565552e-01 -7.840811014175415039e-01
3.649402037262916565e-02 -1.224208027124404907e-01 -7.869594693183898926e-01
-4.682163894176483154e-01 -5.916776135563850403e-02 -4.976924061775207520e-01
-4.755770862102508545e-01 -3.996131196618080139e-02 -5.053200721740722656e-01
-4.684252738952636719e-01 -5.467371642589569092e-02 -4.764125347137451172e-01
-4.763810932636260986e-01 -3.611833974719047546e-02 -4.840727746486663818e-01
2.612664401531219482e-01 -1.556487828493118286e-01 2.145632058382034302e-01
2.463817596435546875e-01 -1.614051461219787598e-01 2.049625515937805176e-01
2.561401724815368652e-01 -1.557940542697906494e-01 2.329921871423721313e-01
2.414659857749938965e-01 -1.596958488225936890e-01 2.237126231193542480e-01
-2.474691420793533325e-01 1.555692851543426514e-01 1.507957130670547485e-01
-2.606528401374816895e-01 1.479522734880447388e-01 1.428531110286712646e-01
-2.571967840194702148e-01 1.542803943157196045e-01 1.696457564830780029e-01
-2.702493667602539062e-01 1.479846537113189697e-01 1.620482653379440308e-01
-3.731081783771514893e-01 1.461162567138671875e-01 5.037782192230224609e-01
-3.844443857669830322e-01 1.383471935987472534e-01 4.909504950046539307e-01
-3.825161457061767578e-01 1.461821049451828003e-01 5.246235132217407227e-01
-3.923540115356445312e-01 1.405511945486068726e-01 5.128648877143859863e-01
-3.937018811702728271e-01 -1.421297043561935425e-01 -5.946485400199890137e-01
-4.072009921073913574e-01 -1.341157704591751099e-01 -5.979456901550292969e-01
-3.966087698936462402e-01 -1.402847766876220703e-01 -5.730801224708557129e-01
-4.095895886421203613e-01 -1.328373700380325317e-01 -5.761508941650390625e-01
2.121183127164840698e-01 1.154568195343017578e-01 8.992258906364440918e-01
1.994220316410064697e-01 1.262173354625701904e-01 8.911808729171752930e-01
2.004448026418685913e-01 1.017842143774032593e-01 9.154243469238281250e-01
1.900498420000076294e-01 1.155355051159858704e-01 9.064062237739562988e-01
6.953445263206958771e-03 -5.731940269470214844e-02 -9.880042076110839844e-01
-3.546068677678704262e-03 -4.389110207557678223e-02 -9.927688837051391602e-01
-1.658488530665636063e-03 -7.600703835487365723e-02 -9.806613326072692871e-01
-1.319643482565879822e-02 -6.501676142215728760e-02 -9.859938025474548340e-01
-2.610613107681274414e-01 -1.005083918571472168e-01 4.777823090553283691e-01
-2.449107617139816284e-01 -8.531491458415985107e-02 4.781027734279632568e-01
-2.653729617595672607e-01 -1.026353091001510620e-01 5.010421276092529297e-01
-2.485172748565673828e-01 -8.827829360961914062e-02 4.997704327106475830e-01
1.388686001300811768e-01 -2.938469871878623962e-03 -9.765442013740539551e-01
1.209355518221855164e-01 2.198239788413047791e-03 -9.838005304336547852e-01
1.365568339824676514e-01 1.745361369103193283e-03 -9.789915084838867188e-01
1.181220337748527527e-01 8.018429391086101532e-03 -9.855244159698486328e-01
1.966506242752075195e-01 -1.384769827127456665e-01 -2.781989276409149170e-01
1.861872673034667969e-01 -1.327014416456222534e-01 -2.876271009445190430e-01
1.946394890546798706e-01 -1.429619342088699341e-01 -2.641789615154266357e-01
1.814633756875991821e-01 -1.370859295129776001e-01 -2.721735239028930664e-01
-9.577725082635879517e-02 -5.009690672159194946e-02 2.996225953102111816e-01
-9.221121668815612793e-02 -3.552717715501785278e-02 3.047160208225250244e-01
-1.120297536253929138e-01 -5.676946416497230530e-02 3.070022463798522949e-01
-1.083371788263320923e-01 -4.160552471876144409e-02 3.111951947212219238e-01
1.361644566059112549e-01 -1.397078037261962891e-01 2.482087910175323486e-01
1.176715195178985596e-01 -1.350091248750686646e-01 2.413404434919357300e-01
1.441200971603393555e-01 -1.315261572599411011e-01 2.649474740028381348e-01
1.251144409179687500e-01 -1.261291801929473877e-01 2.583663761615753174e-01
2.182304859161376953e-01 1.469167619943618774e-01 -7.502646446228027344e-01
2.046115398406982422e-01 1.464078575372695923e-01 -7.596360445022583008e-01
2.133847624063491821e-01 1.426035612821578979e-01 -7.312052249908447266e-01
1.997266858816146851e-01 1.417018026113510132e-01 -7.412443161010742188e-01
-1.800877749919891357e-01 6.905514001846313477e-02 -9.454261064529418945e-01
-1.766654402017593384e-01 8.101727068424224854e-02 -9.389029145240783691e-01
-1.939360946416854858e-01 7.466288655996322632e-02 -9.388952255249023438e-01
-1.873632967472076416e-01 8.588058501482009888e-02 -9.322457313537597656e-01
2.371576130390167236e-01 1.566028892993927002e-01 -2.645754814147949219e-01
2.177434265613555908e-01 1.533137112855911255e-01 -2.716168463230133057e-01
2.347755879163742065e-01 1.601842790842056274e-01 -2.423052936792373657e-01
2.146602720022201538e-01 1.561396867036819458e-01 -2.495730519294738770e-01
4.330747723579406738e-01 5.154153332114219666e-02 -3.397521674633026123e-01
4.264203310012817383e-01 6.765038520097732544e-02 -3.528235852718353271e-01
4.258855581283569336e-01 4.493822157382965088e-02 -3.182052671909332275e-01
4.191772937774658203e-01 6.116777285933494568e-02 -3.311909139156341553e-01
-4.252382367849349976e-02 -1.147149503231048584e-01 2.442451119422912598e-01
-6.011773273348808289e-02 -1.149346530437469482e-01 2.455240488052368164e-01
-5.240030214190483093e-02 -1.052330508828163147e-01 2.566823959350585938e-01
-6.872364878654479980e-02 -1.042331084609031677e-01 2.585623264312744141e-01
9.922511130571365356e-02 -1.505275219678878784e-01 -8.713983893394470215e-01
8.271499723196029663e-02 -1.489446610212326050e-01 -8.802977204322814941e-01
1.009300053119659424e-01 -1.532719433307647705e-01 -8.557056188583374023e-01
8.283723890781402588e-02 -1.526672393083572388e-01 -8.636153340339660645e-01
1.219991073012351990e-01 1.663871258497238159e-01 -1.925310790538787842e-01
9.936563670635223389e-02 1.625566035509109497e-01 -2.032430320978164673e-01
1.190116256475448608e-01 1.723261624574661255e-01 -1.622835099697113037e-01
9.629399329423904419e-02 1.692296117544174194e-01 -1.749418526887893677e-01
2.902257144451141357e-01 1.448118090629577637e-01 -2.085889428853988647e-01
2.777739465236663818e-01 1.525211781263351440e-01 -2.205028682947158813e-01
2.888242304325103760e-01 1.382108479738235474e-01 -1.874448359012603760e-01
2.759651243686676025e-01 1.469413042068481445e-01 -2.015789896249771118e-01
2.089029550552368164e-01 1.666597425937652588e-01 1.132164746522903442e-01
1.918497979640960693e-01 1.718453913927078247e-01 1.067741364240646362e-01
2.050835043191909790e-01 1.658814698457717896e-01 1.349020600318908691e-01
1.880461275577545166e-01 1.701153963804244995e-01 1.288141906261444092e-01
-1.290077902376651764e-02 -7.990248501300811768e-02 7.543651461601257324e-01
-2.149998769164085388e-02 -6.957948207855224609e-02 7.469507455825805664e-01
-2.153887599706649780e-02 -9.688487648963928223e-02 7.655017375946044922e-01
-3.178815171122550964e-02 -8.751128613948822021e-02 7.570696473121643066e-01
-4.230215549468994141e-01 4.554801434278488159e-02 3.071502745151519775e-01
-4.158876240253448486e-01 5.824175477027893066e-02 3.024277091026306152e-01
-4.293471872806549072e-01 4.561421275138854980e-02 3.243429958820343018e-01
-4.225076138973236084e-01 5.781046301126480103e-02 3.194220066070556641e-01
-1.817753016948699951e-01 -1.722437739372253418e-01 9.067601710557937622e-02
-1.960982233285903931e-01 -1.675432473421096802e-01 8.345749974250793457e-02
-1.818234026432037354e-01 -1.724621355533599854e-01 1.110252663493156433e-01
-1.966228932142257690e-01 -1.674510985612869263e-01 1.048412322998046875e-01
-4.753508865833282471e-01 -2.721414156258106232e-02 -6.053623557090759277e-01
-4.774020016193389893e-01 -1.195951551198959351e-02 -6.079942584037780762e-01
-4.716626405715942383e-01 -3.159010037779808044e-02 -5.913993716239929199e-01
-4.742336273193359375e-01 -1.560836657881736755e-02 -5.934633016586303711e-01
-4.006909430027008057e-01 5.862516351044178009e-03 -2.214215844869613647e-01
-4.039508402347564697e-01 2.099495753645896912e-02 -2.306450605392456055e-01
-3.919597566127777100e-01 1.595496200025081635e-03 -2.003350108861923218e-01
-3.949536979198455811e-01 1.672407612204551697e-02 -2.111301869153976440e-01
4.206629991531372070e-01 9.003420174121856689e-02 3.604295849800109863e-01
4.102901816368103027e-01 1.036988943815231323e-01 3.512676656246185303e-01
4.300215840339660645e-01 8.758550882339477539e-02 3.839731812477111816e-01
4.201510250568389893e-01 1.005558148026466370e-01 3.752371966838836670e-01
-4.035976827144622803e-01 -1.309362053871154785e-01 -6.084604263305664062e-01
-4.161773324012756348e-01 -1.228283643722534180e-01 -6.118568778038024902e-01
-4.093060195446014404e-01 -1.296793967485427856e-01 -5.877005457878112793e-01
-4.220489561557769775e-01 -1.216669455170631409e-01 -5.904104709625244141e-01
1.060214936733245850e-01 -1.495460867881774902e-01 -8.306469917297363281e-01
8.642782270908355713e-02 -1.494835615158081055e-01 -8.363203406333923340e-01
1.091020479798316956e-01 -1.457774639129638672e-01 -8.126032352447509766e-01
8.872751891613006592e-02 -1.457424461841583252e-01 -8.174760341644287109e-01
3.630076348781585693e-01 9.454795718193054199e-02 2.249750792980194092e-01
3.490553796291351318e-01 1.089970543980598450e-01 2.261171489953994751e-01
3.672949969768524170e-01 9.699982404708862305e-02 2.432612776756286621e-01
3.539233803749084473e-01 1.108341440558433533e-01 2.426173985004425049e-01
2.074620127677917480e-01 -1.486842334270477295e-01 -8.355830311775207520e-01
1.921902149915695190e-01 -1.475422829389572144e-01 -8.482886552810668945e-01
2.014501988887786865e-01 -1.546532511711120605e-01 -8.133569359779357910e-01
1.860073208808898926e-01 -1.534297764301300049e-01 -8.247764706611633301e-01
3.788369297981262207e-01 1.436206698417663574e-01 6.390393376350402832e-01
3.616503775119781494e-01 1.507931947708129883e-01 6.283771991729736328e-01
3.796730935573577881e-01 1.397866308689117432e-01 6.617785692214965820e-01
3.633978664875030518e-01 1.466317027807235718e-01 6.526808142662048340e-01
-4.044390022754669189e-01 -7.033760100603103638e-02 2.928689420223236084e-01
-4.122020006179809570e-01 -6.045063957571983337e-02 2.862707376480102539e-01
-4.079483151435852051e-01 -7.487454265356063843e-02 3.097246885299682617e-01
-4.154195487499237061e-01 -6.540592759847640991e-02 3.038918375968933105e-01
-3.869002759456634521e-01 9.482358396053314209e-02 2.927379012107849121e-01
-3.788466155529022217e-01 1.055459380149841309e-01 2.920724153518676758e-01
-3.932799100875854492e-01 9.503620117902755737e-02 3.068047463893890381e-01
-3.853921890258789062e-01 1.055308282375335693e-01 3.063443005084991455e-01
4.724639058113098145e-01 -5.719359219074249268e-02 -5.613311529159545898e-01
4.769645631313323975e-01 -3.891941159963607788e-02 -5.615230202674865723e-01
4.765586853027343750e-01 -5.978579819202423096e-02 -5.352768898010253906e-01
4.818377196788787842e-01 -4.124274104833602905e-02 -5.357288122177124023e-01
-1.763383746147155762e-01 -6.499935686588287354e-02 -3.571373522281646729e-01
-1.673444807529449463e-01 -4.378628730773925781e-02 -3.558297455310821533e-01
-1.682637780904769897e-01 -6.967353075742721558e-02 -3.448117375373840332e-01
-1.632890105247497559e-01 -5.316269397735595703e-02 -3.457945585250854492e-01
-2.437972128391265869e-01 -1.474061757326126099e-01 8.158839941024780273e-01
-2.591876685619354248e-01 -1.462994068861007690e-01 8.109650611877441406e-01
-2.423786967992782593e-01 -1.429398357868194580e-01 8.326194882392883301e-01
-2.561882436275482178e-01 -1.408064961433410645e-01 8.278688192367553711e-01
-9.346418827772140503e-02 1.243628636002540588e-01 -2.431458532810211182e-01
-1.123187616467475891e-01 1.302787661552429199e-01 -2.386491149663925171e-01
-9.483275562524795532e-02 1.409720182418823242e-01 -2.238877564668655396e-01
-1.140010654926300049e-01 1.473573744297027588e-01 -2.185019701719284058e-01
2.987503707408905029e-01 1.276510953903198242e-01 -8.141635060310363770e-01
2.790943980216979980e-01 1.370131373405456543e-01 -8.192164897918701172e-01
3.026933372020721436e-01 1.348722130060195923e-01 -7.934246063232421875e-01
2.811448872089385986e-01 1.423891782760620117e-01 -7.986775040626525879e-01
4.621649384498596191e-01 2.504958584904670715e-02 4.039294123649597168e-01
4.572504758834838867e-01 4.067306220531463623e-02 3.948043584823608398e-01
4.669767022132873535e-01 2.038790471851825714e-02 4.218028783798217773e-01
4.635841250419616699e-01 3.624231740832328796e-02 4.138741493225097656e-01
-2.414179295301437378e-01 1.557948142290115356e-01 1.348814070224761963e-01
-2.545484006404876709e-01 1.475773900747299194e-01 1.261790394783020020e-01
-2.497540563344955444e-01 1.546869874000549316e-01 1.523115783929824829e-01
-2.629377543926239014e-01 1.470699757337570190e-01 1.443689763545989990e-01
2.028451263904571533e-01 -3.861935064196586609e-02 -6.201913356781005859e-01
1.936958879232406616e-01 -2.687400020658969879e-02 -6.315218806266784668e-01
2.101706117391586304e-01 -3.393071517348289490e-02 -5.994275212287902832e-01
2.017550021409988403e-01 -2.133946865797042847e-02 -6.094496846199035645e-01
-2.933601140975952148e-01 1.330099999904632568e-01 1.747488677501678467e-01
-2.942603528499603271e-01 1.315075755119323730e-01 1.668707728385925293e-01
-3.010841012001037598e-01 1.337886750698089600e-01 1.958705633878707886e-01
-3.021464049816131592e-01 1.320811361074447632e-01 1.880789846181869507e-01
-3.924880921840667725e-01 1.136086806654930115e-01 -3.260749280452728271e-01
-3.924286067485809326e-01 1.184010803699493408e-01 -3.417643904685974121e-01
-3.877890110015869141e-01 1.078424006700515747e-01 -3.055101633071899414e-01
-3.890984058380126953e-01 1.112277582287788391e-01 -3.196988999843597412e-01
-1.967889815568923950e-01 1.367570310831069946e-01 2.895230948925018311e-01
-2.037498503923416138e-01 1.441722512245178223e-01 2.802427709102630615e-01
-2.001956254243850708e-01 1.291806995868682861e-01 3.049807846546173096e-01
-2.066990286111831665e-01 1.365530788898468018e-01 2.947738170623779297e-01
4.750908911228179932e-01 -4.098790138959884644e-02 5.306613445281982422e-01
4.786386787891387939e-01 -2.613783255219459534e-02 5.250002741813659668e-01
4.730166792869567871e-01 -4.475781321525573730e-02 5.484223961830139160e-01
4.760882854461669922e-01 -3.071356192231178284e-02 5.411405563354492188e-01
-1.423999071121215820e-01 1.268749237060546875e-01 -2.586047351360321045e-01
-1.578993499279022217e-01 1.288145631551742554e-01 -2.627998888492584229e-01
-1.365819871425628662e-01 1.380008608102798462e-01 -2.397076189517974854e-01
-1.518702656030654907e-01 1.400384157896041870e-01 -2.445213943719863892e-01
-2.173437923192977905e-01 1.097548007965087891e-02 4.625701308250427246e-01
-2.208556979894638062e-01 3.081842698156833649e-02 4.616778492927551270e-01
-2.191144078969955444e-01 5.797887220978736877e-03 4.858319461345672607e-01
-2.200043201446533203e-01 2.397797442972660065e-02 4.814890623092651367e-01
-3.018874526023864746e-01 -9.864178299903869629e-02 -4.431524127721786499e-02
-3.141615092754364014e-01 -8.555895835161209106e-02 -5.197009816765785217e-02
-2.983582913875579834e-01 -9.776813536882400513e-02 -2.373256534337997437e-02
-3.097655773162841797e-01 -8.434204757213592529e-02 -2.962703071534633636e-02
-8.842939138412475586e-02 -1.077088341116905212e-01 2.593738138675689697e-01
-1.001538783311843872e-01 -1.055608689785003662e-01 2.661614120006561279e-01
-9.930821508169174194e-02 -9.924644976854324341e-02 2.706168293952941895e-01
-1.086616516113281250e-01 -9.614942222833633423e-02 2.784567773342132568e-01
1.232254207134246826e-01 1.383226066827774048e-01 7.803692221641540527e-01
1.103475093841552734e-01 1.358465254306793213e-01 7.851896286010742188e-01
1.113506928086280823e-01 1.400707811117172241e-01 7.956725955009460449e-01
9.467962384223937988e-02 1.361606419086456299e-01 7.976773381233215332e-01
-1.115763112902641296e-01 1.913315206766128540e-01 9.989074617624282837e-02
-1.286006867885589600e-01 1.905630826950073242e-01 8.914978802204132080e-02
-1.186437010765075684e-01 1.861121505498886108e-01 1.164552792906761169e-01
-1.354019790887832642e-01 1.851427257061004639e-01 1.060915067791938782e-01
-1.949309259653091431e-01 -1.343537680804729462e-02 -3.980927765369415283e-01
-1.900576353073120117e-01 9.648527950048446655e-03 -3.915232419967651367e-01
-1.881924420595169067e-01 -1.732799224555492401e-02 -3.859061002731323242e-01
-1.814451664686203003e-01 6.736194714903831482e-03 -3.777498006820678711e-01
-4.516583383083343506e-01 -8.717495203018188477e-02 5.974164009094238281e-01
-4.625864923000335693e-01 -7.409336417913436890e-02 5.890246629714965820e-01
-4.456419646739959717e-01 -8.631692826747894287e-02 6.189454793930053711e-01
-4.561455547809600830e-01 -7.336966693401336670e-02 6.113107800483703613e-01
-3.345620930194854736e-01 -1.496361941099166870e-01 -3.968161642551422119e-01
-3.455862700939178467e-01 -1.471194475889205933e-01 -4.045857191085815430e-01
-3.343707025051116943e-01 -1.502635329961776733e-01 -3.771187365055084229e-01
-3.459239602088928223e-01 -1.480826437473297119e-01 -3.849859833717346191e-01
1.869483888149261475e-01 -3.418800607323646545e-02 -6.467712521553039551e-01
1.782867759466171265e-01 -2.185072936117649078e-02 -6.567209959030151367e-01
1.947797387838363647e-01 -2.976827137172222137e-02 -6.242237687110900879e-01
1.859640479087829590e-01 -1.782553084194660187e-02 -6.350265741348266602e-01
-7.059002667665481567e-02 1.337949633598327637e-01 -2.276351600885391235e-01
-9.036414325237274170e-02 1.403482556343078613e-01 -2.217005789279937744e-01
-7.224520295858383179e-02 1.523775458335876465e-01 -2.071612179279327393e-01
-9.270848333835601807e-02 1.579142212867736816e-01 -2.023983895778656006e-01
-4.819939136505126953e-01 -2.012843266129493713e-02 -5.513331890106201172e-01
-4.842550158500671387e-01 -1.106042414903640747e-03 -5.573270916938781738e-01
-4.792964756488800049e-01 -2.392248809337615967e-02 -5.354455709457397461e-01
-4.817691445350646973e-01 -3.712102770805358887e-03 -5.428128242492675781e-01
-2.255152463912963867e-01 -3.259987384080886841e-02 -5.601360797882080078e-01
-2.221774607896804810e-01 -1.901659555733203888e-02 -5.604817271232604980e-01
-2.310561239719390869e-01 -3.182416036725044250e-02 -5.437398552894592285e-01
-2.272181063890457153e-01 -1.868930831551551819e-02 -5.452490448951721191e-01
3.219263851642608643e-01 1.605102978646755219e-02 -8.710204362869262695e-01
3.140675723552703857e-01 2.938855811953544617e-02 -8.762834668159484863e-01
3.383479118347167969e-01 1.701817661523818970e-02 -8.564994931221008301e-01
3.303217887878417969e-01 2.908400632441043854e-02 -8.624254465103149414e-01
-2.117026597261428833e-01 -1.319027394056320190e-01 8.692340254783630371e-01
-2.268276065587997437e-01 -1.301274895668029785e-01 8.670103549957275391e-01
-2.081921845674514771e-01 -1.256745904684066772e-01 8.813754320144653320e-01
-2.249291390180587769e-01 -1.227624714374542236e-01 8.793759942054748535e-01
-3.403722047805786133e-01 2.310272306203842163e-02 8.585432767868041992e-01
-3.388943076133728027e-01 4.250117391347885132e-02 8.551766872406005859e-01
-3.272587656974792480e-01 1.305850502103567123e-02 8.696552515029907227e-01
-3.261737227439880371e-01 3.229345753788948059e-02 8.662371039390563965e-01
4.247024953365325928e-01 5.002331361174583435e-02 7.443119883537292480e-01
4.201417863368988037e-01 6.711793690919876099e-02 7.367200255393981934e-01
4.174556136131286621e-01 4.511948302388191223e-02 7.609130144119262695e-01
4.122411906719207764e-01 6.141199544072151184e-02 7.542631626129150391e-01
1.804674863815307617e-01 -1.079668402671813965e-01 -7.122167348861694336e-01
1.589333564043045044e-01 -1.029768735170364380e-01 -7.172258496284484863e-01
1.856921464204788208e-01 -9.689579904079437256e-02 -6.956966519355773926e-01
1.670023947954177856e-01 -8.956471830606460571e-02 -7.016305923461914062e-01
-3.147603869438171387e-01 1.425327807664871216e-01 5.274687409400939941e-01
-3.314926922321319580e-01 1.461317837238311768e-01 5.191190242767333984e-01
-3.115255534648895264e-01 1.432176828384399414e-01 5.470336079597473145e-01
-3.285184800624847412e-01 1.468834728002548218e-01 5.387883782386779785e-01
-3.445019572973251343e-02 -1.970999836921691895e-01 8.618593215942382812e-02
-4.956179112195968628e-02 -1.976648569107055664e-01 7.734004408121109009e-02
-3.192128986120223999e-02 -1.925988942384719849e-01 1.041188836097717285e-01
-4.649426788091659546e-02 -1.933910697698593140e-01 9.546199440956115723e-02
-3.651139140129089355e-01 -7.081549614667892456e-02 -1.883986145257949829e-01
-3.737849593162536621e-01 -5.843084678053855896e-02 -1.936634182929992676e-01
-3.600406646728515625e-01 -6.596624851226806641e-02 -1.668507009744644165e-01
-3.687196671962738037e-01 -5.321831256151199341e-02 -1.710581332445144653e-01
3.790147304534912109e-01 7.643807679414749146e-02 -7.837255001068115234e-01
3.616358041763305664e-01 8.553371578454971313e-02 -7.915052175521850586e-01
3.874802589416503906e-01 8.033315092325210571e-02 -7.682145237922668457e-01
3.729885220527648926e-01 8.976908028125762939e-02 -7.747335433959960938e-01
2.239105403423309326e-01 1.630357950925827026e-01 -9.956714510917663574e-02
2.021877020597457886e-01 1.703454256057739258e-01 -1.004553884267807007e-01
2.179169505834579468e-01 1.638917922973632812e-01 -7.853160798549652100e-02
1.977568268775939941e-01 1.713110655546188354e-01 -7.905156165361404419e-02
9.264148771762847900e-02 1.888118535280227661e-01 1.174738407135009766e-01
7.553976774215698242e-02 1.935811936855316162e-01 1.059511452913284302e-01
8.596763759851455688e-02 1.827862709760665894e-01 1.317072808742523193e-01
6.908494234085083008e-02 1.874343305826187134e-01 1.201334968209266663e-01
-3.613847196102142334e-01 -6.253620237112045288e-02 -8.151076436042785645e-01
-3.707941472530364990e-01 -4.758420214056968689e-02 -8.150332570075988770e-01
-3.744873404502868652e-01 -6.542020291090011597e-02 -7.985264062881469727e-01
-3.826247453689575195e-01 -5.010929331183433533e-02 -7.994792461395263672e-01
1.544004976749420166e-01 1.837793141603469849e-01 -1.009930968284606934e-01
1.350598037242889404e-01 1.872043162584304810e-01 -1.029901802539825439e-01
1.458279788494110107e-01 1.877302378416061401e-01 -7.485070824623107910e-02
1.257419139146804810e-01 1.923023164272308350e-01 -7.574101537466049194e-02
4.457971751689910889e-01 -9.370912611484527588e-02 4.900146126747131348e-01
4.580541253089904785e-01 -8.075073361396789551e-02 4.810690581798553467e-01
4.466381072998046875e-01 -9.495314955711364746e-02 5.131290555000305176e-01
4.612557888031005859e-01 -8.111932873725891113e-02 5.050886869430541992e-01
-2.668518573045730591e-02 1.712252944707870483e-02 7.320213317871093750e-01
-3.726369142532348633e-02 3.045593947172164917e-02 7.331659793853759766e-01
-4.039552062749862671e-02 8.142014965415000916e-03 7.295926213264465332e-01
-5.186353996396064758e-02 1.981620304286479950e-02 7.304376363754272461e-01
2.824255824089050293e-01 -1.440608501434326172e-01 -6.491560339927673340e-01
2.619000375270843506e-01 -1.379760950803756714e-01 -6.552546024322509766e-01
2.813437581062316895e-01 -1.399548947811126709e-01 -6.250230669975280762e-01
2.604878842830657959e-01 -1.335846781730651855e-01 -6.333481669425964355e-01
3.185310065746307373e-01 -7.969039678573608398e-02 7.005836069583892822e-02
3.373601734638214111e-01 -6.147155910730361938e-02 7.023154199123382568e-02
3.228766620159149170e-01 -8.252659440040588379e-02 9.337326139211654663e-02
3.366627395153045654e-01 -6.832911819219589233e-02 9.010183066129684448e-02
2.685887739062309265e-04 -1.352838575839996338e-01 -8.058649301528930664e-01
-1.527068298310041428e-02 -1.316878497600555420e-01 -8.085711002349853516e-01
4.531750455498695374e-04 -1.248104497790336609e-01 -7.857346534729003906e-01
-1.488700974732637405e-02 -1.210215464234352112e-01 -7.873839139938354492e-01
