1.806174665689468384e-01 2.684770822525024414e-01 -6.464109569787979126e-02
-2.405388951301574707e-01 7.467800378799438477e-02 1.590713113546371460e-01
-2.481353282928466797e-01 7.864199578762054443e-02 1.512165665626525879e-01
-2.433568984270095825e-01 7.098238170146942139e-02 1.701159477233886719e-01
-2.503860294818878174e-01 7.584498822689056396e-02 1.635983288288116455e-01
1.113423258066177368e-01 1.325942128896713257e-01 3.164232373237609863e-01
1.062746420502662659e-01 1.458104997873306274e-01 3.082809448242187500e-01
1.007274016737937927e-01 1.220441684126853943e-01 3.302401900291442871e-01
9.661873430013656616e-02 1.347815990447998047e-01 3.228920996189117432e-01
-1.740086525678634644e-01 -7.795875519514083862e-02 2.452601641416549683e-01
-1.840382516384124756e-01 -6.445618718862533569e-02 2.412659823894500732e-01
-1.829277276992797852e-01 -8.578091859817504883e-02 2.552851438522338867e-01
-1.921383291482925415e-01 -7.206703722476959229e-02 2.511356472969055176e-01
2.373219877481460571e-01 4.776588082313537598e-01 8.548428863286972046e-02
2.336000800132751465e-01 4.887447655200958252e-01 9.548848867416381836e-02
2.253636419773101807e-01 4.834927022457122803e-01 1.015577986836433411e-01
2.281238138675689697e-01 4.952532649040222168e-01 1.118856146931648254e-01
-7.541231065988540649e-02 2.640424370765686035e-01 -4.015049338340759277e-02
-9.394977241754531860e-02 2.713071405887603760e-01 -4.096838459372520447e-02
-8.600717782974243164e-02 2.598045468330383301e-01 -2.759396098554134369e-02
-1.047520637512207031e-01 2.672769129276275635e-01 -2.898131683468818665e-02
3.808495700359344482e-01 2.912742197513580322e-01 9.684028476476669312e-02
3.790339827537536621e-01 3.123830258846282959e-01 8.801904320716857910e-02
3.829375505447387695e-01 2.843237221240997314e-01 1.138823851943016052e-01
3.810069262981414795e-01 3.042037487030029297e-01 1.037300899624824524e-01
-4.079261422157287598e-01 -3.450948297977447510e-01 1.608537435531616211e-01
-4.228708446025848389e-01 -3.337940871715545654e-01 1.582220047712326050e-01
-3.993648588657379150e-01 -3.369711339473724365e-01 1.750887036323547363e-01
-4.145941436290740967e-01 -3.263851404190063477e-01 1.719251722097396851e-01
3.828370571136474609e-01 4.809418916702270508e-01 3.176519870758056641e-01
3.722070157527923584e-01 4.925145804882049561e-01 3.214788734912872314e-01
3.843538165092468262e-01 4.912808239459991455e-01 3.299976587295532227e-01
3.736333847045898438e-01 5.031701922416687012e-01 3.334049582481384277e-01
3.429087996482849121e-01 4.969944711774587631e-03 1.297536492347717285e-01
3.366000950336456299e-01 1.771192625164985657e-02 1.275445669889450073e-01
3.322612345218658447e-01 -2.476237714290618896e-04 1.381640583276748657e-01
3.262231051921844482e-01 1.226465962827205658e-02 1.359350532293319702e-01
3.319731727242469788e-02 -3.324652314186096191e-01 3.686467558145523071e-02
2.194800227880477905e-02 -3.251978158950805664e-01 3.954911231994628906e-02
3.391467779874801636e-02 -3.236184120178222656e-01 4.972541704773902893e-02
2.440003678202629089e-02 -3.164790272712707520e-01 5.329967290163040161e-02
2.042864710092544556e-01 3.566999435424804688e-01 -7.862943224608898163e-03
2.086703330278396606e-01 3.723234534263610840e-01 5.564929451793432236e-04
1.850157976150512695e-01 3.557428121566772461e-01 3.674422390758991241e-03
1.891299635171890259e-01 3.709668219089508057e-01 1.236418820917606354e-02
-4.142750203609466553e-01 -1.370380967855453491e-01 -2.323821783065795898e-01
-4.097287952899932861e-01 -1.238816529512405396e-01 -2.286354303359985352e-01
-4.260386824607849121e-01 -1.359978616237640381e-01 -2.250763177871704102e-01
-4.214691221714019775e-01 -1.227989494800567627e-01 -2.216075509786605835e-01
2.313642948865890503e-01 6.805793642997741699e-01 2.966799139976501465e-01
2.281580567359924316e-01 6.941246390342712402e-01 2.993606925010681152e-01
2.267075628042221069e-01 6.833596825599670410e-01 3.115017414093017578e-01
2.232744544744491577e-01 6.966373920440673828e-01 3.134655356407165527e-01
4.864302277565002441e-01 -3.542675375938415527e-01 -4.172251522541046143e-01
4.859620928764343262e-01 -3.436482548713684082e-01 -4.175018072128295898e-01
4.782025516033172607e-01 -3.611305952072143555e-01 -4.085032045841217041e-01
4.816820621490478516e-01 -3.459634184837341309e-01 -4.029375612735748291e-01
6.022414565086364746e-02 -5.325493812561035156e-01 -1.706418842077255249e-01
6.153817847371101379e-02 -5.177837014198303223e-01 -1.692087054252624512e-01
4.792457073926925659e-02 -5.302926898002624512e-01 -1.619589477777481079e-01
5.113114416599273682e-02 -5.164143443107604980e-01 -1.614131629467010498e-01
-5.283845663070678711e-01 -4.718644320964813232e-01 -3.675624728202819824e-01
-5.392727851867675781e-01 -4.641690850257873535e-01 -3.705002367496490479e-01
-5.247643589973449707e-01 -4.707243442535400391e-01 -3.569484651088714600e-01
-5.341642498970031738e-01 -4.620552062988281250e-01 -3.594830334186553955e-01
3.551903963088989258e-01 5.658417940139770508e-01 3.450148999691009521e-01
3.429379165172576904e-01 5.766395926475524902e-01 3.447479307651519775e-01
3.522408604621887207e-01 5.722063779830932617e-01 3.535172939300537109e-01
3.406622111797332764e-01 5.827111005783081055e-01 3.532850146293640137e-01
-7.096790522336959839e-02 -4.082157909870147705e-01 5.134010314941406250e-02
-8.812425285577774048e-02 -4.217259585857391357e-01 3.860135748982429504e-02
-7.367233932018280029e-02 -4.078736007213592529e-01 6.771952658891677856e-02
-9.336535632610321045e-02 -4.236169159412384033e-01 5.564531683921813965e-02
3.201446309685707092e-02 1.883986741304397583e-01 5.772384256124496460e-02
2.926636114716529846e-02 1.948804855346679688e-01 6.918402016162872314e-02
2.228733710944652557e-02 1.952643245458602905e-01 7.382778078317642212e-02
1.769494637846946716e-02 1.980868577957153320e-01 8.018147945404052734e-02
2.467391341924667358e-01 1.239597350358963013e-01 -2.040997594594955444e-01
2.306051701307296753e-01 1.286575049161911011e-01 -1.982421725988388062e-01
2.456216067075729370e-01 1.329265683889389038e-01 -1.859183460474014282e-01
2.289553880691528320e-01 1.379630565643310547e-01 -1.782903075218200684e-01
1.834827661514282227e-01 3.349598050117492676e-01 -6.937058642506599426e-03
1.907037496566772461e-01 3.474584519863128662e-01 -3.937166184186935425e-07
1.685022711753845215e-01 3.361101746559143066e-01 2.041155472397804260e-03
1.739255040884017944e-01 3.478845059871673584e-01 9.354462847113609314e-03
4.661681354045867920e-01 -3.812934458255767822e-01 -4.055347442626953125e-01
4.666917026042938232e-01 -3.715069293975830078e-01 -4.018963873386383057e-01
4.558634161949157715e-01 -3.838340640068054199e-01 -3.941551446914672852e-01
4.509852826595306396e-01 -3.763258755207061768e-01 -3.894986808300018311e-01
-1.457143425941467285e-01 2.348717749118804932e-01 -1.523863077163696289e-01
-1.584573835134506226e-01 2.410434484481811523e-01 -1.540987193584442139e-01
-1.489406675100326538e-01 2.426165193319320679e-01 -1.340494751930236816e-01
-1.622713804244995117e-01 2.492472380399703979e-01 -1.369342654943466187e-01
1.817464232444763184e-01 2.539686858654022217e-01 -9.685460478067398071e-02
1.631984412670135498e-01 2.571390867233276367e-01 -1.006606817245483398e-01
1.846017390489578247e-01 2.614489197731018066e-01 -7.655926048755645752e-02
1.686407327651977539e-01 2.642464339733123779e-01 -8.050855249166488647e-02
-1.216479167342185974e-01 2.475539147853851318e-01 -8.270726352930068970e-02
-1.386855989694595337e-01 2.524490952491760254e-01 -8.969707041978836060e-02
-1.160943806171417236e-01 2.469877898693084717e-01 -7.012172043323516846e-02
-1.334317475557327271e-01 2.526874542236328125e-01 -7.702898979187011719e-02
2.405038475990295410e-01 5.195718631148338318e-02 2.780583500862121582e-01
2.320111393928527832e-01 6.812898814678192139e-02 2.742888629436492920e-01
2.270038276910781860e-01 4.249584302306175232e-02 2.909420132637023926e-01
2.173416167497634888e-01 5.915185064077377319e-02 2.877902090549468994e-01
-2.522571682929992676e-01 -9.524548798799514771e-02 -2.715828418731689453e-01
-2.496147006750106812e-01 -8.032064884901046753e-02 -2.669326364994049072e-01
-2.661038339138031006e-01 -9.485001862049102783e-02 -2.717052400112152100e-01
-2.630913853645324707e-01 -7.933882623910903931e-02 -2.666197717189788818e-01
-4.020626544952392578e-01 7.895377278327941895e-02 8.896385878324508667e-02
-3.961208462715148926e-01 8.564104139804840088e-02 8.050958067178726196e-02
-4.050773680210113525e-01 7.541386038064956665e-02 1.110833063721656799e-01
-3.974178731441497803e-01 8.352361619472503662e-02 1.025597974658012390e-01
1.434440761804580688e-01 1.562561541795730591e-01 -2.146857604384422302e-02
1.299281269311904907e-01 1.607917994260787964e-01 -1.441504433751106262e-02
1.282540708780288696e-01 1.616299152374267578e-01 -1.162268780171871185e-02
1.151923984289169312e-01 1.662919521331787109e-01 -2.534921281039714813e-03
1.711147278547286987e-01 -6.200354099273681641e-01 -9.764607995748519897e-02
1.558487415313720703e-01 -6.277226805686950684e-01 -1.063870191574096680e-01
1.666749864816665649e-01 -6.233638525009155273e-01 -8.121088147163391113e-02
1.510731428861618042e-01 -6.315399408340454102e-01 -8.952354639768600464e-02
2.148719504475593567e-02 2.972572147846221924e-01 2.870815061032772064e-02
5.245837382972240448e-03 2.994873523712158203e-01 1.812103763222694397e-02
2.781107462942600250e-02 2.955561280250549316e-01 4.854350909590721130e-02
1.325221359729766846e-02 2.997564375400543213e-01 3.816304728388786316e-02
-3.953249454498291016e-01 7.251107692718505859e-02 -8.706938475370407104e-02
-4.004839360713958740e-01 7.040804624557495117e-02 -9.733700752258300781e-02
-4.049853384494781494e-01 7.135991007089614868e-02 -6.964181363582611084e-02
-4.106831252574920654e-01 6.885109841823577881e-02 -8.123560994863510132e-02
8.546370267868041992e-02 1.769768595695495605e-01 2.397609353065490723e-01
7.448618113994598389e-02 1.945597082376480103e-01 2.391075342893600464e-01
7.423572242259979248e-02 1.761230528354644775e-01 2.531196773052215576e-01
6.250648945569992065e-02 1.939475238323211670e-01 2.513997554779052734e-01
9.928844124078750610e-02 -5.172649621963500977e-01 -3.484395518898963928e-02
1.000898703932762146e-01 -4.936862885951995850e-01 -2.716261520981788635e-02
8.672469109296798706e-02 -5.089533329010009766e-01 -3.124330192804336548e-02
8.719647675752639771e-02 -4.863253831863403320e-01 -2.295960672199726105e-02
1.261158734560012817e-01 2.832099795341491699e-02 2.911490797996520996e-01
1.246403604745864868e-01 4.308465123176574707e-02 2.826016247272491455e-01
1.192082241177558899e-01 1.826945506036281586e-02 3.044155538082122803e-01
1.169574707746505737e-01 3.252151980996131897e-02 2.972959876060485840e-01
-4.346153736114501953e-01 -3.502231836318969727e-01 9.570989757776260376e-02
-4.464067220687866211e-01 -3.405464291572570801e-01 8.933089673519134521e-02
-4.336586594581604004e-01 -3.449561893939971924e-01 1.147009357810020447e-01
-4.452802538871765137e-01 -3.355579376220703125e-01 1.101337671279907227e-01
1.699202507734298706e-01 -3.771224319934844971e-01 -1.104900538921356201e-01
1.622328460216522217e-01 -3.602817356586456299e-01 -1.143267452716827393e-01
1.785506159067153931e-01 -3.808333277702331543e-01 -1.003880873322486877e-01
1.718048304319381714e-01 -3.638668358325958252e-01 -1.046510711312294006e-01
3.966959416866302490e-01 -3.219135701656341553e-01 -5.059586167335510254e-01
3.895103931427001953e-01 -3.127625584602355957e-01 -4.997573494911193848e-01
3.868060111999511719e-01 -3.187221884727478027e-01 -4.954579174518585205e-01
3.847694396972656250e-01 -3.065644502639770508e-01 -4.877924919128417969e-01
-5.336084365844726562e-01 -1.672943979501724243e-01 -7.635260373353958130e-02
-5.285678505897521973e-01 -1.483530998229980469e-01 -8.029744774103164673e-02
-5.411133170127868652e-01 -1.748228073120117188e-01 -5.970303341746330261e-02
-5.343713760375976562e-01 -1.570834517478942871e-01 -6.688377261161804199e-02
6.017046421766281128e-02 1.021274998784065247e-01 3.000702261924743652e-01
5.987377092242240906e-02 1.158533170819282532e-01 2.941675782203674316e-01
5.156143009662628174e-02 9.441430121660232544e-02 3.132836818695068359e-01
5.144289880990982056e-02 1.085265129804611206e-01 3.092194199562072754e-01
-3.625964224338531494e-01 -4.751034975051879883e-01 -2.461155690252780914e-02
-3.684985041618347168e-01 -4.636465907096862793e-01 -2.907750010490417480e-02
-3.563963770866394043e-01 -4.756097495555877686e-01 -9.395297616720199585e-03
-3.633646070957183838e-01 -4.648354947566986084e-01 -1.443585753440856934e-02
1.994240432977676392e-01 6.439124047756195068e-02 1.774000078439712524e-01
1.926379054784774780e-01 7.524896413087844849e-02 1.796424835920333862e-01
1.900931149721145630e-01 6.236686930060386658e-02 1.867868006229400635e-01
1.833015531301498413e-01 7.342060655355453491e-02 1.892375499010086060e-01
2.180694937705993652e-01 7.444884181022644043e-01 3.146761953830718994e-01
2.155759185552597046e-01 7.609529495239257812e-01 3.149447143077850342e-01
2.156912237405776978e-01 7.442916035652160645e-01 3.256343901157379150e-01
2.121972292661666870e-01 7.604453563690185547e-01 3.252908885478973389e-01
2.370463013648986816e-01 -2.909176647663116455e-01 -3.228458464145660400e-01
2.263070791959762573e-01 -2.856076061725616455e-01 -3.228597342967987061e-01
2.281989902257919312e-01 -2.931823134422302246e-01 -3.086906373500823975e-01
2.178277224302291870e-01 -2.885724306106567383e-01 -3.083894848823547363e-01
1.854759408161044121e-03 -3.072835877537727356e-02 4.321358203887939453e-01
-2.268649637699127197e-03 -1.700252294540405273e-02 4.272442758083343506e-01
-3.121138084679841995e-03 -3.245579823851585388e-02 4.425282478332519531e-01
-8.609235286712646484e-03 -1.930176839232444763e-02 4.391173720359802246e-01
4.388047456741333008e-01 -3.975280523300170898e-01 -4.312615692615509033e-01
4.280035793781280518e-01 -3.965255618095397949e-01 -4.403815269470214844e-01
4.307093024253845215e-01 -4.017525613307952881e-01 -4.185787737369537354e-01
4.185722768306732178e-01 -4.015512466430664062e-01 -4.263355135917663574e-01
2.795601487159729004e-01 1.230106726288795471e-01 -1.992979049682617188e-01
2.687345445156097412e-01 1.260323971509933472e-01 -2.021449059247970581e-01
2.828027606010437012e-01 1.278313398361206055e-01 -1.811497509479522705e-01
2.714928388595581055e-01 1.304494887590408325e-01 -1.838034689426422119e-01
9.418852627277374268e-02 -4.159532487392425537e-02 -2.122283726930618286e-01
7.735382020473480225e-02 -4.059387370944023132e-02 -2.109360843896865845e-01
9.029641002416610718e-02 -2.424684539437294006e-02 -1.978873610496520996e-01
7.369277626276016235e-02 -2.370985224843025208e-02 -1.968363970518112183e-01
-2.946970462799072266e-01 9.344339370727539062e-02 1.642131805419921875e-01
-3.066575527191162109e-01 9.891746938228607178e-02 1.561628580093383789e-01
-2.984641790390014648e-01 8.401613682508468628e-02 1.788111031055450439e-01
-3.111460804939270020e-01 9.000112861394882202e-02 1.713235527276992798e-01
1.942356675863265991e-01 2.137701660394668579e-01 -3.342538699507713318e-02
1.808797717094421387e-01 2.217398881912231445e-01 -3.816273808479309082e-02
1.835806667804718018e-01 2.110974788665771484e-01 -2.480085380375385284e-02
1.700929403305053711e-01 2.190429866313934326e-01 -2.831505797803401947e-02
-2.751590311527252197e-01 -5.444401502609252930e-01 -2.255482366308569908e-03
-2.833443880081176758e-01 -5.388562083244323730e-01 2.098012715578079224e-03
-2.733131349086761475e-01 -5.360193848609924316e-01 1.032209489494562149e-02
-2.844031751155853271e-01 -5.322481989860534668e-01 9.487673640251159668e-03
-2.323864698410034180e-01 -1.943285614252090454e-01 3.117856085300445557e-01
-2.430991381406784058e-01 -1.799319386482238770e-01 3.163377642631530762e-01
-2.465848028659820557e-01 -2.078129798173904419e-01 3.144300878047943115e-01
-2.572174668312072754e-01 -1.932006925344467163e-01 3.183070123195648193e-01
2.129442244768142700e-01 -1.330403387546539307e-01 7.278475910425186157e-02
2.173472344875335693e-01 -1.157543361186981201e-01 7.348258048295974731e-02
2.005031108856201172e-01 -1.370594650506973267e-01 8.696983009576797485e-02
2.044854909181594849e-01 -1.194455176591873169e-01 8.762023597955703735e-02
-4.090394675731658936e-01 4.766882210969924927e-02 1.833546161651611328e-01
-4.028812050819396973e-01 6.138095259666442871e-02 1.796151101589202881e-01
-4.032178521156311035e-01 4.341240972280502319e-02 1.994327455759048462e-01
-3.999726772308349609e-01 5.661815404891967773e-02 1.954705566167831421e-01
3.496003895998001099e-02 -2.197357863187789917e-01 1.443519890308380127e-01
3.335688635706901550e-02 -2.045743465423583984e-01 1.571985930204391479e-01
2.031346224248409271e-02 -2.180541157722473145e-01 1.512836515903472900e-01
2.006265521049499512e-02 -2.027270793914794922e-01 1.622685045003890991e-01
2.676697969436645508e-01 4.885572195053100586e-01 1.688447222113609314e-02
2.634235620498657227e-01 4.997344613075256348e-01 1.947109214961528778e-02
2.546451091766357422e-01 4.916238188743591309e-01 2.798751555383205414e-02
2.502122223377227783e-01 5.025229454040527344e-01 3.120945952832698822e-02
6.053778529167175293e-02 -5.440011024475097656e-01 -6.221927702426910400e-02
5.946780741214752197e-02 -5.280690193176269531e-01 -6.530039757490158081e-02
6.142153590917587280e-02 -5.436627864837646484e-01 -5.034508928656578064e-02
6.063022837042808533e-02 -5.272044539451599121e-01 -5.325163900852203369e-02
-4.393599629402160645e-01 -1.116075813770294189e-01 -2.058518826961517334e-01
-4.312403500080108643e-01 -9.730566293001174927e-02 -2.040294408798217773e-01
-4.551640748977661133e-01 -1.154959201812744141e-01 -1.947406232357025146e-01
-4.453468918800354004e-01 -9.978121519088745117e-02 -1.940899640321731567e-01
-9.259323030710220337e-02 -1.425853520631790161e-01 -2.612495422363281250e-01
-1.129975691437721252e-01 -1.347078233957290649e-01 -2.635386884212493896e-01
-9.188690781593322754e-02 -1.297242939472198486e-01 -2.580310106277465820e-01
-1.128967404365539551e-01 -1.224862560629844666e-01 -2.608909010887145996e-01
2.151803076267242432e-01 -4.326035082340240479e-02 1.114674136042594910e-01
2.211776226758956909e-01 -2.685702592134475708e-02 1.151622757315635681e-01
2.056526392698287964e-01 -4.396622255444526672e-02 1.229178979992866516e-01
2.090507745742797852e-01 -2.790207043290138245e-02 1.262390613555908203e-01
-4.252188503742218018e-01 5.024122446775436401e-02 -4.705400392413139343e-02
-4.162729382514953613e-01 5.850973352789878845e-02 -5.210239067673683167e-02
-4.281287193298339844e-01 5.004794150590896606e-02 -2.690641395747661591e-02
-4.175156056880950928e-01 5.786155909299850464e-02 -3.228349611163139343e-02
2.662114500999450684e-01 6.367189288139343262e-01 3.609471023082733154e-01
2.544464468955993652e-01 6.488411426544189453e-01 3.603045344352722168e-01
2.712424993515014648e-01 6.359586715698242188e-01 3.783452212810516357e-01
2.600659132003784180e-01 6.479564905166625977e-01 3.772383630275726318e-01
1.944204270839691162e-01 8.824044466018676758e-01 1.296812891960144043e-01
1.927912980318069458e-01 8.969632983207702637e-01 1.233501359820365906e-01
1.936454921960830688e-01 8.780390024185180664e-01 1.463276594877243042e-01
1.924581378698348999e-01 8.914170265197753906e-01 1.415639817714691162e-01
1.603338122367858887e-02 2.358343005180358887e-01 -1.940490603446960449e-01
5.457368679344654083e-03 2.357833534479141235e-01 -1.950567811727523804e-01
1.922453008592128754e-02 2.474729418754577637e-01 -1.769217401742935181e-01
8.242845535278320312e-03 2.474676072597503662e-01 -1.781166642904281616e-01
9.786255657672882080e-02 3.809116035699844360e-02 3.072413206100463867e-01
9.510284662246704102e-02 5.250888690352439880e-02 3.000980913639068604e-01
8.802708983421325684e-02 3.092366084456443787e-02 3.199592232704162598e-01
8.481463044881820679e-02 4.421119019389152527e-02 3.140314817428588867e-01
2.722392976284027100e-01 8.938281536102294922e-01 2.142750769853591919e-01
2.715129852294921875e-01 9.059968590736389160e-01 2.061471045017242432e-01
2.682290077209472656e-01 8.873804211616516113e-01 2.294519841670989990e-01
2.655494511127471924e-01 8.991612195968627930e-01 2.211446166038513184e-01
5.264375358819961548e-02 -3.993815779685974121e-01 -1.038442738354206085e-02
4.655335843563079834e-02 -3.853909671306610107e-01 -1.492570806294679642e-02
5.716026574373245239e-02 -3.970186114311218262e-01 5.239994265139102936e-03
5.098678544163703918e-02 -3.832854628562927246e-01 2.006025519222021103e-03
2.524218261241912842e-01 8.558747768402099609e-01 2.838773429393768311e-01
2.469782233238220215e-01 8.703969717025756836e-01 2.776371240615844727e-01
2.444048821926116943e-01 8.483455777168273926e-01 2.976794540882110596e-01
2.391303628683090210e-01 8.632587194442749023e-01 2.914882004261016846e-01
1.799037307500839233e-01 2.223853617906570435e-01 2.259186059236526489e-01
1.603477895259857178e-01 2.364244014024734497e-01 2.232982665300369263e-01
1.686525791883468628e-01 2.113728076219558716e-01 2.347292006015777588e-01
1.486231982707977295e-01 2.239963710308074951e-01 2.321648895740509033e-01
2.520657777786254883e-01 -9.792230278253555298e-02 -1.044103652238845825e-01
2.478758394718170166e-01 -7.314532250165939331e-02 -1.138833165168762207e-01
2.574711143970489502e-01 -1.035509482026100159e-01 -8.034541457891464233e-02
2.551838457584381104e-01 -7.934644073247909546e-02 -8.869120478630065918e-02
4.724889695644378662e-01 -3.327233195304870605e-01 -5.028097033500671387e-01
4.585958123207092285e-01 -3.288818895816802979e-01 -5.089676976203918457e-01
4.792579710483551025e-01 -3.227644562721252441e-01 -4.900574386119842529e-01
4.654487371444702148e-01 -3.197609186172485352e-01 -4.958789646625518799e-01
2.951259613037109375e-01 4.744624793529510498e-01 -3.110468201339244843e-02
2.870630025863647461e-01 4.893541932106018066e-01 -3.287306427955627441e-02
2.827644944190979004e-01 4.704678356647491455e-01 -2.849163860082626343e-02
2.749480009078979492e-01 4.847724139690399170e-01 -3.026585280895233154e-02
-2.896286547183990479e-03 -2.459229081869125366e-01 1.411138474941253662e-01
1.983049092814326286e-03 -2.356373965740203857e-01 1.421196758747100830e-01
-1.474980916827917099e-02 -2.492368072271347046e-01 1.485331207513809204e-01
-9.881302714347839355e-03 -2.388030141592025757e-01 1.488255411386489868e-01
3.138054907321929932e-01 -1.313861757516860962e-01 2.770321071147918701e-01
3.087068498134613037e-01 -1.198689788579940796e-01 2.788891196250915527e-01
2.997255623340606689e-01 -1.375565528869628906e-01 2.938455045223236084e-01
2.957633733749389648e-01 -1.249772682785987854e-01 2.932766079902648926e-01
-2.866143286228179932e-01 -3.472523987293243408e-01 -1.661518961191177368e-01
-2.984846532344818115e-01 -3.421820104122161865e-01 -1.720271557569503784e-01
-3.015165328979492188e-01 -3.572753965854644775e-01 -1.555221676826477051e-01
-3.093934655189514160e-01 -3.490874469280242920e-01 -1.601923555135726929e-01
2.963007092475891113e-01 -1.744044125080108643e-01 -2.042163014411926270e-01
2.961072623729705811e-01 -1.592266708612442017e-01 -2.090144157409667969e-01
2.888889908790588379e-01 -1.822266429662704468e-01 -1.902591437101364136e-01
2.893668413162231445e-01 -1.684312373399734497e-01 -1.917988508939743042e-01
2.523334324359893799e-01 4.238974153995513916e-01 2.310472279787063599e-01
2.449564933776855469e-01 4.361453056335449219e-01 2.356247752904891968e-01
2.401088178157806396e-01 4.242029190063476562e-01 2.307869195938110352e-01
2.318581789731979370e-01 4.362993836402893066e-01 2.357566505670547485e-01
-2.133029978722333908e-03 -3.354213833808898926e-01 8.612753450870513916e-02
3.275445662438869476e-03 -3.239623010158538818e-01 9.102245420217514038e-02
-1.369526609778404236e-02 -3.353885114192962646e-01 9.784498065710067749e-02
-8.160807192325592041e-03 -3.251298069953918457e-01 1.012052819132804871e-01
1.666721999645233154e-01 2.607590854167938232e-01 -8.769870549440383911e-02
1.477369517087936401e-01 2.635383009910583496e-01 -9.197464585304260254e-02
1.732617318630218506e-01 2.672462165355682373e-01 -6.786816567182540894e-02
1.567662656307220459e-01 2.703652977943420410e-01 -7.186858355998992920e-02
5.544462800025939941e-02 1.019362434744834900e-01 1.955346316099166870e-01
5.213452875614166260e-02 1.198452636599540710e-01 1.940005421638488770e-01
4.149156808853149414e-02 9.046391397714614868e-02 1.970590502023696899e-01
3.586168214678764343e-02 1.078248620033264160e-01 1.950931102037429810e-01
-3.319088816642761230e-01 -6.351171731948852539e-01 -1.681984663009643555e-01
-3.357056379318237305e-01 -6.196321249008178711e-01 -1.739310622215270996e-01
-3.398520946502685547e-01 -6.418180465698242188e-01 -1.512712687253952026e-01
-3.449855744838714600e-01 -6.268399357795715332e-01 -1.585300862789154053e-01
1.353523284196853638e-01 -6.246389150619506836e-01 -1.090215295553207397e-01
1.209983304142951965e-01 -6.291563510894775391e-01 -1.176656261086463928e-01
1.336366236209869385e-01 -6.240214705467224121e-01 -9.432691335678100586e-02
1.181411892175674438e-01 -6.290224194526672363e-01 -1.021657511591911316e-01
9.895878285169601440e-02 2.396817207336425781e-01 4.918549209833145142e-03
8.241726458072662354e-02 2.452896237373352051e-01 6.633832585066556931e-03
9.422941505908966064e-02 2.427304536104202271e-01 2.092385105788707733e-02
7.818099111318588257e-02 2.495557516813278198e-01 2.447804436087608337e-02
-6.372555494308471680e-01 -3.216941952705383301e-01 -1.799676716327667236e-01
-6.458525657653808594e-01 -3.190867006778717041e-01 -1.869586259126663208e-01
-6.389750838279724121e-01 -3.232855200767517090e-01 -1.617270559072494507e-01
-6.507146954536437988e-01 -3.228599727153778076e-01 -1.697090566158294678e-01
-2.451850920915603638e-01 -1.760953292250633240e-02 -2.508265376091003418e-01
-2.552085816860198975e-01 -5.445550661534070969e-03 -2.436491847038269043e-01
-2.604732811450958252e-01 -9.237444959580898285e-03 -2.466352730989456177e-01
-2.700713872909545898e-01 6.343514658510684967e-03 -2.372439652681350708e-01
1.831219196319580078e-01 6.837488710880279541e-02 -7.403598725795745850e-02
1.688685864210128784e-01 7.256451249122619629e-02 -7.575429975986480713e-02
1.877594590187072754e-01 8.245555311441421509e-02 -6.415389478206634521e-02
1.724537014961242676e-01 8.626538515090942383e-02 -6.548367440700531006e-02
1.917107850313186646e-01 1.822162568569183350e-01 -1.848268508911132812e-02
1.773314327001571655e-01 1.889643222093582153e-01 -2.101302519440650940e-02
1.821016520261764526e-01 1.785183846950531006e-01 -1.382035389542579651e-02
1.687047481536865234e-01 1.851675510406494141e-01 -1.444255374372005463e-02
1.956880092620849609e-01 8.636134862899780273e-01 1.905305832624435425e-01
1.941508501768112183e-01 8.748947978019714355e-01 1.860683560371398926e-01
1.905144453048706055e-01 8.555185794830322266e-01 2.026400119066238403e-01
1.901201009750366211e-01 8.681489229202270508e-01 1.976069360971450806e-01
2.026351988315582275e-01 1.145491302013397217e-01 2.666756212711334229e-01
1.905364543199539185e-01 1.272768974304199219e-01 2.646960914134979248e-01
1.878201514482498169e-01 1.083271503448486328e-01 2.796459197998046875e-01
1.760253012180328369e-01 1.209255382418632507e-01 2.773453295230865479e-01
2.452022731304168701e-01 5.687099695205688477e-01 -8.262278512120246887e-03
2.426855266094207764e-01 5.827027559280395508e-01 -5.943757947534322739e-03
2.403949946165084839e-01 5.689742565155029297e-01 5.161272827535867691e-03
2.385155707597732544e-01 5.839812755584716797e-01 7.296891883015632629e-03
-2.547872960567474365e-01 1.019234359264373779e-01 3.129038959741592407e-02
-2.720567584037780762e-01 1.050726622343063354e-01 2.203419059514999390e-02
-2.539201676845550537e-01 1.006986275315284729e-01 4.907957464456558228e-02
-2.719760537147521973e-01 1.038492843508720398e-01 3.962238132953643799e-02
-3.105656504631042480e-01 8.500435948371887207e-02 -1.599111407995223999e-01
-3.320204317569732666e-01 8.017583936452865601e-02 -1.581189036369323730e-01
-3.117396235466003418e-01 9.650686383247375488e-02 -1.392864286899566650e-01
-3.323630392551422119e-01 9.042080491781234741e-02 -1.397402733564376831e-01
1.425227075815200806e-01 -1.246627122163772583e-01 1.375078707933425903e-01
1.467165648937225342e-01 -1.096389368176460266e-01 1.405920088291168213e-01
1.232687458395957947e-01 -1.303035616874694824e-01 1.464063972234725952e-01
1.275544911623001099e-01 -1.138468906283378601e-01 1.494978517293930054e-01
-2.962110750377178192e-02 2.156479358673095703e-01 -2.194917798042297363e-01
-4.414968937635421753e-02 2.169633805751800537e-01 -2.211213260889053345e-01
-3.452212363481521606e-02 2.260488420724868774e-01 -2.091108113527297974e-01
-4.950145259499549866e-02 2.271749377250671387e-01 -2.104025036096572876e-01
-5.023144930601119995e-02 -3.889108002185821533e-01 4.094499349594116211e-02
-4.253604263067245483e-02 -3.824900090694427490e-01 3.787173703312873840e-02
-6.121290102601051331e-02 -3.929937183856964111e-01 5.693589150905609131e-02
-5.102977529168128967e-02 -3.848668336868286133e-01 5.555141717195510864e-02
-2.814209088683128357e-03 -2.297684997320175171e-01 -2.359504848718643188e-01
-1.223868690431118011e-02 -2.196909934282302856e-01 -2.409640550613403320e-01
-1.105058379471302032e-02 -2.453278899192810059e-01 -2.295335531234741211e-01
-2.104523964226245880e-02 -2.365593761205673218e-01 -2.351965755224227905e-01
-2.915294766426086426e-01 -9.589791297912597656e-02 2.876811325550079346e-01
-3.014656603336334229e-01 -8.687589317560195923e-02 2.820643484592437744e-01
-2.949104607105255127e-01 -1.154598891735076904e-01 2.914103865623474121e-01
-3.050334453582763672e-01 -1.066344454884529114e-01 2.857142388820648193e-01
2.888265848159790039e-01 5.275690555572509766e-01 1.461297720670700073e-01
2.753560841083526611e-01 5.316681861877441406e-01 1.436488330364227295e-01
2.942412197589874268e-01 5.379227995872497559e-01 1.600203365087509155e-01
2.799297273159027100e-01 5.416076183319091797e-01 1.553566157817840576e-01
2.143035978078842163e-01 -8.853941410779953003e-02 3.034928143024444580e-01
2.116456031799316406e-01 -7.516516745090484619e-02 2.963250577449798584e-01
2.061813920736312866e-01 -9.284581989049911499e-02 3.188802897930145264e-01
2.018615007400512695e-01 -7.995620369911193848e-02 3.123527169227600098e-01
1.643352508544921875e-01 7.675622105598449707e-01 2.433530688285827637e-01
1.657782047986984253e-01 7.792307734489440918e-01 2.454116642475128174e-01
1.570885777473449707e-01 7.664417028427124023e-01 2.476567924022674561e-01
1.579113006591796875e-01 7.789980173110961914e-01 2.492385208606719971e-01
2.298718988895416260e-01 6.491516232490539551e-01 8.526569604873657227e-02
2.161382883787155151e-01 6.580132842063903809e-01 9.033472090959548950e-02
2.221807241439819336e-01 6.555577516555786133e-01 1.007040590047836304e-01
2.091914862394332886e-01 6.638851761817932129e-01 1.045017167925834656e-01
1.887107044458389282e-01 5.358896851539611816e-01 1.520902663469314575e-01
1.862148791551589966e-01 5.488200783729553223e-01 1.543512046337127686e-01
1.939426660537719727e-01 5.466398000717163086e-01 1.687669157981872559e-01
1.870976090431213379e-01 5.580829381942749023e-01 1.679822951555252075e-01
7.266524434089660645e-02 2.135359346866607666e-01 -8.008085936307907104e-02
5.700406059622764587e-02 2.134590744972229004e-01 -8.819821476936340332e-02
7.408340275287628174e-02 2.194562405347824097e-01 -6.784346699714660645e-02
5.865511298179626465e-02 2.199142128229141235e-01 -7.504078745841979980e-02
2.053228616714477539e-01 -5.951576232910156250e-01 -1.277519017457962036e-01
1.952593028545379639e-01 -5.947428941726684570e-01 -1.376705914735794067e-01
2.008019089698791504e-01 -6.006086468696594238e-01 -1.130652874708175659e-01
1.910662204027175903e-01 -6.002529263496398926e-01 -1.216730847954750061e-01
-2.935269176959991455e-01 -4.710311591625213623e-01 7.121761143207550049e-02
-3.100210726261138916e-01 -4.626052379608154297e-01 7.228897511959075928e-02
-2.909269928932189941e-01 -4.611407816410064697e-01 8.466809242963790894e-02
-3.074574768543243408e-01 -4.528961777687072754e-01 8.643185347318649292e-02
2.005812823772430420e-01 7.418522238731384277e-01 2.508670091629028320e-01
2.022525519132614136e-01 7.598643302917480469e-01 2.547255158424377441e-01
2.026935219764709473e-01 7.427461743354797363e-01 2.575822174549102783e-01
2.044901847839355469e-01 7.611705064773559570e-01 2.617425322532653809e-01
-3.928284645080566406e-01 -3.356120586395263672e-01 -3.274335265159606934e-01
-4.088786542415618896e-01 -3.340212702751159668e-01 -3.317781984806060791e-01
-4.010172486305236816e-01 -3.457661569118499756e-01 -3.268939554691314697e-01
-4.171575009822845459e-01 -3.443731367588043213e-01 -3.313392996788024902e-01
1.029994860291481018e-01 -4.315367341041564941e-02 1.789673268795013428e-01
1.047637090086936951e-01 -2.907447144389152527e-02 1.812108010053634644e-01
8.792605251073837280e-02 -4.943679273128509521e-02 1.825142651796340942e-01
8.958595246076583862e-02 -3.555127978324890137e-02 1.843642741441726685e-01
-5.233350992202758789e-01 -2.634313106536865234e-01 -8.953488618135452271e-02
-5.246560573577880859e-01 -2.510852217674255371e-01 -9.074230492115020752e-02
-5.307942628860473633e-01 -2.607785761356353760e-01 -7.196651399135589600e-02
-5.311235189437866211e-01 -2.480157464742660522e-01 -7.280670851469039917e-02
3.367193639278411865e-01 4.039995074272155762e-01 2.262016534805297852e-01
3.262822031974792480e-01 4.168719947338104248e-01 2.271364927291870117e-01
3.398219645023345947e-01 4.058669805526733398e-01 2.325052618980407715e-01
3.291512429714202881e-01 4.190455079078674316e-01 2.336964607238769531e-01
1.402523368597030640e-01 8.081616759300231934e-01 2.551195621490478516e-01
1.440442502498626709e-01 8.202412128448486328e-01 2.537906169891357422e-01
1.298896223306655884e-01 8.064376711845397949e-01 2.652948796749114990e-01
1.339497715234756470e-01 8.187258839607238770e-01 2.638565003871917725e-01
3.193717002868652344e-01 1.678170561790466309e-01 1.180500686168670654e-01
3.266848325729370117e-01 1.819097101688385010e-01 1.132014468312263489e-01
3.127380013465881348e-01 1.605256348848342896e-01 1.320192217826843262e-01
3.199775815010070801e-01 1.747242510318756104e-01 1.276162117719650269e-01
-1.484200060367584229e-01 -3.721401989459991455e-01 -1.604009717702865601e-01
-1.596108078956604004e-01 -3.690675199031829834e-01 -1.710802465677261353e-01
-1.500816792249679565e-01 -3.827795684337615967e-01 -1.467500030994415283e-01
-1.613118648529052734e-01 -3.796155154705047607e-01 -1.582455486059188843e-01
-5.179965496063232422e-01 -4.177826941013336182e-01 -2.141809314489364624e-01
-5.330509543418884277e-01 -4.158461391925811768e-01 -2.133064121007919312e-01
-5.160309076309204102e-01 -4.075015485286712646e-01 -2.033272087574005127e-01
-5.313226580619812012e-01 -4.037260413169860840e-01 -2.022398710250854492e-01
-6.355807185173034668e-01 -4.496843218803405762e-01 -3.502694666385650635e-01
-6.215610504150390625e-01 -4.363437891006469727e-01 -3.423976600170135498e-01
-6.394555568695068359e-01 -4.484713971614837646e-01 -3.306204378604888916e-01
-6.257557868957519531e-01 -4.344435334205627441e-01 -3.240242302417755127e-01
2.828388214111328125e-01 5.635219216346740723e-01 5.435759201645851135e-02
2.750478684902191162e-01 5.830912590026855469e-01 5.485584586858749390e-02
2.767238020896911621e-01 5.595011115074157715e-01 6.281508505344390869e-02
2.686579525470733643e-01 5.796201229095458984e-01 6.298539787530899048e-02
1.776668131351470947e-01 5.047872662544250488e-01 1.814986020326614380e-01
1.760785877704620361e-01 5.216093659400939941e-01 1.813884824514389038e-01
1.818992197513580322e-01 5.071806311607360840e-01 1.972664445638656616e-01
1.773451715707778931e-01 5.244845747947692871e-01 1.948186010122299194e-01
-1.264509111642837524e-01 3.131374716758728027e-03 2.096817642450332642e-01
-1.339438706636428833e-01 2.028882503509521484e-02 2.063602060079574585e-01
-1.405107527971267700e-01 -1.272027194499969482e-02 2.094044387340545654e-01
-1.456919759511947632e-01 3.637353889644145966e-03 2.058672606945037842e-01
-4.965494871139526367e-01 -1.708916425704956055e-01 -1.718702614307403564e-01
-4.899703264236450195e-01 -1.549572646617889404e-01 -1.737360954284667969e-01
-5.053368806838989258e-01 -1.730709224939346313e-01 -1.557342410087585449e-01
-5.000768899917602539e-01 -1.551722437143325806e-01 -1.555261760950088501e-01
-5.165825486183166504e-01 -8.274360746145248413e-02 1.534976996481418610e-03
-5.083968043327331543e-01 -6.871309876441955566e-02 -2.212383318692445755e-03
-5.139309167861938477e-01 -8.427765965461730957e-02 1.850896328687667847e-02
-5.068690776824951172e-01 -6.985516846179962158e-02 1.521416008472442627e-02
2.676115036010742188e-01 -1.135892421007156372e-01 -4.149974510073661804e-02
2.704983949661254883e-01 -9.515109658241271973e-02 -4.470663145184516907e-02
2.648572623729705811e-01 -1.169903725385665894e-01 -2.597418241202831268e-02
2.697585821151733398e-01 -1.009455993771553040e-01 -2.730712294578552246e-02
-1.552950292825698853e-01 -2.091624289751052856e-01 -2.811753153800964355e-01
-1.778680980205535889e-01 -2.081301063299179077e-01 -2.859314978122711182e-01
-1.704903244972229004e-01 -2.222492098808288574e-01 -2.839263677597045898e-01
-1.910667717456817627e-01 -2.183008342981338501e-01 -2.882994711399078369e-01
-1.682299375534057617e-01 -1.015681587159633636e-02 -2.163140326738357544e-01
-1.849819868803024292e-01 -6.215858273208141327e-03 -2.262077033519744873e-01
-1.628663837909698486e-01 -1.995659433305263519e-03 -2.007991820573806763e-01
-1.795824021100997925e-01 1.995909959077835083e-03 -2.105216085910797119e-01
3.212379664182662964e-02 -2.866560220718383789e-01 -1.814117282629013062e-01
1.745321042835712433e-02 -2.835628688335418701e-01 -1.864697188138961792e-01
2.700855024158954620e-02 -2.949350178241729736e-01 -1.685621142387390137e-01
1.297019608318805695e-02 -2.927798628807067871e-01 -1.740683913230895996e-01
1.668819934129714966e-01 1.003447175025939941e-02 -1.286293119192123413e-01
1.516315937042236328e-01 1.612836122512817383e-02 -1.333391368389129639e-01
1.757110953330993652e-01 1.869809627532958984e-02 -1.157678812742233276e-01
1.613757312297821045e-01 2.396995760500431061e-02 -1.202619522809982300e-01
-8.260282129049301147e-02 -3.114438354969024658e-01 2.032397240400314331e-01
-7.845445722341537476e-02 -2.955348193645477295e-01 2.034160941839218140e-01
-9.581480175256729126e-02 -3.172270655632019043e-01 2.156827896833419800e-01
-9.165580570697784424e-02 -3.004267215728759766e-01 2.155791670083999634e-01
4.293183386325836182e-01 3.779513537883758545e-01 2.024832814931869507e-01
4.216810762882232666e-01 3.888789117336273193e-01 2.036581784486770630e-01
4.293487071990966797e-01 3.850968182086944580e-01 2.177490293979644775e-01
4.235039055347442627e-01 3.959145247936248779e-01 2.195256203413009644e-01
3.665992617607116699e-01 9.369432181119918823e-02 1.265754401683807373e-01
3.603586852550506592e-01 1.079751327633857727e-01 1.243525445461273193e-01
3.591442108154296875e-01 8.769889175891876221e-02 1.424600630998611450e-01
3.522205352783203125e-01 1.024708524346351624e-01 1.392869055271148682e-01
1.863900572061538696e-01 -1.902797073125839233e-01 -3.418014049530029297e-01
1.853546500205993652e-01 -1.773338317871093750e-01 -3.344573676586151123e-01
1.738512217998504639e-01 -1.871476173400878906e-01 -3.376210927963256836e-01
1.709027737379074097e-01 -1.757330000400543213e-01 -3.306383192539215088e-01
2.793809771537780762e-01 -2.268175035715103149e-01 -2.046151608228683472e-01
2.791025638580322266e-01 -2.134483009576797485e-01 -1.968723386526107788e-01
2.624182999134063721e-01 -2.237670868635177612e-01 -1.927236616611480713e-01
2.652611434459686279e-01 -2.118570059537887573e-01 -1.865907311439514160e-01
3.302934169769287109e-01 5.073468685150146484e-01 3.108174502849578857e-01
3.172124028205871582e-01 5.174066424369812012e-01 3.107564747333526611e-01
3.332147300243377686e-01 5.135540366172790527e-01 3.203101754188537598e-01
3.178331553936004639e-01 5.236735343933105469e-01 3.195951282978057861e-01
8.956716954708099365e-02 5.112051218748092651e-02 3.049487173557281494e-01
8.740845322608947754e-02 6.482658535242080688e-02 2.984653711318969727e-01
8.175525814294815063e-02 4.283487796783447266e-02 3.181741833686828613e-01
7.929788529872894287e-02 5.573380738496780396e-02 3.128489553928375244e-01
-5.698397159576416016e-01 -2.563794255256652832e-01 -8.804921060800552368e-03
-5.744703412055969238e-01 -2.414793372154235840e-01 -8.143506944179534912e-03
-5.617675185203552246e-01 -2.520106434822082520e-01 8.970350958406925201e-03
-5.661671757698059082e-01 -2.376765608787536621e-01 8.839228190481662750e-03
-9.920211136341094971e-02 -4.187861382961273193e-01 -2.206151559948921204e-02
-1.125828847289085388e-01 -4.231497943401336670e-01 -3.500983864068984985e-02
-1.034307405352592468e-01 -4.263312816619873047e-01 -4.643524531275033951e-03
-1.163481697440147400e-01 -4.305376112461090088e-01 -1.783630251884460449e-02
-2.783465385437011719e-01 -2.859370410442352295e-01 -2.935645580291748047e-01
-2.936801016330718994e-01 -2.834720909595489502e-01 -3.004163503646850586e-01
-2.845733761787414551e-01 -2.951979041099548340e-01 -2.886418700218200684e-01
-3.006746172904968262e-01 -2.938680052757263184e-01 -2.963343858718872070e-01
2.189301401376724243e-01 -2.316819578409194946e-01 -1.036991998553276062e-01
2.247621566057205200e-01 -2.189544737339019775e-01 -1.049479320645332336e-01
2.229437679052352905e-01 -2.313491255044937134e-01 -8.594251424074172974e-02
2.278172373771667480e-01 -2.192626148462295532e-01 -8.678852021694183350e-02
-7.558590173721313477e-02 -3.872474730014801025e-01 -6.971257925033569336e-02
-8.596676588058471680e-02 -3.878542780876159668e-01 -8.202710002660751343e-02
-8.235203474760055542e-02 -3.981944322586059570e-01 -5.144747346639633179e-02
-9.425437450408935547e-02 -3.989131748676300049e-01 -6.411165744066238403e-02
-6.500617265701293945e-01 -5.708430409431457520e-01 -3.206376135349273682e-01
-6.645726561546325684e-01 -5.621117949485778809e-01 -3.270219266414642334e-01
-6.487432122230529785e-01 -5.703660845756530762e-01 -3.061742782592773438e-01
-6.627824902534484863e-01 -5.620371103286743164e-01 -3.114848434925079346e-01
-3.275263905525207520e-01 -4.947948753833770752e-01 1.735299825668334961e-02
-3.350942134857177734e-01 -4.864508509635925293e-01 1.574289612472057343e-02
-3.210125863552093506e-01 -4.915182292461395264e-01 2.953067421913146973e-02
-3.293042778968811035e-01 -4.839287400245666504e-01 2.778336033225059509e-02
1.660415530204772949e-01 8.080016970634460449e-01 2.401306778192520142e-01
1.689137071371078491e-01 8.180592060089111328e-01 2.395807653665542603e-01
1.584691256284713745e-01 8.059812784194946289e-01 2.466921210289001465e-01
1.613654643297195435e-01 8.167420625686645508e-01 2.463695704936981201e-01
1.772996634244918823e-01 -6.191583275794982910e-01 -7.263553887605667114e-02
1.610577255487442017e-01 -6.273466944694519043e-01 -8.046454191207885742e-02
1.723595410585403442e-01 -6.220139861106872559e-01 -5.633001029491424561e-02
1.559923142194747925e-01 -6.300641894340515137e-01 -6.416379660367965698e-02
-2.068919390439987183e-01 -1.075628772377967834e-01 2.829272747039794922e-01
-2.105936259031295776e-01 -9.490939974784851074e-02 2.748520970344543457e-01
-2.165098637342453003e-01 -1.196639165282249451e-01 2.939516901969909668e-01
-2.202882617712020874e-01 -1.071434393525123596e-01 2.860568165779113770e-01
1.012089252471923828e-01 -4.303957894444465637e-02 1.794322133064270020e-01
1.029058173298835754e-01 -2.901580557227134705e-02 1.815821230411529541e-01
8.384384214878082275e-02 -5.301093310117721558e-02 1.833536624908447266e-01
8.522981405258178711e-02 -3.932678699493408203e-02 1.854038387537002563e-01
9.630103409290313721e-02 3.632075190544128418e-01 1.661867946386337280e-01
1.040670946240425110e-01 3.824192583560943604e-01 1.625498831272125244e-01
1.020438969135284424e-01 3.538261950016021729e-01 1.771229356527328491e-01
1.097047328948974609e-01 3.739903569221496582e-01 1.752000600099563599e-01
-4.206984769552946091e-03 -3.387142419815063477e-01 -9.479761123657226562e-02
-1.446062605828046799e-02 -3.393974006175994873e-01 -1.054513081908226013e-01
-1.146563980728387833e-02 -3.443696796894073486e-01 -8.122897148132324219e-02
-2.112052403390407562e-02 -3.448837995529174805e-01 -9.128908067941665649e-02
1.333355903625488281e-01 6.393124461174011230e-01 2.665416598320007324e-01
1.255962997674942017e-01 6.519956588745117188e-01 2.628526985645294189e-01
1.352779716253280640e-01 6.400234103202819824e-01 2.793630957603454590e-01
1.271808594465255737e-01 6.532385945320129395e-01 2.764446139335632324e-01
3.981878459453582764e-01 3.651860170066356659e-03 1.646531224250793457e-01
3.890288770198822021e-01 1.868222653865814209e-02 1.650552153587341309e-01
3.856370747089385986e-01 1.034892629832029343e-03 1.802643537521362305e-01
3.781703710556030273e-01 1.625831425189971924e-02 1.820566356182098389e-01
-4.311323910951614380e-02 1.765962988138198853e-01 9.894982725381851196e-02
-5.492961406707763672e-02 1.675074547529220581e-01 9.495880454778671265e-02
-4.949431121349334717e-02 1.770767122507095337e-01 1.185840740799903870e-01
-6.049404665827751160e-02 1.685668677091598511e-01 1.133447289466857910e-01
-5.390856042504310608e-02 -2.548308968544006348e-01 1.832883805036544800e-01
-5.255030468106269836e-02 -2.396583259105682373e-01 1.888412386178970337e-01
-6.334617733955383301e-02 -2.591195106506347656e-01 1.916914731264114380e-01
-6.215864047408103943e-02 -2.441295981407165527e-01 1.978571861982345581e-01
4.198963567614555359e-02 -5.797339677810668945e-01 -1.143996566534042358e-01
3.971787914633750916e-02 -5.663806796073913574e-01 -1.158270910382270813e-01
4.592255130410194397e-02 -5.793687701225280762e-01 -9.790866822004318237e-02
4.333980381488800049e-02 -5.654416680335998535e-01 -9.741859883069992065e-02
3.590115904808044434e-01 -2.450719773769378662e-01 -2.697465419769287109e-01
3.548973500728607178e-01 -2.293532043695449829e-01 -2.633396089076995850e-01
3.468945920467376709e-01 -2.456493526697158813e-01 -2.639098465442657471e-01
3.438572585582733154e-01 -2.305100858211517334e-01 -2.532110810279846191e-01
1.813265234231948853e-01 7.045143246650695801e-01 3.526859283447265625e-01
1.779537349939346313e-01 7.238948345184326172e-01 3.547454774379730225e-01
1.710817962884902954e-01 6.966391205787658691e-01 3.526086211204528809e-01
1.664093434810638428e-01 7.166122794151306152e-01 3.552206158638000488e-01
3.344979286193847656e-01 -3.355022966861724854e-01 -3.983163237571716309e-01
3.275646865367889404e-01 -3.236139714717864990e-01 -3.996186256408691406e-01
3.303701579570770264e-01 -3.356380462646484375e-01 -3.850667774677276611e-01
3.235228657722473145e-01 -3.237602710723876953e-01 -3.863469362258911133e-01
2.361864894628524780e-01 -2.600567340850830078e-01 -2.108138203620910645e-01
2.297043800354003906e-01 -2.544404864311218262e-01 -2.044331580400466919e-01
2.244950085878372192e-01 -2.571866512298583984e-01 -2.001871168613433838e-01
2.236676514148712158e-01 -2.508244216442108154e-01 -1.960223317146301270e-01
3.812611103057861328e-01 3.773477971553802490e-01 2.545928657054901123e-01
3.660438656806945801e-01 3.836444020271301270e-01 2.558954954147338867e-01
3.827647566795349121e-01 3.906618058681488037e-01 2.648118436336517334e-01
3.685043156147003174e-01 3.971158862113952637e-01 2.668102681636810303e-01
4.307518601417541504e-01 3.694355785846710205e-01 2.315684109926223755e-01
4.253331124782562256e-01 3.780886232852935791e-01 2.341001331806182861e-01
4.301900565624237061e-01 3.791759014129638672e-01 2.456807792186737061e-01
4.247436523437500000e-01 3.868108987808227539e-01 2.488663941621780396e-01
-2.195131480693817139e-01 8.796807378530502319e-02 -4.884386435151100159e-03
-2.341397255659103394e-01 9.124162048101425171e-02 -9.984871372580528259e-03
-2.262309640645980835e-01 9.333319216966629028e-02 1.280174497514963150e-02
