-3.592687845230102539e-02 2.070070207118988037e-01 -4.826384484767913818e-01
-3.831464052200317383e-02 1.895435303449630737e-01 -4.714202582836151123e-01
-4.456552490592002869e-02 1.990488320589065552e-01 -4.742260873317718506e-01
-2.585671469569206238e-02 1.594640761613845825e-01 -4.581582248210906982e-01
-3.330080211162567139e-02 1.669378727674484253e-01 -4.603923559188842773e-01
-3.367862477898597717e-02 1.502397656440734863e-01 -4.514845311641693115e-01
-4.073977470397949219e-02 1.578279435634613037e-01 -4.539302289485931396e-01
4.484258964657783508e-02 2.435780763626098633e-01 6.287087686359882355e-03
3.180195391178131104e-02 2.432055175304412842e-01 -3.266393207013607025e-03
4.557120427489280701e-02 2.431162297725677490e-01 2.599033899605274200e-02
3.204070404171943665e-02 2.424894273281097412e-01 1.690001972019672394e-02
-2.945487201213836670e-01 4.921508133411407471e-01 -6.071332693099975586e-01
-2.906745076179504395e-01 5.073933601379394531e-01 -6.104477643966674805e-01
-2.881722450256347656e-01 4.823772311210632324e-01 -5.969454646110534668e-01
-2.852969765663146973e-01 4.973264038562774658e-01 -5.999773144721984863e-01
1.881993710994720459e-01 8.726754784584045410e-02 -3.893666565418243408e-01
1.879012137651443481e-01 1.022400110960006714e-01 -3.909886777400970459e-01
1.929005384445190430e-01 8.099697530269622803e-02 -3.755074143409729004e-01
1.965965479612350464e-01 9.800636023283004761e-02 -3.755888640880584717e-01
2.666074931621551514e-01 1.298505067825317383e-01 3.187951445579528809e-01
2.662287652492523193e-01 1.502453982830047607e-01 3.169834911823272705e-01
2.720058262348175049e-01 1.291705667972564697e-01 3.358039855957031250e-01
2.715984284877777100e-01 1.496757417917251587e-01 3.349990248680114746e-01
-1.319076120853424072e-01 6.187124848365783691e-01 -7.266986370086669922e-01
-1.402407735586166382e-01 6.278352141380310059e-01 -7.305476665496826172e-01
-1.364376991987228394e-01 6.116560697555541992e-01 -7.176021933555603027e-01
-1.443103104829788208e-01 6.203417778015136719e-01 -7.218417525291442871e-01
1.888279244303703308e-02 -1.302779912948608398e-01 1.723939776420593262e-01
7.495038211345672607e-03 -1.287665814161300659e-01 1.685133576393127441e-01
2.284259535372257233e-02 -1.230301409959793091e-01 1.858251541852951050e-01
1.172949373722076416e-02 -1.218980476260185242e-01 1.827132701873779297e-01
2.099445909261703491e-01 -2.740212678909301758e-01 4.423109889030456543e-01
2.073764204978942871e-01 -2.611551582813262939e-01 4.338859915733337402e-01
2.066524326801300049e-01 -2.813631594181060791e-01 4.558129310607910156e-01
2.042717486619949341e-01 -2.685874700546264648e-01 4.472569525241851807e-01
-2.145944349467754364e-02 4.161714017391204834e-01 -3.128003478050231934e-01
-2.475370094180107117e-02 4.200597405433654785e-01 -3.170062601566314697e-01
-1.647743768990039825e-02 4.104711711406707764e-01 -2.997952401638031006e-01
-1.802904903888702393e-02 4.163743853569030762e-01 -3.031557202339172363e-01
-1.244966462254524231e-01 5.911298394203186035e-01 -6.730511784553527832e-01
-1.360581517219543457e-01 5.953557491302490234e-01 -6.740899682044982910e-01
-1.246379390358924866e-01 5.942407250404357910e-01 -6.588000059127807617e-01
-1.368683278560638428e-01 5.981925129890441895e-01 -6.599960923194885254e-01
1.850709617137908936e-01 -1.453312020748853683e-02 -3.486147522926330566e-01
1.734939068555831909e-01 -1.184281613677740097e-02 -3.561775684356689453e-01
1.849202960729598999e-01 -2.702373266220092773e-02 -3.374398946762084961e-01
1.746952235698699951e-01 -2.329077385365962982e-02 -3.446700870990753174e-01
-1.812990605831146240e-01 6.001801490783691406e-01 -6.790142059326171875e-01
-1.940909624099731445e-01 6.003748774528503418e-01 -6.806728243827819824e-01
-1.835895478725433350e-01 6.031577587127685547e-01 -6.663622260093688965e-01
-1.974263042211532593e-01 6.024093031883239746e-01 -6.688288450241088867e-01
1.894129812717437744e-01 1.439503133296966553e-01 -1.330919265747070312e-01
1.852665394544601440e-01 1.590094417333602905e-01 -1.331053078174591064e-01
1.886089593172073364e-01 1.479011625051498413e-01 -1.156204491853713989e-01
1.848052144050598145e-01 1.612065881490707397e-01 -1.164894849061965942e-01
-5.949660763144493103e-02 2.224044501781463623e-01 5.317389965057373047e-02
-6.857456266880035400e-02 2.149568647146224976e-01 4.553816467523574829e-02
-6.688098609447479248e-02 2.227906286716461182e-01 7.270823419094085693e-02
-7.656276971101760864e-02 2.148749977350234985e-01 6.444746255874633789e-02
-6.164767220616340637e-02 -5.622749775648117065e-02 4.576196074485778809e-01
-6.611452996730804443e-02 -4.316728562116622925e-02 4.528780579566955566e-01
-6.816301494836807251e-02 -6.331130117177963257e-02 4.680211842060089111e-01
-7.195127755403518677e-02 -5.098950117826461792e-02 4.646633565425872803e-01
-4.436370730400085449e-02 2.745729386806488037e-01 -5.269901752471923828e-01
-6.490635871887207031e-02 2.816039919853210449e-01 -5.291491150856018066e-01
-5.356748402118682861e-02 2.655813395977020264e-01 -5.179637670516967773e-01
-7.011671364307403564e-02 2.730675339698791504e-01 -5.198348164558410645e-01
1.249869987368583679e-01 2.430474162101745605e-01 4.762353375554084778e-02
1.108474135398864746e-01 2.464001625776290894e-01 4.210216179490089417e-02
1.267105340957641602e-01 2.451642900705337524e-01 6.245653703808784485e-02
1.127359792590141296e-01 2.482965141534805298e-01 5.752283707261085510e-02
4.068021848797798157e-02 -8.511303365230560303e-02 2.468101680278778076e-01
2.192678302526473999e-02 -8.405225723981857300e-02 2.461115270853042603e-01
4.198926314711570740e-02 -7.497914135456085205e-02 2.602809667587280273e-01
2.369777113199234009e-02 -7.385329902172088623e-02 2.599194049835205078e-01
-1.149089261889457703e-01 -3.519058525562286377e-01 -3.154085278511047363e-01
-1.139674410223960876e-01 -3.412018418312072754e-01 -3.177228271961212158e-01
-1.199257969856262207e-01 -3.526869118213653564e-01 -3.043005466461181641e-01
-1.186825409531593323e-01 -3.422854840755462646e-01 -3.068199753761291504e-01
-1.518628448247909546e-01 -7.211590185761451721e-03 3.427465856075286865e-01
-1.565621346235275269e-01 4.308886360377073288e-03 3.403907120227813721e-01
-1.542900502681732178e-01 -8.819353766739368439e-03 3.560425043106079102e-01
-1.605519503355026245e-01 2.605204936116933823e-03 3.551570475101470947e-01
1.677904725074768066e-01 -5.523196458816528320e-01 -1.188121512532234192e-01
1.534916758537292480e-01 -5.412492156028747559e-01 -1.172119379043579102e-01
1.647668927907943726e-01 -5.377041697502136230e-01 -1.087719574570655823e-01
1.511342227458953857e-01 -5.258882641792297363e-01 -1.077330037951469421e-01
-6.335821002721786499e-02 -3.830004036426544189e-01 -2.985967397689819336e-01
-6.275381892919540405e-02 -3.722111880779266357e-01 -3.011087477207183838e-01
-6.513144820928573608e-02 -3.865729570388793945e-01 -2.857749462127685547e-01
-6.425983458757400513e-02 -3.741478919982910156e-01 -2.870572209358215332e-01
-6.485874950885772705e-02 4.163706600666046143e-01 -3.727320134639739990e-01
-6.128732115030288696e-02 4.322893321514129639e-01 -3.762311041355133057e-01
-6.033642962574958801e-02 4.095694124698638916e-01 -3.621636629104614258e-01
-5.659260600805282593e-02 4.235563278198242188e-01 -3.649798333644866943e-01
6.669890135526657104e-02 4.014200866222381592e-01 -4.750514626502990723e-01
6.263551861047744751e-02 4.151585102081298828e-01 -4.837984144687652588e-01
6.994678825139999390e-02 4.013773202896118164e-01 -4.589769840240478516e-01
6.565009057521820068e-02 4.143282473087310791e-01 -4.677084386348724365e-01
-1.049227789044380188e-01 4.583847224712371826e-01 -6.896790266036987305e-01
-1.084519624710083008e-01 4.709577858448028564e-01 -6.939607262611389160e-01
-9.542453289031982422e-02 4.545989036560058594e-01 -6.774885058403015137e-01
-9.731372445821762085e-02 4.681360125541687012e-01 -6.808512806892395020e-01
1.484256535768508911e-01 2.356027066707611084e-01 4.538756981492042542e-02
1.343137025833129883e-01 2.391718775033950806e-01 3.994222730398178101e-02
1.493290215730667114e-01 2.371122241020202637e-01 6.044869869947433472e-02
1.358420103788375854e-01 2.410399615764617920e-01 5.593762546777725220e-02
1.021903231739997864e-01 1.908727437257766724e-01 5.728986859321594238e-01
9.502508491277694702e-02 2.051876336336135864e-01 5.699292421340942383e-01
8.979600667953491211e-02 1.790793091058731079e-01 5.750887989997863770e-01
8.310440927743911743e-02 1.922312676906585693e-01 5.743942856788635254e-01
-1.113972626626491547e-02 -2.548385784029960632e-02 3.408383131027221680e-01
-2.837179228663444519e-02 -2.516262046992778778e-02 3.364593982696533203e-01
-2.049942500889301300e-02 -2.615489810705184937e-02 3.537216186523437500e-01
-3.797737509012222290e-02 -2.578577212989330292e-02 3.495133221149444580e-01
-1.645542085170745850e-01 1.913295686244964600e-01 3.909463286399841309e-01
-1.601476520299911499e-01 2.025079131126403809e-01 3.875787556171417236e-01
-1.631584912538528442e-01 1.899019479751586914e-01 4.045013487339019775e-01
-1.590486317873001099e-01 2.005424499511718750e-01 4.008251428604125977e-01
-2.277668714523315430e-01 4.759038686752319336e-01 -7.724137902259826660e-01
-2.396748214960098267e-01 4.820877909660339355e-01 -7.735092639923095703e-01
-2.405917793512344360e-01 4.715104401111602783e-01 -7.712964415550231934e-01
-2.477296292781829834e-01 4.814465045928955078e-01 -7.700281739234924316e-01
-3.498294353485107422e-01 3.004550635814666748e-01 -7.917734980583190918e-01
-3.639615774154663086e-01 3.034763634204864502e-01 -7.980409860610961914e-01
-3.613820374011993408e-01 2.906405925750732422e-01 -7.841533422470092773e-01
-3.752241730690002441e-01 2.940934896469116211e-01 -7.903029918670654297e-01
-1.254642158746719360e-01 2.366595901548862457e-02 5.511251091957092285e-01
-1.250014156103134155e-01 3.589982166886329651e-02 5.493647456169128418e-01
-1.175962090492248535e-01 1.872032508254051208e-02 5.603659152984619141e-01
-1.165134310722351074e-01 3.113932907581329346e-02 5.593000054359436035e-01
1.839609593152999878e-01 -4.448054432868957520e-01 -1.164824068546295166e-01
1.778876632452011108e-01 -4.295007288455963135e-01 -1.205705255270004272e-01
1.829351633787155151e-01 -4.564057290554046631e-01 -1.071529537439346313e-01
1.778475940227508545e-01 -4.417279362678527832e-01 -1.108282431960105896e-01
8.607096225023269653e-02 2.784182727336883545e-01 5.029497742652893066e-01
7.762248814105987549e-02 2.839307785034179688e-01 4.961963295936584473e-01
7.913758605718612671e-02 2.704020440578460693e-01 5.146392583847045898e-01
6.982827186584472656e-02 2.761303186416625977e-01 5.079130530357360840e-01
8.221641927957534790e-02 -1.308158338069915771e-01 1.329596191644668579e-01
6.714573502540588379e-02 -1.339460313320159912e-01 1.363078206777572632e-01
7.728558033704757690e-02 -1.292957365512847900e-01 1.452486962080001831e-01
6.212405487895011902e-02 -1.323765516281127930e-01 1.486705392599105835e-01
2.442159354686737061e-01 -6.265684217214584351e-02 4.274807572364807129e-01
2.464204430580139160e-01 -4.791706427931785583e-02 4.252351224422454834e-01
2.441862672567367554e-01 -6.627503037452697754e-02 4.416788816452026367e-01
2.468908280134201050e-01 -5.219260975718498230e-02 4.388220608234405518e-01
-1.840306818485260010e-01 5.282176136970520020e-01 -5.592905282974243164e-01
-1.825800240039825439e-01 5.414119958877563477e-01 -5.607209205627441406e-01
-1.747877299785614014e-01 5.212676525115966797e-01 -5.503454804420471191e-01
-1.736468076705932617e-01 5.343471765518188477e-01 -5.518447756767272949e-01
-1.116032674908638000e-01 2.065053582191467285e-02 -4.007465243339538574e-01
-1.119155287742614746e-01 3.546731919050216675e-02 -4.038389325141906738e-01
-1.192217469215393066e-01 1.331866718828678131e-02 -3.946991264820098877e-01
-1.197336763143539429e-01 2.770663797855377197e-02 -3.977484107017517090e-01
-1.062360033392906189e-01 2.334119528532028198e-01 -1.910343170166015625e-01
-9.908249974250793457e-02 2.466177791357040405e-01 -1.944477260112762451e-01
-1.056135967373847961e-01 2.259736359119415283e-01 -1.738470941781997681e-01
-9.812858700752258301e-02 2.399951368570327759e-01 -1.771527081727981567e-01
1.710817962884902954e-01 -1.414000689983367920e-01 4.900151491165161133e-01
1.715999543666839600e-01 -1.216500103473663330e-01 4.823859333992004395e-01
1.740174442529678345e-01 -1.529083102941513062e-01 5.034316182136535645e-01
1.745902150869369507e-01 -1.334973424673080444e-01 4.971810281276702881e-01
1.847845613956451416e-01 2.332657128572463989e-01 1.393499225378036499e-01
1.731668859720230103e-01 2.397033721208572388e-01 1.374267488718032837e-01
1.878730356693267822e-01 2.341094464063644409e-01 1.503433138132095337e-01
1.753686517477035522e-01 2.404187321662902832e-01 1.482540071010589600e-01
-6.500525772571563721e-02 -4.455012977123260498e-01 6.867753267288208008e-01
-6.900279968976974487e-02 -4.320192337036132812e-01 6.868028044700622559e-01
-6.760826706886291504e-02 -4.493109285831451416e-01 6.901471018791198730e-01
-7.021087408065795898e-02 -4.357648193836212158e-01 6.906140446662902832e-01
1.708541214466094971e-01 -2.859705090522766113e-01 4.598706364631652832e-01
1.664815396070480347e-01 -2.703205347061157227e-01 4.540163874626159668e-01
1.707015186548233032e-01 -2.902367413043975830e-01 4.746656417846679688e-01
1.659184992313385010e-01 -2.745336294174194336e-01 4.688726961612701416e-01
-1.544585675001144409e-01 -8.796543627977371216e-02 5.135532021522521973e-01
-1.528011560440063477e-01 -7.440277934074401855e-02 5.100359320640563965e-01
-1.537640243768692017e-01 -9.088388085365295410e-02 5.255463719367980957e-01
-1.536258608102798462e-01 -7.816752046346664429e-02 5.221041440963745117e-01
1.753753721714019775e-01 -3.337857127189636230e-01 5.141607522964477539e-01
1.757490634918212891e-01 -3.183758258819580078e-01 5.110651850700378418e-01
1.704270988702774048e-01 -3.343393504619598389e-01 5.284129977226257324e-01
1.703038513660430908e-01 -3.183861076831817627e-01 5.251209139823913574e-01
1.696973890066146851e-01 -4.662116467952728271e-01 -1.832345128059387207e-01
1.673351824283599854e-01 -4.505152702331542969e-01 -1.876143813133239746e-01
1.708697080612182617e-01 -4.730373919010162354e-01 -1.700880527496337891e-01
1.686151474714279175e-01 -4.573248326778411865e-01 -1.740891933441162109e-01
1.017818897962570190e-01 -3.300819545984268188e-02 3.106103241443634033e-01
8.894986659288406372e-02 -3.218051418662071228e-02 3.094552755355834961e-01
1.017180532217025757e-01 -2.923701889812946320e-02 3.248116672039031982e-01
8.908790349960327148e-02 -2.811653912067413330e-02 3.235851526260375977e-01
-3.921830058097839355e-01 3.778757154941558838e-01 -7.741318345069885254e-01
-3.883444070816040039e-01 3.894186615943908691e-01 -7.661135792732238770e-01
-3.994728624820709229e-01 3.792047202587127686e-01 -7.657160162925720215e-01
-3.946127891540527344e-01 3.905476033687591553e-01 -7.594513297080993652e-01
-1.429259032011032104e-01 -4.825280606746673584e-02 4.285130202770233154e-01
-1.502587646245956421e-01 -3.999352455139160156e-02 4.240021109580993652e-01
-1.417652368545532227e-01 -5.527235567569732666e-02 4.403046965599060059e-01
-1.504720598459243774e-01 -4.616907984018325806e-02 4.356898963451385498e-01
1.907826513051986694e-01 2.447006702423095703e-01 5.075688958168029785e-01
1.827496290206909180e-01 2.526366114616394043e-01 5.054364204406738281e-01
1.844664663076400757e-01 2.371244430541992188e-01 5.191168189048767090e-01
1.757188290357589722e-01 2.457935214042663574e-01 5.169899463653564453e-01
-2.526227831840515137e-01 5.164566040039062500e-01 -5.997966527938842773e-01
-2.494981437921524048e-01 5.314241647720336914e-01 -6.010407805442810059e-01
-2.464112341403961182e-01 5.041053295135498047e-01 -5.923477411270141602e-01
-2.459783107042312622e-01 5.187839269638061523e-01 -5.938264727592468262e-01
-1.009417697787284851e-01 -5.501661449670791626e-02 -3.657662868499755859e-01
-1.066264659166336060e-01 -4.427674412727355957e-02 -3.688985109329223633e-01
-1.091767176985740662e-01 -6.510800123214721680e-02 -3.590820133686065674e-01
-1.154098138213157654e-01 -5.426003783941268921e-02 -3.636827468872070312e-01
1.657006442546844482e-01 -4.975475743412971497e-02 2.216064184904098511e-01
1.730527579784393311e-01 -4.518035054206848145e-02 2.166175246238708496e-01
1.681430488824844360e-01 -4.682328924536705017e-02 2.380791753530502319e-01
1.673623919486999512e-01 -4.744686931371688843e-02 2.318357974290847778e-01
-3.200367689132690430e-01 4.739300608634948730e-01 -7.145714163780212402e-01
-3.089468181133270264e-01 4.840230941772460938e-01 -7.127755284309387207e-01
-3.267292380332946777e-01 4.749436080455780029e-01 -6.989404559135437012e-01
-3.160665035247802734e-01 4.854801893234252930e-01 -6.978501081466674805e-01
-1.451347321271896362e-01 -1.368961632251739502e-01 4.934049248695373535e-01
-1.457903981208801270e-01 -1.246486604213714600e-01 4.931284785270690918e-01
-1.459841430187225342e-01 -1.411070972681045532e-01 5.044472217559814453e-01
-1.464721560478210449e-01 -1.283718943595886230e-01 5.045992136001586914e-01
4.814767837524414062e-02 3.593618869781494141e-01 -5.267628431320190430e-01
4.452731460332870483e-02 3.722782135009765625e-01 -5.326163768768310547e-01
5.921936780214309692e-02 3.543086946010589600e-01 -5.136796236038208008e-01
5.419353768229484558e-02 3.662142455577850342e-01 -5.206537246704101562e-01
8.791425824165344238e-02 3.222419917583465576e-01 -2.259607017040252686e-01
7.576848566532135010e-02 3.320409655570983887e-01 -2.213155031204223633e-01
8.171329647302627563e-02 3.219494819641113281e-01 -2.128078639507293701e-01
6.966257095336914062e-02 3.319463431835174561e-01 -2.094702422618865967e-01
2.511613667011260986e-01 1.255529671907424927e-01 5.003035068511962891e-01
2.518590390682220459e-01 1.413698047399520874e-01 4.984925091266632080e-01
2.430119216442108154e-01 1.201788038015365601e-01 5.134840011596679688e-01
2.432323694229125977e-01 1.360645741224288940e-01 5.134452581405639648e-01
-8.188235759735107422e-02 3.633663654327392578e-01 -4.011422395706176758e-01
-8.255007863044738770e-02 3.765193223953247070e-01 -4.037183821201324463e-01
-7.494102418422698975e-02 3.617048859596252441e-01 -3.848392367362976074e-01
-7.506438344717025757e-02 3.751345872879028320e-01 -3.871532380580902100e-01
-1.605358123779296875e-01 5.878676176071166992e-01 -5.838251709938049316e-01
-1.728933751583099365e-01 5.919171571731567383e-01 -5.925425291061401367e-01
-1.614168435335159302e-01 5.830513834953308105e-01 -5.734562873840332031e-01
-1.738609522581100464e-01 5.868557095527648926e-01 -5.822805762290954590e-01
-1.336921751499176025e-01 4.069553315639495850e-01 -7.238512635231018066e-01
-1.316103041172027588e-01 4.240059554576873779e-01 -7.265851497650146484e-01
-1.224400624632835388e-01 3.988589048385620117e-01 -7.103950381278991699e-01
-1.199024990200996399e-01 4.155118465423583984e-01 -7.133225798606872559e-01
1.713357716798782349e-01 -2.255709916353225708e-01 -2.206900864839553833e-01
1.717191785573959351e-01 -2.123987227678298950e-01 -2.244317680597305298e-01
1.689006686210632324e-01 -2.262455075979232788e-01 -2.067738324403762817e-01
1.685764938592910767e-01 -2.133111953735351562e-01 -2.098938673734664917e-01
-8.918537199497222900e-02 5.264673233032226562e-01 -6.733745932579040527e-01
-1.003774628043174744e-01 5.359422564506530762e-01 -6.795775890350341797e-01
-7.778534293174743652e-02 5.275420546531677246e-01 -6.616161465644836426e-01
-8.928674459457397461e-02 5.372855663299560547e-01 -6.679688692092895508e-01
-1.460142284631729126e-01 2.074994593858718872e-01 2.901812493801116943e-01
-1.404688358306884766e-01 2.213983088731765747e-01 2.842720448970794678e-01
-1.494780927896499634e-01 2.038103044033050537e-01 3.068796694278717041e-01
-1.443597376346588135e-01 2.166214883327484131e-01 3.018557727336883545e-01
2.152609974145889282e-01 1.858597546815872192e-01 5.353845357894897461e-01
2.117695510387420654e-01 1.977231055498123169e-01 5.333653092384338379e-01
2.061531543731689453e-01 1.806093305349349976e-01 5.442660450935363770e-01
2.027265578508377075e-01 1.931342333555221558e-01 5.423836112022399902e-01
-1.232114061713218689e-01 1.487175077199935913e-01 -9.964669495820999146e-02
-1.172936931252479553e-01 1.636652350425720215e-01 -1.003114506602287292e-01
-1.237862408161163330e-01 1.444365084171295166e-01 -8.652036637067794800e-02
-1.174656227231025696e-01 1.595516353845596313e-01 -8.714693039655685425e-02
3.801991790533065796e-02 5.013591051101684570e-01 -4.115822911262512207e-01
3.452755883336067200e-02 5.124486684799194336e-01 -4.189629554748535156e-01
3.248361125588417053e-02 4.933994412422180176e-01 -3.982094526290893555e-01
2.901870571076869965e-02 5.047807693481445312e-01 -4.052687883377075195e-01
-5.169155821204185486e-02 -1.344300359487533569e-01 5.908859968185424805e-01
-5.360709503293037415e-02 -1.233953535556793213e-01 5.881721973419189453e-01
-5.575491115450859070e-02 -1.425864547491073608e-01 5.978159904479980469e-01
-5.794805660843849182e-02 -1.310036033391952515e-01 5.961380600929260254e-01
-1.329782009124755859e-01 8.402489125728607178e-02 -3.970766365528106689e-01
-1.317986249923706055e-01 9.933534264564514160e-02 -3.947002589702606201e-01
-1.446783840656280518e-01 8.675558120012283325e-02 -3.829676806926727295e-01
-1.408239305019378662e-01 1.015049591660499573e-01 -3.839935064315795898e-01
5.056924372911453247e-02 2.487890124320983887e-01 5.423197150230407715e-02
3.493724018335342407e-02 2.446068376302719116e-01 4.646769165992736816e-02
5.193644762039184570e-02 2.525568604469299316e-01 6.923434138298034668e-02
3.284620866179466248e-02 2.449624240398406982e-01 6.061707437038421631e-02
7.487510144710540771e-02 3.190821111202239990e-01 -5.008324384689331055e-01
6.026236712932586670e-02 3.224045038223266602e-01 -5.100853443145751953e-01
8.007040619850158691e-02 3.115736246109008789e-01 -4.914199113845825195e-01
6.424262374639511108e-02 3.131521940231323242e-01 -5.008854269981384277e-01
1.964877843856811523e-01 -9.932412952184677124e-02 -2.717371881008148193e-01
2.033529877662658691e-01 -8.149307221174240112e-02 -2.763174176216125488e-01
1.980717480182647705e-01 -1.021825000643730164e-01 -2.512274980545043945e-01
2.046416103839874268e-01 -8.350581675767898560e-02 -2.537394762039184570e-01
-3.962926268577575684e-01 2.903541922569274902e-01 -7.841957211494445801e-01
-4.053705930709838867e-01 2.993794679641723633e-01 -7.895218133926391602e-01
-4.003401696681976318e-01 2.850807309150695801e-01 -7.710216045379638672e-01
-4.092426300048828125e-01 2.944485843181610107e-01 -7.757741212844848633e-01
2.673797607421875000e-01 5.119503941386938095e-03 4.184616804122924805e-01
2.675154805183410645e-01 2.137660980224609375e-02 4.251480102539062500e-01
2.639761269092559814e-01 4.841385409235954285e-03 4.326117932796478271e-01
2.634257376194000244e-01 2.149529382586479187e-02 4.404007196426391602e-01
6.594297476112842560e-03 4.249208569526672363e-01 -5.740081071853637695e-01
2.429378218948841095e-03 4.405774474143981934e-01 -5.776546597480773926e-01
1.736515015363693237e-02 4.190136194229125977e-01 -5.621894598007202148e-01
1.370469667017459869e-02 4.353531599044799805e-01 -5.663948059082031250e-01
7.067889720201492310e-02 3.486360013484954834e-01 -2.388411760330200195e-01
6.326068937778472900e-02 3.567153811454772949e-01 -2.402275949716567993e-01
6.698146462440490723e-02 3.449633121490478516e-01 -2.265020906925201416e-01
5.787334218621253967e-02 3.531535565853118896e-01 -2.266294956207275391e-01
-6.894159317016601562e-02 -3.967404365539550781e-01 -3.160261511802673340e-01
-6.760317087173461914e-02 -3.861717283725738525e-01 -3.195720613002777100e-01
-7.094382494688034058e-02 -3.990693688392639160e-01 -3.046676814556121826e-01
-6.917405873537063599e-02 -3.879057466983795166e-01 -3.078961670398712158e-01
3.485369309782981873e-02 2.007773667573928833e-01 -4.731349050998687744e-01
1.774983480572700500e-02 2.050583064556121826e-01 -4.789863526821136475e-01
3.016968443989753723e-02 1.875810623168945312e-01 -4.668194055557250977e-01
1.347258035093545914e-02 1.918462216854095459e-01 -4.723479151725769043e-01
1.186925247311592102e-01 2.387981116771697998e-01 -4.215959310531616211e-01
1.125157475471496582e-01 2.529005706310272217e-01 -4.229258596897125244e-01
1.246294528245925903e-01 2.435381114482879639e-01 -4.077739417552947998e-01
1.186909303069114685e-01 2.577188313007354736e-01 -4.084221422672271729e-01
1.052345037460327148e-01 3.007442355155944824e-01 -3.869709074497222900e-01
9.929964691400527954e-02 3.142015337944030762e-01 -3.927119374275207520e-01
1.086392775177955627e-01 3.021180331707000732e-01 -3.680398464202880859e-01
1.020668447017669678e-01 3.154163956642150879e-01 -3.738918602466583252e-01
2.395283281803131104e-01 -4.847057163715362549e-01 5.571013689041137695e-01
2.365040481090545654e-01 -4.653099179267883301e-01 5.571528077125549316e-01
2.343018203973770142e-01 -4.918227791786193848e-01 5.658623576164245605e-01
2.334599941968917847e-01 -4.742182195186614990e-01 5.676634907722473145e-01
-1.167827174067497253e-01 -3.850054144859313965e-01 6.874080896377563477e-01
-1.174214556813240051e-01 -3.674309253692626953e-01 6.870309710502624512e-01
-1.176199913024902344e-01 -3.914442360401153564e-01 6.988444328308105469e-01
-1.184660196304321289e-01 -3.752300739288330078e-01 6.979396343231201172e-01
8.960960805416107178e-02 3.452150225639343262e-01 -3.358830213546752930e-01
8.366602659225463867e-02 3.587105274200439453e-01 -3.418518304824829102e-01
9.189824014902114868e-02 3.393193781375885010e-01 -3.181519508361816406e-01
8.573450148105621338e-02 3.528377115726470947e-01 -3.248241245746612549e-01
-3.173507051542401314e-03 3.300798535346984863e-01 -1.948102265596389771e-01
-9.566041640937328339e-03 3.307308554649353027e-01 -2.043195962905883789e-01
-8.249425329267978668e-03 3.210290968418121338e-01 -1.827659904956817627e-01
-1.494814828038215637e-02 3.209711313247680664e-01 -1.922944188117980957e-01
-3.403291478753089905e-02 3.059770464897155762e-01 3.012663424015045166e-01
-4.762304574251174927e-02 3.018301427364349365e-01 2.934616208076477051e-01
-4.328055307269096375e-02 3.030702471733093262e-01 3.207930624485015869e-01
-5.196937918663024902e-02 2.998386323451995850e-01 3.113740086555480957e-01
-9.499989449977874756e-02 -1.896850168704986572e-01 5.305026173591613770e-01
-9.722009301185607910e-02 -1.814985424280166626e-01 5.217731595039367676e-01
-9.203201532363891602e-02 -1.983262747526168823e-01 5.424845814704895020e-01
-9.352926164865493774e-02 -1.888995766639709473e-01 5.339181423187255859e-01
1.381367892026901245e-01 2.316634654998779297e-01 1.229346357285976410e-02
1.234864294528961182e-01 2.365649640560150146e-01 5.435703322291374207e-03
1.401154696941375732e-01 2.331922203302383423e-01 2.655790001153945923e-02
1.254105865955352783e-01 2.373376041650772095e-01 1.973085105419158936e-02
-1.603600680828094482e-01 -3.889085352420806885e-02 4.496059715747833252e-01
-1.688368469476699829e-01 -2.932927571237087250e-02 4.456945061683654785e-01
-1.596166789531707764e-01 -3.912832587957382202e-02 4.626302123069763184e-01
-1.684696972370147705e-01 -2.967379614710807800e-02 4.589952528476715088e-01
1.771704703569412231e-01 -2.249534428119659424e-01 5.282698273658752441e-01
1.769207864999771118e-01 -2.085330039262771606e-01 5.241274833679199219e-01
1.795475333929061890e-01 -2.320850342512130737e-01 5.381716489791870117e-01
1.786153018474578857e-01 -2.159572243690490723e-01 5.343223810195922852e-01
1.133366674184799194e-01 2.826352119445800781e-01 -3.806588947772979736e-01
1.069037392735481262e-01 2.959272265434265137e-01 -3.863017559051513672e-01
1.174526512622833252e-01 2.844152450561523438e-01 -3.612915277481079102e-01
1.108031868934631348e-01 2.973455488681793213e-01 -3.664325177669525146e-01
2.521077096462249756e-01 -4.753065481781959534e-02 4.045589268207550049e-01
2.547587454319000244e-01 -3.189449757337570190e-02 4.056308865547180176e-01
2.535840868949890137e-01 -4.971762001514434814e-02 4.185566902160644531e-01
2.560611367225646973e-01 -3.437853232026100159e-02 4.188964962959289551e-01
-2.539084665477275848e-02 5.304688215255737305e-01 -4.220405817031860352e-01
-3.473647311329841614e-02 5.361884832382202148e-01 -4.303156733512878418e-01
-2.916883118450641632e-02 5.187317132949829102e-01 -4.105994999408721924e-01
-3.823790699243545532e-02 5.250186920166015625e-01 -4.191409945487976074e-01
1.792688369750976562e-01 -7.179925590753555298e-02 -2.697280049324035645e-02
1.880823224782943726e-01 -5.863346904516220093e-02 -3.207515180110931396e-02
1.844618618488311768e-01 -7.663120329380035400e-02 -6.455183960497379303e-03
1.934976875782012939e-01 -6.435755640268325806e-02 -1.318978331983089447e-02
4.698196426033973694e-02 -9.354115463793277740e-03 -3.966480195522308350e-01
3.981957584619522095e-02 3.698518965393304825e-03 -4.031273126602172852e-01
3.908272460103034973e-02 -2.077814377844333649e-02 -3.901433348655700684e-01
3.214412555098533630e-02 -7.922791875898838043e-03 -3.963810503482818604e-01
-1.677921712398529053e-01 1.725766807794570923e-01 3.494065105915069580e-01
-1.628791987895965576e-01 1.864613145589828491e-01 3.461157381534576416e-01
-1.691308021545410156e-01 1.704398095607757568e-01 3.619233369827270508e-01
-1.638419479131698608e-01 1.849907487630844116e-01 3.581379055976867676e-01
1.350380387157201767e-02 3.481218218803405762e-02 -4.066143929958343506e-01
4.979480989277362823e-03 5.414743721485137939e-02 -4.135087132453918457e-01
5.451571196317672729e-03 2.072412334382534027e-02 -4.030370712280273438e-01
-2.719501266255974770e-03 3.939039260149002075e-02 -4.096097350120544434e-01
-1.691027879714965820e-01 6.704628467559814453e-02 -2.785078585147857666e-01
-1.681923568248748779e-01 8.175222575664520264e-02 -2.785058915615081787e-01
-1.661926954984664917e-01 6.623567640781402588e-02 -2.638573646545410156e-01
-1.652417927980422974e-01 8.148859441280364990e-02 -2.640310525894165039e-01
-5.750540271401405334e-02 -2.474492043256759644e-01 5.975090265274047852e-01
-5.721478909254074097e-02 -2.372566312551498413e-01 5.924384593963623047e-01
-5.478508397936820984e-02 -2.508651018142700195e-01 6.103727817535400391e-01
-5.503583699464797974e-02 -2.391356825828552246e-01 6.058205962181091309e-01
7.334695011377334595e-02 2.704711556434631348e-01 1.505765914916992188e-01
6.049558892846107483e-02 2.692854404449462891e-01 1.469298154115676880e-01
7.610613107681274414e-02 2.769597768783569336e-01 1.682856082916259766e-01
6.346552073955535889e-02 2.761933505535125732e-01 1.647841036319732666e-01
-1.280165314674377441e-01 4.599165022373199463e-01 -4.881892204284667969e-01
-1.292928606271743774e-01 4.749689996242523193e-01 -4.894827008247375488e-01
-1.205836310982704163e-01 4.583793282508850098e-01 -4.760470688343048096e-01
-1.211817786097526550e-01 4.731871783733367920e-01 -4.775135517120361328e-01
-4.981846362352371216e-02 -2.585380077362060547e-01 -2.693173587322235107e-01
-4.753328114748001099e-02 -2.396820634603500366e-01 -2.699459493160247803e-01
-5.713666975498199463e-02 -2.620736360549926758e-01 -2.585264146327972412e-01
-5.319252237677574158e-02 -2.437404990196228027e-01 -2.595048248767852783e-01
-5.072646588087081909e-02 4.861903488636016846e-01 -4.045212566852569580e-01
-5.305005609989166260e-02 4.962258338928222656e-01 -4.125773310661315918e-01
-4.759787768125534058e-02 4.791646599769592285e-01 -3.942244946956634521e-01
-5.088957771658897400e-02 4.869187176227569580e-01 -4.029922187328338623e-01
-1.180893257260322571e-01 -2.783008813858032227e-01 -2.604799568653106689e-01
-1.170147880911827087e-01 -2.631423473358154297e-01 -2.590515017509460449e-01
-1.156918257474899292e-01 -2.794794738292694092e-01 -2.465179860591888428e-01
-1.152677312493324280e-01 -2.654438614845275879e-01 -2.479556649923324585e-01
-8.876601606607437134e-02 -2.917262911796569824e-01 6.089236140251159668e-01
-8.648094534873962402e-02 -2.813664972782135010e-01 6.032552123069763184e-01
-8.442416787147521973e-02 -2.990088462829589844e-01 6.227251887321472168e-01
-8.196396380662918091e-02 -2.877113521099090576e-01 6.161083579063415527e-01
1.452895849943161011e-01 -8.567145466804504395e-02 1.798138171434402466e-01
1.401219218969345093e-01 -8.840108662843704224e-02 1.789865046739578247e-01
1.435971558094024658e-01 -8.188972622156143188e-02 1.968285441398620605e-01
1.331091821193695068e-01 -8.827066421508789062e-02 1.937734037637710571e-01
4.523807018995285034e-02 3.011513352394104004e-01 2.382561713457107544e-01
3.225586563348770142e-02 2.996169030666351318e-01 2.334528863430023193e-01
4.328263923525810242e-02 3.025628328323364258e-01 2.524324655532836914e-01
3.191149979829788208e-02 3.022534251213073730e-01 2.463338375091552734e-01
1.494858413934707642e-01 -4.897604137659072876e-02 2.987321019172668457e-01
1.368352323770523071e-01 -4.975873231887817383e-02 2.919424772262573242e-01
1.496845632791519165e-01 -4.759069159626960754e-02 3.106977939605712891e-01
1.383534818887710571e-01 -4.741235077381134033e-02 3.038727343082427979e-01
1.058655828237533569e-01 -2.492307871580123901e-01 -2.051542997360229492e-01
1.019175723195075989e-01 -2.364153712987899780e-01 -2.096887081861495972e-01
1.092308163642883301e-01 -2.493147104978561401e-01 -1.936437189579010010e-01
1.034289747476577759e-01 -2.367502748966217041e-01 -1.982024013996124268e-01
-5.631892010569572449e-02 -2.909566462039947510e-01 6.518511176109313965e-01
-5.409028381109237671e-02 -2.777279317378997803e-01 6.496883034706115723e-01
-6.147720664739608765e-02 -2.938894927501678467e-01 6.629501581192016602e-01
-5.893775448203086853e-02 -2.804377973079681396e-01 6.613650918006896973e-01
1.643905490636825562e-01 1.976690590381622314e-01 -1.384618133306503296e-01
1.572769284248352051e-01 2.104466259479522705e-01 -1.417250335216522217e-01
1.639524549245834351e-01 1.947954446077346802e-01 -1.232139989733695984e-01
1.549693048000335693e-01 2.077676951885223389e-01 -1.254703998565673828e-01
1.867284923791885376e-01 2.733991742134094238e-01 2.347433567047119141e-01
1.772018522024154663e-01 2.781906425952911377e-01 2.301357686519622803e-01
1.916170865297317505e-01 2.781647145748138428e-01 2.496595680713653564e-01
1.824978888034820557e-01 2.833255529403686523e-01 2.443388998508453369e-01
1.575675755739212036e-01 -6.439825892448425293e-01 -1.912313997745513916e-01
1.501681357622146606e-01 -6.332049369812011719e-01 -1.919691264629364014e-01
1.504207849502563477e-01 -6.474563479423522949e-01 -1.761538237333297729e-01
1.436364501714706421e-01 -6.375436782836914062e-01 -1.771514266729354858e-01
-6.803324073553085327e-02 -6.249172687530517578e-01 -3.806187212467193604e-01
-6.442984193563461304e-02 -6.156354546546936035e-01 -3.836703002452850342e-01
-6.868548691272735596e-02 -6.255180835723876953e-01 -3.687605261802673340e-01
-6.397946923971176147e-02 -6.164051294326782227e-01 -3.713965713977813721e-01
2.444763630628585815e-01 2.041735351085662842e-01 4.889852404594421387e-01
2.421944737434387207e-01 2.182228863239288330e-01 4.841827452182769775e-01
2.353911101818084717e-01 1.971905529499053955e-01 5.033226609230041504e-01
2.323272377252578735e-01 2.104938179254531860e-01 5.012686252593994141e-01
1.580284833908081055e-01 -2.650439739227294922e-01 4.607570469379425049e-01
1.543318331241607666e-01 -2.491262853145599365e-01 4.558401703834533691e-01
1.566617488861083984e-01 -2.695091068744659424e-01 4.779402017593383789e-01
1.526652574539184570e-01 -2.538663148880004883e-01 4.726694822311401367e-01
-1.159609258174896240e-01 4.589043855667114258e-01 -7.049850821495056152e-01
-1.191500499844551086e-01 4.719215929508209229e-01 -7.092093229293823242e-01
-1.055814474821090698e-01 4.562256336212158203e-01 -6.918611526489257812e-01
-1.080689355731010437e-01 4.696268737316131592e-01 -6.960027813911437988e-01
1.347232908010482788e-01 1.246358081698417664e-02 5.210666060447692871e-01
1.214816048741340637e-01 1.631380058825016022e-02 5.211240053176879883e-01
1.308992505073547363e-01 2.725407108664512634e-02 5.264447331428527832e-01
1.168814897537231445e-01 3.247182443737983704e-02 5.278182625770568848e-01
-1.199277862906455994e-01 1.234023571014404297e-01 5.534862279891967773e-01
-1.256207972764968872e-01 1.339095383882522583e-01 5.490450263023376465e-01
-1.120882853865623474e-01 1.152805089950561523e-01 5.622852444648742676e-01
-1.192251071333885193e-01 1.263060569763183594e-01 5.569867491722106934e-01
2.470520585775375366e-01 5.396050959825515747e-02 2.232041023671627045e-02
2.458593845367431641e-01 6.566466391086578369e-02 1.749240607023239136e-02
2.504070401191711426e-01 5.383950099349021912e-02 3.700502589344978333e-02
2.491375058889389038e-01 6.568733602762222290e-02 3.170718997716903687e-02
1.445594877004623413e-01 1.205690428614616394e-01 -4.210144281387329102e-01
1.270523220300674438e-01 1.272523850202560425e-01 -4.280851483345031738e-01
1.493883430957794189e-01 1.080831587314605713e-01 -4.189246594905853271e-01
1.325622498989105225e-01 1.152068451046943665e-01 -4.263536334037780762e-01
-1.648691594600677490e-01 7.078659534454345703e-02 2.090744227170944214e-01
-1.661588400602340698e-01 8.269973844289779663e-02 2.050583064556121826e-01
-1.596781760454177856e-01 6.960309296846389771e-02 2.229383587837219238e-01
-1.612689048051834106e-01 8.078228682279586792e-02 2.193283438682556152e-01
1.881546378135681152e-01 -2.842262685298919678e-01 -1.943920552730560303e-01
1.867546290159225464e-01 -2.686055004596710205e-01 -2.003809660673141479e-01
1.789226531982421875e-01 -2.888317406177520752e-01 -1.781576275825500488e-01
1.792115271091461182e-01 -2.726129889488220215e-01 -1.842475533485412598e-01
-1.104136481881141663e-01 -5.766732245683670044e-02 -6.736925989389419556e-02
-1.149152070283889771e-01 -4.650234431028366089e-02 -7.536098361015319824e-02
-1.131330132484436035e-01 -6.087981536984443665e-02 -5.126815661787986755e-02
-1.186142563819885254e-01 -4.904283583164215088e-02 -5.786594748497009277e-02
-1.603590846061706543e-01 1.944645494222640991e-01 4.139463305473327637e-01
-1.564514786005020142e-01 2.044406831264495850e-01 4.103686213493347168e-01
-1.583725959062576294e-01 1.923632174730300903e-01 4.288653731346130371e-01
-1.547206938266754150e-01 2.021829634904861450e-01 4.253786206245422363e-01
2.566222548484802246e-01 3.460018709301948547e-02 8.354222029447555542e-02
2.593703567981719971e-01 5.365722626447677612e-02 8.018375933170318604e-02
2.575473785400390625e-01 2.851073071360588074e-02 9.625066071748733521e-02
2.600621283054351807e-01 4.668938741087913513e-02 9.290399402379989624e-02
8.308334648609161377e-02 -2.670250274240970612e-02 4.466068446636199951e-01
6.526433676481246948e-02 -2.968739345669746399e-02 4.445613324642181396e-01
7.779729366302490234e-02 -2.459432929754257202e-02 4.601484835147857666e-01
5.965755507349967957e-02 -2.723659016191959381e-02 4.587554931640625000e-01
9.590075910091400146e-02 1.823486387729644775e-01 5.734615921974182129e-01
8.915638178586959839e-02 1.957305669784545898e-01 5.722095370292663574e-01
8.314782381057739258e-02 1.697164624929428101e-01 5.767928957939147949e-01
7.702541351318359375e-02 1.827255785465240479e-01 5.763661265373229980e-01
2.271171808242797852e-01 2.497670203447341919e-01 2.549673318862915039e-01
2.191258072853088379e-01 2.585875689983367920e-01 2.511688768863677979e-01
2.320508658885955811e-01 2.500542104244232178e-01 2.653917372226715088e-01
2.230898290872573853e-01 2.598390877246856689e-01 2.620558440685272217e-01
1.987335979938507080e-01 -5.143816024065017700e-02 -3.084175586700439453e-01
2.015929371118545532e-01 -3.549605607986450195e-02 -3.142837882041931152e-01
2.023229449987411499e-01 -6.210117787122726440e-02 -2.930435836315155029e-01
2.054217159748077393e-01 -4.687642678618431091e-02 -2.993481159210205078e-01
2.072739452123641968e-01 -3.631263598799705505e-02 2.720938622951507568e-01
1.975907832384109497e-01 -4.009085893630981445e-02 2.641972303390502930e-01
2.043016403913497925e-01 -4.310757666826248169e-02 2.828346192836761475e-01
1.944584995508193970e-01 -4.653509706258773804e-02 2.750069499015808105e-01
1.453790366649627686e-01 -1.166559085249900818e-01 3.844788298010826111e-02
1.313212960958480835e-01 -1.256350427865982056e-01 2.445663511753082275e-02
1.405918747186660767e-01 -1.214062422513961792e-01 5.680587142705917358e-02
1.273093521595001221e-01 -1.298701912164688110e-01 4.353404045104980469e-02
2.088865786790847778e-01 9.996162354946136475e-02 -8.635979145765304565e-02
2.039628922939300537e-01 1.147236973047256470e-01 -9.367093443870544434e-02
2.140377759933471680e-01 1.007412672042846680e-01 -6.841623783111572266e-02
2.089980840682983398e-01 1.148349344730377197e-01 -7.552954554557800293e-02
-1.069020703434944153e-01 3.506658673286437988e-01 -6.243328452110290527e-01
-1.212275251746177673e-01 3.482815921306610107e-01 -6.276375055313110352e-01
-1.089667305350303650e-01 3.484573364257812500e-01 -6.132323145866394043e-01
-1.230431944131851196e-01 3.458709716796875000e-01 -6.164913773536682129e-01
-1.121372077614068985e-02 5.571057200431823730e-01 -4.618876278400421143e-01
-2.052981778979301453e-02 5.638104081153869629e-01 -4.714183509349822998e-01
-9.375788271427154541e-03 5.522504448890686035e-01 -4.503711163997650146e-01
-1.780760660767555237e-02 5.588907003402709961e-01 -4.588674902915954590e-01
1.062354743480682373e-01 3.075033128261566162e-01 -3.182504475116729736e-01
1.005493998527526855e-01 3.198016583919525146e-01 -3.217298984527587891e-01
1.024620905518531799e-01 3.112815618515014648e-01 -2.982263267040252686e-01
9.663199633359909058e-02 3.230764865875244141e-01 -2.998129725456237793e-01
1.809697896242141724e-01 -1.917139068245887756e-02 -1.668832451105117798e-01
1.809144020080566406e-01 -6.428816355764865875e-03 -1.650919914245605469e-01
1.794782578945159912e-01 -2.239191904664039612e-02 -1.541612446308135986e-01
1.799898296594619751e-01 -1.050985790789127350e-02 -1.527551561594009399e-01
1.266251653432846069e-01 -1.787531971931457520e-01 -1.630581021308898926e-01
1.222600117325782776e-01 -1.665175706148147583e-01 -1.604475975036621094e-01
1.214051842689514160e-01 -1.786998212337493896e-01 -1.553220748901367188e-01
1.176288276910781860e-01 -1.666182428598403931e-01 -1.530047506093978882e-01
-3.884715959429740906e-03 3.489913344383239746e-01 -2.231876999139785767e-01
-1.175690162926912308e-02 3.498650491237640381e-01 -2.337300181388854980e-01
-6.778385024517774582e-03 3.419241309165954590e-01 -2.118273824453353882e-01
-1.460165437310934067e-02 3.425299227237701416e-01 -2.224313765764236450e-01
-2.139773368835449219e-01 4.670283198356628418e-01 -5.752386450767517090e-01
-2.346484363079071045e-01 4.746745228767395020e-01 -5.831624865531921387e-01
-2.065771669149398804e-01 4.544793069362640381e-01 -5.710121393203735352e-01
-2.304688841104507446e-01 4.601731896400451660e-01 -5.796227455139160156e-01
-1.634091287851333618e-01 1.356357187032699585e-01 1.509524881839752197e-01
-1.557330489158630371e-01 1.472804099321365356e-01 1.454316079616546631e-01
-1.620823293924331665e-01 1.373583078384399414e-01 1.693338453769683838e-01
-1.537126600742340088e-01 1.500072479248046875e-01 1.662837266921997070e-01
-1.593374460935592651e-01 1.557670533657073975e-01 -2.898605763912200928e-01
-1.540117859840393066e-01 1.682669818401336670e-01 -2.951655685901641846e-01
-1.597563624382019043e-01 1.572568118572235107e-01 -2.751006186008453369e-01
-1.552022099494934082e-01 1.699083745479583740e-01 -2.803705930709838867e-01
1.886554509401321411e-01 -6.056438684463500977e-01 -1.204600185155868530e-01
1.762398630380630493e-01 -6.022548675537109375e-01 -1.232539787888526917e-01
1.894019544124603271e-01 -6.000983119010925293e-01 -1.112773492932319641e-01
1.767764836549758911e-01 -5.964287519454956055e-01 -1.137669533491134644e-01
-1.096751727163791656e-02 -3.758617490530014038e-02 2.932925522327423096e-01
-2.398173324763774872e-02 -3.452381864190101624e-02 2.917927801609039307e-01
-7.211042568087577820e-03 -3.210276737809181213e-02 3.064588904380798340e-01
-2.119302004575729370e-02 -3.009337745606899261e-02 3.043666779994964600e-01
-7.861121743917465210e-02 -3.825037479400634766e-01 7.038166522979736328e-01
-8.048812299966812134e-02 -3.626110255718231201e-01 7.001719474792480469e-01
-8.496940135955810547e-02 -3.858159184455871582e-01 7.155900597572326660e-01
-8.702050894498825073e-02 -3.683606088161468506e-01 7.126944065093994141e-01
-1.192443445324897766e-01 1.961617320775985718e-01 5.193105936050415039e-01
-1.132958754897117615e-01 2.102994024753570557e-01 5.156037211418151855e-01
-1.141476333141326904e-01 1.872253865003585815e-01 5.342007875442504883e-01
-1.122499927878379822e-01 1.973641365766525269e-01 5.295169949531555176e-01
7.583390921354293823e-02 3.917367756366729736e-01 -3.688642382621765137e-01
6.981413811445236206e-02 4.095281660556793213e-01 -3.707681000232696533e-01
7.534360140562057495e-02 3.918577134609222412e-01 -3.524558544158935547e-01
6.945076584815979004e-02 4.068456888198852539e-01 -3.559422492980957031e-01
-3.317119926214218140e-02 3.112520873546600342e-01 -2.052268087863922119e-01
-3.991335630416870117e-02 3.102508783340454102e-01 -2.163253128528594971e-01
-3.577550128102302551e-02 3.025668263435363770e-01 -1.916597038507461548e-01
-4.214948415756225586e-02 3.012600839138031006e-01 -2.027619928121566772e-01
-1.352929323911666870e-01 -1.347056180238723755e-01 -2.652079761028289795e-01
-1.447376310825347900e-01 -1.226943656802177429e-01 -2.662041187286376953e-01
-1.284088492393493652e-01 -1.328253597021102905e-01 -2.487974762916564941e-01
-1.394542902708053589e-01 -1.205469220876693726e-01 -2.518950700759887695e-01
1.262401193380355835e-01 2.660915553569793701e-01 1.502280980348587036e-01
1.141103729605674744e-01 2.674035727977752686e-01 1.460718065500259399e-01
1.316954642534255981e-01 2.709136009216308594e-01 1.671018302440643311e-01
1.191194728016853333e-01 2.725059092044830322e-01 1.639402210712432861e-01
-1.013960391283035278e-01 4.235595166683197021e-01 -4.481143951416015625e-01
-1.035191193222999573e-01 4.357024729251861572e-01 -4.513332247734069824e-01
-9.334985911846160889e-02 4.227358698844909668e-01 -4.345061182975769043e-01
-9.531225264072418213e-02 4.347065687179565430e-01 -4.386357665061950684e-01
-6.638006120920181274e-02 -4.543267488479614258e-01 -2.989611029624938965e-01
-6.357602775096893311e-02 -4.385142922401428223e-01 -2.983144223690032959e-01
-7.728498429059982300e-02 -4.542431831359863281e-01 -2.865611612796783447e-01
-7.379240542650222778e-02 -4.385617375373840332e-01 -2.864587903022766113e-01
1.603917405009269714e-02 -2.432556450366973877e-02 4.699533581733703613e-01
4.304931033402681351e-03 -2.533154003322124481e-02 4.714908003807067871e-01
5.766388960182666779e-03 -1.801256276667118073e-02 4.818277060985565186e-01
-1.572935841977596283e-03 -1.598601788282394409e-02 4.856294393539428711e-01
-1.945157498121261597e-01 3.677470088005065918e-01 -5.678302049636840820e-01
-2.134052366018295288e-01 3.731726706027984619e-01 -5.696811079978942871e-01
-1.878561228513717651e-01 3.787281513214111328e-01 -5.593723654747009277e-01
-2.063750624656677246e-01 3.834165036678314209e-01 -5.608398914337158203e-01
-1.557106226682662964e-01 6.027985215187072754e-01 -6.557055115699768066e-01
-1.697269529104232788e-01 6.047638654708862305e-01 -6.555773019790649414e-01
-1.582661271095275879e-01 6.060599684715270996e-01 -6.395577192306518555e-01
-1.721512973308563232e-01 6.077746748924255371e-01 -6.405220031738281250e-01
-6.067572161555290222e-02 -3.505440652370452881e-01 -2.667127251625061035e-01
-5.632175132632255554e-02 -3.381585776805877686e-01 -2.697240412235260010e-01
-6.878994405269622803e-02 -3.540097475051879883e-01 -2.532742619514465332e-01
-6.444129347801208496e-02 -3.412688970565795898e-01 -2.562552690505981445e-01
-1.732229292392730713e-01 4.821955561637878418e-01 -7.579342722892761230e-01
-1.840838491916656494e-01 4.893412292003631592e-01 -7.636448740959167480e-01
-1.780619472265243530e-01 4.685284495353698730e-01 -7.572020888328552246e-01
-1.889129430055618286e-01 4.759180843830108643e-01 -7.632473707199096680e-01
