3.427888154983520508e-01 4.733546972274780273e-01 1.753903776407241821e-01
3.310807645320892334e-01 4.998415708541870117e-01 1.709434390068054199e-01
3.171642422676086426e-01 4.694697260856628418e-01 1.995105594396591187e-01
3.083361685276031494e-01 4.969610273838043213e-01 1.954178512096405029e-01
8.535351157188415527e-01 -5.101118683815002441e-01 -1.038626283407211304e-01
8.481763601303100586e-01 -4.931699633598327637e-01 -1.161013096570968628e-01
8.513879776000976562e-01 -5.320480465888977051e-01 -8.137479424476623535e-02
8.535144329071044922e-01 -5.081217885017395020e-01 -9.142752736806869507e-02
-8.195832371711730957e-01 -5.325344204902648926e-01 -3.778626769781112671e-02
-8.355718851089477539e-01 -5.083001255989074707e-01 -5.008679628372192383e-02
-8.123126626014709473e-01 -5.390014648437500000e-01 1.710606738924980164e-03
-8.302727937698364258e-01 -5.160451531410217285e-01 -9.176986292004585266e-03
-4.656667709350585938e-01 -2.338532358407974243e-03 3.724423050880432129e-01
-4.812286794185638428e-01 1.986483857035636902e-02 3.663808703422546387e-01
-4.439299404621124268e-01 5.992600694298744202e-03 3.952478170394897461e-01
-4.649206399917602539e-01 1.839633658528327942e-02 3.871122002601623535e-01
-8.008514642715454102e-01 -3.841687440872192383e-01 -1.997689604759216309e-01
-8.133731484413146973e-01 -3.686616718769073486e-01 -2.127011716365814209e-01
-8.160185813903808594e-01 -3.951484858989715576e-01 -1.739147752523422241e-01
-8.284788131713867188e-01 -3.793545365333557129e-01 -1.843352913856506348e-01
-5.238500237464904785e-01 -7.952734231948852539e-01 2.466331571340560913e-01
-5.469488501548767090e-01 -7.824832201004028320e-01 2.375831007957458496e-01
-5.143987536430358887e-01 -7.883883118629455566e-01 2.847223877906799316e-01
-5.379332304000854492e-01 -7.747679948806762695e-01 2.747938930988311768e-01
-3.875706791877746582e-01 1.397338956594467163e-01 -4.336149990558624268e-01
-4.040067493915557861e-01 1.495852321386337280e-01 -4.497267901897430420e-01
-3.994643986225128174e-01 1.226472109556198120e-01 -4.098185300827026367e-01
-4.167134761810302734e-01 1.356845796108245850e-01 -4.260265529155731201e-01
1.902833282947540283e-01 9.536617398262023926e-01 3.102179989218711853e-02
1.525369137525558472e-01 9.581951498985290527e-01 1.648914068937301636e-02
1.878223717212677002e-01 9.520570039749145508e-01 7.075645774602890015e-02
1.524617075920104980e-01 9.565627574920654297e-01 5.534829944372177124e-02
2.227200716733932495e-01 -4.886294603347778320e-01 3.419798314571380615e-01
2.022893279790878296e-01 -4.716214835643768311e-01 3.523912131786346436e-01
2.116427868604660034e-01 -4.795860648155212402e-01 3.745308518409729004e-01
1.858200728893280029e-01 -4.646815061569213867e-01 3.828603327274322510e-01
8.225060701370239258e-01 4.055956006050109863e-01 1.425269246101379395e-01
7.956727147102355957e-01 4.441429376602172852e-01 1.478364765644073486e-01
7.932613492012023926e-01 3.871768116950988770e-01 1.451515406370162964e-01
7.668422460556030273e-01 4.217894375324249268e-01 1.480593532323837280e-01
-1.146247982978820801e-02 -1.119619756937026978e-01 6.011111140251159668e-01
-3.234720602631568909e-02 -7.985179126262664795e-02 6.069512367248535156e-01
-3.810366243124008179e-02 -1.219231337308883667e-01 5.969503521919250488e-01
-6.550040841102600098e-02 -9.845562279224395752e-02 5.985765457153320312e-01
3.654389642179012299e-03 6.478504538536071777e-01 -7.338520288467407227e-01
-2.482273243367671967e-02 6.450242400169372559e-01 -7.313500046730041504e-01
-1.560909859836101532e-02 6.667321324348449707e-01 -7.152194976806640625e-01
-4.668414592742919922e-02 6.641668081283569336e-01 -7.112362980842590332e-01
1.872519105672836304e-01 -4.987571239471435547e-01 8.273801803588867188e-01
1.881616562604904175e-01 -4.672625660896301270e-01 8.419210910797119141e-01
1.522441357374191284e-01 -4.910832643508911133e-01 8.463012576103210449e-01
1.514116227626800537e-01 -4.585227668285369873e-01 8.621023297309875488e-01
-1.463112235069274902e-01 -2.818052843213081360e-02 -9.682307243347167969e-01
-1.571732163429260254e-01 5.954552441835403442e-03 -9.642114639282226562e-01
-1.780910044908523560e-01 -4.712441563606262207e-02 -9.663611054420471191e-01
-1.889258623123168945e-01 -1.582007110118865967e-02 -9.624762535095214844e-01
3.317536413669586182e-01 1.038242597132921219e-02 -5.242680907249450684e-01
3.190778493881225586e-01 4.221384227275848389e-02 -5.306883454322814941e-01
3.578676581382751465e-01 9.726313874125480652e-04 -5.071845054626464844e-01
3.494472801685333252e-01 3.536792844533920288e-02 -5.107963681221008301e-01
7.654700875282287598e-01 3.812918365001678467e-01 -4.949216544628143311e-01
7.430175542831420898e-01 4.070472717285156250e-01 -5.041258931159973145e-01
7.853314280509948730e-01 3.731892108917236328e-01 -4.657708704471588135e-01
7.592214345932006836e-01 4.058974087238311768e-01 -4.768605530261993408e-01
8.868730664253234863e-01 -2.229678332805633545e-01 -3.349492549896240234e-01
8.689780831336975098e-01 -2.131007313728332520e-01 -3.506630063056945801e-01
8.854415416717529297e-01 -2.373937368392944336e-01 -3.070434331893920898e-01
8.668619394302368164e-01 -2.266270518302917480e-01 -3.233148157596588135e-01
1.375899463891983032e-01 5.247125625610351562e-01 2.688085138797760010e-01
1.076194047927856445e-01 5.368548035621643066e-01 2.583397924900054932e-01
1.230162233114242554e-01 5.128900408744812012e-01 3.035096824169158936e-01
9.546612948179244995e-02 5.244526863098144531e-01 2.930430471897125244e-01
-6.938908100128173828e-01 -2.334108650684356689e-01 6.425427794456481934e-01
-7.146257758140563965e-01 -2.035160362720489502e-01 6.322377920150756836e-01
-6.730776429176330566e-01 -2.344482094049453735e-01 6.677295565605163574e-01
-6.918891668319702148e-01 -2.042002081871032715e-01 6.589412093162536621e-01
-6.093264818191528320e-01 -7.710155248641967773e-01 1.681754551827907562e-02
-6.280680298805236816e-01 -7.521198987960815430e-01 4.479646682739257812e-03
-6.131653785705566406e-01 -7.667176723480224609e-01 5.797008797526359558e-02
-6.327359080314636230e-01 -7.477113008499145508e-01 4.625401645898818970e-02
9.621603488922119141e-01 -2.152357697486877441e-01 1.454479992389678955e-01
9.648020267486572266e-01 -1.768461763858795166e-01 1.445364207029342651e-01
9.599201679229736328e-01 -2.245505750179290771e-01 1.722331345081329346e-01
9.615695476531982422e-01 -1.842252165079116821e-01 1.724392473697662354e-01
9.303922653198242188e-01 -2.880265712738037109e-01 -2.505958974361419678e-01
9.260245561599731445e-01 -2.643583416938781738e-01 -2.762332558631896973e-01
9.259765148162841797e-01 -3.170094788074493408e-01 -2.217291146516799927e-01
9.185219407081604004e-01 -2.944749295711517334e-01 -2.470840513706207275e-01
5.490843653678894043e-01 2.896286547183990479e-01 -7.647172212600708008e-01
5.272250771522521973e-01 3.144011199474334717e-01 -7.751272916793823242e-01
5.642444491386413574e-01 2.953932285308837891e-01 -7.496997117996215820e-01
5.431495904922485352e-01 3.192738890647888184e-01 -7.591052055358886719e-01
2.970534563064575195e-01 -9.555851817131042480e-01 -2.143717706203460693e-01
2.569981813430786133e-01 -9.466335177421569824e-01 -2.179339826107025146e-01
2.646850049495697021e-01 -9.471370577812194824e-01 -2.002404183149337769e-01
2.278400659561157227e-01 -9.380968213081359863e-01 -2.038989514112472534e-01
9.793280363082885742e-01 -5.657736957073211670e-02 -1.659566164016723633e-01
9.811824560165405273e-01 -1.998502202332019806e-02 -1.660549640655517578e-01
9.846558570861816406e-01 -6.093559786677360535e-02 -1.363373398780822754e-01
9.863592386245727539e-01 -2.181432396173477173e-02 -1.396863311529159546e-01
-3.238173723220825195e-01 1.998397260904312134e-01 -7.095471024513244629e-01
-3.436955809593200684e-01 1.845958679914474487e-01 -7.387384772300720215e-01
-3.323789834976196289e-01 1.938192397356033325e-01 -6.705071330070495605e-01
-3.598338961601257324e-01 1.741819530725479126e-01 -7.016479969024658203e-01
-1.876953244209289551e-01 3.398071527481079102e-01 -5.573395490646362305e-01
-1.745925694704055786e-01 3.660267889499664307e-01 -5.648779869079589844e-01
-1.860555708408355713e-01 3.322465717792510986e-01 -5.202648043632507324e-01
-1.718328148126602173e-01 3.571685254573822021e-01 -5.267035365104675293e-01
8.084483742713928223e-01 -4.724874496459960938e-01 -1.500996798276901245e-01
7.842450141906738281e-01 -4.665154516696929932e-01 -1.654089391231536865e-01
8.057168722152709961e-01 -4.933306872844696045e-01 -1.324911564588546753e-01
7.875214219093322754e-01 -4.858542680740356445e-01 -1.477061957120895386e-01
8.086019754409790039e-01 5.498167276382446289e-01 1.423719525337219238e-01
7.940445542335510254e-01 5.835327506065368652e-01 1.323712468147277832e-01
7.899131774902343750e-01 5.364429950714111328e-01 1.536850929260253906e-01
7.717828750610351562e-01 5.699924230575561523e-01 1.501814723014831543e-01
3.085348308086395264e-01 4.843130409717559814e-01 -7.934893965721130371e-01
2.792036831378936768e-01 5.012227892875671387e-01 -7.969642281532287598e-01
3.261335194110870361e-01 5.043686032295227051e-01 -7.720798254013061523e-01
2.940730750560760498e-01 5.271599888801574707e-01 -7.723305821418762207e-01
1.882770210504531860e-01 -2.270721197128295898e-01 9.378291368484497070e-01
1.921409070491790771e-01 -1.898141950368881226e-01 9.382396936416625977e-01
1.695554107427597046e-01 -2.394975423812866211e-01 9.551673531532287598e-01
1.695628017187118530e-01 -2.041040211915969849e-01 9.559214115142822266e-01
-1.270254701375961304e-01 6.399253010749816895e-02 -5.938190221786499023e-01
-1.243143454194068909e-01 9.097121655941009521e-02 -5.890868902206420898e-01
-1.634567528963088989e-01 5.525019019842147827e-02 -5.890910029411315918e-01
-1.611725986003875732e-01 8.183167129755020142e-02 -5.859039425849914551e-01
-1.574523448944091797e-01 -5.547463893890380859e-01 2.253090590238571167e-01
-1.876367628574371338e-01 -5.451073646545410156e-01 2.177433520555496216e-01
-1.530136317014694214e-01 -5.381613373756408691e-01 2.609838843345642090e-01
-1.823207437992095947e-01 -5.325108170509338379e-01 2.531550228595733643e-01
-6.559839844703674316e-01 -6.434798836708068848e-01 3.458182811737060547e-01
-6.803619265556335449e-01 -6.228108406066894531e-01 3.283158242702484131e-01
-6.504657268524169922e-01 -6.289460062980651855e-01 3.803627192974090576e-01
-6.738857030868530273e-01 -6.109806299209594727e-01 3.659467101097106934e-01
-9.216611273586750031e-03 6.809829473495483398e-01 -6.996456980705261230e-01
-4.076916724443435669e-02 6.784698963165283203e-01 -6.960986852645874023e-01
-2.194375172257423401e-02 7.039747834205627441e-01 -6.765292286872863770e-01
-5.245069414377212524e-02 7.017508149147033691e-01 -6.742460131645202637e-01
1.311827898025512695e-01 -5.468727648258209229e-02 6.030862331390380859e-01
1.246441975235939026e-01 -2.481860481202602386e-02 6.009166836738586426e-01
1.449444144964218140e-01 -6.163385510444641113e-02 6.208857893943786621e-01
1.377372592687606812e-01 -3.168794140219688416e-02 6.183719635009765625e-01
2.683808207511901855e-01 4.895613193511962891e-01 2.416898757219314575e-01
2.492693662643432617e-01 5.041087269783020020e-01 2.367704212665557861e-01
2.636614739894866943e-01 4.847707748413085938e-01 2.705315947532653809e-01
2.424253225326538086e-01 4.982098937034606934e-01 2.644269466400146484e-01
3.575892448425292969e-01 1.405400037765502930e-01 -9.061199426651000977e-01
3.069217503070831299e-01 1.533882170915603638e-01 -9.164670109748840332e-01
3.672228753566741943e-01 1.386358886957168579e-01 -9.084432721138000488e-01
3.164818584918975830e-01 1.524262577295303345e-01 -9.196343421936035156e-01
-1.020709276199340820e-01 -6.153005361557006836e-01 1.952469348907470703e-02
-1.255703717470169067e-01 -6.104133725166320801e-01 1.396408956497907639e-02
-1.045413389801979065e-01 -6.070674657821655273e-01 5.257575586438179016e-02
-1.316950917243957520e-01 -6.031277179718017578e-01 4.556465521454811096e-02
1.665732413530349731e-01 1.998847126960754395e-01 7.795360088348388672e-01
1.633962839841842651e-01 2.387173473834991455e-01 7.732663750648498535e-01
1.738929748535156250e-01 2.116518020629882812e-01 8.115185499191284180e-01
1.701239198446273804e-01 2.457854747772216797e-01 8.080096840858459473e-01
5.624241828918457031e-01 -4.485068321228027344e-01 1.306981295347213745e-01
5.436374545097351074e-01 -4.158618152141571045e-01 1.154987737536430359e-01
5.315795540809631348e-01 -4.818059206008911133e-01 1.371456086635589600e-01
5.151029229164123535e-01 -4.550951719284057617e-01 1.249847263097763062e-01
5.986296534538269043e-01 1.536400318145751953e-01 9.538117051124572754e-02
5.807453393936157227e-01 1.863629817962646484e-01 8.569586277008056641e-02
6.151775717735290527e-01 1.473318189382553101e-01 1.287836432456970215e-01
5.969048738479614258e-01 1.788896471261978149e-01 1.190807297825813293e-01
6.939095854759216309e-01 6.413369178771972656e-01 -2.787401676177978516e-01
6.753208041191101074e-01 6.554353833198547363e-01 -2.898955047130584717e-01
6.992867588996887207e-01 6.448962688446044922e-01 -2.504333853721618652e-01
6.807047128677368164e-01 6.594894528388977051e-01 -2.615816593170166016e-01
2.227501720190048218e-01 -5.064239501953125000e-01 3.375957310199737549e-01
2.046516388654708862e-01 -4.883418679237365723e-01 3.485649228096008301e-01
2.062018364667892456e-01 -5.023199319839477539e-01 3.612526953220367432e-01
1.862704455852508545e-01 -4.847629964351654053e-01 3.705090880393981934e-01
1.424340903759002686e-01 6.217588782310485840e-01 6.623856425285339355e-01
1.374574005603790283e-01 6.535585522651672363e-01 6.495184898376464844e-01
1.381188929080963135e-01 6.195480227470397949e-01 6.969558000564575195e-01
1.333626061677932739e-01 6.514897346496582031e-01 6.849970221519470215e-01
-8.651305437088012695e-01 -2.900994420051574707e-01 3.364242017269134521e-01
-8.789434432983398438e-01 -2.615020573139190674e-01 3.225611448287963867e-01
-8.532092571258544922e-01 -2.851327061653137207e-01 3.701607286930084229e-01
-8.665266633033752441e-01 -2.583571076393127441e-01 3.575077652931213379e-01
-2.446193397045135498e-01 -1.570121645927429199e-01 9.325321316719055176e-01
-2.838175594806671143e-01 -1.404936611652374268e-01 9.234241247177124023e-01
-2.560928463935852051e-01 -1.652345806360244751e-01 9.306502342224121094e-01
-2.968578636646270752e-01 -1.520758569240570068e-01 9.198092222213745117e-01
3.382322192192077637e-01 -5.567039251327514648e-01 -1.482492983341217041e-01
3.232862949371337891e-01 -5.371028780937194824e-01 -1.333955973386764526e-01
3.154621124267578125e-01 -5.527308583259582520e-01 -1.358497589826583862e-01
2.998022139072418213e-01 -5.363008379936218262e-01 -1.222650259733200073e-01
1.241158228367567062e-02 -5.661031007766723633e-01 2.593715786933898926e-01
-2.076629363000392914e-02 -5.685451030731201172e-01 2.504326403141021729e-01
1.949520595371723175e-02 -5.491419434547424316e-01 2.944702506065368652e-01
-1.310768723487854004e-02 -5.510088205337524414e-01 2.872289717197418213e-01
1.751747578382492065e-01 -2.153895050287246704e-01 -9.513243436813354492e-01
1.465978026390075684e-01 -2.096146494150161743e-01 -9.610178470611572266e-01
1.632900983095169067e-01 -2.278845459222793579e-01 -9.350042939186096191e-01
1.338972151279449463e-01 -2.248586714267730713e-01 -9.457899928092956543e-01
-1.355932205915451050e-01 9.508793950080871582e-01 -1.404618918895721436e-01
-1.586202234029769897e-01 9.454278945922851562e-01 -1.540471017360687256e-01
-1.430729776620864868e-01 9.524839520454406738e-01 -9.979663044214248657e-02
-1.641676723957061768e-01 9.463078379631042480e-01 -1.171142458915710449e-01
3.131032586097717285e-01 -7.804935574531555176e-01 2.339173555374145508e-01
3.126224577426910400e-01 -7.498759031295776367e-01 2.382973432540893555e-01
2.853368520736694336e-01 -7.839004993438720703e-01 2.621919512748718262e-01
2.869902253150939941e-01 -7.544133067131042480e-01 2.645891904830932617e-01
-9.110037684440612793e-01 -2.559328079223632812e-01 -2.202547341585159302e-01
-9.170110821723937988e-01 -2.216314971446990967e-01 -2.279317080974578857e-01
-9.227033257484436035e-01 -2.649691402912139893e-01 -1.830023080110549927e-01
-9.291663765907287598e-01 -2.293290346860885620e-01 -1.902172714471817017e-01
5.960808992385864258e-01 7.502557039260864258e-01 1.243432015180587769e-01
5.804620981216430664e-01 7.732927799224853516e-01 1.064819246530532837e-01
5.803662538528442383e-01 7.326250672340393066e-01 1.559545844793319702e-01
5.657277703285217285e-01 7.570239901542663574e-01 1.412254124879837036e-01
-3.307671546936035156e-01 -8.593324422836303711e-01 -1.873640865087509155e-01
-3.469650745391845703e-01 -8.344936966896057129e-01 -1.838740706443786621e-01
-3.646462261676788330e-01 -8.629545569419860840e-01 -1.753260940313339233e-01
-3.807710111141204834e-01 -8.382321596145629883e-01 -1.720793545246124268e-01
-9.100531041622161865e-02 4.781074821949005127e-01 3.222501277923583984e-01
-1.085167080163955688e-01 5.045703053474426270e-01 3.067680597305297852e-01
-1.022896170616149902e-01 4.647886455059051514e-01 3.629001379013061523e-01
-1.171301156282424927e-01 4.895754754543304443e-01 3.479141294956207275e-01
-1.458845883607864380e-01 7.841330170631408691e-01 -5.431055426597595215e-01
-1.394160836935043335e-01 8.022247552871704102e-01 -5.289110541343688965e-01
-1.644248813390731812e-01 7.839796543121337891e-01 -5.231071114540100098e-01
-1.571543514728546143e-01 8.055220842361450195e-01 -5.091969966888427734e-01
-4.027121067047119141e-01 -1.173372790217399597e-01 8.820922374725341797e-01
-4.364408552646636963e-01 -1.007655262947082520e-01 8.713199496269226074e-01
-3.742657899856567383e-01 -1.208012327551841736e-01 8.900718092918395996e-01
-4.083377122879028320e-01 -1.018902882933616638e-01 8.803265690803527832e-01
-6.559988260269165039e-01 1.148092374205589294e-01 3.048557341098785400e-01
-6.837263703346252441e-01 1.200844421982765198e-01 2.952001094818115234e-01
-6.596093177795410156e-01 1.187356412410736084e-01 3.475607931613922119e-01
-6.861362457275390625e-01 1.207801401615142822e-01 3.305170536041259766e-01
1.249370723962783813e-01 -3.990486860275268555e-01 8.898187279701232910e-01
1.212794855237007141e-01 -3.650719821453094482e-01 9.103990197181701660e-01
9.147571772336959839e-02 -3.860082626342773438e-01 8.990979194641113281e-01
8.733199536800384521e-02 -3.536341488361358643e-01 9.185909628868103027e-01
3.630585670471191406e-01 9.029458761215209961e-01 1.042660623788833618e-01
3.291532993316650391e-01 9.169885516166687012e-01 9.723158925771713257e-02
3.595542609691619873e-01 8.965818881988525391e-01 1.289583295583724976e-01
3.264544308185577393e-01 9.122921824455261230e-01 1.231162175536155701e-01
1.557175368070602417e-01 4.341956079006195068e-01 5.040216445922851562e-01
1.577235013246536255e-01 4.697433710098266602e-01 4.861440658569335938e-01
1.443319320678710938e-01 4.175574183464050293e-01 5.380208492279052734e-01
1.499704420566558838e-01 4.596272408962249756e-01 5.227674245834350586e-01
2.278357297182083130e-01 5.058712959289550781e-01 -2.412608712911605835e-01
1.934015750885009766e-01 5.139955878257751465e-01 -2.516094148159027100e-01
2.435746639966964722e-01 5.220341086387634277e-01 -2.014364004135131836e-01
2.131267189979553223e-01 5.305987000465393066e-01 -2.074167877435684204e-01
-1.388450562953948975e-01 1.904871016740798950e-01 -5.577182173728942871e-01
-1.303919106721878052e-01 2.199514359235763550e-01 -5.488241314888000488e-01
-1.741029322147369385e-01 1.924421042203903198e-01 -5.512915849685668945e-01
-1.648198813199996948e-01 2.197834551334381104e-01 -5.441219806671142578e-01
-2.380848377943038940e-01 -9.581764340400695801e-01 -4.321574047207832336e-02
-2.636969983577728271e-01 -9.498959183692932129e-01 -6.473846733570098877e-02
-2.355064600706100464e-01 -9.609544873237609863e-01 -6.740542128682136536e-03
-2.623849213123321533e-01 -9.529985785484313965e-01 -3.014207258820533752e-02
-6.318331360816955566e-01 -1.366178542375564575e-01 -5.623800158500671387e-01
-6.594907045364379883e-01 -1.310548484325408936e-01 -5.692605376243591309e-01
-6.382947564125061035e-01 -1.389517337083816528e-01 -5.279381275177001953e-01
-6.665449738502502441e-01 -1.314126402139663696e-01 -5.364122390747070312e-01
7.714259624481201172e-01 -6.356802582740783691e-01 -6.088991649448871613e-03
7.916983366012573242e-01 -6.131688356399536133e-01 -1.185626909136772156e-02
7.660229206085205078e-01 -6.388559937477111816e-01 3.157723322510719299e-02
7.871623039245605469e-01 -6.190353035926818848e-01 2.525461837649345398e-02
1.820419281721115112e-01 5.819664001464843750e-01 -1.605751551687717438e-02
1.426898539066314697e-01 5.865234136581420898e-01 -3.490758314728736877e-02
1.802033931016921997e-01 5.802716612815856934e-01 3.311843797564506531e-02
1.404529809951782227e-01 5.852954387664794922e-01 1.365751214325428009e-02
3.093847930431365967e-01 -5.167160630226135254e-01 2.040191292762756348e-01
2.744459211826324463e-01 -5.265079736709594727e-01 1.888562738895416260e-01
2.909913957118988037e-01 -5.252392292022705078e-01 2.319508492946624756e-01
2.595277726650238037e-01 -5.342888832092285156e-01 2.209876924753189087e-01
4.268728196620941162e-01 -1.230178028345108032e-01 -8.875868320465087891e-01
3.947004377841949463e-01 -1.248533576726913452e-01 -9.043815732002258301e-01
4.271017611026763916e-01 -1.506273746490478516e-01 -8.698909282684326172e-01
3.964340686798095703e-01 -1.516986042261123657e-01 -8.847354650497436523e-01
1.780571639537811279e-01 9.031122922897338867e-02 -9.652132391929626465e-01
1.565176397562026978e-01 1.258610188961029053e-01 -9.645316600799560547e-01
1.324987858533859253e-01 5.454172939062118530e-02 -9.748060703277587891e-01
1.147332638502120972e-01 9.268629550933837891e-02 -9.735312461853027344e-01
-3.220780789852142334e-01 1.900814026594161987e-01 -8.882354497909545898e-01
-2.967895269393920898e-01 2.105540633201599121e-01 -8.787770271301269531e-01
-3.377746641635894775e-01 1.863260418176651001e-01 -8.627956509590148926e-01
-3.102361559867858887e-01 2.050190120935440063e-01 -8.574529290199279785e-01
-7.961738109588623047e-02 -6.562248468399047852e-01 7.335604429244995117e-01
-1.130020320415496826e-01 -6.614276766777038574e-01 7.266302704811096191e-01
-7.928129285573959351e-02 -6.254138350486755371e-01 7.569971084594726562e-01
-1.155072003602981567e-01 -6.313871741294860840e-01 7.476845383644104004e-01
8.041825890541076660e-02 7.604265809059143066e-01 5.999404191970825195e-01
6.003491207957267761e-02 7.773120403289794922e-01 5.802795886993408203e-01
7.213868200778961182e-02 7.443125247955322266e-01 6.226466894149780273e-01
5.067135021090507507e-02 7.608149647712707520e-01 6.045250296592712402e-01
1.319407373666763306e-01 9.609475135803222656e-01 -8.515923470258712769e-02
9.853862226009368896e-02 9.631468653678894043e-01 -9.515270590782165527e-02
1.315581798553466797e-01 9.657461643218994141e-01 -4.864638298749923706e-02
9.888949990272521973e-02 9.668565392494201660e-01 -5.954275280237197876e-02
-8.007835149765014648e-01 -3.512162864208221436e-01 4.287412166595458984e-01
-8.207534551620483398e-01 -3.276138901710510254e-01 4.141959547996520996e-01
-7.857776284217834473e-01 -3.368115425109863281e-01 4.660342335700988770e-01
-8.038886189460754395e-01 -3.131566047668457031e-01 4.529173672199249268e-01
7.116783857345581055e-01 2.618011087179183960e-02 -6.898788809776306152e-01
7.035310268402099609e-01 5.496148020029067993e-02 -6.941494941711425781e-01
7.342266440391540527e-01 2.636873349547386169e-02 -6.646353602409362793e-01
7.261668443679809570e-01 5.649443343281745911e-02 -6.691880226135253906e-01
1.663335561752319336e-01 5.839254260063171387e-01 -1.989416778087615967e-04
1.265058815479278564e-01 5.886911749839782715e-01 -1.865910179913043976e-02
1.650276631116867065e-01 5.831320881843566895e-01 4.410649836063385010e-02
1.253341585397720337e-01 5.880233645439147949e-01 2.424287982285022736e-02
-7.190858125686645508e-01 1.280849725008010864e-01 -1.306470036506652832e-01
-7.474434971809387207e-01 1.350246816873550415e-01 -1.392797231674194336e-01
-7.290034294128417969e-01 1.299658864736557007e-01 -9.582916647195816040e-02
-7.544373869895935059e-01 1.366379112005233765e-01 -1.047436222434043884e-01
-4.876168370246887207e-01 -1.581429988145828247e-01 -7.636033892631530762e-01
-5.102646946907043457e-01 -1.464707255363464355e-01 -7.685716152191162109e-01
-4.909159541130065918e-01 -1.582717001438140869e-01 -7.340224385261535645e-01
-5.164895057678222656e-01 -1.499721854925155640e-01 -7.402964234352111816e-01
-2.161936610937118530e-01 -5.735599994659423828e-01 7.090012729167938232e-02
-2.508457005023956299e-01 -5.603962540626525879e-01 6.118230894207954407e-02
-2.090453654527664185e-01 -5.716329216957092285e-01 1.120202243328094482e-01
-2.436242103576660156e-01 -5.590063333511352539e-01 1.025886908173561096e-01
-2.727258801460266113e-01 2.289362549781799316e-01 4.965604841709136963e-01
-2.735370099544525146e-01 2.408545762300491333e-01 4.878366887569427490e-01
-2.777981758117675781e-01 2.269329279661178589e-01 5.270304083824157715e-01
-2.801264822483062744e-01 2.360560894012451172e-01 5.163061022758483887e-01
-6.608216464519500732e-02 4.650104939937591553e-01 -8.621904850006103516e-01
-5.406494066119194031e-02 4.899727404117584229e-01 -8.436663746833801270e-01
-8.758111298084259033e-02 4.749311804771423340e-01 -8.468737006187438965e-01
-7.353962212800979614e-02 5.003262162208557129e-01 -8.244488835334777832e-01
5.371187925338745117e-01 -6.982775330543518066e-01 -1.279667317867279053e-01
5.084382891654968262e-01 -6.915331482887268066e-01 -1.309718489646911621e-01
5.015206933021545410e-01 -6.997951865196228027e-01 -1.307500898838043213e-01
4.700502157211303711e-01 -6.929035186767578125e-01 -1.332401633262634277e-01
8.965522050857543945e-01 -4.376356303691864014e-02 -4.320358932018280029e-01
8.892533183097839355e-01 -1.350755244493484497e-02 -4.467763006687164307e-01
9.080421328544616699e-01 -4.744002968072891235e-02 -4.054610133171081543e-01
9.009452462196350098e-01 -1.613909378647804260e-02 -4.193818569183349609e-01
2.144991606473922729e-01 -1.088716462254524231e-02 -9.630544781684875488e-01
1.827185600996017456e-01 8.900309912860393524e-03 -9.685527682304382324e-01
1.843513548374176025e-01 -4.679660499095916748e-02 -9.716740846633911133e-01
1.539513170719146729e-01 -2.617853693664073944e-02 -9.770845770835876465e-01
9.710080623626708984e-01 -2.115838527679443359e-01 -5.303506925702095032e-02
9.806393384933471680e-01 -1.763000935316085815e-01 -5.878619849681854248e-02
9.749643802642822266e-01 -2.145332843065261841e-01 -2.063524164259433746e-02
9.812431335449218750e-01 -1.797168552875518799e-01 -2.934530749917030334e-02
-4.904299080371856689e-01 -2.370009571313858032e-01 2.637629210948944092e-01
-5.094698071479797363e-01 -2.069329768419265747e-01 2.496355026960372925e-01
-4.776578843593597412e-01 -2.298170179128646851e-01 2.939902245998382568e-01
-4.963865578174591064e-01 -2.062922567129135132e-01 2.800337672233581543e-01
-7.814986109733581543e-01 -5.155289769172668457e-01 -1.497744023799896240e-01
-7.896905541419982910e-01 -4.847942590713500977e-01 -1.611255258321762085e-01
-7.930223941802978516e-01 -5.266889333724975586e-01 -1.278266012668609619e-01
-8.045651912689208984e-01 -4.964922368526458740e-01 -1.375388950109481812e-01
9.787303209304809570e-01 4.303584992885589600e-02 1.660747677087783813e-01
9.790620207786560059e-01 7.568821310997009277e-02 1.639433801174163818e-01
9.726266860961914062e-01 3.480956703424453735e-02 1.857344657182693481e-01
9.718147516250610352e-01 6.618241965770721436e-02 1.858744472265243530e-01
2.947945892810821533e-01 3.448820412158966064e-01 -8.649117350578308105e-01
2.686128616333007812e-01 3.555700182914733887e-01 -8.699281811714172363e-01
3.163176178932189941e-01 3.797025978565216064e-01 -8.519093990325927734e-01
2.878662943840026855e-01 3.882250487804412842e-01 -8.582794070243835449e-01
7.118328213691711426e-01 1.895932108163833618e-01 1.265167444944381714e-01
6.951659321784973145e-01 2.143482565879821777e-01 1.238329261541366577e-01
7.092853188514709473e-01 1.676950454711914062e-01 1.257401555776596069e-01
6.930928826332092285e-01 1.929523795843124390e-01 1.243294104933738708e-01
5.601571798324584961e-01 8.051308989524841309e-02 -2.552929520606994629e-01
5.506381392478942871e-01 1.093505471944808960e-01 -2.705111801624298096e-01
5.733837485313415527e-01 7.589603960514068604e-02 -2.282811999320983887e-01
5.623040199279785156e-01 1.060482561588287354e-01 -2.449529021978378296e-01
-9.572470784187316895e-01 -1.033389568328857422e-01 -1.040438488125801086e-01
-9.582674503326416016e-01 -7.265610247850418091e-02 -1.132393255829811096e-01
-9.586536884307861328e-01 -1.027693301439285278e-01 -7.891689985990524292e-02
-9.601359367370605469e-01 -7.400495558977127075e-02 -8.806878328323364258e-02
-3.947500288486480713e-01 -7.542258501052856445e-02 4.574029743671417236e-01
-4.110924601554870605e-01 -5.482950061559677124e-02 4.476934969425201416e-01
-3.675825595855712891e-01 -7.518950104713439941e-02 4.659885168075561523e-01
-3.866880536079406738e-01 -5.313396826386451721e-02 4.578143060207366943e-01
1.381229609251022339e-01 5.473435521125793457e-01 6.332492232322692871e-01
1.365524232387542725e-01 5.840190052986145020e-01 6.210326552391052246e-01
1.376416832208633423e-01 5.503251552581787109e-01 6.717554926872253418e-01
1.351452916860580444e-01 5.866087079048156738e-01 6.602804064750671387e-01
5.641390085220336914e-01 6.300647258758544922e-01 1.257987171411514282e-01
5.504537224769592285e-01 6.642496585845947266e-01 1.250413060188293457e-01
5.290647745132446289e-01 6.136428117752075195e-01 1.323915123939514160e-01
5.199357271194458008e-01 6.562188863754272461e-01 1.354407817125320435e-01
1.634856015443801880e-01 -2.550995945930480957e-01 7.702708840370178223e-01
1.649836450815200806e-01 -1.973407268524169922e-01 7.833228111267089844e-01
1.744448989629745483e-01 -2.612680196762084961e-01 8.014057874679565430e-01
1.758655011653900146e-01 -2.066268026828765869e-01 8.144367337226867676e-01
-2.877542078495025635e-01 -1.549153178930282593e-01 -7.629449367523193359e-01
-3.221126794815063477e-01 -1.569759994745254517e-01 -7.661603689193725586e-01
-2.972253561019897461e-01 -1.442490816116333008e-01 -7.331035137176513672e-01
-3.323394656181335449e-01 -1.472629755735397339e-01 -7.377392649650573730e-01
-5.545178055763244629e-01 -6.516090035438537598e-01 4.811692833900451660e-01
-5.887526869773864746e-01 -6.299070119857788086e-01 4.687370061874389648e-01
-5.390344262123107910e-01 -6.429827809333801270e-01 5.095550417900085449e-01
-5.753343701362609863e-01 -6.193550825119018555e-01 4.994176328182220459e-01
-1.114421859383583069e-01 -4.185624122619628906e-01 4.376951754093170166e-01
-1.450692117214202881e-01 -4.057392179965972900e-01 4.410980641841888428e-01
-1.116061136126518250e-01 -3.899785578250885010e-01 4.617570936679840088e-01
-1.444541811943054199e-01 -3.790789544582366943e-01 4.633854627609252930e-01
2.781547605991363525e-01 -7.747853398323059082e-01 2.671531140804290771e-01
2.798081338405609131e-01 -7.452981472015380859e-01 2.695503532886505127e-01
2.511823773384094238e-01 -7.798261046409606934e-01 2.915887832641601562e-01
2.540172934532165527e-01 -7.482598423957824707e-01 2.921181619167327881e-01
-1.846313476562500000e-01 -2.522718906402587891e-01 5.263327956199645996e-01
-2.325379550457000732e-01 -2.589906454086303711e-01 5.118824243545532227e-01
-1.697086244821548462e-01 -2.188459485769271851e-01 5.405117273330688477e-01
-2.205245792865753174e-01 -2.244847267866134644e-01 5.265430212020874023e-01
2.885650694370269775e-01 -1.795456707477569580e-01 -8.249400258064270020e-01
2.545901834964752197e-01 -1.759984493255615234e-01 -8.386912941932678223e-01
2.924353778362274170e-01 -1.818474978208541870e-01 -7.904934883117675781e-01
2.577084302902221680e-01 -1.790037751197814941e-01 -8.038022518157958984e-01
-1.153012663125991821e-01 -9.303606301546096802e-02 -6.029945015907287598e-01
-1.383964121341705322e-01 -7.984500378370285034e-02 -5.910253524780273438e-01
-1.359947472810745239e-01 -8.847126364707946777e-02 -5.910372138023376465e-01
-1.589569002389907837e-01 -7.710743695497512817e-02 -5.789893269538879395e-01
2.437560558319091797e-01 6.934704780578613281e-01 3.064283728599548340e-01
2.536053955554962158e-01 7.284277081489562988e-01 2.953040301799774170e-01
2.229224890470504761e-01 6.803866624832153320e-01 3.344736397266387939e-01
2.316337525844573975e-01 7.145059108734130859e-01 3.238142132759094238e-01
-9.492339491844177246e-01 -1.506042629480361938e-01 -1.437277644872665405e-01
-9.534464478492736816e-01 -1.164355799555778503e-01 -1.523349136114120483e-01
-9.523217082023620605e-01 -1.475967168807983398e-01 -1.088268831372261047e-01
-9.547298550605773926e-01 -1.163552254438400269e-01 -1.174245402216911316e-01
1.299828290939331055e-01 -7.995170354843139648e-01 5.648439526557922363e-01
1.063141748309135437e-01 -7.903919219970703125e-01 5.733077526092529297e-01
1.157185509800910950e-01 -7.863541245460510254e-01 5.976476669311523438e-01
8.829316496849060059e-02 -7.791733741760253906e-01 6.041125655174255371e-01
7.324223220348358154e-02 7.952900528907775879e-01 -5.614764094352722168e-01
4.037049040198326111e-02 7.942728996276855469e-01 -5.598346590995788574e-01
6.006221473217010498e-02 8.241671323776245117e-01 -5.245998501777648926e-01
2.524799294769763947e-02 8.230287432670593262e-01 -5.219020247459411621e-01
3.707325160503387451e-01 8.880926370620727539e-01 -1.780530065298080444e-01
3.311764895915985107e-01 9.011929631233215332e-01 -1.816212236881256104e-01
3.655574321746826172e-01 8.962479233741760254e-01 -1.360511928796768188e-01
3.276405036449432373e-01 9.085867404937744141e-01 -1.418515890836715698e-01
-5.637678503990173340e-02 -9.310734868049621582e-01 3.378860652446746826e-01
-9.808315336704254150e-02 -9.305623173713684082e-01 3.313281536102294922e-01
-4.332960397005081177e-02 -9.151144623756408691e-01 3.749838173389434814e-01
-8.587253838777542114e-02 -9.135373830795288086e-01 3.699776530265808105e-01
-4.916059374809265137e-01 -8.407056331634521484e-01 1.376097351312637329e-01
-5.170984268188476562e-01 -8.280845880508422852e-01 1.265766173601150513e-01
-4.896660447120666504e-01 -8.361400365829467773e-01 1.736465692520141602e-01
-5.157033205032348633e-01 -8.244035243988037109e-01 1.655183732509613037e-01
-4.949684068560600281e-02 4.309433400630950928e-01 -8.801066875457763672e-01
-4.014613479375839233e-02 4.567583799362182617e-01 -8.639965653419494629e-01
-7.791083306074142456e-02 4.413601160049438477e-01 -8.666976690292358398e-01
-6.623388081789016724e-02 4.670636653900146484e-01 -8.480105996131896973e-01
-8.783109188079833984e-01 -3.956464827060699463e-01 1.481125652790069580e-01
-8.989196419715881348e-01 -3.629111051559448242e-01 1.322376579046249390e-01
-8.738084435462951660e-01 -3.833899796009063721e-01 1.816739737987518311e-01
-8.916732072830200195e-01 -3.521401286125183105e-01 1.687475591897964478e-01
4.927291348576545715e-02 -5.842236876487731934e-01 2.152183949947357178e-01
1.737293042242527008e-02 -5.883480310440063477e-01 2.045900970697402954e-01
6.028159707784652710e-02 -5.674300193786621094e-01 2.542071640491485596e-01
2.733765356242656708e-02 -5.694070458412170410e-01 2.456818073987960815e-01
-5.987510681152343750e-01 -3.354175090789794922e-01 -2.184440046548843384e-01
-6.279338002204895020e-01 -3.233129978179931641e-01 -2.291158437728881836e-01
-6.082391738891601562e-01 -3.616049289703369141e-01 -2.031777054071426392e-01
-6.409622430801391602e-01 -3.489373922348022461e-01 -2.134781926870346069e-01
4.254509508609771729e-01 4.768556952476501465e-01 1.641521155834197998e-01
4.041013419628143311e-01 5.005598664283752441e-01 1.554658263921737671e-01
4.086878895759582520e-01 4.794336557388305664e-01 1.924239099025726318e-01
3.889318108558654785e-01 5.043359398841857910e-01 1.830454021692276001e-01
9.920125007629394531e-01 2.087212167680263519e-02 7.454031705856323242e-02
9.925591349601745605e-01 5.459277704358100891e-02 6.397503614425659180e-02
9.884414672851562500e-01 1.358711905777454376e-02 1.022691354155540466e-01
9.896273016929626465e-01 4.762793332338333130e-02 9.475916624069213867e-02
6.933289766311645508e-02 -6.225536465644836426e-01 -1.681645167991518974e-03
3.646961227059364319e-02 -6.234834194183349609e-01 -3.189810086041688919e-03
5.960915237665176392e-02 -6.206035614013671875e-01 2.757611311972141266e-02
2.487982995808124542e-02 -6.219272613525390625e-01 2.591277286410331726e-02
-1.686561405658721924e-01 -3.884520828723907471e-01 4.487124383449554443e-01
-2.011390924453735352e-01 -3.705066442489624023e-01 4.519692957401275635e-01
-1.683848053216934204e-01 -3.613578975200653076e-01 4.683175384998321533e-01
-2.005963921546936035e-01 -3.467753529548645020e-01 4.700264036655426025e-01
2.571834325790405273e-01 9.411380290985107422e-01 -3.709046915173530579e-02
2.208167016506195068e-01 9.467828869819641113e-01 -4.976197704672813416e-02
2.575665116310119629e-01 9.387863278388977051e-01 -5.331798456609249115e-03
2.215655893087387085e-01 9.448435306549072266e-01 -1.683195680379867554e-02
4.574882388114929199e-01 3.312132954597473145e-01 -8.079313039779663086e-01
4.293528795242309570e-01 3.624395430088043213e-01 -8.129376173019409180e-01
4.770456850528717041e-01 3.353391289710998535e-01 -7.909612655639648438e-01
4.473779201507568359e-01 3.676431775093078613e-01 -7.951635122299194336e-01
-4.790051579475402832e-01 -1.340052112936973572e-02 -8.591157793998718262e-01
-4.708516001701354980e-01 1.578073389828205109e-02 -8.505773544311523438e-01
-5.105276107788085938e-01 -1.518468745052814484e-02 -8.422888517379760742e-01
-5.038274526596069336e-01 1.372601464390754700e-02 -8.355983495712280273e-01
8.417053222656250000e-01 -3.130272030830383301e-01 -2.370506972074508667e-01
8.127025365829467773e-01 -2.964473664760589600e-01 -2.535890042781829834e-01
8.339712023735046387e-01 -3.389761745929718018e-01 -2.168927639722824097e-01
8.076396584510803223e-01 -3.220140039920806885e-01 -2.321205437183380127e-01
6.425540894269943237e-02 2.961606681346893311e-01 9.330464601516723633e-01
4.799485206604003906e-02 3.258917927742004395e-01 9.214479327201843262e-01
4.424571245908737183e-02 2.694359421730041504e-01 9.383168816566467285e-01
2.666637487709522247e-02 3.018463850021362305e-01 9.266869425773620605e-01
1.705521792173385620e-01 -5.778442621231079102e-01 4.315925538539886475e-01
1.753050386905670166e-01 -5.430269241333007812e-01 4.209855496883392334e-01
1.624642759561538696e-01 -5.855319499969482422e-01 4.617617130279541016e-01
1.673330515623092651e-01 -5.468338727951049805e-01 4.479448795318603516e-01
-6.977288126945495605e-01 1.184829771518707275e-01 -1.095603778958320618e-02
-7.226567268371582031e-01 1.267043650150299072e-01 -1.504490058869123459e-02
-6.974342465400695801e-01 1.179323717951774597e-01 2.042018994688987732e-02
-7.215555906295776367e-01 1.273712217807769775e-01 1.331226434558629990e-02
-6.933339238166809082e-01 1.196908205747604370e-01 -6.137831881642341614e-02
-7.195189595222473145e-01 1.288337707519531250e-01 -6.429657340049743652e-02
-6.976359486579895020e-01 1.198390424251556396e-01 -3.077486529946327209e-02
-7.239038348197937012e-01 1.285825073719024658e-01 -3.484573587775230408e-02
-5.298613905906677246e-01 1.176467016339302063e-01 6.264214515686035156e-01
-5.595092177391052246e-01 1.169667392969131470e-01 6.106159090995788574e-01
-5.322805643081665039e-01 1.153343319892883301e-01 6.590615510940551758e-01
-5.602579116821289062e-01 1.146212741732597351e-01 6.412005424499511719e-01
8.808869123458862305e-01 4.021146893501281738e-01 -2.017664611339569092e-01
8.662338256835937500e-01 4.255346357822418213e-01 -2.126813828945159912e-01
8.916144967079162598e-01 4.013723731040954590e-01 -1.666119843721389771e-01
8.775023221969604492e-01 4.246977269649505615e-01 -1.762786358594894409e-01
-5.616744756698608398e-01 -1.718766093254089355e-01 7.833672761917114258e-01
-5.789375305175781250e-01 -1.429749280214309692e-01 7.731324434280395508e-01
-5.304144024848937988e-01 -1.688625812530517578e-01 8.065089583396911621e-01
-5.529751777648925781e-01 -1.410006284713745117e-01 7.918373346328735352e-01
2.218245416879653931e-01 -7.650678157806396484e-01 3.359104096889495850e-01
2.269575148820877075e-01 -7.355691194534301758e-01 3.310623168945312500e-01
2.018148601055145264e-01 -7.721924185752868652e-01 3.537658751010894775e-01
2.103056758642196655e-01 -7.460044026374816895e-01 3.454389274120330811e-01
-2.004629969596862793e-01 -5.812864899635314941e-01 4.972793534398078918e-02
-2.355772256851196289e-01 -5.680379867553710938e-01 4.017145186662673950e-02
-1.942002922296524048e-01 -5.797597765922546387e-01 8.942855894565582275e-02
-2.294877022504806519e-01 -5.664936900138854980e-01 8.015331625938415527e-02
-7.542663812637329102e-01 1.353080719709396362e-01 1.584755778312683105e-01
-8.021628260612487793e-01 1.559903323650360107e-01 1.639048159122467041e-01
-7.583914995193481445e-01 1.389631479978561401e-01 1.901651322841644287e-01
-8.019363284111022949e-01 1.572625935077667236e-01 1.958891749382019043e-01
-2.875166945159435272e-03 9.517597556114196777e-01 2.017122060060501099e-01
-3.232384845614433289e-02 9.528905749320983887e-01 1.812207102775573730e-01
-9.011648595333099365e-03 9.412454962730407715e-01 2.391611635684967041e-01
-3.449725359678268433e-02 9.442709684371948242e-01 2.179975062608718872e-01
-5.945764780044555664e-01 -2.335206121206283569e-01 7.400081753730773926e-01
-6.112886071205139160e-01 -1.999896466732025146e-01 7.329079508781433105e-01
-5.693069696426391602e-01 -2.282999157905578613e-01 7.637395262718200684e-01
-5.870229005813598633e-01 -1.990489512681961060e-01 7.546958327293395996e-01
-1.899744868278503418e-01 3.007256388664245605e-01 -4.834206700325012207e-01
-1.775102615356445312e-01 3.259942531585693359e-01 -4.894686639308929443e-01
-1.897797584533691406e-01 2.950679361820220947e-01 -4.538982510566711426e-01
-1.783782094717025757e-01 3.201982975006103516e-01 -4.601386189460754395e-01
3.407517075538635254e-01 4.616993665695190430e-01 -2.113860845565795898e-01
3.129402101039886475e-01 4.750083088874816895e-01 -2.174188494682312012e-01
3.499855995178222656e-01 4.701116383075714111e-01 -1.778164952993392944e-01
3.237009346485137939e-01 4.847159385681152344e-01 -1.833055168390274048e-01
5.410969853401184082e-01 1.222278699278831482e-01 -8.142364025115966797e-01
5.218741893768310547e-01 1.492802798748016357e-01 -8.222447633743286133e-01
5.742657184600830078e-01 1.195524334907531738e-01 -7.952919006347656250e-01
5.565598607063293457e-01 1.466959863901138306e-01 -8.026235103607177734e-01
1.860970854759216309e-01 -7.000491023063659668e-01 3.965415954589843750e-01
1.923982799053192139e-01 -6.742990612983703613e-01 3.875456154346466064e-01
1.726140081882476807e-01 -7.034482359886169434e-01 4.247810840606689453e-01
1.779605299234390259e-01 -6.767203211784362793e-01 4.156349003314971924e-01
6.865624785423278809e-01 4.067620038986206055e-01 1.269135177135467529e-01
6.660779714584350586e-01 4.438015520572662354e-01 1.260538697242736816e-01
6.589088439941406250e-01 3.818837702274322510e-01 1.238425299525260925e-01
6.393454074859619141e-01 4.176381230354309082e-01 1.219657137989997864e-01
2.153239548206329346e-01 2.508733868598937988e-01 -5.172874927520751953e-01
1.721977293491363525e-01 2.599648535251617432e-01 -5.250172019004821777e-01
2.201338559389114380e-01 2.792427539825439453e-01 -5.055717229843139648e-01
1.765164732933044434e-01 2.889240980148315430e-01 -5.105413794517517090e-01
5.191838741302490234e-01 2.943564355373382568e-01 -7.836739420890808105e-01
4.956690669059753418e-01 3.191463053226470947e-01 -7.931103706359863281e-01
5.329911112785339355e-01 3.001717329025268555e-01 -7.697185873985290527e-01
5.108485817909240723e-01 3.252173066139221191e-01 -7.792957425117492676e-01
3.798825293779373169e-02 -9.801697731018066406e-01 -1.668576151132583618e-01
1.150339469313621521e-02 -9.770132303237915039e-01 -1.787865757942199707e-01
2.558644860982894897e-02 -9.809843897819519043e-01 -1.370640099048614502e-01
-2.872105687856674194e-05 -9.801684021949768066e-01 -1.471338570117950439e-01
-1.564312428236007690e-01 -3.997325003147125244e-01 8.844526410102844238e-01
-1.980984359979629517e-01 -3.871816098690032959e-01 8.791286349296569824e-01
-1.559017598628997803e-01 -3.668504655361175537e-01 8.989085555076599121e-01
-1.975784450769424438e-01 -3.559814989566802979e-01 8.925802707672119141e-01
5.112205743789672852e-01 5.215351581573486328e-01 1.347395628690719604e-01
4.979861974716186523e-01 5.551142692565917969e-01 1.371685266494750977e-01
4.888696074485778809e-01 5.126808881759643555e-01 1.450582593679428101e-01
4.745875298976898193e-01 5.480715036392211914e-01 1.461897045373916626e-01
-4.241294227540493011e-03 9.675668478012084961e-01 -9.521836787462234497e-02
-3.325071185827255249e-02 9.632986783981323242e-01 -1.080850660800933838e-01
-1.047222875058650970e-02 9.714756011962890625e-01 -6.620725989341735840e-02
-4.193572700023651123e-02 9.664735198020935059e-01 -8.108499646186828613e-02
5.358499884605407715e-01 5.418127775192260742e-01 -6.234292387962341309e-01
4.906560182571411133e-01 5.753508806228637695e-01 -6.314116716384887695e-01
5.476754307746887207e-01 5.549838542938232422e-01 -5.940718054771423340e-01
5.071522593498229980e-01 5.857941508293151855e-01 -6.036430597305297852e-01
-4.749624729156494141e-01 1.212135627865791321e-01 3.820767998695373535e-01
-5.028306841850280762e-01 1.241131573915481567e-01 3.802019953727722168e-01
-4.830304086208343506e-01 1.287816166877746582e-01 4.081105589866638184e-01
-5.106652975082397461e-01 1.311162710189819336e-01 4.060046672821044922e-01
-8.802737593650817871e-01 1.998723745346069336e-01 -6.277935579419136047e-03
-8.985008597373962402e-01 2.093191891908645630e-01 -2.127593196928501129e-02
-8.768527507781982422e-01 2.006191313266754150e-01 3.257950395345687866e-02
-8.985832333564758301e-01 2.104481905698776245e-01 1.810387894511222839e-02
-7.102539539337158203e-01 -3.628909289836883545e-01 -2.014977633953094482e-01
-7.463908195495605469e-01 -3.500135540962219238e-01 -2.119363993406295776e-01
-7.217209935188293457e-01 -3.900831341743469238e-01 -1.803120374679565430e-01
-7.574945092201232910e-01 -3.766561448574066162e-01 -1.922059804201126099e-01
5.793021917343139648e-01 -1.907383501529693604e-01 -1.560679823160171509e-01
5.933987498283386230e-01 -1.461606919765472412e-01 -1.540156602859497070e-01
5.796900987625122070e-01 -1.976340413093566895e-01 -1.325464695692062378e-01
5.926905274391174316e-01 -1.550189107656478882e-01 -1.316084116697311401e-01
9.895142912864685059e-01 9.700808674097061157e-02 2.100240066647529602e-02
9.868665933609008789e-01 1.262786835432052612e-01 2.055709622800350189e-02
9.860060214996337891e-01 9.955830872058868408e-02 5.397465080022811890e-02
9.848666191101074219e-01 1.312104016542434692e-01 5.131663009524345398e-02
-9.124650359153747559e-01 -1.648132801055908203e-01 -2.871479988098144531e-01
-9.170227050781250000e-01 -1.374996900558471680e-01 -2.993727326393127441e-01
-9.180256128311157227e-01 -1.740095764398574829e-01 -2.534043192863464355e-01
-9.217318892478942871e-01 -1.458544135093688965e-01 -2.666732966899871826e-01
5.940675735473632812e-01 1.595245599746704102e-01 -1.019591093063354492e-01
5.848196148872375488e-01 1.861658394336700439e-01 -1.081475391983985901e-01
5.994686484336853027e-01 1.695858240127563477e-01 -6.114583462476730347e-02
5.916119813919067383e-01 1.976957172155380249e-01 -6.055879220366477966e-02
1.730139702558517456e-01 -3.550656735897064209e-01 8.958374857902526855e-01
1.704650968313217163e-01 -3.211377859115600586e-01 9.150525331497192383e-01
1.464530974626541138e-01 -3.486010432243347168e-01 9.072009921073913574e-01
1.427650451660156250e-01 -3.143500387668609619e-01 9.277116656303405762e-01
6.445963382720947266e-01 7.352423667907714844e-01 -6.559222936630249023e-02
6.199497580528259277e-01 7.549771070480346680e-01 -8.093395084142684937e-02
6.498507857322692871e-01 7.359911203384399414e-01 -2.679559960961341858e-02
